# This PCD file was generated using the MATLAB® pcwrite function
# from Computer Vision Toolbox®.
# .PCD v.7 - Point Cloud Data file format
VERSION .7
FIELDS x y z
SIZE 8 8 8
TYPE F F F
COUNT 1 1 1
WIDTH 785
HEIGHT 1
VIEWPOINT 0 0 0 1 0 0 0
POINTS 785
DATA ascii
85.108465701722196 -77.537078437257989 -99.878098023875481
49.061490105657057 -73.152911040613091 -109.284013479026925
109.727233693152300 -74.154351418387591 -107.256009840732787
41.038087498568139 -68.975400352138678 -109.387118223779908
43.480909101778387 -74.793538243080576 -105.389076366657577
108.961797324581894 -74.980719943610907 -112.076451290251413
-99.104457206792603 -69.323251857804266 -123.081493103644249
-75.525722404325677 -68.399326006041818 -114.724747417273761
42.544093327565484 -70.934112184535266 -117.456337668178321
36.916655719000168 -72.285757718483353 -110.838652387371980
-88.734251261561852 -64.002172142610277 -114.172752336448809
101.417681894115375 -71.041622042506305 -109.809118217823311
-85.848868624511169 -63.323039475980565 -118.080891129304717
41.025685061687781 -68.608963635525598 -112.687610566037932
34.982607691634449 -70.298050816327034 -116.011522860126945
-92.496078903397191 -68.333709630283565 -118.314916552484789
-96.704870380609890 -69.981212099572161 -123.007342768210918
38.976487739593324 -69.725801872642847 -115.150834911237183
103.513065839420562 -73.799118655292276 -112.233172451964805
39.081666312163620 -68.782335003801805 -119.014382134336813
-93.808062249430336 -68.250581853725890 -126.307757156100649
-97.149780830913372 -61.749181525009021 -122.686982035698861
-91.334474781584959 -66.018751665491692 -128.838137021234758
34.905159782671554 -72.160413944662650 -119.894182843687219
114.568279078524469 -74.808942337068487 -120.935336968268757
35.125972709058644 -76.302591446239873 -122.688157048607451
108.597676665448333 -73.855320230638199 -118.283518490274673
-85.411479798581226 -66.731499514633057 -125.986128422578616
107.022031628283784 -73.915162592313308 -127.912513904154622
111.226464107918602 -73.140509518976430 -126.823860532990295
-84.893003562297579 -70.966348924148406 -133.283516222890000
33.578614734083466 -67.212502447362510 -131.958919018138971
106.801741286986768 -73.259571331158284 -126.626268259025579
-58.999198719867451 -67.236091180265518 -137.720720825506163
-58.769143296267266 -75.100517915188306 -135.580083130951067
-91.783737467139559 -64.603893094114426 -134.509475116406634
-78.122277839048238 -67.425206813502911 -134.521686483966619
-54.886751144883625 -62.564468380654901 -136.695624882439802
-77.841960723790550 -64.819161410121239 -135.108088997527688
36.224950976668623 -69.523967528783800 -128.955883081308826
-74.303409005461589 -67.856626132496160 -136.036498684110995
-51.793106555106341 -73.150547549077686 -138.825272395447200
-87.738147070249525 -65.841011659459156 -138.377799486798978
37.157474526272296 -72.259609142960372 -135.890891544591085
113.528422777750961 -70.819904854348877 -130.021811672028747
108.488895856005897 -73.492284892210037 -128.177821921042494
-91.436585057877167 -66.535534045119334 -140.750085753258475
-88.609101353018019 -67.351120531542023 -137.538830546122625
-86.372702582817737 -71.006348631490766 -142.044289787504340
-75.723805486914358 -68.063988733216661 -141.631113281225481
-53.076969297031333 -68.649677985318206 -143.575374958294191
-50.870425832139020 -68.916365220839197 -144.136951549466545
-75.223804445998383 -68.552102852917983 -139.228928786907858
112.517187141235354 -73.694292736678079 -142.527018303445487
115.666147244550643 -74.456255749247376 -135.191606647698251
-73.086320882646007 -68.798187007111338 -143.735786844780279
-49.681152365596787 -69.580165084493231 -139.346740254820986
108.292184399051635 -69.594919095062906 -140.249365819639479
-71.403152732891087 -69.644488085386243 -144.616468862945482
31.747504712248126 -70.254778315997186 -140.532039033590962
37.634725580255640 -73.792319371758936 -137.607835282623597
-77.900197099303341 -69.311285326690736 -148.539813819160287
-70.391375165512841 -67.431921641170405 -144.864195066111733
-76.477129646199586 -70.993296808936591 -142.904780670515805
-90.215102023940915 -71.275309428609177 -148.426503161919101
-80.259264303935964 -68.451364016100456 -149.352235594180343
-94.688915823417133 -66.628504855141244 -149.544394870376607
-59.767944264686804 -69.757448975900289 -145.874399615967349
31.689748427547581 -68.100658787386450 -146.483777540587710
116.475402730283307 -74.423791848165934 -138.319729585319834
-53.989012242346902 -72.237043298774694 -152.773957227485425
27.541154102382084 -68.151474695780692 -148.458194775123019
28.810924920163398 -68.857024257234968 -145.473446014143207
29.773794637369637 -69.903670166941481 -152.783944596541261
16.480830237672478 -73.592383333905687 -139.191448770256414
116.933101092603380 -71.130584129634585 -148.898283403518519
-91.329575098911718 -65.763721605196480 -154.047272486642015
-59.072569633519734 -72.707393698458688 -148.602262973698771
-49.094168863548035 -64.550238139733409 -157.492979852343694
17.202379568161597 -68.006999627878002 -147.677342027224881
-96.479113847601454 -67.444639612912539 -157.464100321886377
-77.504952947876475 -68.088805454526778 -156.922912839503567
20.115089535788758 -72.675362444751713 -148.507765978989255
-92.507980420319726 -65.410686358530967 -154.700955842303756
-71.440303370563029 -70.564001029910429 -159.530188191881592
-41.949918653897605 -66.551206859390319 -159.707540577270009
22.233676055720426 -70.761236914489984 -154.505157804036941
27.886839222405715 -66.405050121225955 -150.499286432253200
-51.334528892036680 -66.146464002440027 -160.088989173466530
4.259502116717514 -69.559755675816476 -155.524033823524178
14.864609565152193 -74.349816294466734 -160.504619009460896
-42.392702435653199 -65.838524982218672 -163.974236051046461
-97.895098767515023 -61.710672369982092 -165.726054553854453
9.002069863669266 -68.764545399000085 -159.018233819669206
7.458514548473626 -65.591413416100465 -157.659783234578242
20.163927638691884 -76.922627509671486 -162.921363044726974
-98.155907876220709 -67.960731643387078 -162.277702827901834
-35.228166607785880 -69.279418227373654 -165.986782351139254
32.689946217866733 -70.521315580887972 -161.118790452779791
-102.188881062380858 -64.157175241832888 -166.796645097225536
-46.718243958587856 -68.410961369473128 -168.111605927847279
-39.488042928773503 -65.995644048215226 -165.282621425480556
-44.170923029313776 -69.178216833969060 -165.609956655684982
-37.693641236750878 -68.805831278202888 -173.095561084928562
28.743646155770247 -73.112986260727567 -166.402717450313190
-35.365288354632149 -65.838353831464431 -171.627098737661839
-100.222004943197589 -67.577570048941823 -175.896154459977652
22.612635481039753 -75.535499412492953 -170.075783500673822
-34.461043651947648 -67.038880884464064 -183.395770138796223
-30.355724083683285 -69.018146799350845 -181.285753233528510
14.840458874435924 -67.243943150436849 -176.005345967033605
-145.360155434545305 -64.638171304130850 -182.952191033083324
-149.953946729316698 -64.004194310351508 -183.588647850518498
-33.523944775490278 -66.695699067111690 -174.847745014597024
24.995863460919182 -70.738198326923893 -169.706256313250179
-31.544668468326993 -68.653805109851291 -188.624376210501822
-32.078988922054997 -73.009129555319120 -178.351366782186687
-155.153088656509055 -61.696671913385202 -187.290893236948534
21.774730539905590 -71.397124600441728 -182.540035396397940
16.638149303657798 -72.415051520360436 -176.125311775566303
-22.334809184154501 -68.148721089089847 -178.274238077225675
-107.123658989198773 -60.609217299400171 -184.546357487454088
-103.679022294606241 -68.502053811889382 -190.905031605398449
21.836506451458806 -68.381063512808765 -185.023729922848673
22.166380689406399 -69.902358165489417 -185.102315201876593
-27.748791356208237 -66.367411599995776 -187.692337716186785
-21.360925425125423 -65.373074913147349 -182.790831933098701
-147.524205156478104 -61.566741037831704 -196.760555520818428
17.821348434502852 -72.311072613133064 -194.262669532553019
19.183822507154861 -70.315217925581933 -194.497087659801508
-29.291962809354889 -67.134621758465244 -191.781704834756056
15.949801673267125 -66.501015453626820 -188.148647869595294
18.438941832905979 -70.575233248673996 -200.625353128477116
-142.070927231008739 -69.020733106264260 -194.558370442135555
17.834920085882860 -65.328827969278208 -192.468682825744139
-107.885251693318779 -65.639153677497106 -194.405340328423051
-111.956028357941349 -65.711739472770148 -192.606018957607887
10.683803104169879 -72.112433153039447 -195.549632641027273
-19.475178132654278 -67.803962075893509 -195.092175965548932
-141.395592161178371 -64.484578214394574 -201.938277254766263
-117.296105880649762 -65.731785207819726 -202.738879152767851
16.802716810111662 -67.749028345826105 -199.247937182963710
-110.733843607122779 -61.268967929387529 -204.079969585187541
-104.937259204500222 -67.582917431519164 -198.107002706509093
-160.596768941048396 -63.969922253760387 -203.474652694209567
-15.403105563777206 -69.880940394056481 -203.667352860833518
20.387258068849391 -66.394371501391404 -194.974471816253498
20.448953257527897 -73.046709803832314 -203.530062798900389
-23.630291910242487 -71.620965146918806 -205.077341574119231
18.271473491612497 -67.341740880140094 -197.177404477159456
-167.228821890516258 -64.927444412393129 -211.912591242942625
18.817148753633344 -68.744081755485269 -205.737856137891725
-140.808275564164546 -69.554855473294808 -212.841761253611310
-127.691730527262180 -66.299591192919564 -215.768528194665720
-15.847087573861664 -64.441087493797681 -205.988762149343245
-17.748080281428233 -67.285615511529997 -207.361946009259896
-13.816551257352025 -66.365455077866343 -211.061522387822038
-169.337380535129114 -63.461197462219886 -208.461750092881005
-14.977440313856476 -70.328436853853106 -203.905625933536072
-13.712491317285981 -67.956906104124442 -209.990432948718137
-149.449925586165847 -63.702784110207986 -220.295251618193561
-138.537725677791968 -64.990471834689586 -212.672349462145519
17.474375466817737 -68.739844400300498 -210.808784092318803
-13.140081323552117 -66.664705550269602 -212.097858731823720
-22.600120635129958 -72.397197600992982 -214.745869148074974
-7.612097058896483 -68.842980981586621 -212.077947351672890
17.576008848095299 -67.229291230865442 -214.523460096234118
12.949558550462605 -65.984923667239613 -216.541061204279998
-11.196262145084546 -68.884189608097103 -214.262453866201838
-165.266731715361260 -62.612288446912970 -215.245331981259341
12.908399007447390 -67.526075388570007 -216.499337080074895
-158.435009711304275 -60.634721783369528 -219.714524059645527
-5.847317888913873 -64.579541483007176 -223.740062569356752
-15.921483774893996 -68.032012063278856 -221.597015025532215
20.971347417498411 -70.515246095827948 -220.441950624254758
-147.649338771370651 -64.085738225611678 -222.859547963400075
-100.023273314745950 -67.532763467217578 -224.773890657683978
-99.746887370032780 -63.926056699548255 -227.542021406338137
-92.920230057308146 -63.489620237707854 -224.686682865564080
-3.040335400275203 -69.807851202687061 -224.857255985426718
10.543958416413719 -69.519461645985388 -227.774906922400817
-0.638228643271315 -67.624867571384300 -223.992654213545933
-95.056210645197652 -65.422117783534432 -229.225811576255779
12.705263999689418 -69.836207764970055 -224.455295362729913
16.213793943019510 -69.269578048765950 -224.104298987601510
-5.568365753060276 -69.540540964949159 -227.066224095392528
-3.474272004268098 -71.725159753586937 -228.314392172749820
-141.895851885702115 -63.288757795737482 -229.174080718189884
-7.480789959893404 -68.736857951538184 -222.642980330011056
85.760520444701228 -69.846241830858773 -221.069704798508468
-154.248318006773729 -63.736261252383287 -229.419143429678797
-152.280916013108936 -64.767317698412583 -230.619620655212145
-9.931893207346665 -68.671463578824074 -221.529593218690366
82.850257445893533 -72.116784910421956 -221.338275672540249
-130.627997805603655 -63.355154574217863 -232.298752913785165
-127.918663704760931 -68.207207386813920 -231.771691871313152
-135.012299171029611 -64.015881124969383 -236.640723379781576
-101.350652368584122 -65.459800582776069 -227.359325831835264
-12.175128131574880 -68.005292887382922 -228.846828857395280
12.006992568964233 -70.181440509626128 -230.490108975516677
77.253513655290377 -66.767293262923516 -226.808151852119408
-165.941745741026466 -62.208686623954307 -230.701510277540052
13.822028201583969 -69.427085285061423 -228.772342728198396
-155.335072921479167 -65.726446597828584 -235.067974178283237
85.559782478215908 -68.873793860537177 -226.959748981273179
-1.977567185212665 -68.217851471859760 -229.193195005249606
5.311991340632679 -70.941703199446636 -230.232962364673796
0.447356099073408 -63.245196102869556 -232.655369569467695
-10.742256899314626 -64.178058413306886 -231.563548838321083
82.168840056950003 -67.938379566379282 -230.776438168298142
3.150103397881573 -65.672414172233218 -232.226280415644936
2.617856044041100 -73.703183602698516 -231.347603500273181
75.844976914766477 -68.837102242990753 -228.132443604691900
-11.692300083975265 -66.004536750024130 -229.913302605429408
75.193650769349858 -66.702253398429548 -226.967256593364937
3.990996172763567 -62.559516422001508 -233.422528216533891
9.690840922838117 -64.673288366505417 -231.202806538496816
-125.166262287843281 -66.997422166625114 -243.745541521027206
-8.315293179623767 -69.711214848182948 -238.449691834592102
-118.199408493223999 -62.680658670043030 -237.682893976210210
72.639838780474051 -76.375316764672192 -232.570380529468054
-129.698054041743944 -68.917427833220202 -241.499160144707275
-129.110057838179500 -66.883888711679987 -242.827997271512146
11.718795469271058 -67.788056879239718 -239.761511057859252
-165.323022069426145 -65.000618514112062 -244.414132179205609
-141.621082633598462 -63.672296597927613 -240.673954686162716
-1.596337024344038 -69.151967163315859 -236.621919986935978
4.628903134995043 -63.888137658599476 -241.245396610515371
70.685012194394005 -67.489485525049602 -239.250061987918912
1.833691156697416 -72.809263381936645 -236.451924409263881
1.083176406338171 -64.079175039036372 -241.858449020536284
74.995194366978808 -67.770683276937831 -237.555904017544862
-155.908964545181163 -61.517496099774291 -248.967315485607230
-142.780801058582767 -64.463278199845533 -253.590685714574079
62.481803566402114 -70.696287477515000 -239.663625405349649
56.599020151596399 -72.839557587202947 -240.838680907516903
-154.893146327751026 -59.926908833738395 -248.398572236585778
-8.690975442145161 -67.683748912667284 -247.784016537388766
70.724812113719679 -71.813879898491365 -241.080243422489787
-163.248863482286879 -61.832056000643803 -251.468854072939735
13.335453106575226 -69.326188946596204 -245.061129113921083
11.583135910574018 -69.317292422775054 -241.359179713236955
-163.139782389839894 -66.462853651563890 -252.052655132492248
-157.545200423141665 -60.955848950760810 -249.357189581425587
-163.671767654650665 -62.794020945641961 -250.096895761602696
-159.643357737044596 -68.190955249748669 -252.633285374751495
15.357396111187573 -63.961193523245740 -249.034437082287525
59.768838924250495 -69.024310394557347 -246.278939529416562
60.309524362937260 -70.113088784427319 -239.601934937763900
65.727632693735018 -73.622424552685459 -244.779548435302189
20.364551165159874 -70.192472750134144 -246.834100725106708
53.399175790773903 -68.064899654116132 -244.448434347307028
61.261231967028344 -66.684931828336602 -249.097358999356572
57.151051733314524 -69.504670650923458 -247.077346067263193
60.283980325214223 -68.481623349875093 -244.840624695434286
-158.138396944210371 -66.966751102020098 -253.916415145985695
54.855546437404584 -69.350372313719149 -251.969090075912163
-155.581229514779949 -59.784852886095408 -250.862197038029649
-154.678656444746792 -66.555458431682680 -260.138642060496352
-153.722502229482473 -65.642004635128245 -258.328416574222274
46.968156595537081 -69.615930382638510 -247.106615799574968
-162.368180621258489 -60.335765989163932 -251.387617896643576
-17.845658987073691 -65.799080521346070 -255.386271024132611
-151.534159540006868 -66.794216417280751 -254.966245540381806
25.959946603851471 -70.682268091877802 -252.494504903853851
-163.140066393869773 -64.396791713758077 -257.206378077454929
-166.895394575434835 -64.690759434038554 -256.168575156087059
39.420651887216749 -69.153188030709842 -251.751880527594949
49.849403705080363 -67.948765999112624 -254.837015164381626
-140.661953713825625 -65.668185712851397 -261.980911331389279
-79.024985356043089 -64.811903916758538 -261.058177626343593
-166.584811889385378 -65.144480085079152 -260.370836616357565
38.660601986238568 -68.864114088458564 -256.201239649900742
49.633972541192442 -70.646151303268510 -252.052386842706596
-77.367019968778223 -64.172802290782599 -260.083278636458260
-94.965858811644452 -67.855194963794531 -258.409284802907848
44.288936923443373 -71.317786679883113 -256.027344356714480
22.553785811612006 -71.003485214829411 -257.997181350505116
-13.078075524527428 -70.158761572167194 -257.293385648659068
-139.951980892049988 -64.850318468929558 -264.756202833266684
-85.678364543817338 -66.218479519288366 -263.024313230904170
-83.683012364952162 -66.292673655240151 -261.277710547859897
-109.848426081816086 -61.787774665619082 -265.551943401548613
-106.625389035320097 -69.038719538369037 -262.578269388722561
-147.220503848340627 -64.381161520124053 -265.546775319126368
-160.119284903791595 -64.038353461607954 -268.043325184703747
-153.657600006023728 -65.261219624970465 -266.727408487815239
-96.370037024002087 -64.732550255208395 -267.546713663477362
42.095271412278322 -70.556253931199748 -258.702255424254417
-12.908314089938926 -65.197591192677038 -259.726661381242423
-100.437103580454391 -69.282098773738909 -267.046445058983466
-159.810451292873552 -66.048597099213055 -272.434110224703204
-158.373295306794887 -62.140213837887202 -268.120363723830962
-103.130885893057112 -62.170786285589941 -266.844317447077287
-160.905139169414582 -66.326281720110458 -268.351110058593463
-159.197377674419954 -65.381490844394733 -271.676544907953428
-110.752206398261620 -66.662382331264254 -271.675778900322825
-105.096679608273277 -62.053818534087625 -272.661468096104613
29.124567086387902 -70.215586143618395 -266.659245468555071
-111.472509410472838 -63.187311888049948 -271.780414514631389
-159.065410577139858 -66.612766719787984 -269.752961418631287
-152.962250987251963 -67.416163052110178 -273.897626672297861
-157.511494565635928 -59.916627485751960 -270.617322642985926
-163.729939978651743 -63.345277855415091 -275.219003868974312
-157.421185527799707 -65.226119534494359 -270.959244737951394
-166.641863931019827 -64.436827990226874 -274.831352906935308
-158.180199665097177 -64.983144067365544 -275.521974213294754
28.571667251870782 -66.621715299177509 -268.042244333492704
-10.364019210255421 -67.223198605155133 -262.750160278186911
-138.945028075307818 -64.498268261168320 -284.411292000567016
-147.428178183916913 -60.080827166368294 -271.014636218210455
-8.375425054232334 -64.587905294197739 -275.849948026083098
26.106704219669069 -70.350647559618622 -279.027595150259742
-144.623134386430138 -64.387108054859681 -285.090466842751596
22.172891760310428 -68.851899425669387 -275.935271298513271
24.073230688048948 -72.706210711206211 -285.853670505688910
-5.124858661394562 -68.107742841245880 -283.202962227947580
-124.170839411706709 -67.390201371044199 -290.999378986200782
-129.255292511697860 -64.029593843329081 -288.350915814426401
-133.710802013267028 -63.293789890784936 -291.773839796960999
-115.607593607407267 -63.589926736197043 -292.626238077468486
-112.590068752007085 -64.677832511346281 -297.302256105475635
-89.543061061125513 -64.689852615509437 -292.372782506960220
-105.159139173412228 -63.812763137930233 -295.354787517337854
16.564726254218055 -67.672241911443038 -288.459092430920919
-84.681441935543106 -66.849481102907291 -296.556630546481017
-89.795009373427263 -62.619113863292199 -292.035286271272525
-84.405097979922601 -65.579980253592126 -294.485864784174453
-48.934883792537029 -65.369266635316350 -294.555818783593111
-145.831106542766577 -65.556095039582559 -297.718398476382504
-94.227338511486991 -65.816178625332824 -293.815552031352354
-93.305281740017307 -64.380252439567712 -292.910021156245250
-49.704190972932842 -66.917838490765220 -295.788075023534475
-101.414416874477538 -66.434394682495252 -296.134058241733953
-97.538870315062951 -66.225690187825464 -296.515296500642876
-120.491056623888198 -62.931337777878738 -294.277216689467707
-101.862751688003883 -64.665674100004665 -297.310086281953261
2.881549402904097 -67.221553133328641 -295.064819816015472
13.155609276668454 -70.576522344809277 -295.447317923424862
-138.717821133840602 -64.310789105961121 -299.949285447097964
-102.200166081986112 -63.934752975566340 -296.656810164885997
-116.036369442921711 -63.141612472202937 -300.927783300897488
-107.383343986477769 -65.508473622014449 -292.927094542021791
5.437087923952965 -72.328858698145638 -296.595863876812700
-142.163785850469253 -68.259413709976727 -303.217577632108089
-118.078283512679505 -64.307338809249359 -301.164145594115269
-148.181877678815056 -61.990592689281527 -299.120287783831827
-147.251906416713638 -65.378386893088532 -305.078130083609835
-143.508902264503092 -59.673202096292570 -310.941435867058203
-150.954596396538847 -61.422938108335387 -315.902219241859939
-146.785161817983521 -66.045138855357706 -325.097682559600287
28.394624831206055 -78.303301973255174 -13.249449851229446
24.453360912827847 -69.479486199282135 -13.327050483031670
44.223654728789171 -72.382308775282013 -23.593771149368351
44.299652134198617 -76.583105471926629 -28.868908449945003
18.025542362111423 -74.313975123913920 -34.587537796899255
12.131398892184809 -71.775788692779614 -37.759438912030319
29.286889966009792 -74.180304858378278 -40.221711112707496
41.396753670613663 -73.603921763726078 -43.293696262224216
26.469067183766061 -72.291943985474745 -35.841188186205486
-64.115534286238585 -67.120485744611813 -50.432838885140846
-55.583309593576004 -63.925385593250027 -48.492934158727174
-53.693036807240183 -69.415334847210517 -53.738504203896184
-24.440701006191013 -71.194409141812912 -64.270477622110036
-16.035410061377718 -74.142458660563989 -63.142577219255990
72.484562566736329 -72.853267810009655 -70.749509819860009
87.131760347676234 -74.642233379786248 -65.463963809834723
67.427288392971164 -70.410160479410393 -72.255664844663386
-18.133927524412282 -70.207796278039737 -73.753572811423766
-25.390126362100716 -74.381970498391624 -76.753051292951454
64.571935037689656 -72.723654023402787 -69.557572542612348
-27.398404079247545 -71.375005006946807 -78.529183889525200
-30.322479657320201 -71.400766533072243 -80.456421190985139
-36.097822638251614 -70.433604818009201 -80.903722871672898
-101.382686296117384 -67.142919295709817 -89.974869507405970
-46.695491630048721 -67.708054476436146 -83.466989748481126
66.656836221079118 -74.816575196926422 -81.257405327693306
62.564672902648702 -72.371961428069767 -82.201469587437487
60.634159442341421 -73.466896100405023 -83.879255979329997
56.955887637797964 -67.677092536747509 -87.104038707589012
53.803164585099182 -72.253572621402455 -89.504206699636683
-59.718576858781873 -67.436834364408085 -93.064841433218817
-66.058453851397360 -67.411155427094599 -94.795455181781733
60.032319274536810 -71.721208914898327 -89.563752708098264
57.744495403563967 -70.829627580415817 -96.638093194402302
-101.778102139873255 -66.404802460940758 -98.209386533148972
43.786766400478385 -69.074726583669744 -96.698764091963426
64.680952962538726 -74.185186762535864 -96.541043529972484
54.281233005629225 -71.315219787764832 -94.735547546740747
-70.678959200026114 -66.893964222559745 -97.763530777357204
46.966491748919886 -66.878390525192003 -93.234748398692375
36.442282171300853 -70.236039337380944 -101.184329252682460
49.426091004207834 -71.873255750675526 -96.857357473695714
-68.331046972884465 -70.435147224189365 -103.103284272097767
55.082067922394131 -72.439739357484427 -99.328753016703700
101.468400091522938 -74.736137704144980 -99.854184113787028
-66.185019760920724 -67.296767641610799 -106.443927243864607
49.474279595397221 -74.429065159978478 -105.560820906509065
105.846237901583336 -72.448938643519767 -98.962445181895504
-76.993202912587236 -65.831277074842120 -105.366987371503541
53.779926973831174 -76.179568528016119 -103.369219850023114
43.270330890909761 -70.281125184100944 -103.758531796578183
43.749482267180355 -75.253400780518703 -104.286875730409463
106.577571627618738 -70.977894755227965 -109.174581903182599
91.184398675459590 -72.508290480917466 -103.094283713101163
47.708003337351087 -67.522904287494924 -105.276801714191549
-80.364868526890376 -68.739324219481944 -111.478866836701059
102.443217179464241 -76.416492820069863 -105.283469108543869
-84.381170509714948 -65.571048773045618 -117.846231860472756
90.587826484266188 -74.526202548428643 -107.972968618859568
80.448588710236848 -70.671487944252746 -105.964630486559344
81.072568781409103 -69.668234010980512 -105.835010151218086
48.705574903789056 -70.944921566321298 -105.043231029556466
-96.331069880421680 -65.941306170190700 -108.408687275024874
105.853493631246565 -70.287311746410737 -104.126503819774342
-72.436771271306881 -69.555803969738506 -113.394748432104450
-90.343511053164434 -67.571318656076826 -116.447505193139506
108.764667240720328 -70.813113375238530 -113.273278513901431
-100.117556991152767 -65.306731637147962 -112.151662949512854
105.799476003901916 -73.803617780212889 -111.626251470494736
42.818253732632400 -68.448960826864223 -113.970576481432573
38.752863162930183 -69.686487567703651 -112.491439401388334
-74.850725501127329 -67.711310032004832 -120.460203401078331
-86.210772413076668 -68.843050743619216 -123.146526873311132
-94.808167729299655 -67.833085584160870 -122.268559568639773
103.151352138355492 -72.897730122767413 -114.846952962235832
-94.387737762121390 -69.622471967869288 -124.572718634072316
-86.231422601147273 -70.499289879746613 -122.297254014053209
-81.168677266680078 -67.378632406265879 -125.333827718730163
-61.208482662011079 -68.059212817980111 -130.060580972102684
113.425060701132253 -70.782764658784998 -122.041429427145033
-80.411108962602754 -69.337528021101889 -128.410358549197156
107.474872554673496 -74.903353855953796 -121.065032847734074
-64.137757137620653 -65.440100583396955 -130.298599868296662
113.711542699452266 -71.013309469474365 -126.678554225583980
-65.154612145951532 -62.647578435449603 -129.802631166762922
115.385983715717046 -69.163383541469855 -129.505466408805006
-82.275469122113790 -65.594129095614917 -129.620409538141445
109.320209046389863 -72.635750779196258 -129.532148412116157
-79.357221010173504 -66.952077081385696 -133.536599887241607
-85.176349637976600 -67.207306630770901 -133.857588537847249
-85.531460623962673 -68.439889989494731 -138.750505416443588
-88.526796807371099 -67.091521656532166 -146.965746364147236
-98.824880345736247 -66.912533957703445 -145.438349949128394
-55.972558421502455 -69.874590268665060 -142.809274837989165
-54.193101523062850 -69.643000697318826 -147.002389885054924
-53.467581976636623 -65.169187639972449 -148.028481251997249
-73.043694527169663 -68.304519555216018 -150.693339914903561
-52.036982278656744 -67.809058965025855 -147.077158252714668
-80.125749506891864 -64.603602574374321 -149.759207575443298
-72.542415746940037 -68.626360704956497 -151.436588303443813
-75.096550334940119 -67.582678586155197 -146.653555436888809
-53.937521622757011 -64.106335884748987 -152.613244502316661
-49.724347968364029 -63.361831752709065 -150.961331260323306
16.834330064269839 -74.701960254462776 -151.995213897727609
-96.222659371226200 -70.110925165170016 -147.374847913229416
-76.671491912671186 -67.054842373290001 -151.000402141208156
-72.816021637264683 -68.496761291086258 -154.199364668963938
29.050499627612684 -68.560665636420069 -146.980793976140205
11.368197068144291 -73.536658367381534 -150.754327061906963
-53.689830465736058 -68.584821750634816 -150.835373170675837
10.930773125587745 -69.383488239232150 -148.239856936265170
13.916720047162780 -67.209412858257011 -149.736501916202457
-47.701641185128871 -68.922250905794996 -155.089970676493522
-46.102092390197832 -65.116038786279816 -151.976265449270016
-51.788492461422123 -65.270474854309128 -157.463683429600195
-44.976410641527309 -70.242864415973443 -160.239713758876178
-94.328935208851604 -67.330028079006581 -160.950038719544608
22.871804675929777 -63.139957478527677 -161.161227901349520
-46.919686643401270 -67.878414907289027 -157.807659013219308
29.405643373024400 -69.561970300235217 -158.632153337721462
10.638434778993343 -66.606237779838793 -157.197022626967566
-45.383967309532046 -65.701696700621739 -157.456396067305889
14.229710805806288 -70.386940019566993 -160.958209058107428
-98.650949630232674 -63.603442135169956 -159.033698788818384
-44.148134265620335 -66.332975690136209 -164.817854049097321
28.288058837685607 -72.289531809784236 -152.516147555390518
21.469369013569146 -70.613253687188291 -153.250981052726814
21.258480440646455 -69.506072583308438 -162.402264428219297
-101.407619445514669 -66.567098215097062 -166.458040321703692
24.824390608281632 -69.267586225283466 -162.303768695247470
-102.609262982825058 -66.597884482272192 -172.929961327954516
19.957906840897145 -70.147799850184512 -163.265514108122801
26.415677460839465 -65.171686408333713 -163.964743606511547
-111.499649299916356 -61.325725582441422 -176.781666170095292
-98.253526291374882 -66.472552080740030 -170.987410590556010
22.172043722251484 -71.283549219106959 -168.729138816716812
18.104157128587754 -71.160071204771626 -171.319831483159788
27.103994441458234 -68.602884040193700 -175.320577679630446
-103.074896950912020 -66.176297851247043 -176.529908226398504
-103.719459387460091 -66.488796241336715 -175.540777706597055
26.127499328257166 -68.885703812046131 -173.545846151254352
20.635153192861043 -67.421933385729076 -180.572542551724666
-106.151785544818821 -64.868977759202181 -185.741607668790380
-138.688082280575344 -66.011502493476968 -188.669161258520745
-112.945375849719639 -65.389840233425247 -185.674302753813919
-20.340493372895430 -67.859592811000738 -189.863372551437379
-109.995728312283688 -63.272997471709061 -184.729116276068822
-109.654378763107687 -69.536501942672018 -191.631399074375111
-19.305236888044334 -71.002068523944473 -191.874586950504096
-23.201840838403793 -68.402578198071225 -190.150546458849362
-114.451736245148012 -64.000829580856433 -197.554739336770126
-143.310846497211458 -63.031234182829465 -199.495195016689536
-106.865536149263860 -68.010924748955006 -192.061069247754432
-24.307064198911430 -63.567702248572033 -196.405559989306312
-154.728455297372903 -65.162133314436744 -200.124288080841808
-150.791614000342605 -61.625801014903686 -199.383458078129252
-156.892423694747578 -63.064753581253228 -202.745379171916539
-155.918436700809565 -62.485416760394784 -203.298699508530916
-132.540832683034608 -65.377127094360290 -201.869619273205217
-127.251316254111600 -67.815517364874950 -199.235320000174312
-132.465743265130840 -68.424900887189040 -201.960260312123637
-129.692182410433105 -64.274825837288688 -200.605882245439034
-30.004403761066200 -63.307342192976535 -198.948352862697192
-25.524052780129608 -66.334655637068877 -196.611462683569528
-15.102740551085045 -66.005916274443749 -200.177331023202242
-125.283657345955561 -65.259492077571167 -202.284895836262365
-122.481049842108661 -66.029051516012416 -200.912018129631520
-109.315659994349403 -65.422209563023188 -203.246643668743786
-18.295759613994274 -64.352251028895253 -202.293602925051658
-152.994456212106314 -63.555853864203684 -208.856897978287321
-157.082424235005846 -61.201415946936450 -212.597150373519725
-121.705175098246130 -67.012916314046791 -211.912461715307529
12.916125943854542 -68.352262400851245 -207.026621217979709
-127.928824034872846 -65.949407642939178 -213.551885553218966
-164.172269641040145 -57.941905413216077 -212.370095847418810
-125.103028184682003 -63.061192605127161 -214.153657724576505
15.988082899281697 -68.187075579629848 -208.439042923366912
-12.384758399494473 -62.608100081882000 -207.579070199840743
8.984045690409896 -69.006548047910272 -213.264271558646215
-157.294306256867316 -64.976043190045161 -212.198393798285736
13.644238931515048 -68.248391925219238 -218.578519354982546
16.133172773971420 -71.387304304929771 -210.365976013044587
-18.317288969701170 -66.059748841681639 -211.841364568793210
-5.500158113772487 -70.021298573386034 -212.535386923394043
-140.088267487923986 -64.454264856380121 -221.235258240014815
-162.163831560994822 -63.488549112228114 -216.493714629875626
-157.111078530690804 -66.791244858895027 -219.723523694036118
13.546181525894173 -67.208999502048655 -219.298718015461702
-163.942652668376809 -60.003126438630574 -223.237719865930046
-155.114451664671236 -65.089120492417777 -217.646883094918394
-13.043152416328628 -66.811181432809377 -215.041715904045390
-162.982531092425091 -61.211437083603130 -228.901640964376583
-2.992414777126673 -68.808445392752446 -226.374569236458626
-149.097987032482479 -59.807408762022902 -233.280028728433422
-98.118092191413581 -62.705304183884735 -226.663599514166094
-136.138429536526587 -63.779476767070918 -232.371864800116754
-97.104081436352743 -68.672006409809299 -229.889607487482124
-159.736834560760656 -62.807932404402280 -225.049270388525883
-105.493908382599685 -64.568241837562198 -230.476920985087588
-6.907661530380039 -68.219269735174777 -224.329998885371594
-159.833988232795690 -58.315244864744770 -232.551406298160970
-120.237857837491518 -64.950175030727053 -231.251447944724532
-132.663438496336511 -61.536171655911218 -234.370607142862667
-136.946356436566020 -68.418087683882860 -232.091776593205566
3.387171663208483 -70.611519588743704 -224.213555051309044
-129.944735544440732 -63.592897392408332 -233.334978469742708
-109.085704995558544 -62.576974929147966 -231.846639566375927
-163.681735626148651 -68.720435466086059 -229.876609721823172
-118.372551758172619 -66.842824392600463 -234.384074942008823
-112.266469451543415 -66.175299604054374 -232.931521376143053
-111.271870558057046 -64.324946770018002 -234.367258228433258
3.881083929971362 -65.444019609303723 -230.551332083563125
-1.257667424237848 -68.119045477123095 -230.542079694058714
-102.478227950038772 -62.987725133471031 -232.293864526957066
-160.303169186041885 -61.987629998117697 -237.843677974120482
-145.454740754504940 -61.840225747042496 -235.570604383142069
-163.648092143255980 -60.726668154028218 -232.559365469056502
-155.377951928845221 -61.283566713810330 -237.391235574179262
-146.911755075928426 -64.021365049691241 -237.701735283510317
-2.771895173085452 -70.425604825898759 -231.590368323348684
-8.497349955932076 -65.412072550577619 -233.920198890788356
-5.563698508289940 -68.689479587754292 -228.630616859665054
80.857325297100601 -66.536742318963633 -229.768160001626285
-158.053455685858154 -70.265326952127893 -242.104049083922035
4.483799558436014 -71.727936421936590 -233.732317290146227
-145.457790882843994 -63.639043700604077 -238.552053595042906
-7.139049996231302 -66.892971038248106 -236.241860248377606
71.430859360871025 -67.006936316424927 -230.674148300032073
75.621355362710290 -67.113706453117288 -237.832086568428764
-128.861934190247808 -62.914626616009912 -241.118891146212121
8.643109516584801 -66.729347779240058 -233.536215016595008
-151.333564019622770 -59.494035289906293 -236.517610819213900
-116.006382179721101 -67.274882094577706 -241.349597192834040
-121.069997981168143 -66.475315086327385 -243.796451121093014
-165.690156534551789 -65.651362588677983 -242.167199533171868
69.175522453698761 -69.871256085444372 -235.445927529258881
-154.642229708783560 -60.352703928224997 -240.297359052545232
-146.889315040827199 -64.669548868262339 -243.109887303335029
1.102226141211661 -66.458031068655586 -240.718444245827641
-159.127607606232033 -67.397688784319172 -244.231096611535548
-6.947052802585043 -70.395317808234537 -241.377286637314995
67.329168009758547 -72.545911091215189 -236.279281748447715
0.722029812784485 -66.658825007548018 -237.700132827420276
-2.269521523853228 -68.316770857412834 -241.771265588473057
-162.007861949537784 -62.784681742578314 -249.177454624620054
-4.764977674746899 -67.088686227662876 -244.660068962280576
-158.981483945298095 -64.938575506729862 -249.696704693636207
5.657896214760723 -65.242923327442782 -241.622345103673410
8.406699541415023 -65.874104708293515 -241.705104423031969
15.007756886184527 -66.273953107045614 -236.780703657303008
-161.306575462350452 -64.061272579860528 -251.642987406427039
-152.036573456009961 -60.797136626312664 -235.979658914950960
12.409603202309029 -70.940384911357000 -243.734501395957551
9.946339892066131 -66.445029401597139 -240.565477270248380
70.767698624033031 -67.709720143306399 -236.179433790784998
59.333982681122542 -70.581498323599803 -241.066870627650843
19.507675174381319 -69.779347777792125 -246.087186739141345
-15.087206321537337 -71.559208871492203 -253.272495068826458
-140.479663060993317 -58.931501445776547 -254.797400088263259
53.226509098014027 -64.051885742286956 -246.971761574762581
53.848578508277861 -64.510607947871918 -246.353692102024780
48.013854182785224 -69.682827446849970 -247.478607626596244
-13.547767743307300 -69.635247555037040 -251.604387219324622
48.314033050387401 -67.087068067865317 -250.996473087490983
53.839280522024652 -70.483188421677752 -245.009831919848040
45.191104721433298 -69.237194525013763 -249.913173056446283
49.492052196697635 -67.454061088387363 -249.929803190182099
-160.247596791529645 -64.839917899966437 -256.023298559212947
-156.990060958169778 -63.213250963097082 -258.448219348566283
-159.014072855458721 -61.487211883409501 -258.221683991646159
43.189166152190573 -65.583116313358531 -250.525759679829321
45.211774144268070 -68.313866447212504 -251.058091195484053
50.594986966998370 -72.852684595321847 -252.449572592623156
49.998850529486099 -70.491682192742687 -258.145714377388970
49.818583209560245 -73.403803463153153 -252.794080280711910
-90.187586093707452 -65.557971930393890 -265.090410272594397
-129.453713149944434 -67.037664545399423 -263.074685115660884
-98.802098926449645 -64.852804021278800 -261.358335056163639
-131.487361724199275 -59.567856929170986 -266.053994289132163
-9.026050033867874 -66.317107504406778 -255.973713367970731
-119.852704537569565 -69.618553405847123 -258.976769730725323
-103.050451141148045 -68.892688307891959 -265.002726036178842
-90.884176166057671 -67.673941914692108 -266.430364801180644
32.084825177159964 -70.845467098286719 -259.010511280605158
44.186081784802475 -65.367375439797783 -255.183098253531057
-98.793281874799533 -65.425425793176117 -258.046897766654183
-111.302692060486038 -68.504344908108919 -264.977822186134574
-89.568260010000543 -64.738285090795898 -263.021221716683613
-92.710518671540882 -62.611888187266828 -265.805738749540467
33.707809576733027 -69.118049480196291 -264.023672191151775
46.885250775640600 -68.110856695060662 -260.675117489469699
-117.759086565211021 -69.223699003550990 -267.161602146611813
40.649331195215950 -69.986135997875991 -261.361391348541815
26.047112847489554 -70.213883190636764 -264.928593484815394
-154.578599386430710 -64.676610459121719 -266.733596985285715
34.985772802164121 -63.774493686380879 -253.593565282652492
41.395016836379305 -68.834470993854964 -261.746738849490725
-138.474095123128194 -62.426712284210083 -277.099424581849746
-136.815339025247738 -63.047417884475692 -266.781537970295290
-110.973896484405770 -62.122179025725160 -269.396910598668285
-108.395342050425981 -64.628715830238590 -271.725866574788085
-128.133363122481910 -70.246071023178914 -269.566692393229573
33.164266356857354 -68.125962390905627 -259.476176958506130
-5.498147176118219 -62.853840635231180 -265.033506572258261
-134.671699639162796 -59.499539116673873 -274.168922146662055
-121.952101107622440 -66.944611841786653 -273.329949521190485
-7.067891789341241 -68.360426664521356 -261.725706017676941
27.965803473603440 -68.198822725006963 -269.423259773051768
-4.904281904970580 -72.407048940056328 -272.388831702649895
-7.584163049806358 -66.658052016579035 -268.679926867341919
-144.276359460625599 -65.372761946856613 -277.734428341883927
-2.032208832018063 -65.093269451012588 -284.568066080644542
27.958818093477131 -67.687246101020946 -281.269090901424249
-150.204907303005342 -62.644612652465867 -291.186277059491488
-8.292224934975209 -68.168427663758308 -283.009752766015822
-151.149465840662515 -65.128140372155386 -292.343265849806414
-131.040120841800245 -65.705630525758579 -287.720835517890009
-124.537550657255622 -61.480332140151006 -295.502763186171592
-153.255041599330383 -66.860060993002449 -296.515139842629651
-111.598457319086563 -66.405434589055574 -292.930046889506798
-102.061833862581778 -60.040070523368684 -289.426638628248725
-110.973127081906753 -64.451553736995322 -294.205320162289524
-4.284756604507555 -66.846712638943600 -291.069139536532759
-3.586630709558629 -65.716356017620697 -295.533117989933658
-135.108742075600077 -61.245391993817634 -294.998514640609130
-112.207200047797841 -62.879457792013170 -298.217802958280288
-153.851947604443012 -63.445139540109409 -298.758170267323806
14.585485382014213 -70.943045508649007 -293.502556549778490
-141.059952699614854 -60.140196087097593 -299.094245683160921
-106.119402667299596 -67.975634997276657 -296.027206364984693
-113.213557053295645 -63.356350512847342 -298.868512133289244
-134.046167794614973 -62.563263352973365 -294.556233338358311
-120.881306792826038 -63.809668634098230 -301.905481625175128
10.600045907674236 -62.201284293142777 -291.355488039850172
-156.128214001126707 -68.360553031101006 -297.853286737885298
-127.134428804361463 -59.240226289581713 -297.183938686185172
-140.385560415472440 -65.477349902628362 -298.809790766590083
-146.921688066132106 -60.166155439986085 -302.526393181041954
-147.410636438847064 -63.017880956718273 -305.597806923844757
-147.401772351431021 -60.706990983175928 -318.555791661233968
-148.331564479256173 -63.177760188813906 -314.343085101296083
-142.749113155476806 -62.903010361235062 -317.212943368337903
-146.354122694451689 -62.226634901807273 -322.516423119868648
35.306260834944233 -75.900412048635971 -10.956732838415078
34.843324357388234 -73.839486566705304 -15.456777517083200
38.435816129305451 -73.434636737205054 -16.640452121149362
23.103103199606963 -73.856209934731311 -15.791764983103711
43.560855809979387 -74.369236421254698 -23.618948402672441
17.466186331977138 -69.969114060501994 -30.158836258626039
46.628410682779062 -68.547923496592304 -30.236241143686904
37.561820532254913 -66.858348550393544 -32.338490874467006
28.185954034192367 -70.343041831635659 -38.287275953483203
28.046780287623204 -74.554576279932945 -35.169794560619643
-72.083406196593955 -68.186653712089196 -48.042914327005043
-62.377722343973687 -65.648629448110540 -47.637387452513721
-43.896156209283831 -66.123116816466791 -51.271058062350853
-79.163834732877291 -66.734874796652235 -57.936898160104796
-30.046689404645250 -67.639590892703382 -58.853625020300022
-18.267753606395942 -70.935936389821364 -59.571051954685124
79.713709648761679 -70.014964002448707 -64.853450017826049
73.588389546879668 -61.048848443211611 -65.994369432526526
72.400156594616675 -74.106447949552802 -60.976395245458214
-99.596876891902610 -62.773911556125810 -65.323306638180441
-14.762266018817925 -64.003734047153756 -68.051591460974180
-95.284466931090748 -61.757596090106674 -71.025815407566427
74.243220684390437 -70.572453860928476 -66.689890927158871
-18.765647692556833 -69.400977270452032 -70.674100007519144
92.303459464295287 -77.619639444758633 -71.251281296963469
-17.991711243848528 -67.179247872827361 -73.371831092179150
95.859453690209861 -71.810885534885827 -72.655174705256826
-25.153335419492500 -68.202741846169161 -74.209649990777137
-98.151468561667357 -68.630457891037381 -74.813789182830988
67.713857779507222 -75.315944051152982 -69.610614022791054
-39.501697335804359 -70.404002394787483 -86.110031815742957
-32.907630627228293 -69.079108857355848 -82.386225271030582
61.813660990781777 -67.661107967523463 -78.303426199888946
54.318684656211808 -70.050467717196653 -82.993518976005419
63.475219917736275 -69.462979750993611 -79.288671671778246
-98.352423276888970 -65.421333282592769 -90.964057113752773
-50.985414516566806 -69.539036260660382 -89.927161737407289
-48.383754885933030 -69.632229722933559 -88.522325798490499
60.940847383835923 -68.858036564201001 -87.211722011643758
56.903623464989273 -72.418424430112722 -87.560016456266567
99.329066253953286 -72.951249273643825 -89.555975777600082
98.531682375643783 -69.707506396071196 -86.399586227589026
41.466027456891723 -72.351289316629732 -91.874114296895669
49.972539100368579 -71.605254657207240 -92.299991446918568
54.002540835469297 -70.250535051027995 -93.272044060138569
59.743409749824615 -68.131779888981384 -96.860539882673152
96.493944600889648 -71.746867792646981 -87.054478741864841
56.519565994564992 -70.959506857543744 -96.252754032649108
99.840470417292252 -71.691158680224305 -96.632512158240388
104.500210996764011 -73.195053027768552 -95.198491516434530
60.009034068763988 -68.640347174662921 -95.382806272641346
100.084431854635284 -74.044567147722532 -96.877023482071792
107.470283196817348 -68.451340692217215 -95.568070562883690
56.053712673663270 -74.261996830491015 -100.530222980842694
-77.355356923682592 -71.113630323183287 -102.391107425589411
68.523860534185545 -72.821137729949086 -98.210742702142397
-76.309192999178933 -64.803543421966978 -105.638036829565891
97.683272920997481 -74.192324600312915 -99.093878372961314
52.887047504475504 -70.316600322471032 -101.181817908553285
68.120133970501058 -68.696702171186658 -101.897965294362962
39.589260530611796 -68.475856325294146 -101.864782568087975
-74.451631267294260 -64.867125305251832 -103.563986134359737
-74.450536501741752 -64.817908010994657 -102.652749707283022
105.030753607402389 -64.864813131367328 -102.235724595478075
-84.315645448334678 -69.898429091176567 -113.626142288545083
-78.225604510446985 -69.194976192752875 -107.311995427548027
47.441779324298629 -67.727158355621825 -107.532703473659865
77.665466942805537 -70.019997839604216 -106.859825672236980
105.251203342987566 -72.278379217543616 -99.453058244304827
92.155531980970565 -70.428035262040083 -104.266272423590664
42.359133915339044 -67.591913760904589 -103.939480439884420
97.743818822884620 -72.733362530652045 -103.486884447845085
45.698971021258217 -72.621142309197083 -103.297001968585050
38.485825927257288 -70.422826326805875 -106.177293603661070
41.791647677087440 -68.181353429246471 -110.677212333164107
103.468218739121511 -71.914961478876805 -109.609499674095417
106.882656456661906 -69.850995220334937 -109.642145739439115
-74.328664536834353 -67.314101513465531 -117.544771905865531
-83.549215653682140 -64.043783133205949 -115.871834463831078
104.219010514151734 -71.933398640037254 -114.576914906898878
-89.608937092593948 -67.685013734220647 -125.022350539973274
-92.604405622044652 -65.071420068971122 -120.878401657863662
-79.253997282625633 -67.899006746546320 -123.209587188840459
-90.558924499211443 -64.746276946989582 -126.354723924658714
-79.152433000284191 -64.094700535865670 -127.733361390261166
-59.000392776350061 -65.382791333752678 -131.774894727462765
-59.105201281087325 -66.713411548689876 -131.520661522651181
-91.793353100262053 -62.405573104407665 -140.846587401443514
-73.211656113525123 -66.010727788422543 -136.749018105115084
-50.594741264893003 -70.687172913096532 -132.159294039504658
-78.041439327914489 -65.790844989237399 -136.598935713253326
