-107.159835815430 -68.974082946777 -254.811096191406 1.539434313774
31.769071578979 -64.611076354980 -257.521118164063 1.824623584747
39.025596618652 -65.176383972168 -254.867080688477 1.546470761299
-96.801795959473 -66.778411865234 -253.479476928711 2.245359897614
-92.029983520508 -65.207443237305 -257.581085205078 3.481684446335
45.493282318115 -62.247623443604 -257.308166503906 4.119721412659
41.112983703613 -61.820026397705 -255.402755737305 2.298542976379
-156.764221191406 -69.080184936523 -260.582977294922 1.638978958130
33.843517303467 -61.034114837646 -255.130126953125 2.605057239532
-138.440582275391 -69.373619079590 -266.121276855469 4.041900634766
-117.389991760254 -63.532798767090 -259.812408447266 3.201722383499
-131.768386840820 -64.548866271973 -266.370147705078 3.930320978165
36.287265777588 -68.253128051758 -265.530761718750 4.725546836853
-127.301559448242 -69.943405151367 -264.634826660156 1.595991373062
-9.622236251831 -61.932170867920 -257.981384277344 6.084472179413
21.834131240845 -66.375289916992 -276.080505371094 1.997493505478
-12.928751945496 -63.433242797852 -268.882324218750 4.648752689362
24.550182342529 -60.317790985107 -285.061248779297 5.983025074005
-149.579116821289 -68.889122009277 -283.409149169922 2.257528305054
-11.184186935425 -68.186325073242 -277.093353271484 1.677844762802
-153.749740600586 -69.676261901855 -289.386688232422 2.717361450195
-126.731338500977 -65.468032836914 -285.216583251953 1.556233286858
-159.870895385742 -68.823768615723 -289.864379882813 1.571865916252
-122.094467163086 -66.018646240234 -286.401062011719 3.190306901932
-106.032196044922 -69.772888183594 -291.264373779297 1.728907465935
-8.345275878906 -64.344711303711 -290.247070312500 4.517129421234
-110.998771667480 -66.714973449707 -294.336273193359 4.260681152344
-118.052246093750 -71.651741027832 -290.757415771484 2.715687751770
-121.395416259766 -69.245178222656 -292.081878662109 2.229127407074
-137.247955322266 -63.877555847168 -290.516448974609 3.709483861923
-124.419326782227 -70.760879516602 -294.249176025391 1.996994376183
-159.254928588867 -68.458244323730 -289.540039062500 2.329857349396
-145.072677612305 -73.020401000977 -297.475006103516 1.463247179985
-152.710189819336 -66.278236389160 -297.843841552734 3.003049612045
-154.155700683594 -63.766319274902 -307.021270751953 3.765473842621
-159.065292358398 -65.093238830566 -301.976501464844 6.108865261078
-147.466201782227 -68.393493652344 -312.735778808594 1.156247973442
-149.828964233398 -67.490615844727 -313.769256591797 1.810243368149
35.476409912109 -71.836753845215 -18.247026443481 1.834341645241
46.334667205811 -73.783760070801 -20.227046966553 3.056616544724
31.963851928711 -67.453849792480 -32.421012878418 3.431758165359
53.390804290771 -69.251960754395 -31.819854736328 3.909357547760
33.488311767578 -69.137413024902 -38.736213684082 0.827223002911
42.964107513428 -75.999969482422 -37.006977081299 4.872082710266
-53.162303924561 -72.732078552246 -45.914752960205 3.637475252151
86.725158691406 -68.654182434082 -60.884864807129 2.928190231323
85.518775939941 -68.138732910156 -67.540725708008 1.801841616631
-92.234664916992 -68.783531188965 -64.286338806152 2.289522409439
-12.273683547974 -68.910865783691 -62.431865692139 1.943752765656
-85.243644714355 -76.157478332520 -67.781753540039 2.733630418777
98.836204528809 -66.662757873535 -70.882667541504 1.752254247665
-14.855684280396 -67.800109863281 -68.016586303711 1.358101725578
70.496116638184 -70.706886291504 -79.071517944336 1.821971297264
-37.671226501465 -73.359725952148 -77.787826538086 1.053660511971
-27.812112808228 -75.051208496094 -81.537506103516 3.387436866760
57.375774383545 -65.138992309570 -88.086280822754 2.590233802795
-45.293476104736 -81.045959472656 -89.369491577148 3.593381404877
63.527782440186 -64.153884887695 -81.653945922852 0.938748955727
55.144824981689 -67.605697631836 -86.186912536621 1.589280605316
51.047702789307 -72.644317626953 -93.587219238281 1.586167693138
67.134399414063 -66.837303161621 -93.681755065918 1.937018632889
59.949035644531 -67.464698791504 -100.456840515137 2.895931243896
105.114341735840 -63.184352874756 -96.695930480957 2.298809528351
105.389396667480 -70.825729370117 -97.165298461914 0.799407839775
59.651546478271 -72.591720581055 -99.494590759277 1.974679231644
110.367889404297 -65.287384033203 -101.465599060059 3.276274442673
-69.986808776855 -77.986763000488 -101.198303222656 2.635634660721
-69.958480834961 -73.793678283691 -104.033477783203 3.499391555786
106.424102783203 -71.561584472656 -98.539093017578 1.700371265411
55.809017181396 -66.655105590820 -103.077049255371 2.702209234238
73.068000793457 -70.223030090332 -103.502685546875 1.001673460007
-67.136619567871 -63.097972869873 -101.032218933105 1.332849740982
-78.765609741211 -68.338027954102 -107.137458801270 1.273001551628
96.384696960449 -65.515731811523 -112.448265075684 6.217934608459
44.624469757080 -68.436180114746 -104.778617858887 2.524241447449
102.915382385254 -67.143127441406 -103.375915527344 1.361578702927
45.023262023926 -66.456550598145 -111.849586486816 1.925350666046
114.969253540039 -63.121078491211 -110.438903808594 6.246501922607
-84.244277954102 -65.921577453613 -108.200851440430 1.364276170731
106.343872070313 -61.829730987549 -111.814300537109 5.367139816284
-85.228080749512 -66.962020874023 -116.406181335449 1.486870288849
-57.313808441162 -71.500259399414 -125.122505187988 3.013204336166
-57.819164276123 -68.356246948242 -129.626251220703 1.553353786469
-71.683448791504 -72.101905822754 -131.226776123047 2.791045427322
-48.587146759033 -70.933341979980 -132.004379272461 2.274657011032
-85.695213317871 -70.340950012207 -134.064437866211 1.536784410477
-76.921775817871 -73.432708740234 -135.785583496094 1.574466705322
-84.754020690918 -70.454948425293 -129.061477661133 0.304488927126
-53.180313110352 -72.871726989746 -138.703002929688 1.251031994820
-71.040206909180 -68.306343078613 -139.932434082031 1.144233465195
-58.870765686035 -69.379341125488 -135.868423461914 1.682413339615
-62.243526458740 -71.599784851074 -138.623336791992 2.385835647583
23.943294525146 -70.324638366699 -141.269699096680 2.611384868622
-84.987861633301 -72.402069091797 -145.433670043945 7.482007026672
-44.743110656738 -72.465209960938 -148.442276000977 1.662222027779
-97.384056091309 -67.366325378418 -150.766723632813 1.757505178452
-101.838798522949 -68.435928344727 -153.298950195313 3.419977664948
18.925453186035 -72.692428588867 -154.969421386719 2.000891923904
15.817413330078 -71.178642272949 -161.343490600586 2.558449268341
-99.746421813965 -70.219406127930 -160.301483154297 2.113866329193
-98.710968017578 -67.385391235352 -158.650650024414 1.577611207962
-94.151412963867 -68.298881530762 -168.819732666016 7.105365276337
19.276811599731 -63.700283050537 -171.655578613281 4.086090564728
-112.911193847656 -72.996963500977 -167.688781738281 8.242588996887
20.016914367676 -69.216926574707 -170.246383666992 1.813914179802
-144.322265625000 -73.253875732422 -179.005599975586 1.971844792366
17.787862777710 -66.752571105957 -177.510940551758 0.965013504028
23.048633575439 -68.224540710449 -188.433868408203 1.442599296570
-152.643325805664 -67.397178649902 -188.241195678711 1.330158472061
19.768259048462 -69.841835021973 -181.523818969727 2.333248615265
15.233665466309 -65.382164001465 -178.894638061523 3.396257400513
-136.260833740234 -76.751907348633 -193.003845214844 3.986327886581
-150.409332275391 -72.348930358887 -190.390365600586 2.031435251236
17.414739608765 -65.344505310059 -190.901901245117 2.125299692154
21.562017440796 -63.926826477051 -187.122573852539 3.054085969925
-145.987228393555 -69.179077148438 -192.870620727539 2.976049900055
-107.876312255859 -73.710678100586 -194.773315429688 4.265514373779
22.898445129395 -65.164222717285 -197.481811523438 4.089906215668
-125.696258544922 -65.498924255371 -192.151184082031 3.163319110870
11.983682632446 -68.019905090332 -199.231094360352 0.880600452423
-131.825805664063 -65.638931274414 -195.912384033203 1.749632716179
-149.381973266602 -69.862861633301 -193.315490722656 1.632292509079
-161.376754760742 -72.954246520996 -202.325210571289 2.630574226379
-162.557708740234 -67.892196655273 -202.338531494141 2.240392208099
-18.645786285400 -63.481201171875 -205.127731323242 3.633064508438
-165.871566772461 -69.415115356445 -202.520141601563 1.138092994690
-20.318323135376 -65.680702209473 -195.416625976563 2.801174640656
-15.334047317505 -65.524581909180 -198.729324340820 3.430144548416
12.917871475220 -65.999420166016 -196.649871826172 2.126456737518
-158.238494873047 -66.508163452148 -197.308212280273 2.161437034607
-110.259872436523 -66.681495666504 -202.738830566406 1.847507119179
-16.138044357300 -69.389877319336 -209.219055175781 1.951919913292
-155.200973510742 -71.448295593262 -200.461212158203 1.032247424126
18.953752517700 -62.228607177734 -200.786041259766 5.554296493530
-163.014099121094 -69.608032226563 -200.099517822266 2.162842988968
-120.076179504395 -71.778038024902 -205.957550048828 4.018079757690
-108.973983764648 -67.377578735352 -208.748657226563 6.764959812164
-126.123374938965 -64.286277770996 -208.847839355469 4.012520790100
-13.502479553223 -69.707519531250 -203.719406127930 1.961155533791
-18.724687576294 -63.372936248779 -205.145599365234 3.756332159042
-161.800216674805 -66.262336730957 -209.611557006836 1.229953289032
-160.134460449219 -67.315544128418 -213.393066406250 0.668153166771
-165.321014404297 -70.503280639648 -219.041351318359 1.647337794304
-148.459182739258 -72.265289306641 -208.988388061523 3.268874883652
-143.107025146484 -67.505355834961 -224.720916748047 1.260438442230
-6.253687858582 -63.595615386963 -222.045379638672 3.236058712006
-13.970129966736 -64.688850402832 -219.725524902344 3.831909894943
-101.216857910156 -67.411491394043 -223.126251220703 1.920285582542
-7.201364994049 -64.337127685547 -220.634735107422 2.597698211670
-164.522918701172 -67.555099487305 -226.346618652344 0.415217936039
-113.942176818848 -63.023132324219 -232.490661621094 2.874405145645
-0.229271993041 -62.609252929688 -230.744552612305 3.876785993576
6.014865875244 -63.173679351807 -230.966064453125 3.252162218094
-112.337524414063 -66.305038452148 -234.067443847656 3.484325170517
-3.032506942749 -59.409343719482 -232.908432006836 5.063932895660
-115.201087951660 -66.114135742188 -238.085845947266 3.726123332977
-3.974436998367 -61.483768463135 -241.946517944336 0.644607603550
-3.834918975830 -67.397537231445 -233.624710083008 0.411942183971
-1.102048993111 -62.405391693115 -242.414321899414 2.190536022186
66.791488647461 -64.686370849609 -238.098846435547 2.636049985886
-14.986225128174 -67.775253295898 -236.621887207031 2.509334802628
4.900617122650 -63.042289733887 -238.263076782227 1.416967272758
10.876905441284 -64.735580444336 -242.837371826172 2.078365564346
8.368392944336 -69.548103332520 -240.836685180664 0.581159412861
2.118874073029 -70.059822082520 -242.716629028320 1.382312297821
67.182723999023 -66.522949218750 -240.624923706055 2.395411729813
71.476219177246 -62.382930755615 -241.884262084961 6.593001842499
15.549429893494 -66.418701171875 -242.735061645508 1.362868070602
59.495204925537 -63.496971130371 -241.141708374023 3.544208049774
57.617744445801 -67.310974121094 -240.677734375000 0.989485561848
47.120758056641 -58.318618774414 -246.202270507813 7.222270011902
36.567146301270 -65.095321655273 -253.014297485352 1.699399709702
39.509422302246 -65.210449218750 -254.968612670898 1.384916543961
-133.621154785156 -67.194297790527 -254.865478515625 1.446203351021
-15.450283050537 -69.459320068359 -252.379669189453 1.680800676346
26.465486526489 -65.908988952637 -259.351379394531 1.115666627884
48.307273864746 -63.442131042480 -254.982254028320 3.423293590546
24.468177795410 -58.680023193359 -256.471099853516 1.943572640419
-100.021011352539 -64.979217529297 -262.061248779297 4.241114139557
33.397373199463 -62.480846405029 -255.727142333984 1.673715949059
-150.238021850586 -66.580459594727 -260.856262207031 2.052012205124
-115.935966491699 -62.685821533203 -262.041320800781 3.314100742340
-102.874107360840 -67.435249328613 -255.508499145508 1.988203525543
-6.594396114349 -62.718338012695 -260.355194091797 4.226120948792
-154.654907226563 -73.257781982422 -255.376998901367 1.013298749924
31.218511581421 -60.953674316406 -258.651184082031 2.537993192673
-111.881736755371 -69.108299255371 -255.298812866211 2.293573856354
29.546785354614 -63.686210632324 -258.801879882813 2.042323589325
-131.616989135742 -64.970451354980 -261.410675048828 2.059333086014
-118.566841125488 -67.699310302734 -260.537902832031 2.796925306320
-105.046531677246 -62.029487609863 -261.657073974609 5.556769847870
-116.010971069336 -66.372039794922 -265.718566894531 2.464903831482
-137.733489990234 -68.798248291016 -264.066619873047 2.783430576324
27.923194885254 -61.465682983398 -265.484710693359 1.565033316612
-118.173751831055 -63.117721557617 -266.705108642578 4.189945220947
-143.221832275391 -67.725608825684 -270.574005126953 5.489978313446
-4.600739955902 -66.141555786133 -274.447235107422 2.447528839111
-154.088272094727 -65.735351562500 -279.552398681641 4.136007308960
-10.301577568054 -65.494537353516 -283.789733886719 3.611273050308
-2.570424079895 -67.354804992676 -288.687896728516 2.615761280060
-134.876068115234 -69.336227416992 -288.474273681641 2.213957786560
-121.075408935547 -61.883995056152 -290.559539794922 4.278321266174
-138.616653442383 -61.931774139404 -291.645721435547 5.708750247955
-128.030303955078 -67.072158813477 -295.737884521484 2.865120172501
-149.504943847656 -67.782936096191 -296.539428710938 0.771540343761
-149.683593750000 -70.778915405273 -302.281341552734 3.713526487350
-149.759399414063 -71.987854003906 -306.371978759766 5.437854290009
-150.302093505859 -62.882976531982 -297.447967529297 3.085346221924
-141.890548706055 -67.368675231934 -304.093078613281 4.869367122650
-144.075561523438 -67.042984008789 -305.375793457031 2.766168832779
-150.959259033203 -67.084487915039 -311.398437500000 0.942832112312
25.792476654053 -75.446640014648 -32.987422943115 3.090894699097
50.797882080078 -72.982162475586 -36.346775054932 4.122135639191
29.414043426514 -77.151847839355 -38.716709136963 4.808760166168
34.211074829102 -72.918289184570 -42.443069458008 2.897691726685
-45.078205108643 -69.824218750000 -52.408061981201 2.875637531281
-77.663780212402 -71.473289489746 -51.039447784424 1.947118759155
81.441932678223 -67.881210327148 -65.192909240723 2.009156227112
83.395858764648 -63.919292449951 -62.012935638428 1.675721883774
71.898986816406 -68.900932312012 -67.921997070313 1.463806509972
-96.064773559570 -70.192512512207 -72.053207397461 2.670804262161
101.833915710449 -69.169876098633 -74.431411743164 1.763294935226
-34.765937805176 -64.597122192383 -77.003868103027 3.109876155853
72.299179077148 -69.230133056641 -78.128456115723 3.709428310394
-41.932487487793 -66.919998168945 -80.780479431152 2.334641218185
-49.483688354492 -69.476974487305 -81.292991638184 3.915126800537
53.821052551270 -67.441833496094 -90.768859863281 1.632779121399
103.234817504883 -65.839912414551 -89.978065490723 1.414835572243
66.512344360352 -66.071258544922 -95.157150268555 1.042139172554
57.390861511230 -67.726036071777 -96.173446655273 1.182942032814
49.209663391113 -68.829421997070 -105.307075500488 1.324974775314
62.579544067383 -66.033302307129 -99.389694213867 3.989362239838
107.104492187500 -66.276618957520 -101.267349243164 0.981909334660
72.393852233887 -71.284912109375 -110.069244384766 6.542190551758
52.932186126709 -67.202522277832 -108.889457702637 3.123626947403
79.083885192871 -67.347084045410 -108.179061889648 1.984891891479
92.388244628906 -66.360404968262 -113.302719116211 5.001149177551
-79.845054626465 -71.903015136719 -112.784629821777 1.659145951271
-84.777328491211 -73.338279724121 -110.048538208008 1.632072925568
-85.460281372070 -71.352424621582 -117.167480468750 2.593759298325
-61.190929412842 -69.632209777832 -117.181518554688 4.257461071014
-53.346389770508 -74.484115600586 -123.294479370117 6.294872760773
-92.627120971680 -66.110176086426 -121.268432617188 0.676198482513
-78.270462036133 -70.348579406738 -121.126472473145 2.357215404510
-76.374069213867 -69.897300720215 -127.155685424805 1.104431986809
-59.791728973389 -72.375045776367 -126.224632263184 3.319134235382
-88.060379028320 -62.272186279297 -130.624145507813 1.975350141525
-93.371910095215 -70.255775451660 -131.471679687500 3.724035739899
-49.994056701660 -68.931037902832 -138.976119995117 1.370930075645
-56.567749023438 -65.378059387207 -137.507858276367 0.741836726665
-76.006065368652 -67.514045715332 -139.247528076172 1.910287141800
-56.606151580811 -67.767486572266 -144.316268920898 1.781099319458
-72.861923217773 -69.898109436035 -149.570465087891 1.196281790733
21.773942947388 -65.011817932129 -144.434768676758 2.534429550171
-58.833530426025 -67.665214538574 -146.652832031250 2.850391864777
-48.216865539551 -68.368667602539 -149.585235595703 1.236282706261
16.184268951416 -68.612365722656 -154.750061035156 1.460869550705
14.195079803467 -65.618583679199 -153.925308227539 2.144091606140
-143.086563110352 -66.591636657715 -176.483856201172 1.388308286667
-104.755699157715 -71.706245422363 -181.714813232422 3.301985263824
-108.053451538086 -69.946334838867 -186.474044799805 2.571522474289
-146.531112670898 -70.120544433594 -195.831710815430 2.175294637680
-109.853416442871 -68.330368041992 -186.302062988281 1.987102031708
-152.486251831055 -66.010002136230 -196.926498413086 1.712076067924
-114.476135253906 -63.539302825928 -195.655120849609 2.357996702194
-144.042953491211 -71.109207153320 -198.854232788086 1.738349914551
-149.306243896484 -74.806732177734 -202.356369018555 3.216210603714
-152.690124511719 -73.826370239258 -210.651016235352 3.415961503983
-144.271209716797 -70.770500183105 -220.959533691406 0.565570890903
-153.743606567383 -73.070465087891 -223.450103759766 1.210135102272
-103.823265075684 -67.248779296875 -223.794128417969 0.718790769577
-100.241165161133 -67.340545654297 -228.180816650391 3.355849981308
-122.096488952637 -61.496833801270 -225.501358032227 4.652963638306
-111.228233337402 -63.473102569580 -228.564529418945 2.530033111572
-153.904907226563 -69.855140686035 -234.110626220703 1.694669961929
-3.791065931320 -67.494857788086 -232.075668334961 1.895079731941
-129.196701049805 -65.615577697754 -228.401062011719 2.046863794327
-157.455673217773 -68.965209960938 -237.131652832031 1.090196132660
-135.403717041016 -66.049613952637 -234.694351196289 1.890656352043
-10.002356529236 -65.933151245117 -244.027542114258 1.256837606430
6.878015041351 -67.247848510742 -245.229476928711 3.170794487000
63.169673919678 -57.937854766846 -241.970504760742 8.407124519348
20.929841995239 -65.185546875000 -249.263946533203 2.446626901627
62.355312347412 -61.742633819580 -248.620315551758 6.316476345062
40.089607238770 -60.600128173828 -244.102905273438 8.299814224243
54.227539062500 -62.966968536377 -249.800369262695 3.696847438812
-152.028823852539 -69.079536437988 -252.112243652344 1.721189260483
-152.914093017578 -65.510284423828 -251.298324584961 2.789515972137
42.717746734619 -69.471481323242 -253.041671752930 1.529986977577
30.348188400269 -60.479621887207 -261.420043945313 2.383216381073
48.881877899170 -58.933208465576 -250.718231201172 5.730042457581
-142.599029541016 -69.095619201660 -258.340332031250 2.583901643753
-135.312911987305 -65.679382324219 -254.609008789063 2.079884052277
-125.234794616699 -66.706054687500 -259.120758056641 0.999696016312
-132.333648681641 -60.910152435303 -258.676269531250 4.168008804321
-139.363571166992 -62.050220489502 -259.633605957031 3.751132249832
-122.594284057617 -66.004837036133 -256.685668945313 2.146899223328
-142.090057373047 -66.773025512695 -260.685852050781 0.208676770329
-126.043617248535 -68.173370361328 -261.208831787109 2.182484149933
-125.186340332031 -60.725074768066 -261.241882324219 4.149670600891
-126.032905578613 -71.199203491211 -263.631439208984 1.406749606133
-118.263320922852 -67.321685791016 -260.223541259766 2.548882722855
-2.707048892975 -64.687248229980 -265.966369628906 2.671215295792
29.920429229736 -66.151420593262 -264.153411865234 0.696586668491
-145.166030883789 -70.534927368164 -264.609954833984 1.475097060204
31.699737548828 -58.857101440430 -268.858673095703 5.534121036530
-7.013968944550 -62.885341644287 -269.693756103516 4.671256542206
16.579233169556 -66.818374633789 -284.928222656250 2.035727024078
-142.157348632813 -66.739868164063 -290.717864990234 1.121343255043
-122.335182189941 -64.190567016602 -288.866882324219 3.017062425613
-133.134811401367 -67.140007019043 -284.026763916016 1.944725036621
-157.566146850586 -64.534790039063 -288.906097412109 1.064885973930
-123.496871948242 -66.031745910645 -288.729522705078 1.309393525124
-116.577522277832 -61.159515380859 -288.764434814453 4.336007595062
-126.729751586914 -63.408802032471 -289.690521240234 2.327106475830
-154.003341674805 -67.641181945801 -296.762725830078 2.829572439194
31.269260406494 -73.461181640625 -15.174078941345 1.544225096703
27.177522659302 -76.621437072754 -21.950803756714 4.417655467987
40.841003417969 -75.945434570313 -19.935625076294 5.088548660278
46.305522918701 -67.272285461426 -27.435434341431 3.006849765778
26.005216598511 -73.658561706543 -28.996286392212 1.464722156525
27.971586227417 -73.902778625488 -32.614673614502 1.955311894417
-35.176456451416 -74.556091308594 -44.883224487305 7.659056663513
-77.871681213379 -73.822494506836 -51.298141479492 3.995018482208
-11.854768753052 -70.519828796387 -57.404903411865 4.968169212341
71.218322753906 -67.277862548828 -68.199111938477 1.233508467674
97.308685302734 -67.659362792969 -67.975746154785 2.165626049042
64.757759094238 -66.091003417969 -81.413352966309 0.356028616428
63.745990753174 -61.266792297363 -83.465721130371 0.756487488747
98.591583251953 -61.959590911865 -84.132034301758 6.006810188293
-60.705505371094 -67.072746276855 -87.322120666504 2.427808284760
-62.502914428711 -65.753623962402 -92.981452941895 1.496612906456
50.617839813232 -63.485656738281 -95.097198486328 0.916841268539
-59.663440704346 -66.164794921875 -98.682571411133 6.223948955536
-69.110923767090 -63.874675750732 -100.546417236328 1.581756830215
-100.759475708008 -67.948318481445 -98.325752258301 4.474721431732
-70.928855895996 -67.667610168457 -100.891937255859 1.670958518982
50.152797698975 -67.011062622070 -107.836936950684 1.330498099327
-69.766014099121 -71.228691101074 -104.558464050293 4.231124877930
51.375934600830 -68.046630859375 -100.173080444336 1.693779826164
98.966888427734 -68.193748474121 -102.477325439453 1.582799434662
90.560699462891 -67.823608398438 -109.434959411621 2.129863977432
-73.667053222656 -69.657920837402 -112.414588928223 1.995988011360
-81.871299743652 -70.361862182617 -110.238090515137 3.263747215271
-63.136829376221 -64.389587402344 -119.022842407227 1.242331147194
-93.441360473633 -67.304016113281 -116.511672973633 3.390616655350
-76.334373474121 -73.719459533691 -130.121734619141 2.196223974228
-88.194770812988 -63.127120971680 -129.006301879883 1.972586631775
-64.097023010254 -67.600776672363 -122.436752319336 2.911223888397
-58.611881256104 -69.343513488770 -118.700927734375 3.847481250763
-88.679344177246 -65.385879516602 -132.482269287109 1.609350800514
-60.024841308594 -67.370346069336 -130.469818115234 0.812071979046
-80.196586608887 -66.903656005859 -125.780525207520 1.872259855270
-69.866935729980 -67.887596130371 -132.783599853516 3.115912914276
-68.415237426758 -70.110252380371 -132.241027832031 4.328786849976
-59.144203186035 -65.017166137695 -137.890213012695 1.434145450592
-53.164318084717 -67.186058044434 -138.624618530273 2.542258024216
-90.283416748047 -68.322418212891 -138.179763793945 1.240497350693
-97.016899108887 -67.373481750488 -140.305114746094 2.473074197769
-88.321105957031 -70.725105285645 -140.459411621094 2.820661783218
25.858087539673 -67.078399658203 -150.190093994141 1.705768227577
-49.923656463623 -68.622055053711 -144.391082763672 1.743701100349
15.119615554810 -62.887100219727 -150.107666015625 2.631852388382
-97.319801330566 -64.300231933594 -161.213165283203 0.980388522148
-94.941383361816 -63.216732025146 -170.424072265625 6.984754085541
-95.756309509277 -60.427825927734 -172.191513061523 7.604998588562
-109.736412048340 -70.343460083008 -170.431167602539 3.861545324326
-105.810050964355 -69.813041687012 -184.153503417969 2.311357736588
-107.435966491699 -61.709915161133 -183.532623291016 2.356363773346
-146.449890136719 -67.592002868652 -187.537155151367 3.459429264069
-108.516288757324 -67.634330749512 -187.660827636719 1.785612940788
-133.391677856445 -61.906932830811 -189.519226074219 6.937892913818
-142.551071166992 -72.198890686035 -198.174423217773 2.354404687881
-124.677368164063 -68.339599609375 -198.444824218750 3.419610738754
-156.372421264648 -71.087974548340 -198.927352905273 2.327219724655
-140.485717773438 -65.317604064941 -200.165740966797 1.089162707329
-120.809310913086 -60.457248687744 -198.381332397461 4.002584934235
-134.447052001953 -66.240463256836 -203.342102050781 0.267385631800
-146.716110229492 -64.254783630371 -212.497253417969 1.151871919632
-130.537902832031 -64.625915527344 -222.625839233398 3.020578145981
-111.828849792480 -63.725914001465 -228.555694580078 2.039189338684
-152.393539428711 -69.465766906738 -227.291198730469 2.573906898499
-118.514694213867 -62.341594696045 -232.968627929688 2.847554922104
-105.733795166016 -64.221641540527 -234.060836791992 6.324029445648
-124.206703186035 -68.633216857910 -235.513122558594 1.635007381439
-131.588821411133 -68.687294006348 -235.707504272461 1.399809718132
-118.742729187012 -60.882080078125 -237.975265502930 6.018967628479
2.273964881897 -65.792114257813 -237.260238647461 1.283306360245
-148.755096435547 -66.715095520020 -236.323501586914 1.947902679443
7.432280063629 -67.053474426270 -234.107131958008 1.557847857475
8.414949417114 -60.376022338867 -243.638290405273 0.888036847115
1.564746975899 -65.874778747559 -241.777725219727 2.563848972321
13.329236984253 -63.422801971436 -242.020248413086 0.805490136147
-142.587615966797 -66.910217285156 -238.033569335938 3.515643596649
-4.187761783600 -64.122825622559 -245.814056396484 1.497159838676
18.636926651001 -58.269943237305 -242.325271606445 1.098889112473
47.769191741943 -59.504699707031 -250.367523193359 5.242803573608
50.899662017822 -61.583019256592 -244.958312988281 4.033351898193
-147.834228515625 -68.021965026855 -251.291458129883 1.867434144020
-6.059854984283 -67.379127502441 -256.332275390625 2.656137228012
31.512746810913 -61.672367095947 -257.243194580078 2.549711704254
-132.682647705078 -58.233242034912 -260.421081542969 6.579118728638
-128.704666137695 -63.010829925537 -261.442871093750 2.325147628784
-128.535476684570 -66.551368713379 -259.446228027344 3.044811725616
25.041706085205 -60.994056701660 -262.666625976563 2.421571493149
-138.934112548828 -64.561157226563 -263.265228271484 3.593986511230
31.707769393921 -64.626670837402 -258.048126220703 1.830001473427
30.633277893066 -60.765872955322 -267.820922851563 4.385425567627
-154.458312988281 -63.836990356445 -264.506134033203 0.899113237858
-147.789215087891 -68.211357116699 -289.560516357422 2.042181015015
-155.313598632813 -66.000045776367 -292.351837158203 1.082291603088
-142.314453125000 -65.195594787598 -289.678436279297 0.924243688583
7.639237880707 -62.993663787842 -296.761444091797 4.165913105011
-154.563735961914 -66.229743957520 -296.776550292969 3.188248395920
46.684017181396 -74.424354553223 -28.266700744629 3.313868284225
38.298336029053 -74.648674011230 -41.631340026855 3.011956453323
-65.799430847168 -70.697540283203 -49.211101531982 1.113458037376
-76.340080261230 -68.186584472656 -47.544029235840 1.049250364304
-26.918130874634 -70.510063171387 -52.607200622559 2.706835746765
-22.116701126099 -70.001663208008 -62.693576812744 3.211117506027
-12.209485054016 -70.366966247559 -69.045219421387 2.691942453384
-28.262651443481 -64.907386779785 -73.288200378418 2.330822706223
68.704223632813 -68.191398620605 -74.049583435059 0.707426011562
-96.682601928711 -68.719108581543 -83.358123779297 1.093009948730
-49.587036132813 -67.916282653809 -84.494926452637 1.471959948540
54.620136260986 -64.026290893555 -84.738182067871 1.807814478874
58.460201263428 -67.442749023438 -89.552970886230 2.845942974091
72.347404479980 -65.750473022461 -86.561836242676 6.418655395508
104.356719970703 -65.721275329590 -96.378425598145 1.121406674385
56.330204010010 -65.937568664551 -92.149780273438 2.921070575714
98.461334228516 -65.552528381348 -103.570426940918 1.528715491295
-78.268051147461 -69.951240539551 -105.328598022461 3.267276525497
-97.517402648926 -70.276794433594 -105.397148132324 2.683394193649
78.197952270508 -65.941467285156 -112.034660339355 3.833112239838
-76.354629516602 -67.845779418945 -101.970550537109 2.513011932373
-80.951049804688 -69.049468994141 -118.856513977051 2.335953712463
-83.512687683105 -65.958992004395 -121.492332458496 1.690504074097
-53.584827423096 -68.746467590332 -126.104431152344 1.668997764587
-79.962791442871 -64.230140686035 -125.358131408691 0.964446425438
-61.021026611328 -70.368087768555 -130.969619750977 1.138982176781
-78.418342590332 -71.966560363770 -137.016204833984 1.020010828972
-73.234672546387 -62.418872833252 -133.183059692383 3.257720470428
-81.788513183594 -65.986366271973 -127.111076354980 1.135595917702
-86.983215332031 -66.817161560059 -127.667251586914 2.061958551407
-60.058383941650 -68.535217285156 -131.697509765625 1.428276896477
-89.057037353516 -69.357101440430 -133.815124511719 1.348242402077
-52.318740844727 -69.444664001465 -132.619766235352 2.154332160950
-51.888225555420 -67.735664367676 -143.459518432617 1.439350605011
26.448379516602 -66.093856811523 -140.540985107422 0.941522479057
-59.509376525879 -62.127986907959 -134.942077636719 1.330947279930
11.641755104065 -66.970413208008 -148.240020751953 2.710155487061
20.047731399536 -62.165630340576 -148.012451171875 1.618279457092
18.444433212280 -65.451629638672 -153.121383666992 1.050356388092
-96.855400085449 -70.718894958496 -146.031417846680 3.145250797272
-95.214187622070 -66.773056030273 -157.575347900391 1.965858578682
-99.522979736328 -61.149795532227 -154.495239257813 1.881814718246
-94.031265258789 -67.477371215820 -156.796737670898 3.371768951416
-91.715576171875 -63.357589721680 -161.043579101563 5.623404026031
-151.463455200195 -72.914283752441 -178.292175292969 1.318121075630
-153.072387695313 -70.074523925781 -177.810409545898 1.057978868484
-104.660766601563 -68.859901428223 -188.235855102539 2.306126356125
-142.655044555664 -62.458190917969 -178.787063598633 1.167853236198
-111.213729858398 -68.803733825684 -179.645187377930 1.004987478256
-149.090209960938 -67.239196777344 -189.284744262695 2.463550806046
-114.241638183594 -67.392044067383 -192.004180908203 1.046277642250
-103.653038024902 -66.823028564453 -187.578186035156 3.176322937012
-145.464050292969 -68.031623840332 -196.084152221680 2.784714937210
-134.148101806641 -66.471755981445 -201.184570312500 2.063730001450
-106.603721618652 -65.168861389160 -200.563217163086 3.392079114914
-114.890174865723 -67.193672180176 -202.441925048828 1.364806056023
-115.587364196777 -63.789203643799 -203.805816650391 1.043509006500
-112.118072509766 -63.804851531982 -205.998748779297 3.722811698914
-133.223022460938 -65.590591430664 -200.002319335938 1.815884232521
-135.656143188477 -66.622146606445 -198.933349609375 3.189983367920
-131.083602905273 -69.290435791016 -200.508789062500 3.746712446213
-122.916976928711 -63.052818298340 -203.885848999023 1.209396719933
-121.247901916504 -62.063945770264 -210.282104492188 6.414783000946
-116.698059082031 -62.582622528076 -207.034042358398 3.291092634201
-146.419006347656 -66.721832275391 -219.685440063477 1.623433470726
-151.529357910156 -65.312194824219 -228.599761962891 2.757064819336
-157.552459716797 -63.241680145264 -223.586242675781 4.211355209351
-140.410140991211 -67.200714111328 -225.056793212891 1.960560798645
-137.886291503906 -64.482421875000 -230.179138183594 3.254334449768
-125.258201599121 -66.467872619629 -223.850112915039 1.547778606415
-141.951492309570 -61.754604339600 -234.210006713867 2.008473157883
-147.339080810547 -67.753440856934 -232.163528442383 1.583376526833
-142.097076416016 -64.554275512695 -226.294235229492 1.774442791939
-130.791381835938 -61.952514648438 -228.866577148438 2.909583806992
-149.556655883789 -64.949470520020 -233.109725952148 2.442483663559
-136.567535400391 -65.179718017578 -235.150161743164 3.401565790176
-125.302085876465 -61.591369628906 -232.467681884766 2.175618886948
-6.515845775604 -64.651771545410 -239.138259887695 1.492705821991
3.345871925354 -62.814212799072 -237.493957519531 1.543313860893
9.025979042053 -61.338748931885 -243.793716430664 1.151699304581
13.148464202881 -61.396404266357 -241.293716430664 1.540432929993
-9.026253700256 -64.524742126465 -246.734985351563 1.045653462410
-12.504638671875 -57.858474731445 -249.990112304688 3.449969768524
44.914459228516 -54.705852508545 -253.936401367188 9.394381523132
50.565021514893 -62.985137939453 -250.611923217773 2.629210472107
-147.413482666016 -63.782894134521 -258.840209960938 0.921023190022
42.894416809082 -58.902557373047 -260.064575195313 7.396350860596
31.155359268188 -59.633045196533 -252.802520751953 5.237428188324
-159.091400146484 -61.205657958984 -256.334442138672 4.733947277069
-151.099227905273 -63.028549194336 -262.342224121094 1.023051023483
-146.830856323242 -64.116569519043 -263.002716064453 1.015043258667
2.268224954605 -62.992610931396 -265.917327880859 1.395786643028
-156.427688598633 -63.805316925049 -267.115478515625 4.131635665894
2.242094039917 -59.967460632324 -278.136657714844 3.664181232452
-143.856369018555 -66.959655761719 -273.836181640625 3.761437416077
-144.698211669922 -62.722778320313 -287.675750732422 1.070030808449
-153.054748535156 -64.408348083496 -284.206359863281 0.845135509968
-150.992996215820 -61.413513183594 -283.256347656250 1.994807839394
-147.189849853516 -62.003921508789 -284.255218505859 0.999860048294
-155.576324462891 -58.105972290039 -290.778656005859 5.693465709686
-150.590850830078 -59.648590087891 -285.100799560547 3.678413152695
-151.867568969727 -63.723728179932 -284.710021972656 1.520394086838
-144.226959228516 -68.007415771484 -289.912994384766 2.096799612045
-141.529144287109 -62.572803497314 -289.501159667969 2.738293647766
14.816988945007 -62.304199218750 -296.469726562500 6.764474868774
-149.960266113281 -57.221961975098 -289.631652832031 6.519968986511
-159.168365478516 -62.891506195068 -292.233184814453 3.951231479645
-150.989608764648 -61.751808166504 -290.335906982422 2.471462726593
-148.413467407227 -61.517662048340 -295.898284912109 2.325733423233
-154.165481567383 -62.875946044922 -288.123809814453 2.049022436142
-152.261672973633 -67.683677673340 -293.181701660156 2.333941221237
3.780930995941 -54.832134246826 -295.941314697266 1.789791941643
-145.173583984375 -62.585067749023 -294.602203369141 2.007847070694
-144.488540649414 -64.259117126465 -294.409088134766 1.160588741302
32.352184295654 -64.208602905273 -21.290908813477 4.621756076813
39.265789031982 -67.755249023438 -15.332029342651 3.838220596313
42.699398040771 -65.379364013672 -27.123134613037 2.345546007156
19.739969253540 -73.793235778809 -33.738773345947 3.050510883331
31.360355377197 -64.458534240723 -38.219394683838 3.028834581375
43.789733886719 -77.274734497070 -39.021957397461 6.158549785614
-56.923831939697 -69.087348937988 -44.905246734619 3.379755496979
-55.862152099609 -70.894027709961 -49.096813201904 1.253608465195
92.999549865723 -65.732002258301 -60.276496887207 3.123426437378
-95.574325561523 -67.512771606445 -66.136512756348 2.161156654358
94.518257141113 -68.132736206055 -70.517471313477 2.462600708008
62.446594238281 -62.787071228027 -68.917289733887 4.215814113617
104.932785034180 -66.622169494629 -79.869674682617 1.752479314804
66.501136779785 -65.161804199219 -72.998893737793 1.248211622238
-39.399951934814 -71.589683532715 -80.336669921875 2.414587974548
58.796760559082 -64.397659301758 -86.081855773926 1.189587831497
-59.421596527100 -66.646102905273 -75.907417297363 6.772799015045
62.185668945313 -61.711830139160 -86.518562316895 2.488127946854
66.789138793945 -64.364372253418 -81.824447631836 2.422784328461
-99.461425781250 -68.738189697266 -80.571212768555 3.969622373581
51.907760620117 -66.740310668945 -92.852775573730 1.638631343842
50.711242675781 -67.748947143555 -97.330116271973 2.299678087234
67.003387451172 -64.565391540527 -93.750427246094 1.230583310127
53.299758911133 -61.879882812500 -95.907714843750 0.615551829338
-80.896003723145 -69.961273193359 -112.195549011230 1.271762132645
86.754104614258 -69.670394897461 -107.021476745605 2.806967973709
-74.940895080566 -64.219322204590 -115.562095642090 2.586030006409
-73.178031921387 -66.002456665039 -109.208244323730 1.991169214249
-84.803169250488 -68.338241577148 -122.845054626465 2.197501897812
-86.002632141113 -66.737121582031 -110.231849670410 2.108704328537
-87.840629577637 -69.722114562988 -120.896591186523 2.556004285812
-77.208190917969 -66.605865478516 -124.444686889648 1.425513625145
-52.674938201904 -62.131042480469 -128.099853515625 1.803118824959
-71.419723510742 -70.463745117188 -136.383117675781 1.594907402992
-52.648139953613 -62.726764678955 -139.401763916016 2.555051803589
-90.069847106934 -66.205703735352 -135.911666870117 2.656177997589
27.589559555054 -62.086914062500 -140.393875122070 3.460878372192
20.136983871460 -63.775203704834 -140.330276489258 0.951794743538
-92.258438110352 -68.379455566406 -140.164077758789 1.487022757530
19.070613861084 -62.927379608154 -157.326553344727 4.993395328522
-86.800651550293 -69.032012939453 -146.396499633789 4.551073551178
-94.434715270996 -65.719772338867 -146.582611083984 3.279802560806
19.538255691528 -62.987590789795 -156.556701660156 4.287144184113
-95.798927307129 -62.674854278564 -148.002395629883 0.426840990782
-94.325164794922 -63.498111724854 -145.856475830078 1.617462873459
-98.551376342773 -64.227180480957 -157.594543457031 2.204234123230
-98.397247314453 -68.479240417480 -158.951934814453 0.837251245975
-105.869522094727 -64.241767883301 -174.557723999023 1.357401251793
-103.692092895508 -62.762237548828 -168.770812988281 1.027333855629
-100.050537109375 -69.982254028320 -164.416183471680 2.357937574387
-104.829437255859 -63.173793792725 -173.715621948242 0.941965937614
-131.997344970703 -74.040763854980 -178.982940673828 10.472398757935
-107.126853942871 -65.369194030762 -177.286819458008 2.516220808029
-141.990203857422 -64.324577331543 -189.059432983398 2.286191225052
-148.459884643555 -70.624855041504 -186.320678710938 2.451955556870
-147.960311889648 -64.476913452148 -195.987030029297 3.049548625946
-125.467910766602 -64.224029541016 -196.308013916016 0.741823911667
-129.373657226563 -61.310337066650 -201.185897827148 3.229050159454
-117.466804504395 -64.102821350098 -197.124771118164 3.169934272766
-140.485702514648 -68.042366027832 -205.454330444336 1.441499352455
-123.980865478516 -64.343444824219 -204.157363891602 0.520188331604
-146.419387817383 -67.183479309082 -206.613983154297 2.142341613770
-150.719207763672 -71.442543029785 -206.437271118164 1.300455808640
-159.752304077148 -63.082004547119 -231.426849365234 4.854072093964
-141.346664428711 -65.213172912598 -237.010925292969 4.380042552948
-128.261535644531 -63.033889770508 -236.093856811523 3.778265714645
-151.370880126953 -62.477481842041 -232.787307739258 1.624491453171
-2.391349077225 -64.163169860840 -236.596298217773 2.230072975159
13.832920074463 -66.861206054688 -242.059631347656 0.945003628731
-0.306663006544 -58.002681732178 -241.277587890625 1.119852304459
-151.583801269531 -66.305191040039 -245.442443847656 0.964980065823
-5.309000968933 -61.925178527832 -250.172668457031 2.027860879898
-149.836700439453 -61.299438476563 -253.432922363281 1.201792597771
-7.273843765259 -61.116863250732 -252.740341186523 4.056409835815
-150.085708618164 -66.347747802734 -252.160430908203 1.273258090019
26.612844467163 -61.516563415527 -256.297485351563 1.728181958199
-155.091171264648 -63.749572753906 -256.814270019531 0.921041369438
-146.417694091797 -66.403602600098 -251.934066772461 0.665873825550
-150.221267700195 -59.040271759033 -253.703109741211 3.165985584259
-151.761093139648 -63.154438018799 -260.080993652344 0.690012156963
33.527587890625 -61.346759796143 -254.360412597656 3.005637407303
29.423393249512 -62.163696289063 -262.464721679688 0.896149873734
-145.220748901367 -63.577007293701 -256.705780029297 0.838057041168
-150.282638549805 -58.622573852539 -259.363342285156 4.408247947693
-157.122940063477 -61.438697814941 -258.366027832031 2.395327091217
-147.636062622070 -64.804542541504 -264.611602783203 1.211874604225
26.968650817871 -59.383880615234 -263.574493408203 2.003863096237
27.384418487549 -57.548919677734 -265.923583984375 1.755242466927
-153.186477661133 -59.233112335205 -262.719421386719 3.558945417404
-141.770889282227 -63.245151519775 -263.085906982422 1.576352000237
-151.661224365234 -64.510841369629 -267.375335693359 1.748274803162
-146.159378051758 -61.991024017334 -259.860260009766 0.989557266235
-148.729629516602 -66.911628723145 -264.515014648438 2.395692825317
-152.226852416992 -60.345016479492 -269.109497070313 4.594499588013
-150.998855590820 -64.517448425293 -270.512451171875 4.586682319641
-152.645645141602 -63.810337066650 -282.112518310547 1.462176799774
-147.410461425781 -67.692687988281 -284.693389892578 2.402387619019
-149.301055908203 -65.011108398438 -278.712249755859 2.225373029709
13.776033401489 -60.102127075195 -286.416717529297 1.332064509392
-155.388793945313 -59.774902343750 -284.897613525391 4.362954139709
-144.376403808594 -59.045780181885 -282.207550048828 5.189514636993
-4.671002864838 -64.870742797852 -291.491485595703 1.948486208916
9.895017623901 -60.981033325195 -297.804107666016 6.215636730194
-152.334396362305 -63.821090698242 -296.290832519531 1.263663768768
26.160017013550 -74.504035949707 -21.458555221558 2.352442264557
42.145866394043 -66.268722534180 -27.643346786499 3.098911523819
53.504032135010 -72.279983520508 -30.776037216187 4.211199760437
42.305713653564 -66.636520385742 -34.485610961914 2.374387264252
26.835906982422 -74.256874084473 -39.974903106689 2.844418525696
40.870876312256 -75.596893310547 -38.366317749023 3.851583242416
81.178985595703 -66.516540527344 -63.797595977783 1.241517782211
78.743995666504 -62.995861053467 -59.397674560547 1.900815725327
-14.730532646179 -71.478385925293 -71.691055297852 2.481468677521
66.486946105957 -63.757453918457 -66.312660217285 1.883874893188
-26.071346282959 -73.829772949219 -76.606575012207 1.167443156242
-25.733608245850 -67.162391662598 -81.018623352051 5.536274909973
-52.652427673340 -68.113571166992 -79.622406005859 5.503875255585
-48.690811157227 -70.396621704102 -81.170425415039 3.901300430298
65.266777038574 -69.651130676270 -83.280868530273 1.341263651848
103.044227600098 -65.676445007324 -94.201637268066 1.140903711319
-61.170680999756 -61.040023803711 -87.234741210938 1.847443580627
53.347583770752 -66.416313171387 -98.443832397461 2.354737758636
64.651039123535 -59.781669616699 -95.938186645508 1.871050834656
106.047454833984 -60.712574005127 -96.460655212402 2.339770555496
-63.119857788086 -62.646476745605 -99.669380187988 3.594247341156
59.474014282227 -58.180458068848 -98.340637207031 3.820822954178
-69.972167968750 -69.989677429199 -102.718856811523 2.328263282776
66.815483093262 -63.943828582764 -98.517585754395 2.266085624695
70.987640380859 -63.589904785156 -103.619560241699 1.430418491364
-68.714813232422 -70.298149108887 -110.591400146484 5.571725368500
-95.359054565430 -65.241310119629 -113.033180236816 2.643897056580
-66.590072631836 -62.703716278076 -111.188850402832 0.766911566257
-78.916694641113 -61.862064361572 -108.765556335449 2.039605855942
-64.004570007324 -63.640487670898 -110.348579406738 2.329016208649
-80.708160400391 -63.954528808594 -116.507270812988 0.767253696918
-79.086502075195 -63.473316192627 -119.993675231934 0.478533089161
-73.558906555176 -67.350028991699 -120.817886352539 3.437922239304
-68.964500427246 -70.228363037109 -126.017387390137 6.367646217346
-78.393890380859 -68.818725585938 -130.696304321289 1.575846433640
30.239988327026 -65.730850219727 -125.702896118164 4.630818367004
-51.605205535889 -63.030117034912 -128.853561401367 2.074062585831
28.790456771851 -63.507057189941 -133.560195922852 1.074252843857
28.218896865845 -67.055084228516 -135.170486450195 2.127305984497
33.787822723389 -61.971885681152 -136.241775512695 2.607411623001
-50.586830139160 -66.828361511230 -138.557418823242 2.138304233551
23.685642242432 -62.823207855225 -149.822448730469 3.916152715683
25.837829589844 -59.553928375244 -137.336929321289 0.910991847515
-143.387649536133 -59.891811370850 -177.420639038086 2.709135055542
-148.292297363281 -66.114646911621 -176.046905517578 1.503026843071
-147.378799438477 -66.725730895996 -178.400207519531 2.141162633896
-145.584518432617 -63.161010742188 -188.190124511719 1.230297207832
-145.702514648438 -63.906501770020 -189.407470703125 1.622681736946
-146.053466796875 -67.399719238281 -192.778030395508 2.759845256805
-139.314392089844 -64.307151794434 -194.253265380859 3.452517509460
-146.104141235352 -65.795097351074 -194.373809814453 1.858525753021
-121.930496215820 -56.366436004639 -197.556427001953 6.915266036987
-134.416015625000 -64.982246398926 -201.127334594727 1.068859100342
-147.806579589844 -63.074275970459 -210.400558471680 1.917544603348
-145.906692504883 -65.257835388184 -222.720291137695 0.852067053318
-150.107727050781 -65.338600158691 -222.751434326172 0.809290111065
-143.766006469727 -58.730113983154 -230.065628051758 2.956805706024
-155.822845458984 -62.688232421875 -227.274154663086 1.804776191711
-147.315216064453 -61.802330017090 -235.685836791992 0.791163921356
-149.748123168945 -62.524749755859 -230.468750000000 1.078649759293
-146.930038452148 -60.384040832520 -228.842010498047 1.900829195976
-138.419265747070 -58.429103851318 -228.309249877930 4.987024307251
-143.720611572266 -61.321304321289 -234.598083496094 1.155119299889
-159.273742675781 -61.363609313965 -233.963272094727 5.423586368561
8.410173416138 -58.112445831299 -242.707275390625 2.116994619370
-12.752113342285 -61.729290008545 -244.384979248047 4.775267124176
-147.251953125000 -66.688346862793 -236.376815795898 1.526538729668
-152.108093261719 -64.055519104004 -237.156265258789 2.371612548828
-145.082778930664 -66.462593078613 -234.891448974609 1.257436156273
12.819761276245 -58.518478393555 -249.459960937500 3.653792858124
-149.050537109375 -58.103347778320 -241.443038940430 5.472910881042
-146.191604614258 -57.913963317871 -253.123962402344 4.223464965820
-0.539804995060 -56.582473754883 -250.953262329102 4.951745986938
-147.945816040039 -64.318283081055 -258.049041748047 1.266648173332
-148.144058227539 -63.726009368896 -255.125473022461 0.482712417841
-145.536773681641 -61.996345520020 -258.049682617188 1.420576214790
-141.435638427734 -62.402519226074 -258.991424560547 1.763397574425
25.339763641357 -56.264003753662 -262.248779296875 1.535755634308
-150.782562255859 -58.527351379395 -267.627532958984 4.486577033997
24.468683242798 -61.667095184326 -270.681243896484 1.219898581505
15.599542617798 -61.310039520264 -292.860351562500 4.862876892090
0.540461003780 -55.248027801514 -291.151641845703 1.018291711807
13.831710815430 -55.069309234619 -290.776306152344 1.273656964302
29.397129058838 -69.184852600098 -18.384763717651 1.815821170807
44.374267578125 -74.524421691895 -41.905456542969 4.679985523224
