-146.135284423828 -76.416313171387 -214.803878784180 1.547477364540
95.833885192871 -75.188377380371 -209.035339355469 1.112034440041
-36.395092010498 -77.708328247070 -208.767639160156 1.177488803864
-26.730344772339 -76.258491516113 -218.753479003906 2.161308765411
4.730776786804 -78.729858398438 -212.425338745117 3.254248857498
-73.355758666992 -76.386383056641 -215.158477783203 1.955771327019
-28.407239913940 -76.339080810547 -210.488571166992 1.623064398766
-9.245944023132 -81.078330993652 -219.370086669922 2.042771816254
-81.329666137695 -81.100265502930 -220.214935302734 4.985600948334
-14.585425376892 -80.889976501465 -221.143890380859 4.058025836945
8.298497200012 -76.404235839844 -217.119949340820 1.473962903023
16.525825500488 -84.419807434082 -222.838012695313 4.326499938965
-147.306671142578 -77.905670166016 -221.775390625000 2.047955274582
-5.353449821472 -74.520385742188 -217.892852783203 1.310508847237
-92.761627197266 -73.802589416504 -225.509185791016 4.628267288208
-24.120414733887 -73.052726745605 -220.546264648438 1.872699260712
93.097969055176 -78.152404785156 -212.228683471680 1.012722134590
5.476795196533 -79.306732177734 -230.642471313477 2.990606069565
13.553091049194 -81.413627624512 -216.586364746094 1.754710912704
77.859344482422 -70.000427246094 -222.272827148438 2.898962736130
1.779904961586 -76.015914916992 -227.808471679688 0.683710932732
84.495414733887 -74.768325805664 -221.583419799805 1.936915636063
-17.313764572144 -76.337623596191 -225.157699584961 1.353265404701
11.791237831116 -79.412155151367 -224.895431518555 0.734029650688
-150.388641357422 -79.656188964844 -229.333740234375 0.989118576050
-19.279880523682 -85.278900146484 -229.043182373047 8.724139213562
0.423249989748 -81.886863708496 -228.438766479492 2.554093122482
-152.363616943359 -80.480453491211 -232.591384887695 1.467733621597
-134.862411499023 -78.234237670898 -230.565231323242 0.353205144405
10.014415740967 -75.685073852539 -229.027221679688 3.015999078751
-6.843616008759 -76.688964843750 -242.747329711914 3.304599523544
-139.106857299805 -78.374595642090 -235.658584594727 4.939625263214
-149.575317382813 -81.829406738281 -238.949417114258 1.120910644531
-145.871841430664 -75.048667907715 -242.583038330078 1.325731754303
-26.488454818726 -77.865058898926 -236.718566894531 1.631116747856
-145.256790161133 -76.035148620605 -248.864166259766 2.807608842850
18.081441879272 -76.135864257813 -241.171524047852 1.825778365135
6.247122764587 -78.059677124023 -245.972412109375 0.647783696651
-153.686370849609 -75.003402709961 -240.516189575195 3.621959447861
-153.211471557617 -77.522964477539 -246.577362060547 2.664287805557
-46.438243865967 -77.675056457520 -242.096435546875 2.041431427002
-33.991931915283 -81.329238891602 -247.264358520508 3.979946136475
5.759761810303 -79.551628112793 -251.296783447266 2.995464086533
-35.985488891602 -75.240859985352 -249.514999389648 5.100522994995
23.560430526733 -79.311790466309 -252.749771118164 4.828345775604
-3.045531034470 -78.555351257324 -246.792892456055 2.260996103287
-155.147842407227 -75.704772949219 -256.678375244141 2.122983932495
-6.060695171356 -70.418960571289 -249.247146606445 3.788366556168
-141.636260986328 -79.644264221191 -256.401611328125 0.709222376347
-67.071128845215 -78.284774780273 -253.491394042969 3.804243803024
-154.545547485352 -84.591819763184 -262.159393310547 2.430723905563
-126.706275939941 -80.731895446777 -266.282562255859 6.819667816162
-150.738754272461 -73.774131774902 -263.822937011719 1.421545147896
-12.532917976379 -75.238227844238 -269.084869384766 1.575060009956
-145.727859497070 -79.854476928711 -268.231506347656 2.131860017776
-149.707412719727 -77.984268188477 -267.522155761719 2.466335535049
-11.186032295227 -79.660858154297 -269.841156005859 1.344132065773
-149.127334594727 -78.908493041992 -271.475799560547 0.701846182346
-5.226199150085 -80.537162780762 -285.482604980469 4.327917575836
-44.341041564941 -79.443519592285 -282.967681884766 4.885556697845
-138.811492919922 -79.870567321777 -288.943084716797 2.260692596436
-133.533432006836 -74.413185119629 -284.615692138672 1.451394677162
-125.882225036621 -76.960624694824 -286.998748779297 1.183982133865
-55.415840148926 -76.031341552734 -281.920989990234 5.184787750244
-114.209693908691 -76.835922241211 -293.707672119141 4.025355339050
15.271148681641 -83.358924865723 -291.131683349609 4.878849029541
-62.855754852295 -76.900497436523 -288.950317382813 1.423774600029
-141.603591918945 -74.712829589844 -290.734313964844 1.178444862366
-62.836807250977 -73.610816955566 -289.266876220703 2.496256828308
-143.762741088867 -83.615028381348 -294.238006591797 2.596889019012
-119.699630737305 -76.145950317383 -288.218231201172 1.349954724312
-47.325664520264 -76.425582885742 -294.141723632813 3.696029663086
-40.389282226563 -77.623634338379 -292.960937500000 2.561119794846
-134.691314697266 -77.595733642578 -293.837615966797 2.360854387283
-12.131809234619 -72.406730651855 -294.707641601563 3.509131908417
-1.718415021896 -80.749900817871 -294.034332275391 5.057982444763
8.025040626526 -77.060089111328 -292.680816650391 1.511530041695
12.998204231262 -76.642204284668 -295.125000000000 2.153892517090
-148.194534301758 -82.434379577637 -299.465942382813 2.195674419403
-145.536056518555 -75.697303771973 -302.151306152344 2.039603710175
-73.832832336426 -74.409713745117 -65.714729309082 3.997890949249
84.533592224121 -77.209327697754 -78.600120544434 1.419980645180
76.920204162598 -77.947723388672 -76.685600280762 2.728980064392
-29.957801818848 -81.788513183594 -76.441490173340 2.548990964890
82.726661682129 -75.530464172363 -74.083328247070 1.482456922531
-41.946117401123 -74.659072875977 -83.376976013184 0.804696142673
87.617507934570 -81.373031616211 -78.127853393555 4.828861236572
86.720893859863 -81.046112060547 -80.346336364746 4.619225978851
-73.234535217285 -73.702041625977 -96.231246948242 4.740619659424
76.247749328613 -76.727851867676 -90.747131347656 1.801682353020
77.592369079590 -74.112419128418 -98.264617919922 1.268975615501
89.714462280273 -75.744003295898 -90.028396606445 2.956360578537
51.067363739014 -77.242858886719 -92.698059082031 3.272040128708
-81.883087158203 -82.528999328613 -104.037452697754 2.399096488953
-86.321128845215 -72.920730590820 -102.259147644043 4.576957702637
47.680820465088 -76.323722839355 -110.708877563477 1.214578270912
-94.843154907227 -80.742774963379 -112.446868896484 5.434343338013
41.422134399414 -76.976226806641 -116.321197509766 2.319300413132
108.867080688477 -75.714530944824 -115.397773742676 2.756098031998
105.764595031738 -73.716392517090 -131.506896972656 3.269753456116
22.844230651855 -72.597480773926 -139.233230590820 2.467339277267
110.877334594727 -81.669136047363 -130.255691528320 5.969043254852
25.788955688477 -74.717994689941 -135.117416381836 1.517030715942
107.966072082520 -78.140098571777 -132.151641845703 4.226032733917
30.468994140625 -81.161766052246 -139.159439086914 1.568804383278
-54.624366760254 -80.339981079102 -153.363128662109 4.824986934662
32.964302062988 -76.900802612305 -141.768005371094 2.290862083435
109.903350830078 -75.110237121582 -137.070144653320 2.319682121277
-52.623271942139 -77.886268615723 -151.885910034180 1.613256931305
26.951349258423 -81.349555969238 -147.204971313477 2.362928867340
-57.559383392334 -77.306243896484 -137.013595581055 2.930215120316
-58.128623962402 -83.420188903809 -150.813858032227 8.962984085083
-54.963546752930 -73.397186279297 -153.550170898438 2.312836885452
-68.795242309570 -79.710502624512 -158.297103881836 2.004129409790
109.645011901855 -75.236053466797 -147.901901245117 2.556373357773
-53.416469573975 -75.881896972656 -154.350036621094 2.601894378662
17.114923477173 -79.321815490723 -160.725753784180 4.589061737061
107.212417602539 -81.307632446289 -157.386825561523 5.834730148315
-70.279762268066 -80.331314086914 -158.221862792969 3.471603870392
-50.963821411133 -75.553123474121 -159.488601684570 2.691739559174
4.742553234100 -75.775520324707 -159.074249267578 0.871847450733
-65.815422058105 -73.341773986816 -160.023345947266 0.898469865322
-61.374843597412 -78.281372070313 -165.045959472656 1.839165329933
-3.181257009506 -85.067024230957 -162.666442871094 6.765740871429
-46.960098266602 -80.375785827637 -174.092803955078 6.614093303680
24.766111373901 -73.869796752930 -165.901596069336 4.040930747986
-69.098991394043 -76.669776916504 -165.366775512695 1.740402340889
-52.334922790527 -72.166854858398 -170.846008300781 4.945136547089
20.579360961914 -76.182434082031 -163.897796630859 2.413370370865
-32.410156250000 -82.284065246582 -177.497528076172 2.401440620422
-34.979339599609 -71.527130126953 -169.859573364258 2.774886846542
12.300757408142 -74.328987121582 -177.694000244141 3.375926494598
-40.435401916504 -81.580520629883 -178.532760620117 5.716155052185
-9.722583770752 -76.159286499023 -176.412200927734 1.617384672165
-66.235908508301 -76.390792846680 -173.240280151367 3.413882017136
-8.124296188354 -77.601028442383 -172.594726562500 2.361054182053
-25.235467910767 -82.542144775391 -180.076187133789 3.205884933472
16.961328506470 -79.219635009766 -184.315170288086 1.027930140495
-38.518924713135 -75.585449218750 -178.576873779297 1.419932723045
15.336864471436 -77.783073425293 -179.932968139648 2.714547634125
-19.406133651733 -77.097000122070 -187.932113647461 0.676789641380
-35.142387390137 -77.369979858398 -182.541259765625 2.016642332077
-147.550476074219 -70.275466918945 -190.544479370117 3.163297891617
-26.773284912109 -76.839088439941 -188.059341430664 1.490342855453
-147.612167358398 -74.683326721191 -196.474914550781 1.928169965744
-154.311126708984 -77.261428833008 -192.229843139648 3.558327913284
-47.732975006104 -80.354064941406 -191.229354858398 2.533292055130
100.288810729980 -79.652641296387 -193.786422729492 2.629317760468
-147.631866455078 -75.555564880371 -195.597915649414 3.104607820511
-153.442367553711 -77.774864196777 -201.890838623047 0.746668934822
18.202520370483 -77.094367980957 -197.348861694336 1.094071745872
-136.722640991211 -73.252578735352 -198.335327148438 2.361430168152
20.810106277466 -70.787612915039 -198.762802124023 1.492056727409
-141.784606933594 -72.935974121094 -206.038391113281 3.138569593430
8.777206420898 -77.374176025391 -196.976669311523 2.997490406036
-138.997985839844 -74.960838317871 -205.854812622070 4.344342231750
5.956867218018 -74.706344604492 -207.120437622070 1.421455025673
-151.111953735352 -76.093772888184 -204.928680419922 0.872360169888
89.605598449707 -72.647781372070 -204.089447021484 4.001888275146
-15.545699119568 -74.429191589355 -208.770156860352 2.244831800461
-28.133300781250 -74.795547485352 -208.076461791992 0.968105912209
-11.771257400513 -81.490844726563 -204.775527954102 4.251029014587
-151.161804199219 -79.926551818848 -213.467819213867 3.309489250183
-42.524837493896 -79.487411499023 -209.579376220703 4.590392589569
-84.685119628906 -75.289123535156 -212.525421142578 1.390256404877
-31.641525268555 -77.480911254883 -214.961669921875 1.479720354080
16.343235015869 -71.478263854980 -210.092697143555 2.051144838333
-147.742675781250 -77.704826354980 -211.287231445313 1.470999240875
-88.284461975098 -76.044654846191 -216.303497314453 1.848828077316
-26.304233551025 -76.518707275391 -216.966049194336 1.081423163414
-26.886352539063 -71.988113403320 -223.152618408203 4.020156383514
-16.377262115479 -74.191535949707 -219.175399780273 1.383804082870
-26.429082870483 -75.738952636719 -217.702606201172 1.168125391006
-80.698188781738 -77.608032226563 -222.288619995117 6.017390727997
-85.138679504395 -78.195625305176 -225.862930297852 8.345571517944
-22.998653411865 -77.814613342285 -225.348007202148 2.887540102005
-7.192474842072 -74.743888854980 -223.675170898438 1.813260555267
-149.053588867188 -73.413864135742 -219.870712280273 3.206177711487
-3.711374998093 -73.456596374512 -219.398864746094 0.472712337971
81.270378112793 -74.209335327148 -225.789779663086 2.028763294220
-145.443313598633 -80.925743103027 -232.325714111328 1.401127576828
-7.364735126495 -75.064002990723 -225.158157348633 1.054451465607
-144.702056884766 -76.957084655762 -234.805938720703 1.387087464333
-151.364135742188 -84.499488830566 -229.445907592773 1.638749480247
-7.277660846710 -76.009010314941 -230.660049438477 1.286532640457
20.156755447388 -76.661872863770 -222.482849121094 2.785123109818
-142.020416259766 -76.392295837402 -231.714324951172 1.134381294250
-15.416700363159 -76.026947021484 -233.775558471680 4.108818531036
74.855255126953 -77.169006347656 -227.750320434570 2.826541900635
80.649909973145 -77.265983581543 -236.611297607422 6.243778228760
7.485909938812 -73.393928527832 -233.060913085938 1.763046503067
-25.917848587036 -74.094467163086 -245.192276000977 2.542049646378
-21.714065551758 -76.579757690430 -235.815383911133 3.060017347336
7.479945182800 -75.349708557129 -245.777160644531 2.140515327454
-47.662609100342 -72.146812438965 -245.117980957031 2.170699834824
-27.140384674072 -77.733551025391 -250.302505493164 7.390904426575
7.322605133057 -77.458106994629 -246.155807495117 1.302036762238
-65.391380310059 -76.415687561035 -252.916870117188 2.693459272385
-31.174325942993 -73.673339843750 -250.947219848633 7.675411224365
-44.577629089355 -75.173248291016 -245.846923828125 1.396297693253
-151.495986938477 -75.285659790039 -247.265594482422 2.078809499741
-50.467651367188 -77.662460327148 -251.794540405273 4.858368396759
-55.244579315186 -76.341506958008 -248.843612670898 0.952991127968
-65.519706726074 -82.250877380371 -253.171142578125 6.189785957336
-6.894248008728 -72.724891662598 -251.553558349609 3.655834197998
-84.952415466309 -73.332336425781 -255.805206298828 0.619721591473
-149.006286621094 -82.194412231445 -262.469543457031 2.280609369278
-138.488281250000 -84.518142700195 -262.735473632813 2.397960186005
-125.580200195313 -71.948188781738 -265.543182373047 1.488122582436
-154.724487304688 -73.897377014160 -265.947418212891 1.908646106720
18.886667251587 -74.938285827637 -262.343170166016 3.261864423752
-10.545502662659 -75.716812133789 -270.810638427734 2.584107637405
-152.727523803711 -76.931770324707 -269.611389160156 2.658780813217
-152.119506835938 -75.534759521484 -278.467102050781 2.737600803375
-141.886505126953 -78.975372314453 -284.375152587891 2.299756526947
-56.551116943359 -79.735084533691 -287.651367187500 3.311743974686
-35.977790832520 -74.620109558105 -290.115203857422 1.673439860344
-24.194187164307 -75.777976989746 -295.020294189453 4.349575996399
-13.808016777039 -76.084213256836 -288.838348388672 2.209051370621
-66.796455383301 -76.047248840332 -287.289062500000 1.039104938507
-76.958564758301 -74.614044189453 -288.930206298828 1.438956737518
-5.682744026184 -78.514770507813 -290.859680175781 1.979714870453
11.573947906494 -77.998527526855 -292.463806152344 2.539253473282
-133.556442260742 -78.937789916992 -293.098724365234 3.107216596603
-76.958343505859 -73.373931884766 -292.064514160156 1.790709853172
-147.482345581055 -76.347839355469 -296.084564208984 1.276720881462
-93.000839233398 -74.489067077637 -292.704345703125 1.582778811455
-68.824661254883 -73.315361022949 -292.601501464844 2.297637462616
-83.849266052246 -78.476913452148 -293.066009521484 4.350389003754
-63.915836334229 -79.046752929688 -292.376708984375 4.104510307312
-20.926610946655 -75.971458435059 -296.731048583984 5.327991962433
-1.899885058403 -74.192787170410 -292.631469726563 1.290758490562
-155.314392089844 -77.372962951660 -298.540863037109 2.637803316116
-144.729934692383 -78.369010925293 -301.172119140625 1.812276124954
-144.345565795898 -76.085723876953 -306.836486816406 1.251159787178
-153.658615112305 -75.566429138184 -312.216217041016 1.532909274101
-63.206821441650 -75.217987060547 -58.760257720947 2.336170196533
-51.728370666504 -73.380683898926 -55.659362792969 2.977221965790
-47.072849273682 -72.966384887695 -56.115852355957 3.385751008987
-80.328964233398 -81.248176574707 -61.472740173340 5.440567493439
-34.921245574951 -75.990646362305 -60.908710479736 1.497417688370
-31.938772201538 -75.902694702148 -80.433067321777 2.336487770081
71.759864807129 -81.533813476563 -86.671752929688 6.033643245697
77.167388916016 -77.891387939453 -86.832305908203 0.753498554230
76.150230407715 -74.678085327148 -87.032974243164 1.999123930931
93.439491271973 -80.227699279785 -90.999702453613 3.473094701767
69.624328613281 -77.200302124023 -92.484550476074 4.528637886047
53.684764862061 -77.764068603516 -94.901321411133 2.023026704788
41.524723052979 -76.403152465820 -102.764930725098 2.552918910980
-68.648300170898 -80.030761718750 -105.616233825684 6.043731212616
-76.560302734375 -73.964927673340 -101.591575622559 1.878983139992
41.121086120605 -73.703590393066 -103.910156250000 1.179963111877
-87.080291748047 -77.840904235840 -111.403778076172 1.310956478119
-94.939559936523 -71.771209716797 -114.218780517578 3.144195079803
45.787403106689 -73.720695495605 -103.736389160156 1.982352375984
101.982627868652 -74.093467712402 -113.234596252441 4.389472007751
31.115106582642 -77.522392272949 -122.595916748047 1.452354550362
42.067173004150 -80.239547729492 -117.456207275391 1.392308950424
41.050140380859 -77.828346252441 -124.088050842285 1.395951509476
26.114490509033 -76.515556335449 -127.898918151855 3.218630790710
106.782508850098 -74.914245605469 -116.831649780273 3.175702333450
30.047914505005 -79.048889160156 -126.243988037109 2.530598640442
28.624174118042 -75.213691711426 -131.001312255859 1.902214169502
-44.415321350098 -72.241989135742 -144.683685302734 1.238556265831
-71.890266418457 -77.592018127441 -151.137268066406 2.579165697098
-54.605911254883 -74.722312927246 -152.530807495117 2.386142730713
-73.531440734863 -75.536033630371 -144.442550659180 0.992530465126
-43.590698242188 -77.167457580566 -151.479324340820 1.926762223244
107.417884826660 -73.319564819336 -151.125595092773 2.196474790573
-73.786109924316 -75.989112854004 -155.488342285156 3.035767793655
19.804969787598 -82.314910888672 -153.615722656250 5.431599617004
30.291931152344 -71.238586425781 -152.022048950195 1.450120210648
112.279869079590 -72.983802795410 -153.501266479492 0.610385298729
5.426188945770 -72.463195800781 -157.802764892578 1.579523563385
31.419570922852 -73.680000305176 -158.025604248047 1.977828621864
-60.534729003906 -76.394119262695 -162.539550781250 1.239243388176
-49.304847717285 -79.694511413574 -173.360107421875 5.554366588593
17.013114929199 -75.801147460938 -165.999954223633 2.475656747818
-69.478179931641 -73.864723205566 -170.222946166992 4.502902030945
-66.558303833008 -71.649139404297 -162.318862915039 2.006930828094
109.224624633789 -79.042755126953 -165.031295776367 2.159010171890
-13.560941696167 -70.678375244141 -169.646804809570 6.813886165619
-58.076030731201 -79.528266906738 -179.165527343750 1.712146997452
-32.703662872314 -73.989868164063 -175.795547485352 3.620273828506
-56.877082824707 -75.439224243164 -174.732025146484 1.341970086098
28.733137130737 -81.698242187500 -170.582550048828 3.637782335281
108.344993591309 -69.280761718750 -167.561782836914 1.887834668159
107.306198120117 -79.800491333008 -181.018142700195 2.445124626160
113.203788757324 -78.621406555176 -191.536651611328 6.657310962677
105.990638732910 -77.015167236328 -173.450561523438 1.893939971924
-60.404376983643 -77.159042358398 -193.844650268555 9.002927780151
-54.405673980713 -74.404411315918 -183.548690795898 0.691205501556
21.597066879272 -76.359695434570 -185.510147094727 2.453334569931
-53.828216552734 -69.109657287598 -188.265289306641 6.362244606018
-24.598047256470 -73.175132751465 -188.879165649414 3.359898567200
-52.025531768799 -73.512611389160 -194.069824218750 3.664731025696
-145.736755371094 -78.128974914551 -200.735015869141 2.277129650116
98.261924743652 -72.935440063477 -192.041427612305 1.167132735252
-47.540481567383 -75.497230529785 -192.977798461914 1.350538492203
-15.678989410400 -77.952407836914 -197.030975341797 1.057581543922
-138.978454589844 -76.257431030273 -206.194931030273 4.139611721039
-45.907382965088 -78.100448608398 -197.478698730469 1.230873584747
104.709487915039 -83.109497070313 -193.517288208008 6.164823532104
106.595451354980 -76.893608093262 -189.124221801758 0.710830211639
-48.947723388672 -78.463966369629 -200.113769531250 1.848705053329
-24.622184753418 -75.046852111816 -197.072204589844 2.193596363068
-151.324447631836 -81.987251281738 -204.780166625977 2.149573802948
-28.755495071411 -73.805900573730 -203.311294555664 4.121742248535
-153.775482177734 -79.106376647949 -201.913253784180 1.721947550774
-154.034591674805 -76.862350463867 -206.718673706055 3.880679607391
-142.925170898438 -76.335945129395 -204.951629638672 1.280215740204
-38.961334228516 -75.142852783203 -198.904937744141 1.890708208084
101.557792663574 -78.251411437988 -200.621948242188 1.185523748398
-39.681427001953 -74.704010009766 -203.590820312500 1.122151136398
-145.448715209961 -79.104751586914 -205.391937255859 1.822599530220
-39.036521911621 -76.330253601074 -211.483581542969 2.733946084976
-19.822587966919 -78.070838928223 -212.232376098633 3.124322175980
92.460021972656 -76.947509765625 -203.876586914063 1.541480422020
93.579971313477 -76.436027526855 -206.890777587891 2.134003639221
-27.967559814453 -77.898292541504 -218.391647338867 2.232586383820
-88.982139587402 -79.433677673340 -215.189865112305 2.083087444305
-71.686248779297 -77.392616271973 -214.786361694336 2.522210359573
-19.341854095459 -76.999847412109 -219.963378906250 1.782380461693
-151.457107543945 -72.286384582520 -218.117340087891 1.220746040344
84.614463806152 -78.457489013672 -217.143127441406 2.627801418304
86.368865966797 -72.689903259277 -222.111251831055 1.771800518036
87.007476806641 -78.739631652832 -218.649780273438 2.610386610031
-101.664344787598 -69.259452819824 -226.795181274414 1.650424361229
-147.491424560547 -77.745140075684 -228.644073486328 1.600169897079
-19.287069320679 -82.000709533691 -221.079452514648 3.571070671082
79.998878479004 -74.027816772461 -224.277618408203 1.537659883499
-146.100280761719 -83.896041870117 -229.647247314453 1.013103127480
-34.130176544189 -75.390899658203 -223.866821289063 7.732077121735
-133.696975708008 -69.369026184082 -237.035263061523 2.636426448822
-12.777555465698 -77.724792480469 -228.924026489258 2.496533870697
18.709497451782 -74.993301391602 -221.052795410156 1.331042051315
14.601730346680 -74.851501464844 -236.734924316406 2.265098333359
-157.358688354492 -80.021049499512 -239.120315551758 6.907736778259
-123.712211608887 -72.432495117188 -235.115905761719 1.255514383316
-9.316880226135 -75.900009155273 -234.382904052734 2.232225656509
0.632093012333 -73.385826110840 -241.791976928711 1.402521371841
65.893142700195 -78.313720703125 -236.029266357422 4.124461650848
67.462219238281 -74.813957214355 -237.120346069336 1.495267510414
0.728036999702 -77.123481750488 -242.771148681641 2.013147354126
19.329477310181 -76.631011962891 -238.712371826172 1.296018242836
-24.801162719727 -74.432594299316 -244.217819213867 2.182270050049
-40.328464508057 -79.596229553223 -248.845779418945 4.087111473083
-48.487995147705 -78.987319946289 -238.407272338867 3.641135692596
-42.088039398193 -78.641845703125 -245.327499389648 0.592109024525
-19.818782806396 -78.994606018066 -246.765762329102 4.753579139709
-55.637264251709 -72.793930053711 -243.506744384766 1.244938492775
4.883823871613 -75.401611328125 -246.472610473633 2.639221668243
-72.413429260254 -70.466789245605 -249.423248291016 0.851370394230
14.116653442383 -72.942756652832 -246.592575073242 1.837191581726
-146.834259033203 -78.421257019043 -252.751098632813 1.401791691780
-69.493843078613 -80.679130554199 -254.784240722656 5.730436801910
10.843417167664 -77.925643920898 -249.853561401367 2.762259483337
-165.668029785156 -75.953933715820 -255.098602294922 2.594863653183
16.969757080078 -73.675582885742 -251.042602539063 2.499253988266
-84.251541137695 -77.965377807617 -256.607299804688 3.992649078369
-74.817352294922 -72.282615661621 -254.049423217773 0.801731109619
23.032625198364 -75.365432739258 -258.586181640625 1.977278709412
-88.620391845703 -73.817901611328 -260.415191650391 4.059822559357
-131.166061401367 -77.283500671387 -259.160980224609 1.940948009491
-137.274841308594 -77.629989624023 -261.553588867188 0.829825639725
-134.662765502930 -76.685180664063 -262.332672119141 2.200562000275
-143.117446899414 -73.878868103027 -263.361419677734 1.461262345314
-139.770553588867 -79.273880004883 -259.929992675781 2.487765073776
-136.420547485352 -74.128013610840 -267.064361572266 4.490223407745
-158.581161499023 -77.218765258789 -261.966857910156 3.601430654526
-128.692443847656 -72.277618408203 -267.558227539063 3.328983783722
-135.153457641602 -73.211250305176 -262.241607666016 0.589053273201
-162.294311523438 -79.650283813477 -271.231048583984 6.168769836426
-154.866729736328 -76.186920166016 -268.068572998047 2.746225833893
-149.707687377930 -75.383415222168 -270.739959716797 2.472339868546
-145.979156494141 -81.148086547852 -269.071166992188 1.776590466499
14.108454704285 -84.755836486816 -283.335632324219 7.440942764282
-164.003250122070 -79.362365722656 -272.541839599609 5.751930236816
-155.039291381836 -72.108810424805 -280.907409667969 2.165673971176
-5.522709846497 -75.511924743652 -278.361694335938 1.626411199570
-160.354278564453 -76.378997802734 -271.674499511719 3.431407928467
15.381683349609 -80.103134155273 -282.068237304688 3.875502109528
-152.874771118164 -74.686035156250 -287.115661621094 2.359050750732
-160.520156860352 -72.839797973633 -296.510101318359 3.091959953308
-152.106521606445 -72.510475158691 -285.475189208984 2.942118406296
-168.598617553711 -68.566467285156 -285.954956054688 2.649468660355
2.959789037704 -74.386039733887 -290.207153320313 2.642310619354
11.481495857239 -80.611808776855 -283.976989746094 4.320814132690
-96.886154174805 -68.748542785645 -289.634613037109 1.660101413727
-151.463653564453 -77.539268493652 -292.778533935547 2.535622835159
-147.649078369141 -76.714248657227 -287.991394042969 0.907177805901
-110.214492797852 -72.246429443359 -295.105163574219 4.098748683929
-149.518951416016 -74.370628356934 -295.428833007813 2.470811843872
-149.083068847656 -74.641143798828 -298.492584228516 2.318388938904
-67.817718505859 -75.075149536133 -292.995605468750 2.142405509949
-161.277648925781 -78.893356323242 -297.327453613281 6.507011413574
-120.498916625977 -78.047676086426 -292.007232666016 3.808839797974
-42.537471771240 -80.488914489746 -294.085540771484 5.557651519775
-152.152847290039 -73.030189514160 -297.077301025391 1.942118287086
-141.352767944336 -75.633529663086 -295.456817626953 3.953527450562
-17.684997558594 -79.096931457520 -294.289855957031 4.037509918213
-125.666625976563 -74.027709960938 -302.158538818359 7.693932056427
2.815510988235 -76.246520996094 -292.498840332031 1.525932669640
12.101295471191 -78.437866210938 -290.965545654297 2.313035726547
-132.350189208984 -74.891433715820 -299.607269287109 6.045891761780
-144.381347656250 -73.856979370117 -299.012756347656 1.691572666168
-155.048782348633 -72.737442016602 -312.958679199219 1.459426045418
-75.545570373535 -74.883689880371 -52.254337310791 3.256066799164
-29.098495483398 -74.759353637695 -63.544353485107 2.169727563858
-26.478294372559 -76.621238708496 -67.731674194336 1.085627436638
70.930870056152 -74.435104370117 -73.727149963379 3.164401531219
86.674102783203 -74.827262878418 -75.976760864258 1.350175380707
-40.778690338135 -70.251289367676 -81.205718994141 3.251346111298
76.771636962891 -77.619560241699 -75.472648620605 2.936301469803
83.669143676758 -79.436256408691 -80.171882629395 2.722779273987
68.775169372559 -75.480262756348 -80.492134094238 2.995493650436
65.641372680664 -72.936210632324 -89.558311462402 3.218508481979
-49.115318298340 -79.003952026367 -87.238281250000 1.551930427551
-97.767898559570 -73.747596740723 -94.238784790039 4.411640167236
54.974441528320 -77.412002563477 -92.501190185547 2.486502647400
44.753307342529 -77.604820251465 -97.809974670410 2.614577054977
93.340866088867 -71.134529113770 -97.951538085938 3.057980298996
-97.439353942871 -72.197204589844 -107.180412292480 3.602596282959
81.332275390625 -74.775924682617 -96.361923217773 1.949768662453
79.864906311035 -75.298797607422 -100.281013488770 2.379105329514
87.342346191406 -76.946990966797 -95.263351440430 0.920568287373
79.150573730469 -71.111633300781 -103.964088439941 1.228735804558
90.668205261230 -74.247444152832 -100.602058410645 2.122080326080
-86.831207275391 -81.414443969727 -105.299682617188 0.893937766552
38.450859069824 -79.867248535156 -111.541900634766 1.357262015343
100.515541076660 -76.386215209961 -112.903266906738 6.340391635895
109.733535766602 -71.355041503906 -109.404518127441 1.988379716873
43.509616851807 -74.638320922852 -118.348983764648 2.281901836395
107.048461914063 -71.649398803711 -124.717796325684 1.805089831352
112.154869079590 -77.382118225098 -135.032089233398 2.085606098175
-54.627471923828 -73.860336303711 -133.058074951172 2.318788766861
28.076976776123 -76.732780456543 -133.993637084961 1.425271630287
31.082593917847 -80.399948120117 -128.922378540039 1.790268898010
19.155427932739 -72.710144042969 -144.034332275391 3.861548185349
111.873214721680 -74.938346862793 -137.889083862305 1.295270085335
107.946846008301 -76.621704101563 -133.598434448242 2.799114704132
-76.740249633789 -77.172187805176 -152.222869873047 4.567211627960
-50.846492767334 -77.675910949707 -151.346969604492 1.684058308601
-75.746734619141 -72.900535583496 -151.932495117188 3.085455894470
18.121240615845 -78.260719299316 -153.549285888672 4.902628898621
109.131683349609 -73.686653137207 -153.884429931641 2.957205295563
-57.423530578613 -75.999694824219 -155.182556152344 5.957873344421
-72.953071594238 -74.577438354492 -152.593521118164 1.043568611145
-43.063724517822 -80.032608032227 -158.877227783203 2.164421558380
34.744548797607 -75.349754333496 -151.133789062500 1.186425209045
107.214942932129 -76.754173278809 -156.404205322266 2.885097265244
115.780441284180 -77.197067260742 -156.289352416992 2.274647951126
-71.428718566895 -75.245819091797 -154.406997680664 2.157864570618
-74.988677978516 -76.708129882813 -167.108261108398 7.722591400146
17.729387283325 -79.790397644043 -164.142486572266 5.022771835327
-59.288143157959 -79.011940002441 -164.974014282227 1.349118947983
-32.522052764893 -84.180915832520 -166.070098876953 4.708884716034
5.166102886200 -73.648223876953 -165.826766967773 1.680554866791
109.780670166016 -77.982551574707 -166.120635986328 1.175500631332
4.146027088165 -74.922302246094 -167.072036743164 2.539617300034
-39.351043701172 -76.601119995117 -169.562362670898 1.271220445633
-3.099208116531 -72.693466186523 -165.993972778320 1.738261461258
102.384307861328 -73.842338562012 -174.923034667969 2.638659000397
-43.819229125977 -69.176589965820 -177.472122192383 6.138710498810
28.005558013916 -72.366455078125 -170.330505371094 1.159834265709
110.663131713867 -73.279899597168 -170.363845825195 1.228011727333
-53.003391265869 -74.756973266602 -182.388610839844 1.701788306236
-30.206750869751 -77.956275939941 -172.239166259766 1.650221467018
97.454589843750 -78.809867858887 -174.036972045898 8.993833541870
31.400081634521 -78.576667785645 -173.406005859375 3.613512039185
114.078041076660 -71.891723632813 -175.962493896484 1.657580137253
-40.410919189453 -78.308357238770 -173.570999145508 1.616583347321
105.089889526367 -73.362655639648 -180.679763793945 1.553373456001
-59.301120758057 -74.861160278320 -181.142440795898 2.017288446426
-25.880973815918 -75.071540832520 -177.961486816406 1.820108771324
-144.544006347656 -74.908256530762 -186.059005737305 1.096223592758
-56.310012817383 -75.374481201172 -187.870086669922 4.319633960724
-148.395614624023 -73.403129577637 -187.877304077148 0.909312427044
-33.956043243408 -74.965370178223 -189.053451538086 2.901137828827
19.620641708374 -74.463569641113 -188.407333374023 2.536016702652
109.706672668457 -70.820686340332 -181.268615722656 1.387685298920
-31.721138000488 -75.075805664063 -193.453826904297 3.915363550186
12.164542198181 -77.293296813965 -194.146423339844 2.011112451553
15.508736610413 -75.561782836914 -200.380432128906 1.875771164894
-150.705337524414 -71.716690063477 -197.846832275391 2.029995918274
101.041336059570 -79.358238220215 -197.962310791016 1.957160711288
-20.178110122681 -72.075637817383 -196.474929809570 2.995758295059
104.245384216309 -70.497467041016 -191.476516723633 2.194764614105
14.514690399170 -74.224357604980 -191.079025268555 1.756011128426
-131.737777709961 -73.845932006836 -206.652191162109 3.569190025330
-145.804290771484 -73.124076843262 -201.559036254883 2.012242555618
93.120521545410 -68.455810546875 -199.244491577148 4.188698768616
-12.849472045898 -74.168205261230 -202.266830444336 1.757398128510
-17.148593902588 -77.897583007813 -198.611862182617 2.110228061676
11.416940689087 -75.720046997070 -204.988952636719 1.261503696442
-147.743988037109 -74.162277221680 -210.888931274414 1.714938163757
-148.572082519531 -76.162231445313 -211.252410888672 0.412521570921
99.597373962402 -81.090538024902 -205.523696899414 4.228514671326
-75.649932861328 -77.066925048828 -213.452011108398 1.466122031212
-37.741981506348 -72.815093994141 -203.880737304688 1.446320176125
19.948516845703 -74.051597595215 -211.878967285156 1.485979795456
-24.486511230469 -78.651252746582 -211.922943115234 2.181544780731
-79.505035400391 -72.865783691406 -216.844909667969 2.595944404602
92.143157958984 -74.217201232910 -206.937576293945 1.279916763306
-82.891670227051 -71.097900390625 -218.334930419922 3.159964561462
-148.374877929688 -75.620994567871 -223.571197509766 1.566172838211
-79.442230224609 -77.458702087402 -219.774322509766 4.380300998688
-16.723789215088 -75.943084716797 -214.142318725586 1.603607177734
-22.931512832642 -77.103042602539 -219.785629272461 1.318773508072
22.325754165649 -73.044799804688 -212.472274780273 3.483499526978
-6.515916824341 -73.426094055176 -213.443374633789 1.026902198792
-81.665298461914 -74.620086669922 -222.880996704102 6.232889652252
90.100807189941 -75.429420471191 -214.745422363281 0.813212156296
-95.237899780273 -76.804489135742 -217.669586181641 1.821252822876
-146.278472900391 -82.170059204102 -230.011718750000 1.078164577484
-12.893918991089 -77.208526611328 -219.604385375977 0.984862744808
15.655007362366 -75.241600036621 -217.004348754883 0.931686639786
-104.837562561035 -73.096031188965 -222.672714233398 1.308663964272
8.682208061218 -77.487937927246 -220.795135498047 1.868148922920
-27.867124557495 -78.564544677734 -217.734237670898 2.181758403778
81.963333129883 -77.598701477051 -224.889648437500 3.159915208817
-146.793731689453 -73.752601623535 -224.184173583984 2.428365468979
7.429121971130 -72.212074279785 -227.571212768555 1.362491846085
-6.617483139038 -75.880302429199 -223.100280761719 1.506020307541
16.100311279297 -71.055053710938 -222.101135253906 1.073973894119
84.745178222656 -72.350540161133 -227.082778930664 2.759577035904
-13.990902900696 -76.114440917969 -228.082458496094 1.622895836830
-129.771377563477 -78.906906127930 -232.421005249023 4.917210102081
-7.819800853729 -79.709922790527 -227.013488769531 2.282264471054
16.509916305542 -73.956085205078 -235.669342041016 1.542759776115
-126.816574096680 -73.812355041504 -226.535827636719 0.901544272900
-150.895675659180 -76.592819213867 -234.497741699219 1.439746022224
-140.166381835938 -75.359230041504 -233.311737060547 2.105540037155
-131.895751953125 -74.259384155273 -233.331848144531 1.228617310524
-10.946768760681 -74.629379272461 -229.022094726563 1.558201551437
71.051597595215 -74.632804870605 -230.115600585938 1.333065629005
-141.726211547852 -75.993347167969 -240.726547241211 4.441104888916
71.590820312500 -73.061050415039 -227.230224609375 2.035794973373
-15.887414932251 -77.550674438477 -227.786926269531 2.194577693939
-142.782104492188 -80.723114013672 -236.305465698242 3.129783630371
76.477638244629 -79.389877319336 -233.717361450195 4.303558349609
14.061202049255 -79.390945434570 -238.039474487305 1.670741081238
-142.490631103516 -71.651046752930 -241.242843627930 2.343213796616
-149.579757690430 -75.471496582031 -241.603271484375 1.215699076653
12.081360816956 -69.871009826660 -236.300704956055 1.571017146111
-2.614694118500 -75.946968078613 -240.758346557617 2.809776067734
-23.906768798828 -72.295135498047 -246.234817504883 4.349809646606
-5.445047855377 -74.395286560059 -242.050186157227 1.034605503082
-162.482574462891 -76.306266784668 -241.406829833984 3.217734813690
9.576087951660 -74.866508483887 -247.044708251953 2.747323751450
-163.906188964844 -73.391845703125 -239.422683715820 1.529198646545
-17.696289062500 -73.913749694824 -234.004333496094 3.303073644638
67.956665039063 -76.476562500000 -239.610473632813 2.451711416245
-8.252672195435 -73.508567810059 -242.999328613281 1.707690954208
-26.231100082397 -75.252212524414 -241.217483520508 2.070297956467
-26.688407897949 -72.033027648926 -243.581710815430 2.977570533752
-15.215364456177 -71.958862304688 -247.686828613281 1.770075917244
-143.731567382813 -73.242378234863 -239.908187866211 2.325706958771
9.212317466736 -77.888519287109 -245.343902587891 1.219127893448
64.804351806641 -78.545127868652 -240.966323852539 4.398432731628
11.295305252075 -76.014106750488 -245.212539672852 0.436582535505
-162.753967285156 -73.445747375488 -244.163482666016 3.760546207428
-47.771919250488 -78.001205444336 -246.966857910156 1.424095988274
6.152011871338 -78.784408569336 -249.683059692383 2.506036758423
17.524927139282 -69.807502746582 -251.719894409180 4.082802772522
-58.584308624268 -74.624526977539 -253.382537841797 3.916732788086
-3.671952962875 -74.117607116699 -244.187301635742 1.693029046059
20.625280380249 -77.874931335449 -252.835372924805 2.759854316711
-166.118743896484 -74.354850769043 -250.410369873047 0.792835831642
-72.051094055176 -77.913833618164 -256.718475341797 5.516118526459
-53.219448089600 -72.165122985840 -250.263931274414 3.914239645004
-80.065628051758 -73.079551696777 -251.035125732422 2.497659206390
-162.297882080078 -73.310508728027 -247.181137084961 1.616509199142
-152.337524414063 -75.178733825684 -255.636474609375 2.660949707031
-59.480739593506 -70.936210632324 -256.419342041016 7.618958473206
-68.972366333008 -80.564605712891 -253.645492553711 4.903093338013
-154.598587036133 -72.943954467773 -257.002746582031 1.221924901009
-152.819503784180 -72.104980468750 -253.629623413086 1.544189810753
-78.035911560059 -74.490058898926 -253.652084350586 0.548900902271
-92.543205261230 -70.442016601563 -255.065017700195 2.851266860962
-163.177505493164 -76.031929016113 -255.950408935547 2.735810041428
-154.766876220703 -73.862716674805 -256.474121093750 0.539566934109
-135.002548217773 -70.741645812988 -261.314514160156 2.085732698441
-81.725799560547 -77.652809143066 -255.785461425781 3.623423814774
-163.911300659180 -70.699531555176 -258.824829101563 2.138523817062
-147.313552856445 -79.182556152344 -260.853515625000 2.201918125153
-92.797180175781 -74.606323242188 -257.654632568359 1.502867579460
-100.442794799805 -68.318649291992 -263.148315429688 3.667811870575
-149.014709472656 -72.857666015625 -263.078430175781 2.647740364075
-97.026679992676 -73.922966003418 -265.745483398438 7.232895851135
-151.894485473633 -73.341796875000 -258.173889160156 1.963236570358
-100.328926086426 -76.369514465332 -258.892944335938 3.019380331039
-167.149154663086 -78.473564147949 -260.822448730469 4.684004306793
-162.487411499023 -79.729766845703 -262.338653564453 5.091368198395
-122.843475341797 -72.492256164551 -260.062408447266 1.869775772095
-148.681869506836 -78.826965332031 -262.612976074219 3.226359128952
-108.755363464355 -72.981582641602 -263.182464599609 2.032426595688
-14.490419387817 -79.927162170410 -262.523315429688 3.578328609467
-142.955368041992 -72.829994201660 -265.517639160156 1.876103401184
-126.037017822266 -73.566879272461 -265.475524902344 1.859098196030
-156.210571289063 -73.618072509766 -269.312286376953 1.163407683372
21.417770385742 -75.936729431152 -269.150726318359 1.466234564781
-151.785293579102 -71.941467285156 -286.997985839844 2.333747625351
-167.986557006836 -72.090385437012 -284.153228759766 0.956150889397
-4.992291927338 -80.096839904785 -284.286071777344 3.941019773483
-148.662155151367 -76.760818481445 -284.130218505859 2.812544345856
-6.398105144501 -73.204002380371 -279.659698486328 3.059076070786
15.575370788574 -74.759674072266 -287.602203369141 1.509263634682
-132.866958618164 -72.166259765625 -291.382934570313 3.365929365158
-69.467071533203 -77.915847778320 -284.782104492188 3.259388923645
-39.358695983887 -73.435241699219 -284.744262695313 1.581097602844
-115.016716003418 -71.751892089844 -292.050506591797 1.233356237411
-89.943099975586 -74.077949523926 -296.924194335938 5.352932929993
-89.909301757813 -73.376716613770 -298.319824218750 6.644795894623
-47.915424346924 -78.743225097656 -291.077850341797 2.317388057709
-114.472862243652 -70.137123107910 -296.347961425781 4.110407352448
-107.529106140137 -74.928016662598 -295.770416259766 4.731831550598
-31.441682815552 -77.474372863770 -293.669219970703 3.855910301208
-115.191642761230 -75.777297973633 -292.874664306641 2.458179712296
-125.283447265625 -76.946746826172 -293.457977294922 1.693579316139
-143.931121826172 -76.877059936523 -298.665527343750 3.021762371063
9.946658134460 -71.959854125977 -289.854309082031 0.930512249470
15.559611320496 -76.504264831543 -294.871520996094 1.768193483353
-155.490310668945 -74.218482971191 -298.919525146484 2.190741539001
-153.985992431641 -73.857666015625 -308.112365722656 2.272502183914
-145.007965087891 -76.738716125488 -314.940460205078 3.509610414505
-149.604492187500 -70.676864624023 -312.665100097656 1.183491110802
-151.098876953125 -77.833656311035 -317.711425781250 5.675432682037
21.836713790894 -74.557456970215 -16.140422821045 4.198338985443
21.213529586792 -72.824821472168 -22.638936996460 1.153589963913
19.979076385498 -74.385864257813 -21.617465972900 2.901161909103
24.162443161011 -75.232711791992 -41.254112243652 5.230192184448
-56.319007873535 -67.909141540527 -57.190505981445 8.021389007568
-68.019912719727 -72.526428222656 -55.255409240723 2.293720006943
-43.133731842041 -73.438034057617 -54.986503601074 2.144008874893
-84.975868225098 -75.666961669922 -63.113456726074 3.252144813538
78.597328186035 -79.768295288086 -79.113327026367 4.167759895325
-21.918769836426 -72.302711486816 -76.481079101563 2.989112138748
87.314758300781 -77.934700012207 -68.074729919434 5.219400882721
93.293411254883 -73.596862792969 -79.678009033203 1.063750147820
-95.401351928711 -73.398712158203 -85.043350219727 2.511204957962
71.699897766113 -70.906463623047 -76.641716003418 1.501992106438
-43.559070587158 -77.922897338867 -87.233688354492 2.270561456680
98.865531921387 -74.349189758301 -83.915069580078 2.236589431763
-58.106605529785 -76.875526428223 -92.860496520996 3.436309099197
48.296871185303 -73.760154724121 -89.073280334473 4.217987537384
69.854202270508 -75.750923156738 -87.566848754883 2.645574808121
54.566265106201 -78.533851623535 -95.255027770996 2.465345859528
45.820770263672 -73.185050964355 -104.074684143066 2.392863512039
65.791374206543 -77.017967224121 -95.173583984375 7.010254859924
45.209655761719 -68.323394775391 -98.748558044434 0.804372251034
99.270477294922 -74.843154907227 -102.718299865723 4.990080833435
109.750541687012 -76.016159057617 -106.749259948730 2.941794872284
74.741157531738 -71.112953186035 -100.901382446289 1.927888035774
87.074592590332 -74.541435241699 -104.241737365723 3.056754589081
99.113327026367 -72.702690124512 -100.699729919434 2.902610063553
103.819442749023 -66.425437927246 -100.607437133789 2.476713180542
37.552326202393 -80.922737121582 -108.036361694336 4.158664703369
106.249076843262 -75.192893981934 -118.852844238281 2.255354642868
112.451416015625 -76.710083007813 -120.967346191406 2.896394968033
30.892246246338 -73.704612731934 -119.762825012207 1.265209913254
38.112091064453 -75.789596557617 -119.944557189941 2.885457277298
106.292915344238 -72.402412414551 -129.030670166016 2.639004945755
36.496330261230 -78.323333740234 -127.343315124512 3.095203638077
113.183822631836 -71.026824951172 -130.066375732422 1.274066686630
108.269538879395 -73.346649169922 -126.538505554199 1.303742170334
23.310165405273 -72.025787353516 -138.382522583008 2.778578996658
-49.957298278809 -77.692420959473 -135.089111328125 3.289621829987
-58.045463562012 -75.123901367188 -142.881057739258 2.059678077698
112.634452819824 -72.797470092773 -132.699264526367 1.189813137054
-76.058219909668 -77.053985595703 -146.114883422852 3.468602180481
-76.947792053223 -73.007858276367 -141.857910156250 2.030939340591
-60.308456420898 -76.837394714355 -142.834960937500 4.293819904327
32.063762664795 -75.129554748535 -140.101745605469 3.441575050354
104.450386047363 -72.601890563965 -147.371887207031 5.638204097748
-66.049484252930 -75.713775634766 -147.926986694336 2.299348354340
-46.453220367432 -70.311614990234 -146.852294921875 1.271664977074
37.899085998535 -79.300064086914 -150.742691040039 4.388931751251
-65.834304809570 -76.872695922852 -154.144317626953 1.524080514908
111.632896423340 -68.458351135254 -143.865005493164 1.295514345169
108.445564270020 -75.878204345703 -156.134017944336 1.888223767281
109.684234619141 -76.192703247070 -148.209045410156 2.622808218002
-39.792922973633 -74.091812133789 -158.130264282227 2.693865060806
-67.135139465332 -74.167564392090 -159.954971313477 1.132799386978
-71.444473266602 -66.816024780273 -156.178543090820 3.632728099823
27.731758117676 -71.168876647949 -153.053085327148 1.375988245010
-1.583466053009 -76.858459472656 -165.396621704102 2.196754455566
106.296630859375 -73.627624511719 -156.304290771484 3.162422180176
107.404220581055 -69.935577392578 -155.262390136719 2.664161205292
112.016601562500 -73.466072082520 -157.524505615234 1.191773414612
-66.082061767578 -78.541175842285 -162.958801269531 1.662815451622
-48.292602539063 -76.118278503418 -164.002120971680 2.404551744461
3.216379880905 -76.678886413574 -170.934509277344 4.236392021179
-26.222541809082 -71.818778991699 -175.554672241211 1.007629752159
104.607192993164 -74.602020263672 -162.315536499023 3.504843950272
-37.857280731201 -71.708839416504 -163.242980957031 3.277329683304
109.117630004883 -76.429588317871 -168.013839721680 1.779426932335
-42.685501098633 -71.985267639160 -174.070938110352 2.804021596909
109.382644653320 -76.709335327148 -167.396820068359 1.750528454781
-151.553100585938 -70.518905639648 -186.110092163086 1.309100270271
-32.351032257080 -72.414802551270 -176.945816040039 2.561809062958
-21.909101486206 -70.408180236816 -181.657592773438 1.032666444778
28.875007629395 -78.828147888184 -176.488815307617 4.016514301300
14.121688842773 -73.092430114746 -180.591461181641 1.449470281601
22.029924392700 -75.693153381348 -183.083358764648 1.160055398941
105.029747009277 -77.828659057617 -186.723571777344 2.452775716782
-153.512557983398 -70.329185485840 -191.853988647461 2.080453634262
-22.623191833496 -74.592727661133 -189.555541992188 3.327634334564
103.652236938477 -73.554710388184 -178.028686523438 1.635648131371
102.085784912109 -73.077621459961 -191.073867797852 1.521398305893
103.677520751953 -74.925346374512 -180.336853027344 2.418545961380
94.967033386230 -78.817123413086 -195.472702026367 4.114574432373
-156.598022460938 -82.951622009277 -201.582977294922 4.871678829193
97.380187988281 -79.499679565430 -202.973373413086 2.774081945419
-33.185188293457 -73.723510742188 -197.864089965820 4.575387001038
96.867019653320 -71.816558837891 -195.948104858398 0.900679528713
-128.735351562500 -74.423301696777 -196.799987792969 3.131283521652
-32.239604949951 -76.542190551758 -193.544921875000 4.343085289001
