-21.818832397461 -73.200996398926 -187.861572265625 1.484140753746
-145.560974121094 -77.353080749512 -188.590408325195 1.818485140800
13.612206459045 -72.872032165527 -183.732757568359 1.777984023094
107.032730102539 -66.851608276367 -195.252380371094 6.105117321014
-158.289962768555 -72.236145019531 -194.891967773438 2.011062145233
-25.349693298340 -70.983642578125 -191.651153564453 1.123067617416
-114.684066772461 -69.285514831543 -195.589843750000 1.331714391708
-130.448257446289 -72.522346496582 -198.331436157227 1.687196969986
-107.125427246094 -69.221641540527 -202.987213134766 4.030626296997
-109.920898437500 -67.322456359863 -200.423553466797 0.811299622059
-15.692337036133 -66.598442077637 -200.571121215820 1.975573182106
19.371311187744 -71.705047607422 -199.203491210938 2.523221731186
-21.267581939697 -62.460571289063 -201.739425659180 4.474761486053
-125.209266662598 -69.253753662109 -203.494567871094 2.396417856216
-25.822982788086 -68.224205017090 -208.402999877930 5.575579166412
-129.112884521484 -75.785285949707 -204.018066406250 3.870353460312
-10.959821701050 -66.028816223145 -202.342300415039 3.498929977417
-143.877227783203 -71.901679992676 -204.150695800781 1.335832357407
90.816345214844 -67.643394470215 -211.214920043945 2.240131378174
-164.731399536133 -72.303901672363 -204.513565063477 1.622378110886
0.126623004675 -71.293678283691 -214.810256958008 3.497836112976
13.618377685547 -62.932628631592 -213.291656494141 5.482266902924
9.165353775024 -64.738403320313 -217.598922729492 4.686795711517
83.564315795898 -67.677024841309 -220.023345947266 2.749151945114
3.716947078705 -65.240158081055 -217.743453979492 7.297066688538
15.765769004822 -69.760169982910 -214.895782470703 1.635258555412
-13.865626335144 -75.004913330078 -213.377319335938 1.908663272858
-88.256416320801 -71.062591552734 -215.370178222656 1.064932346344
-101.228378295898 -72.818679809570 -218.612121582031 1.086983561516
-2.716237068176 -68.444389343262 -222.281738281250 1.610602021217
-168.709060668945 -72.161170959473 -231.668884277344 3.255703687668
12.094855308533 -66.632011413574 -220.508712768555 3.435203552246
-142.366821289063 -73.056640625000 -223.803375244141 1.684428811073
12.397748947144 -65.957107543945 -227.144439697266 4.104450702667
-134.033599853516 -72.264900207520 -222.244644165039 2.792654991150
-115.355171203613 -70.181022644043 -229.371444702148 2.415142059326
19.984899520874 -63.084915161133 -226.050323486328 8.716501235962
74.621910095215 -67.169883728027 -231.126403808594 2.687675952911
3.863343000412 -66.379913330078 -226.940689086914 1.604785442352
-114.845802307129 -73.434921264648 -221.872817993164 4.255527496338
74.241142272949 -67.063880920410 -228.236984252930 2.456733703613
79.369567871094 -69.732566833496 -232.983657836914 1.561915516853
-121.865707397461 -71.705741882324 -231.214324951172 1.093246221542
-119.715766906738 -73.440254211426 -233.411682128906 3.422717571259
-10.861943244934 -68.689498901367 -232.612426757813 1.451114892960
69.697555541992 -70.976936340332 -229.781631469727 2.381016492844
67.469757080078 -66.014396667480 -237.395095825195 1.016102552414
72.702430725098 -66.654266357422 -235.107055664063 1.253247141838
-133.347274780273 -73.761367797852 -238.958816528320 5.486951351166
69.281196594238 -73.257736206055 -235.506088256836 2.331156492233
64.941810607910 -71.565986633301 -236.903381347656 1.020188689232
-167.244812011719 -74.845924377441 -228.076736450195 3.275606632233
-0.488243997097 -71.280273437500 -243.149154663086 1.799857139587
15.393446922302 -67.634292602539 -246.596755981445 2.786446571350
-3.069865942001 -71.437873840332 -244.111526489258 2.213678836823
14.854947090149 -72.358909606934 -245.164962768555 1.879115581512
69.323402404785 -69.595085144043 -242.042114257813 2.446494579315
10.435843467712 -73.214149475098 -241.197387695313 1.439931750298
-7.301828861237 -65.973564147949 -245.593643188477 2.718911170959
-4.320402145386 -70.451393127441 -247.516326904297 2.995942831039
66.520195007324 -67.238159179688 -246.847167968750 4.557383537292
6.528125762939 -71.802932739258 -247.492752075195 4.658363819122
-9.859257698059 -69.340866088867 -241.046371459961 1.405005812645
15.208559036255 -71.144737243652 -248.366897583008 2.789759635925
-165.314498901367 -66.372955322266 -241.685363769531 2.740453243256
61.404018402100 -65.979278564453 -251.387908935547 5.671185493469
52.827846527100 -67.275062561035 -253.230361938477 2.106048583984
57.045112609863 -72.095825195313 -243.112533569336 1.296880125999
-14.176895141602 -68.204841613770 -253.911926269531 1.269433140755
54.259815216064 -71.710945129395 -246.961273193359 1.968603134155
-73.773262023926 -72.378593444824 -249.850448608398 2.141385555267
51.881656646729 -69.930313110352 -252.897171020508 2.574285984039
-88.587150573730 -72.779869079590 -256.200775146484 1.015484452248
-127.983451843262 -73.681312561035 -254.695571899414 2.639176130295
-134.925918579102 -65.892127990723 -252.701400756836 2.963917016983
51.545307159424 -66.307533264160 -258.779479980469 6.378020286560
-137.868835449219 -68.073341369629 -257.787200927734 2.967777013779
-105.595626831055 -78.189865112305 -253.362716674805 6.118754863739
-111.484596252441 -69.617492675781 -258.939575195313 2.846766471863
-84.474021911621 -71.130081176758 -252.108673095703 2.399262905121
-112.458457946777 -72.479125976563 -264.356475830078 2.764478683472
-124.943885803223 -67.348526000977 -266.878692626953 2.496344089508
-144.356048583984 -70.671646118164 -266.632965087891 1.174139857292
-12.146678924561 -70.816398620605 -261.627838134766 2.513165950775
-172.646774291992 -70.081130981445 -267.988983154297 5.267155647278
-9.093955993652 -72.466682434082 -272.580200195313 3.704500436783
-158.124298095703 -65.468772888184 -266.189544677734 4.020256996155
-154.689086914063 -66.970619201660 -272.824554443359 4.155240535736
-169.211425781250 -64.849464416504 -274.146759033203 5.306424617767
-12.417707443237 -65.759284973145 -277.630828857422 3.833734750748
-133.521713256836 -70.607414245605 -284.111846923828 0.606954634190
-157.274597167969 -66.891380310059 -289.079772949219 2.391043186188
-143.085113525391 -69.728424072266 -282.717254638672 2.242908954620
-136.436477661133 -72.838287353516 -285.374389648438 1.541252851486
-9.147882461548 -68.993019104004 -282.451385498047 1.860586285591
-123.950553894043 -74.943031311035 -283.647155761719 1.847718954086
-141.852554321289 -71.101516723633 -286.596435546875 1.641400814056
-114.079528808594 -68.006050109863 -286.182067871094 1.543066978455
-78.195526123047 -66.780380249023 -291.245513916016 3.716121196747
-61.786636352539 -69.742813110352 -284.118255615234 3.115706443787
-5.304578781128 -69.225273132324 -289.653778076172 0.589165568352
-49.728527069092 -70.534515380859 -291.352813720703 2.427276849747
-62.193973541260 -71.270225524902 -288.385467529297 1.612876057625
-69.616889953613 -67.098114013672 -292.251098632813 3.708503484726
-87.079277038574 -70.499809265137 -297.276885986328 6.026161193848
-105.165107727051 -63.694187164307 -289.307464599609 4.464835643768
-159.458007812500 -70.066719055176 -291.318328857422 1.403848290443
-155.710678100586 -69.102996826172 -289.306945800781 1.427615046501
-126.881607055664 -72.278396606445 -297.945617675781 3.138264179230
-145.125656127930 -70.002677917480 -293.866271972656 1.056863665581
-157.656066894531 -68.333267211914 -299.593963623047 3.013760328293
-147.197463989258 -70.183105468750 -318.035308837891 5.047138690948
47.439201354980 -70.903427124023 -22.127046585083 2.551784992218
20.899946212769 -80.776763916016 -27.271759033203 8.591891288757
46.636394500732 -73.262512207031 -38.926651000977 3.020226955414
-18.248355865479 -74.375839233398 -67.090438842773 1.960793852806
81.538627624512 -69.906860351563 -68.246559143066 2.533427000046
86.281600952148 -64.563255310059 -73.385490417480 8.579955101013
77.111305236816 -69.194686889648 -74.761146545410 4.804680824280
78.635742187500 -70.540336608887 -69.605766296387 2.930676698685
97.956398010254 -71.837310791016 -75.753143310547 0.461707770824
-95.347854614258 -75.920333862305 -74.496017456055 4.958767890930
69.833320617676 -73.193565368652 -80.094261169434 1.123386263847
-34.644821166992 -69.456420898438 -77.878936767578 2.266484975815
99.902175903320 -71.290405273438 -88.882461547852 1.723159551620
65.963462829590 -76.977165222168 -90.733650207520 5.794851303101
111.264717102051 -69.286506652832 -92.681449890137 5.125079631805
107.129417419434 -73.258026123047 -100.082153320313 1.172046899796
72.712593078613 -72.916053771973 -98.631500244141 1.716988563538
-77.548934936523 -73.969779968262 -100.187370300293 1.516044020653
56.871849060059 -72.331855773926 -110.602783203125 5.170569896698
108.926498413086 -71.276580810547 -107.698234558105 1.457997560501
49.933094024658 -76.562461853027 -116.218688964844 2.345911979675
86.225181579590 -71.057563781738 -103.639732360840 1.467168688774
44.519344329834 -76.086990356445 -112.255821228027 2.042816162109
107.263130187988 -67.745735168457 -101.654769897461 1.814345479012
49.401042938232 -69.471763610840 -109.195922851563 1.936254739761
112.898841857910 -72.880760192871 -114.741294860840 2.159379243851
108.570388793945 -69.255836486816 -118.019378662109 2.229265213013
-78.018661499023 -64.257766723633 -114.806396484375 0.630304515362
-75.423019409180 -71.685096740723 -115.923423767090 2.916969537735
43.571067810059 -70.659545898438 -119.735656738281 1.727860212326
117.126678466797 -65.055496215820 -119.246337890625 5.371796607971
116.944976806641 -66.456451416016 -123.758705139160 4.259807109833
-79.573898315430 -71.852737426758 -127.233230590820 2.421963691711
109.400894165039 -68.448440551758 -123.637321472168 1.788216829300
-64.940368652344 -72.045852661133 -136.332809448242 5.086072444916
-87.890861511230 -69.135566711426 -128.154937744141 0.733322024345
-73.603538513184 -70.041984558105 -130.008972167969 1.626878261566
-56.445034027100 -65.744987487793 -125.797027587891 0.541394531727
36.732643127441 -69.328758239746 -131.899322509766 0.816292226315
43.652923583984 -69.050300598145 -135.824340820313 6.176371574402
-74.022140502930 -72.843536376953 -136.129211425781 1.845664024353
29.309518814087 -67.827072143555 -131.608566284180 2.254571914673
106.224876403809 -71.541877746582 -137.296600341797 2.988606691360
-37.936622619629 -71.434234619141 -150.163131713867 3.017339229584
26.361602783203 -69.004821777344 -147.091064453125 1.967569947243
111.361587524414 -62.401569366455 -148.196548461914 7.013509273529
36.337810516357 -71.966758728027 -145.786712646484 1.507574558258
112.066467285156 -70.440376281738 -145.713851928711 1.973699092865
-54.428028106689 -71.615562438965 -148.675796508789 0.834374547005
-65.952438354492 -74.019454956055 -150.842575073242 0.448386311531
-52.693527221680 -74.046249389648 -155.804428100586 1.594974517822
-44.523880004883 -69.391899108887 -169.984191894531 3.247031688690
2.243110895157 -67.955970764160 -154.845748901367 4.726573944092
110.791603088379 -63.357910156250 -156.335983276367 6.338088035583
108.516464233398 -66.585044860840 -163.127471923828 4.336586952209
9.978096008301 -64.300109863281 -161.422134399414 5.744149208069
1.734722018242 -68.965469360352 -161.573425292969 2.441156625748
15.689690589905 -66.477676391602 -161.072906494141 4.208528041840
21.391313552856 -68.576400756836 -150.449920654297 2.266840934753
116.276779174805 -72.179214477539 -167.524032592773 2.037535190582
107.372871398926 -70.251670837402 -174.877990722656 1.849287748337
27.271831512451 -68.129379272461 -174.956039428711 2.883467674255
27.869359970093 -68.092384338379 -165.876403808594 1.704774498940
116.128616333008 -68.076873779297 -164.186019897461 3.430247068405
-30.697660446167 -68.173225402832 -174.940521240234 2.833638191223
113.206436157227 -66.168357849121 -172.852416992188 4.535569190979
21.041061401367 -64.338050842285 -179.914001464844 2.599357604980
16.853578567505 -72.213920593262 -166.723815917969 2.256588220596
109.176963806152 -66.611999511719 -179.864471435547 3.980886220932
24.113065719604 -69.521102905273 -171.600921630859 0.912996590137
110.570991516113 -64.509155273438 -182.964553833008 6.180768966675
-39.789634704590 -67.712471008301 -178.056610107422 4.265396118164
27.868175506592 -65.705726623535 -173.402542114258 3.846684455872
108.688537597656 -66.944229125977 -187.612319946289 3.684530258179
24.797060012817 -66.731460571289 -178.487274169922 1.643302083015
-152.885787963867 -67.487701416016 -181.391937255859 1.527932286263
-31.940565109253 -69.886245727539 -189.456680297852 2.065107107162
25.670890808105 -70.718109130859 -187.328216552734 1.659663438797
-112.268066406250 -70.435371398926 -195.654434204102 2.072853803635
-112.436042785645 -72.245986938477 -190.491348266602 3.005232334137
21.847023010254 -65.110694885254 -194.192398071289 4.167620182037
12.763808250427 -70.112075805664 -188.205612182617 2.511479377747
-25.911100387573 -72.303344726563 -193.276733398438 1.686986923218
-27.860235214233 -70.131744384766 -188.090225219727 1.600854635239
-24.744125366211 -71.401466369629 -186.969055175781 1.632430672646
21.623664855957 -72.329864501953 -180.229354858398 3.000855684280
-152.771514892578 -70.559288024902 -193.802520751953 2.057360410690
-145.923141479492 -73.122398376465 -200.860671997070 1.857342958450
-141.102584838867 -70.633811950684 -193.675888061523 2.087756633759
-17.938571929932 -65.508468627930 -192.975357055664 2.838911294937
16.009771347046 -68.335968017578 -200.372177124023 1.492511153221
99.349609375000 -68.992630004883 -198.221755981445 1.322569131851
-115.512023925781 -69.877555847168 -204.065658569336 2.304839372635
17.356487274170 -66.280189514160 -203.630722045898 2.080829143524
-15.959988594055 -67.683746337891 -196.664016723633 1.396513104439
-18.315496444702 -67.851615905762 -196.914123535156 1.636287093163
96.950492858887 -66.885353088379 -203.319702148438 2.749103546143
8.520966529846 -71.072196960449 -200.307800292969 1.921186685562
-26.389947891235 -68.429817199707 -195.807647705078 1.229805588722
-121.274322509766 -72.213882446289 -203.419464111328 1.902524113655
-134.096298217773 -68.922439575195 -200.283309936523 3.235305070877
-109.344078063965 -67.575798034668 -208.393341064453 6.297349929810
-145.649810791016 -71.037467956543 -204.882629394531 1.519930005074
21.424024581909 -70.082611083984 -198.934143066406 1.513571977615
96.132873535156 -70.022598266602 -209.759765625000 3.172235250473
-166.447082519531 -69.795539855957 -206.545776367188 2.025347709656
101.731239318848 -67.798706054688 -205.264450073242 4.463221549988
-15.706772804260 -68.524513244629 -211.985061645508 1.716948509216
91.647773742676 -73.761405944824 -216.318969726563 1.251219868660
91.204101562500 -64.418922424316 -220.189254760742 6.489730834961
11.306630134583 -66.983726501465 -212.988693237305 1.125899314880
15.317027091980 -68.936309814453 -212.011703491211 1.319924235344
10.154891967773 -68.691200256348 -213.805755615234 1.321930170059
-8.979334831238 -67.347030639648 -220.123046875000 1.576440215111
-98.387229919434 -68.851364135742 -219.693618774414 0.950903415680
-6.776043891907 -70.610183715820 -221.337829589844 2.493967294693
91.899604797363 -65.969581604004 -215.947937011719 3.855714559555
-91.847358703613 -72.365837097168 -222.597320556641 3.004943132401
-101.736427307129 -72.487121582031 -222.030838012695 1.654324412346
-94.924415588379 -68.241218566895 -220.562133789063 1.505674481392
89.332855224609 -70.976875305176 -223.820434570313 2.229255914688
-134.255813598633 -73.193565368652 -227.817138671875 0.240203306079
-132.833679199219 -62.155994415283 -232.165283203125 2.070951461792
-119.748504638672 -69.144012451172 -228.477081298828 4.178873538971
-112.745986938477 -67.425682067871 -226.385452270508 0.788025498390
-132.162445068359 -67.403678894043 -221.736770629883 3.159578323364
-106.547431945801 -77.082077026367 -228.352081298828 5.316356658936
-114.167030334473 -66.307273864746 -229.276794433594 1.888162612915
-11.722206115723 -65.781013488770 -225.553146362305 4.424464702606
-20.243085861206 -71.191215515137 -227.790496826172 2.068975448608
-0.872030973434 -68.669631958008 -234.505218505859 1.380272269249
-8.585671424866 -66.294830322266 -230.718322753906 1.709095597267
15.895443916321 -69.986877441406 -233.501419067383 1.112877845764
-18.333801269531 -69.839942932129 -228.681945800781 1.848999142647
-160.982666015625 -71.238975524902 -224.411422729492 2.688465595245
-2.131460905075 -67.032989501953 -231.884399414063 1.263492822647
82.506637573242 -67.990051269531 -230.780410766602 3.514266014099
7.897254943848 -66.514053344727 -238.296386718750 1.516038417816
-9.964419364929 -67.359107971191 -229.689636230469 1.212672233582
-154.958969116211 -65.656227111816 -233.547973632813 2.399882555008
-138.119750976563 -71.973861694336 -234.544921875000 3.399398326874
69.649986267090 -62.825893402100 -238.111724853516 4.531906604767
-7.474407196045 -67.424217224121 -235.038772583008 1.686137676239
1.844401001930 -66.844841003418 -236.674804687500 1.584786534309
73.273887634277 -66.646728515625 -240.867355346680 4.383062839508
77.547691345215 -68.172447204590 -238.270950317383 4.495632171631
66.780479431152 -70.745475769043 -238.112014770508 0.997010052204
-2.836879014969 -65.185211181641 -237.223342895508 1.044561266899
54.716632843018 -67.410873413086 -240.159210205078 2.401787996292
-15.718913078308 -67.554977416992 -239.968948364258 3.041499137878
-15.517394065857 -66.223884582520 -241.443206787109 3.713732957840
9.252755165100 -68.365592956543 -240.626068115234 0.902389585972
66.346450805664 -66.690223693848 -247.526794433594 5.250220775604
59.675140380859 -67.699470520020 -241.012466430664 2.151101589203
53.340057373047 -63.178844451904 -248.754379272461 2.585685968399
62.043483734131 -69.995033264160 -246.318008422852 0.790506124496
-17.033117294312 -64.902465820313 -247.954101562500 4.916698455811
-84.048927307129 -66.094482421875 -248.509674072266 4.249053478241
-77.504196166992 -64.134880065918 -254.375198364258 5.770680427551
41.846858978271 -66.797401428223 -252.401214599609 1.110068798065
-143.207275390625 -65.778297424316 -249.739166259766 4.124729633331
40.423870086670 -67.569564819336 -260.308013916016 1.870026707649
-85.320709228516 -69.326187133789 -253.115081787109 1.600813508034
-153.796936035156 -70.370223999023 -257.042449951172 1.579328060150
-143.783126831055 -68.321655273438 -256.559112548828 1.745292305946
48.313381195068 -68.587905883789 -253.597778320313 1.447456240654
-127.238639831543 -67.444366455078 -252.974273681641 2.350717544556
-117.664276123047 -68.704330444336 -257.313507080078 1.942416787148
-95.766990661621 -68.144195556641 -254.921905517578 1.965492367744
-17.284603118896 -73.534233093262 -255.975814819336 3.453786849976
32.048625946045 -67.608634948730 -261.545745849609 1.188571214676
21.440139770508 -70.787170410156 -263.176391601563 3.056704521179
-155.769226074219 -68.858596801758 -256.392517089844 1.066014885902
-113.416526794434 -68.923355102539 -264.813079833984 3.411763906479
-12.344508171082 -68.856246948242 -260.375976562500 2.624552488327
-134.773773193359 -67.995841979980 -266.425292968750 2.263743162155
-12.436982154846 -65.414871215820 -273.956634521484 4.492909431458
-162.740478515625 -68.833152770996 -279.689880371094 1.368714809418
-9.925208091736 -63.195312500000 -277.654785156250 4.800515174866
-163.577377319336 -66.634925842285 -291.150756835938 3.937197923660
-158.168487548828 -68.597900390625 -277.926422119141 2.757330417633
-150.600524902344 -67.001281738281 -286.178131103516 1.660212397575
-169.673263549805 -68.303131103516 -284.199829101563 3.170596837997
18.998685836792 -61.847805023193 -289.469696044922 4.986140727997
-105.179237365723 -72.471298217773 -287.523193359375 2.586148977280
-88.713203430176 -66.180862426758 -286.656250000000 3.552099227905
-170.397872924805 -68.233802795410 -284.820678710938 3.634984254837
-89.499328613281 -69.457435607910 -290.778106689453 0.539296030998
-156.719894409180 -73.378356933594 -289.920257568359 2.036232709885
-75.787368774414 -69.475090026855 -293.092498779297 2.745814085007
-67.508834838867 -67.777015686035 -291.248901367188 3.245310068130
-82.075820922852 -66.185066223145 -291.479187011719 3.530766248703
-3.302396059036 -61.798099517822 -289.375488281250 2.600181579590
-84.908935546875 -68.929359436035 -293.303344726563 3.462137937546
-97.643920898438 -68.494262695313 -292.380187988281 1.957104086876
-118.001579284668 -67.268058776855 -294.140625000000 2.868952512741
-116.702011108398 -66.162376403809 -296.097808837891 4.575504779816
-139.322448730469 -63.496799468994 -293.449340820313 4.830500125885
-142.296615600586 -75.234153747559 -300.944122314453 2.049278974533
-145.508544921875 -73.348228454590 -311.739746093750 1.801196575165
26.740383148193 -72.046546936035 -19.311943054199 1.223569154739
30.832084655762 -68.462211608887 -25.157915115356 5.046645641327
31.143590927124 -75.042396545410 -19.004333496094 3.429249286652
47.500579833984 -72.973518371582 -28.368537902832 2.762503862381
22.762371063232 -73.781539916992 -33.421997070313 2.079106330872
-78.927619934082 -70.850028991699 -51.819076538086 1.111494660378
86.087913513184 -69.171981811523 -66.860305786133 0.692241251469
-11.843973159790 -70.484848022461 -69.129699707031 3.024129629135
102.285690307617 -71.315147399902 -73.955589294434 3.110556125641
96.188087463379 -65.995887756348 -80.840057373047 6.149065017700
73.982521057129 -75.137702941895 -84.006858825684 2.063011407852
68.755111694336 -67.800888061523 -88.595779418945 2.906214952469
-48.486583709717 -70.535293579102 -83.556632995605 1.562667727470
60.117050170898 -69.843139648438 -83.374664306641 2.292773485184
-98.725463867188 -72.160011291504 -89.824516296387 3.684224605560
-48.249801635742 -71.421401977539 -89.844161987305 3.494404077530
-55.801574707031 -75.499755859375 -86.522605895996 4.614727497101
96.329666137695 -69.890907287598 -98.879249572754 2.281823873520
57.095897674561 -70.542602539063 -103.132286071777 1.292083859444
62.176860809326 -66.567680358887 -93.295005798340 1.116195440292
-94.446701049805 -70.224128723145 -96.163688659668 2.610222578049
109.558685302734 -65.532676696777 -96.197998046875 3.321243524551
48.142314910889 -69.236373901367 -96.095939636230 1.891460657120
101.932952880859 -66.755561828613 -99.262756347656 1.283226728439
106.763778686523 -67.954994201660 -108.951202392578 1.863849043846
101.112739562988 -67.303947448730 -106.075813293457 2.989606380463
75.425125122070 -68.016075134277 -106.507751464844 2.373318672180
86.297103881836 -68.224525451660 -109.279739379883 3.207543134689
47.210468292236 -72.128967285156 -112.215950012207 1.823496460915
108.447502136230 -66.331405639648 -109.747932434082 0.875261485577
47.066745758057 -69.742446899414 -111.135368347168 2.229794263840
46.907672882080 -66.658653259277 -103.159141540527 1.913079977036
107.589538574219 -70.656044006348 -118.271469116211 1.918648362160
-78.858879089355 -67.695144653320 -109.025344848633 0.864155352116
48.077327728271 -67.044952392578 -116.219512939453 4.149580478668
36.063297271729 -69.981910705566 -113.488548278809 1.349816441536
107.296470642090 -69.371292114258 -110.229850769043 1.607035756111
43.592678070068 -68.082763671875 -115.005424499512 1.892434120178
-89.272010803223 -69.546493530273 -119.953178405762 2.235027551651
-97.170188903809 -69.893875122070 -117.493927001953 1.675658822060
109.284141540527 -65.342025756836 -124.223060607910 3.468727111816
-91.719039916992 -74.929161071777 -117.473556518555 1.210637688637
39.925041198730 -67.947425842285 -125.128616333008 1.647509813309
37.436481475830 -68.562042236328 -118.965904235840 1.172230362892
-78.090988159180 -71.758300781250 -124.403640747070 2.378323793411
28.997089385986 -65.702964782715 -130.952606201172 3.077630758286
109.651466369629 -67.693168640137 -135.913421630859 2.566584587097
-47.591884613037 -70.343177795410 -139.318679809570 0.854985117912
-88.781776428223 -71.802467346191 -132.343185424805 2.106185436249
35.542598724365 -69.242271423340 -139.617340087891 1.756124258041
-86.856056213379 -70.438415527344 -136.590774536133 2.210482358932
-90.285812377930 -73.001602172852 -136.102081298828 3.404369592667
-47.241302490234 -72.631858825684 -137.160171508789 0.716831147671
-72.242164611816 -71.200942993164 -140.013977050781 0.895269155502
-49.529239654541 -69.564079284668 -139.723037719727 1.253933191299
114.376083374023 -65.150680541992 -140.426834106445 3.773993015289
-74.869789123535 -65.586761474609 -141.922012329102 1.598729252815
36.334751129150 -70.010223388672 -131.230819702148 1.500881552696
-75.349647521973 -66.101295471191 -139.774688720703 0.948956131935
-78.175300598145 -69.068534851074 -133.699447631836 1.709767699242
-86.594299316406 -71.253250122070 -136.965087890625 3.049144744873
-56.895309448242 -68.838127136230 -152.971420288086 4.748977184296
31.674419403076 -66.305366516113 -152.363098144531 3.801610469818
33.317562103271 -68.090667724609 -153.990997314453 2.610278367996
20.337997436523 -67.028556823730 -146.637557983398 1.263845443726
113.704727172852 -70.515571594238 -152.318130493164 2.048131465912
-97.462455749512 -76.388587951660 -157.367599487305 7.624498367310
17.726844787598 -69.159660339355 -148.140274047852 1.328202486038
-69.089759826660 -72.620903015137 -147.856948852539 1.493368625641
23.417026519775 -67.177925109863 -150.743301391602 2.637501955032
-44.227664947510 -67.513900756836 -154.891494750977 0.507888853550
7.270152091980 -65.244956970215 -150.107635498047 4.649106502533
7.543330192566 -67.511260986328 -157.662933349609 1.658489465714
17.159919738770 -67.492179870605 -163.678344726563 3.852947473526
-46.268070220947 -70.449958801270 -165.929306030273 3.320232391357
-40.863178253174 -63.653324127197 -154.048309326172 5.055074691772
-46.791118621826 -67.775466918945 -157.603607177734 2.288391590118
-100.542022705078 -68.565650939941 -170.601898193359 2.199526309967
17.380426406860 -64.094192504883 -173.074111938477 4.480029582977
-37.408145904541 -70.748817443848 -175.403213500977 2.203597068787
12.795609474182 -60.460876464844 -179.658508300781 8.770583152771
-146.394165039063 -75.017066955566 -172.245727539063 4.091875076294
-34.946548461914 -63.950370788574 -176.604568481445 5.421157360077
-151.624389648438 -66.902740478516 -176.979309082031 1.933063626289
18.838655471802 -69.105552673340 -182.711853027344 1.099631309509
-33.114696502686 -73.430267333984 -172.771362304688 2.986315727234
-108.454986572266 -72.565193176270 -183.775665283203 3.151056289673
-104.358772277832 -69.580192565918 -183.362365722656 2.720122098923
-33.975299835205 -66.371109008789 -181.974044799805 3.375564336777
-17.777036666870 -68.250137329102 -189.753311157227 1.814683914185
13.917218208313 -68.461654663086 -190.912063598633 2.652018308640
20.125911712646 -67.189025878906 -197.706558227539 0.934342741966
17.564847946167 -61.615898132324 -189.237380981445 4.978598117828
-139.670425415039 -70.075592041016 -185.858627319336 2.143502950668
16.535661697388 -67.269477844238 -195.704925537109 1.795393347740
10.276458740234 -68.376388549805 -199.505538940430 0.864241302013
-140.558181762695 -67.018096923828 -197.201538085938 1.309783339500
-118.292434692383 -70.631477355957 -200.332412719727 3.883227348328
15.465023994446 -64.835929870605 -199.940216064453 2.531248092651
-112.046356201172 -72.229782104492 -193.212844848633 1.845833539963
-108.879928588867 -71.373863220215 -192.869735717773 2.427401542664
-162.838638305664 -73.241790771484 -201.672775268555 2.461607217789
-16.983793258667 -73.085472106934 -205.429946899414 3.315767288208
15.867813110352 -63.229183197021 -203.867324829102 4.006369113922
-138.198394775391 -66.133049011230 -199.882400512695 2.816754102707
-134.239807128906 -70.494888305664 -208.917510986328 4.801116466522
-19.186408996582 -66.058082580566 -208.070541381836 1.915241718292
-12.159836769104 -65.304618835449 -205.711532592773 2.774797439575
-14.766950607300 -69.249000549316 -211.451202392578 1.410686731339
-146.060379028320 -72.615486145020 -208.871978759766 1.663690805435
-20.320856094360 -70.248641967773 -204.893859863281 1.368035197258
-12.479039192200 -64.715476989746 -211.247573852539 2.721734762192
15.533211708069 -66.068206787109 -210.564346313477 2.940439701080
-10.961535453796 -67.707855224609 -209.518676757813 1.976460218430
10.835617065430 -62.919261932373 -213.886947631836 5.258783340454
-7.402435779572 -69.971359252930 -218.645095825195 1.277736783028
-15.112199783325 -70.539512634277 -212.634918212891 1.431387901306
10.410290718079 -66.771957397461 -226.675292968750 2.698473215103
-4.443452835083 -67.875755310059 -220.618530273438 1.234366297722
12.491363525391 -65.347686767578 -223.486755371094 3.351099252701
-4.588510036469 -69.458053588867 -224.998794555664 1.795492053032
-158.952575683594 -70.146362304688 -221.568496704102 2.129832029343
84.490470886230 -66.833892822266 -223.770141601563 2.752027750015
-134.545883178711 -68.587478637695 -222.293991088867 2.680429220200
-134.404006958008 -68.620269775391 -225.223739624023 0.554341971874
-8.410691261292 -66.948005676270 -229.634567260742 1.987565994263
13.260314941406 -69.085128784180 -235.968887329102 1.263960123062
-150.886718750000 -67.602020263672 -222.462249755859 1.057944655418
85.018119812012 -62.754886627197 -223.724685668945 6.496929168701
-7.750822067261 -67.499839782715 -225.499694824219 2.423580884933
3.100229978561 -68.662712097168 -228.753417968750 0.726263225079
71.475982666016 -65.146789550781 -230.113159179688 3.825386762619
4.407503128052 -68.856689453125 -234.017303466797 1.784593939781
-17.853897094727 -64.687988281250 -232.262313842773 6.642841339111
-121.053253173828 -72.636329650879 -237.790084838867 5.030811309814
-5.073688030243 -66.900917053223 -239.278915405273 2.535314798355
-0.760740995407 -68.136917114258 -234.635375976563 1.254471063614
68.305786132813 -67.440505981445 -237.772933959961 0.834580481052
-162.283035278320 -68.748474121094 -239.205490112305 1.804798841476
-9.654670715332 -65.693611145020 -248.174072265625 1.635303735733
-166.246109008789 -70.843360900879 -239.983993530273 1.156810879707
8.287743568420 -67.947883605957 -246.291732788086 3.155757427216
-167.071182250977 -68.824172973633 -238.695465087891 0.537093937397
-156.478897094727 -65.716270446777 -243.172485351563 3.781742572784
54.323947906494 -69.885963439941 -254.044876098633 3.511876106262
63.396255493164 -63.622688293457 -245.795532226563 4.868721008301
54.388034820557 -65.209625244141 -245.114227294922 1.917629480362
49.913959503174 -69.477249145508 -250.225387573242 1.736807107925
-160.594909667969 -68.185165405273 -246.483474731445 2.267528533936
-152.467742919922 -69.609649658203 -250.916290283203 2.671922683716
-15.727094650269 -66.239753723145 -248.563262939453 3.043865919113
-154.345443725586 -67.469963073730 -247.767578125000 2.891232490540
20.527938842773 -68.812774658203 -257.668060302734 4.428671836853
-165.826400756836 -67.987014770508 -251.636764526367 0.759099960327
-169.423919677734 -63.696128845215 -243.932220458984 5.886001586914
-80.605461120605 -65.654121398926 -252.872817993164 3.937846660614
-171.453048706055 -69.807426452637 -265.791992187500 4.617736339569
-86.335502624512 -69.033828735352 -260.812164306641 4.898986339569
36.744106292725 -60.886726379395 -251.266387939453 4.069700241089
24.278121948242 -69.683631896973 -257.693145751953 1.674013018608
-158.129302978516 -65.620246887207 -259.324035644531 2.450673580170
-102.407020568848 -64.180290222168 -261.643188476563 4.186183929443
38.965221405029 -65.024703979492 -260.224517822266 2.837586164474
-101.431007385254 -68.058952331543 -259.827239990234 0.853132486343
-152.097427368164 -65.654617309570 -259.286926269531 1.400682330132
-106.972244262695 -64.845901489258 -258.908416748047 1.802841901779
-163.099731445313 -68.662994384766 -258.996215820313 1.117890954018
-113.549186706543 -69.070678710938 -262.833221435547 2.099164485931
-154.806838989258 -69.585418701172 -268.891387939453 4.477345943451
-157.638275146484 -70.887718200684 -263.894683837891 1.312561511993
-167.322631835938 -71.942993164063 -265.365112304688 2.768082141876
-160.102294921875 -68.658439636230 -265.471679687500 0.721154093742
-166.088821411133 -65.239166259766 -268.721252441406 4.371782302856
-164.020812988281 -63.312263488770 -267.509216308594 5.999849319458
23.785493850708 -66.920074462891 -265.544158935547 1.749697208405
-149.515365600586 -66.619003295898 -268.178833007813 2.340638875961
-148.818847656250 -66.003242492676 -287.814971923828 1.648224711418
17.911674499512 -72.343391418457 -281.409332275391 1.453880906105
-8.400060653687 -64.996803283691 -277.117248535156 3.522811651230
-126.723266601563 -71.362762451172 -285.517028808594 2.038096904755
-137.579925537109 -74.118576049805 -289.321746826172 2.557910442352
-138.160964965820 -68.478912353516 -287.127136230469 2.577473878860
-129.443878173828 -64.410133361816 -285.552520751953 3.179169178009
-116.506790161133 -66.820655822754 -289.421234130859 1.143977284431
-108.436828613281 -69.555374145508 -288.133392333984 1.666178464890
11.836643218994 -64.334671020508 -293.426330566406 2.471626281738
-90.402717590332 -65.721565246582 -286.161254882813 4.000491619110
-146.648422241211 -69.381851196289 -295.391143798828 0.671194612980
-99.920280456543 -64.840721130371 -289.462066650391 3.780180692673
-129.309326171875 -66.759346008301 -292.603820800781 2.282456636429
11.345436096191 -71.652053833008 -290.313842773438 2.004639863968
-115.674934387207 -70.126853942871 -294.973022460938 2.570642709732
1.003806948662 -66.286148071289 -290.466217041016 2.300152063370
-143.046691894531 -70.050109863281 -289.999114990234 2.132054567337
-156.741973876953 -70.497764587402 -302.287963867188 2.419367551804
-164.281219482422 -68.857475280762 -308.519195556641 8.663928985596
-153.426422119141 -68.774406433105 -311.782623291016 0.947724819183
50.422908782959 -75.399642944336 -27.006601333618 4.296646595001
20.829639434814 -71.740730285645 -33.212268829346 1.087658882141
36.009548187256 -72.386558532715 -39.593589782715 1.159943342209
-49.389232635498 -70.318321228027 -52.640911102295 4.083561897278
-12.508161544800 -68.478919982910 -63.090625762939 2.094522953033
94.878723144531 -74.139251708984 -76.695022583008 1.279685616493
67.480712890625 -67.139984130859 -69.401931762695 1.973760485649
-19.334743499756 -71.905647277832 -75.788864135742 3.026000261307
-92.511268615723 -70.573959350586 -82.354034423828 2.388962030411
-37.839939117432 -71.270698547363 -81.175407409668 4.067808628082
64.765220642090 -69.981948852539 -82.456748962402 2.176919221878
57.011981964111 -75.144378662109 -85.631149291992 4.215999126434
57.913993835449 -70.948089599609 -88.825485229492 1.050673842430
-55.468120574951 -73.140907287598 -86.249038696289 4.574011325836
68.821693420410 -67.420928955078 -89.567848205566 2.820545673370
45.693538665771 -73.730926513672 -97.865470886230 0.877211272717
67.527183532715 -72.223640441895 -92.262153625488 2.085923433304
-62.433746337891 -69.080848693848 -98.070907592773 3.842858791351
54.439701080322 -65.145622253418 -98.510757446289 2.254424571991
47.268939971924 -70.875144958496 -99.543548583984 2.282364606857
104.473823547363 -71.855880737305 -96.757102966309 0.785497725010
-69.241134643555 -77.023056030273 -100.499137878418 1.432954430580
111.134803771973 -69.741401672363 -103.715026855469 1.822300553322
-79.586242675781 -68.909919738770 -95.660789489746 4.510433197021
56.976463317871 -70.519897460938 -108.414398193359 4.481799602509
50.487312316895 -67.199661254883 -103.366165161133 2.177195549011
96.333602905273 -68.382385253906 -101.185401916504 2.005612611771
88.342842102051 -59.862434387207 -115.291679382324 6.353367805481
56.645465850830 -71.886466979980 -105.817359924316 3.416760683060
-69.562133789063 -71.914436340332 -106.582565307617 5.423843383789
-78.955970764160 -71.451469421387 -110.637168884277 2.566181659698
-83.364440917969 -73.532432556152 -121.064964294434 2.796981334686
-93.648841857910 -79.100776672363 -117.256721496582 5.016303062439
103.012512207031 -69.495819091797 -116.428268432617 3.331180810928
-85.669921875000 -67.550354003906 -120.726776123047 0.655510902405
-79.147430419922 -67.517906188965 -120.599548339844 0.757434010506
111.641975402832 -65.521568298340 -118.248794555664 3.531987190247
-62.843544006348 -64.686439514160 -118.585830688477 1.241754174232
113.009613037109 -70.504745483398 -133.340667724609 1.407459616661
108.553131103516 -67.039550781250 -132.151443481445 3.186834573746
112.915939331055 -67.091461181641 -119.576141357422 1.958891153336
-93.444557189941 -68.053840637207 -134.980758666992 1.782035708427
-52.468986511230 -65.124053955078 -140.071456909180 1.679192900658
-75.544448852539 -72.213294982910 -147.374313354492 0.761691093445
-68.372978210449 -66.692985534668 -151.604660034180 2.732452392578
-73.241455078125 -67.874015808105 -144.780380249023 1.531062602997
-53.226272583008 -65.095138549805 -148.144134521484 2.619354248047
-47.464622497559 -66.718391418457 -152.997146606445 2.909967184067
20.434604644775 -70.270957946777 -146.338699340820 2.601595640182
-94.472656250000 -64.598594665527 -155.295669555664 1.895817637444
-42.909278869629 -72.288772583008 -149.204193115234 1.100122213364
-54.536422729492 -67.985412597656 -153.135696411133 3.625164270401
-44.021324157715 -64.176429748535 -157.033370971680 4.253587245941
28.553359985352 -71.856315612793 -161.459793090820 0.965437829494
-47.860713958740 -68.178871154785 -156.349349975586 2.312724351883
-95.708381652832 -70.621353149414 -149.408706665039 2.329395771027
-41.787872314453 -67.563430786133 -161.265975952148 1.887879967690
25.559253692627 -65.106513977051 -158.778289794922 3.067994356155
-100.363853454590 -70.246154785156 -164.687942504883 2.195742368698
22.309047698975 -66.379119873047 -160.018417358398 2.260255336761
-104.423851013184 -63.624397277832 -172.040695190430 2.441123962402
-100.166122436523 -65.132667541504 -164.741744995117 3.024937152863
22.707023620605 -61.573608398438 -169.742050170898 5.410989761353
25.712285995483 -64.739074707031 -169.198806762695 2.874550819397
-106.722389221191 -71.279594421387 -174.924484252930 2.699237346649
-143.675140380859 -69.470260620117 -176.075836181641 2.144780874252
-24.620718002319 -65.734855651855 -187.920516967773 3.152215242386
-22.103588104248 -64.470985412598 -184.792358398438 4.791456222534
-113.048637390137 -66.840591430664 -189.951889038086 1.241799235344
-141.166870117188 -67.940986633301 -189.621917724609 2.587384223938
-104.934196472168 -72.090644836426 -181.391494750977 3.506318807602
-150.266525268555 -73.149635314941 -198.498184204102 2.399226188660
-128.721923828125 -71.850646972656 -193.551528930664 2.451893329620
-136.763076782227 -67.975936889648 -195.975891113281 3.381381034851
-21.356060028076 -62.130661010742 -194.392761230469 5.081841945648
-119.915328979492 -69.365173339844 -192.578536987305 3.870086431503
-113.597953796387 -65.631240844727 -195.227310180664 1.807970881462
-17.997535705566 -70.238929748535 -195.507156372070 1.105281472206
-154.304458618164 -65.124496459961 -195.120574951172 1.649916887283
-135.467147827148 -71.020492553711 -211.350540161133 7.499208927155
-123.634651184082 -65.169090270996 -204.748336791992 1.368396282196
15.025698661804 -63.848194122314 -206.134140014648 4.202795982361
-160.882202148438 -69.073204040527 -206.072006225586 2.918994188309
11.286030769348 -69.912048339844 -212.256408691406 0.649243652821
14.149144172668 -72.070175170898 -215.632461547852 1.834468960762
-18.587701797485 -66.388298034668 -209.782485961914 2.688218593597
-5.672311782837 -67.444854736328 -214.589370727539 2.666472673416
-166.718032836914 -69.645858764648 -213.450759887695 1.817403197289
-158.953231811523 -66.421676635742 -217.944824218750 3.151678085327
-101.879577636719 -68.821723937988 -218.659454345703 1.102798342705
-100.535987854004 -65.842018127441 -227.772857666016 3.641411542892
-158.374237060547 -65.743965148926 -220.191543579102 2.616589307785
-106.239669799805 -67.667991638184 -222.677230834961 1.440540432930
-16.698522567749 -68.485015869141 -219.554733276367 3.235881328583
-124.541397094727 -67.197593688965 -229.431396484375 2.287441968918
-144.581420898438 -70.962646484375 -224.250610351563 1.059966444969
-7.563558101654 -69.505012512207 -228.724487304688 1.767263531685
-132.402359008789 -65.606559753418 -226.938644409180 1.500486969948
-125.793136596680 -62.997924804688 -227.328613281250 0.878399074078
-111.118255615234 -69.452812194824 -231.546630859375 0.876650154591
-0.266878992319 -66.015480041504 -231.373214721680 1.344344258308
-108.432472229004 -65.377388000488 -227.754943847656 1.234086751938
-157.817077636719 -73.526565551758 -222.145172119141 1.835650563240
-146.599777221680 -72.827064514160 -226.370697021484 1.594269275665
-164.958618164063 -69.051856994629 -227.863845825195 2.006812095642
-6.974008083344 -65.495277404785 -230.169342041016 3.336289644241
-9.743557929993 -56.700138092041 -231.431259155273 6.842428207397
76.712432861328 -56.238662719727 -228.745666503906 11.840807914734
2.980338096619 -63.169921875000 -235.131546020508 2.625109910965
-143.617736816406 -66.451004028320 -233.812667846680 1.469488382339
-12.596344947815 -68.282821655273 -231.494033813477 0.973508119583
77.235656738281 -69.730255126953 -225.217453002930 0.754349827766
69.473556518555 -65.342788696289 -233.628448486328 2.601745128632
-130.072952270508 -67.675117492676 -231.620162963867 3.595516920090
-160.868988037109 -67.581375122070 -227.612197875977 1.401569485664
-111.359138488770 -64.000549316406 -232.229370117188 2.835203170776
-119.623832702637 -66.583755493164 -234.263366699219 2.335007190704
-169.308013916016 -63.840950012207 -233.896514892578 6.164057731628
-158.475479125977 -65.990730285645 -238.837280273438 2.345850706100
-135.589797973633 -66.595794677734 -241.243072509766 7.208693981171
-9.906506538391 -71.838821411133 -234.682022094727 2.068046092987
-2.976857900620 -64.521385192871 -244.629318237305 0.329382300377
-160.594665527344 -65.344100952148 -242.094543457031 3.314585685730
8.493421554565 -68.850410461426 -242.306686401367 1.008615255356
8.766317367554 -64.179794311523 -240.594497680664 1.061724543571
-164.160339355469 -67.160995483398 -242.656692504883 2.351767539978
13.015463829041 -65.433242797852 -244.079086303711 2.075829029083
51.281890869141 -64.027580261230 -249.410232543945 1.153287887573
52.425666809082 -61.356201171875 -253.793365478516 5.419534206390
-7.468485832214 -66.752906799316 -246.416320800781 3.484883069992
50.440048217773 -62.522247314453 -247.759780883789 2.344204902649
-162.911056518555 -68.147094726563 -255.984008789063 3.839938640594
-165.054214477539 -65.309539794922 -249.528213500977 3.407148838043
-163.155075073242 -69.851951599121 -247.352233886719 1.675058603287
54.813400268555 -62.738155364990 -256.203399658203 7.059051036835
-90.536193847656 -70.195449829102 -253.924118041992 2.326811075211
-124.392372131348 -66.090545654297 -252.956237792969 3.061403751373
-107.713386535645 -68.754547119141 -254.992080688477 2.057106494904
31.233072280884 -65.211692810059 -257.981964111328 1.292158126831
38.490921020508 -65.792121887207 -255.334854125977 1.770868301392
-97.340690612793 -66.604965209961 -253.699920654297 2.047547817230
-92.567245483398 -65.101936340332 -257.825012207031 3.524176359177
44.970859527588 -62.924629211426 -257.815856933594 3.710664987564
40.596431732178 -62.453197479248 -255.907287597656 1.750612020493
-157.327651977539 -68.634605407715 -260.678070068359 2.277191877365
33.332046508789 -61.623142242432 -255.630065917969 2.200275659561
-139.015762329102 -69.087425231934 -266.244415283203 4.405678272247
-117.921203613281 -63.304714202881 -260.029602050781 3.301983833313
-132.316665649414 -64.303535461426 -266.552429199219 4.068530559540
35.716354370117 -68.958564758301 -265.962860107422 5.099085807800
-127.877563476563 -69.706047058105 -264.771362304688 2.030555009842
-10.143053054810 -62.301239013672 -258.398193359375 6.116295337677
21.255590438843 -67.102737426758 -276.506011962891 1.417835354805
-13.477246284485 -63.891216278076 -269.278076171875 5.033757686615
23.990253448486 -61.150016784668 -285.550933837891 5.678484439850
-150.181777954102 -68.710456848145 -283.517211914063 1.775611639023
-11.774222373962 -68.735198974609 -277.444610595703 2.260365962982
-154.367324829102 -69.532890319824 -289.479553222656 2.153415918350
-127.318115234375 -65.437904357910 -285.397399902344 1.691586375237
-160.484359741211 -68.650238037109 -289.955230712891 1.413044929504
-122.686553955078 -66.026664733887 -286.584259033203 2.710276603699
-106.654502868652 -69.920478820801 -291.437530517578 1.259586453438
-8.936660766602 -65.040214538574 -290.640533447266 5.043626785278
-111.608993530273 -66.864814758301 -294.531097412109 3.937115192413
-118.684135437012 -71.725578308105 -290.891479492188 2.550177335739
-122.015884399414 -69.313194274902 -292.234008789063 2.846254825592
-137.834838867188 -63.839939117432 -290.694824218750 4.228917598724
-125.052177429199 -70.832984924316 -294.381042480469 2.048553943634
-159.865753173828 -68.285041809082 -289.635589599609 2.063735961914
-145.723693847656 -73.006385803223 -297.549133300781 1.578691720963
-153.323348999023 -66.224716186523 -297.971710205078 3.017046451569
-154.770690917969 -63.795528411865 -307.171112060547 3.868881225586
-159.678863525391 -65.044410705566 -302.105072021484 6.578920841217
-148.117721557617 -68.517135620117 -312.850860595703 1.505204439163
-150.477127075195 -67.611061096191 -313.889221191406 1.559354066849
35.320545196533 -70.090187072754 -18.654731750488 2.031041383743
46.164035797119 -72.118644714355 -20.633872985840 2.275178670883
31.808034896851 -65.827789306641 -32.865428924561 3.715913534164
53.225425720215 -67.742141723633 -32.283012390137 4.374633789063
33.311767578125 -67.582435607910 -39.166233062744 2.252872943878
42.751380920410 -74.481521606445 -37.385253906250 3.709144115448
-53.370384216309 -70.753280639648 -46.161113739014 2.010198354721
86.511405944824 -67.622314453125 -61.409286499023 2.180605888367
85.296257019043 -67.165878295898 -68.067863464355 2.881850242615
-92.451919555664 -66.763763427734 -64.504287719727 2.896621465683
-12.489838600159 -67.329177856445 -62.784931182861 1.380424976349
-85.509147644043 -74.211723327637 -67.938392639160 2.593090057373
98.615959167480 -65.799095153809 -71.446952819824 2.124284744263
-15.075304985046 -66.259017944336 -68.375976562500 0.995533704758
70.238952636719 -69.762222290039 -79.547027587891 2.595750808716
-37.939281463623 -71.784729003906 -78.052757263184 1.479916214943
-28.096574783325 -73.569488525391 -81.802291870117 3.738144397736
57.134654998779 -64.209007263184 -88.594131469727 2.239147901535
-45.625530242920 -79.541564941406 -89.544708251953 3.393167257309
63.303485870361 -63.195426940918 -82.182357788086 0.610837817192
54.893051147461 -66.644020080566 -86.666610717773 1.457213521004
50.754299163818 -71.732154846191 -94.009651184082 1.258915901184
66.873588562012 -66.018280029297 -94.189125061035 1.804648041725
59.672851562500 -66.671676635742 -100.945411682129 3.198441028595
104.868324279785 -62.612205505371 -97.304069519043 1.596205234528
105.099060058594 -70.259292602539 -97.698181152344 0.504589855671
59.347885131836 -71.787139892578 -99.931907653809 1.547198891640
110.101409912109 -64.792282104492 -102.061622619629 3.524453401566
-70.321838378906 -76.458663940430 -101.361129760742 1.277416586876
-70.274635314941 -72.294075012207 -104.237747192383 4.325279712677
106.127143859863 -71.014602661133 -99.066383361816 1.587661743164
55.532901763916 -65.864425659180 -103.566452026367 2.648390531540
72.770515441895 -69.534851074219 -103.986137390137 1.418188810349
-67.386672973633 -61.585483551025 -101.347404479980 1.977282166481
