-166.162338256836 -69.870307922363 -238.027221679688 1.005129337311
60.425769805908 -71.787834167480 -250.266555786133 3.610414981842
51.818420410156 -73.065818786621 -251.970886230469 2.600370883942
56.110115051270 -77.599159240723 -241.751998901367 5.209486007690
-15.195251464844 -73.425056457520 -251.874725341797 1.136563301086
53.284351348877 -77.312385559082 -245.579742431641 5.313124656677
-74.774536132813 -76.940956115723 -247.017333984375 2.558772325516
50.853641510010 -75.700660705566 -251.542556762695 4.370112419128
-89.662948608398 -77.413307189941 -253.185913085938 3.357726573944
-129.045715332031 -77.918441772461 -251.213226318359 6.414427280426
-135.898696899414 -70.008720397949 -249.391387939453 5.582581996918
50.480754852295 -72.264106750488 -257.533416748047 5.352470874786
-138.917938232422 -72.324623107910 -254.371810913086 2.540438175201
-106.683097839355 -82.579818725586 -249.986999511719 11.682661056519
-112.562614440918 -74.137611389160 -255.768615722656 2.952541112900
-85.489471435547 -75.670501708984 -249.194732666016 2.980444908142
-113.622566223145 -77.161499023438 -261.080200195313 3.783930540085
-126.092109680176 -72.003715515137 -263.625488281250 1.598719000816
-145.527664184570 -75.145767211914 -263.057159423828 2.495400667191
-13.275585174561 -76.298690795898 -259.525512695313 0.745212137699
-173.826034545898 -74.348899841309 -264.115600585938 6.849320888519
-10.362378120422 -78.323623657227 -270.452972412109 0.706751406193
-159.245376586914 -69.810028076172 -262.626495361328 1.223294377327
-155.899108886719 -71.552566528320 -269.248077392578 2.926324844360
-170.417129516602 -69.346405029297 -270.475189208984 3.363954305649
-13.686726570129 -71.751289367676 -275.677764892578 1.980960607529
-134.893722534180 -75.733558654785 -280.648986816406 4.394196987152
-158.669540405273 -71.967910766602 -285.467681884766 1.695233345032
-144.432785034180 -74.726211547852 -279.176544189453 2.962316036224
-137.841522216797 -77.977668762207 -281.807098388672 4.978165149689
-10.499741554260 -75.165557861328 -280.428833007813 2.894517898560
-125.354942321777 -80.136550903320 -280.152954101563 7.089126586914
-143.256332397461 -76.232910156250 -283.023437500000 1.813340544701
-115.455131530762 -73.371208190918 -283.018035888672 3.718109846115
-79.622245788574 -72.624259948730 -288.518096923828 2.410733222961
-63.158611297607 -75.503143310547 -281.483428955078 5.301385879517
-6.741144180298 -75.660865783691 -287.662567138672 1.561395406723
-51.191143035889 -76.631156921387 -288.823120117188 1.302428603172
-63.627639770508 -77.161941528320 -285.694885253906 2.357813119888
-71.058662414551 -73.049583435059 -289.608703613281 2.514019489288
-88.605583190918 -76.455169677734 -294.328155517578 4.865516662598
-106.540817260742 -69.239891052246 -286.378753662109 1.181743621826
-160.905242919922 -75.193481445313 -287.579193115234 1.865116596222
-157.127105712891 -74.199363708496 -285.641571044922 1.638315796852
-128.426620483398 -77.902572631836 -294.495605468750 3.376812934875
-146.602905273438 -75.337142944336 -290.287658691406 1.681806683540
-159.183410644531 -73.740287780762 -295.925567626953 2.193518400192
-148.952392578125 -76.268424987793 -314.414001464844 2.109977006912
49.042022705078 -69.289093017578 -20.823820114136 0.586812794209
22.362974166870 -79.086410522461 -25.354248046875 7.058735370636
48.027225494385 -72.174491882324 -37.529541015625 2.629555940628
-17.182456970215 -73.610603332520 -64.917671203613 0.910931527615
82.619125366211 -70.062080383301 -67.329246520996 2.538091421127
87.348136901855 -64.926849365234 -72.688766479492 7.935683250427
78.123794555664 -69.518547058105 -73.813446044922 4.335540294647
79.695625305176 -70.712837219238 -68.635070800781 1.936906456947
98.933067321777 -72.375389099121 -74.953102111816 1.736756205559
-94.371955871582 -74.709083557129 -71.409416198730 3.953768253326
70.751693725586 -73.620719909668 -78.934631347656 1.596013545990
-33.658954620361 -68.892440795898 -75.674102783203 3.191523551941
100.733161926270 -72.263847351074 -88.114082336426 1.500002741814
66.728515625000 -77.706703186035 -89.403961181641 5.708985328674
112.068092346191 -70.482299804688 -92.101654052734 6.102644443512
107.814949035645 -74.650680541992 -99.325195312500 2.330549001694
73.421066284180 -73.958786010742 -97.502250671387 1.529252052307
-76.852066040039 -73.734474182129 -97.346954345703 2.187564849854
57.449985504150 -73.616035461426 -109.308586120605 5.270533561707
109.541549682617 -72.928588867188 -107.020225524902 1.202107667923
50.411880493164 -77.961791992188 -114.708793640137 3.140552759171
86.890777587891 -72.380035400391 -102.717735290527 0.452926546335
45.048015594482 -77.312644958496 -110.702964782715 2.053963422775
107.977355957031 -69.192626953125 -101.074378967285 1.447904109955
50.020248413086 -70.646751403809 -107.910484313965 1.504889845848
113.419380187988 -74.791137695313 -114.052360534668 2.714920043945
109.084579467773 -71.234298706055 -117.396003723145 1.038914084435
-77.406631469727 -64.488906860352 -112.262435913086 1.572657942772
-74.886932373047 -71.970664978027 -113.170669555664 3.189604997635
44.060283660889 -72.117851257324 -118.341209411621 1.383766055107
117.661567687988 -67.150871276855 -118.851829528809 4.752812862396
117.416419982910 -68.693069458008 -123.314857482910 3.082821846008
-79.168128967285 -72.461517333984 -124.422332763672 3.208135604858
109.857612609863 -70.613487243652 -123.045776367188 0.751490652561
-64.641754150391 -73.073379516602 -133.673828125000 4.882087707520
-87.471778869629 -69.701721191406 -125.337448120117 1.847842097282
-73.214767456055 -70.792831420898 -127.320915222168 2.403041839600
-55.973434448242 -66.515640258789 -123.440025329590 2.131388902664
37.094741821289 -71.114540100098 -130.464096069336 0.869216918945
43.971805572510 -71.022277832031 -134.472976684570 4.867815017700
-73.727043151855 -73.783950805664 -133.343536376953 3.469594955444
29.688407897949 -69.538871765137 -130.138626098633 2.078675985336
106.499526977539 -74.111938476563 -136.563049316406 3.523265123367
-37.793678283691 -73.140762329102 -147.817077636719 3.285125970840
26.553785324097 -71.182716369629 -145.541778564453 2.197983980179
111.588516235352 -65.368896484375 -147.805892944336 4.146620750427
36.518814086914 -74.189620971680 -144.254928588867 1.369709372520
112.253616333008 -73.330528259277 -145.075820922852 1.192396283150
-54.267955780029 -73.129005432129 -146.140792846680 2.025800704956
-65.836341857910 -75.498779296875 -148.100997924805 2.433943986893
-52.635730743408 -75.800575256348 -153.207092285156 1.329915046692
-44.589607238770 -71.672225952148 -167.618499755859 1.490679025650
2.357935905457 -70.168258666992 -153.056396484375 4.522548675537
110.917419433594 -66.578742980957 -155.903762817383 3.213437557220
108.537521362305 -70.000183105469 -162.562957763672 2.250453233719
10.047917366028 -66.792015075684 -159.832031250000 2.834680795670
1.764122962952 -71.386848449707 -159.742309570313 1.015840649605
15.744484901428 -69.007713317871 -159.477218627930 1.817884445190
21.549219131470 -70.817535400391 -148.856933593750 1.503650069237
116.199394226074 -75.799766540527 -166.865005493164 2.591456890106
107.228622436523 -74.028709411621 -174.176940917969 2.072236061096
27.152729034424 -71.202674865723 -173.428909301758 0.821310520172
27.854328155518 -70.881988525391 -164.362319946289 2.817119359970
116.124160766602 -71.592109680176 -163.658203125000 1.852325439453
-30.811126708984 -70.734062194824 -172.765167236328 1.611174345016
113.119354248047 -69.934661865234 -172.347976684570 1.297119140625
20.898012161255 -67.516189575195 -178.435562133789 0.986527264118
16.795051574707 -74.930969238281 -164.954742431641 3.023513317108
109.006355285645 -70.565658569336 -179.296890258789 2.232966661453
24.020854949951 -72.458961486816 -169.996047973633 3.246672153473
110.382606506348 -68.574943542480 -182.477874755859 2.587149858475
-39.933914184570 -70.292449951172 -175.792724609375 2.835445165634
27.787305831909 -68.736167907715 -171.960327148438 0.844504296780
108.426574707031 -71.139991760254 -187.024246215820 0.990990877151
24.649673461914 -69.896057128906 -176.975143432617 3.204950809479
-153.054916381836 -69.175193786621 -177.871383666992 0.894329726696
-32.234394073486 -72.897193908691 -187.204467773438 1.447566509247
25.388557434082 -74.169631958008 -185.693496704102 1.430647373199
-112.629333496094 -72.933898925781 -192.484832763672 2.840630292892
-112.753593444824 -74.577713012695 -187.265029907227 5.166989326477
21.534090042114 -68.749977111816 -192.690109252930 2.070780754089
12.477874755859 -73.477867126465 -186.445724487305 0.741743087769
-26.269689559937 -75.487808227539 -191.012451171875 2.481581687927
-28.140930175781 -73.135101318359 -185.876495361328 1.909278988838
-25.023071289063 -74.395957946777 -184.750198364258 3.000400066376
21.409254074097 -75.518821716309 -178.502090454102 3.067221641541
-153.108596801758 -72.641113281250 -190.178085327148 3.771681070328
-146.363311767578 -75.487953186035 -197.226776123047 1.351684808731
-141.440017700195 -72.814620971680 -190.179351806641 3.420079708099
-18.236959457397 -68.757453918457 -191.017135620117 1.071224808693
15.599443435669 -72.118629455566 -198.698257446289 3.554202556610
98.949920654297 -73.442474365234 -197.458023071289 2.397525310516
-115.964408874512 -72.615447998047 -200.872863769531 2.796891212463
16.926179885864 -70.179580688477 -202.035583496094 1.211277842522
-16.319177627563 -71.066421508789 -194.656311035156 1.415521383286
-18.678730010986 -71.221359252930 -194.874618530273 1.060778856277
96.510612487793 -71.477416992188 -202.593551635742 1.508148670197
8.088950157166 -74.785186767578 -198.462997436523 1.929456472397
-26.744615554810 -71.692718505859 -193.660232543945 1.794219732285
-121.738533020020 -74.879043579102 -200.088150024414 2.311283826828
-134.495483398438 -71.376350402832 -196.915802001953 0.771179318428
-109.827079772949 -70.507156372070 -205.340377807617 4.338666439056
-146.118347167969 -73.534584045410 -201.316040039063 2.222104072571
21.014799118042 -73.866371154785 -197.265686035156 1.334586739540
95.592857360840 -74.810707092285 -208.920639038086 0.849473297596
-166.922012329102 -72.162605285645 -202.785842895508 1.840210556984
101.260902404785 -72.494392395020 -204.561370849609 0.755331277847
-16.248291015625 -72.396598815918 -209.944564819336 1.609562993050
91.001541137695 -78.716629028320 -215.306686401367 2.033713340759
90.592803955078 -69.498512268066 -219.468078613281 1.390707135201
10.763972282410 -71.127151489258 -211.298233032227 1.619735479355
14.768595695496 -73.082992553711 -210.304214477539 3.118552923203
9.588543891907 -72.849533081055 -212.047470092773 1.432576656342
-9.604603767395 -71.538177490234 -218.190551757813 2.218098163605
-99.011344909668 -72.238456726074 -216.715713500977 1.385286450386
-7.443068027496 -74.857673645020 -219.325057983398 3.557822227478
91.323593139648 -70.919471740723 -215.187438964844 2.300328016281
-92.535095214844 -75.901184082031 -219.578536987305 1.360688924789
-102.417724609375 -75.917037963867 -218.898162841797 2.911284208298
-95.553634643555 -71.686866760254 -217.641860961914 1.971964001656
88.624671936035 -76.151931762695 -222.866928100586 3.246973037720
-135.005981445313 -76.520080566406 -224.295730590820 3.404067039490
-133.540206909180 -65.639480590820 -229.009643554688 1.503808021545
-120.473381042480 -72.621864318848 -225.246475219727 2.887228250504
-113.433090209961 -70.899734497070 -223.289031982422 3.497510671616
-132.794265747070 -70.558319091797 -218.427047729492 5.981279373169
-107.339439392090 -80.668190002441 -225.015411376953 8.169034957886
-114.877578735352 -69.861412048340 -226.198562622070 0.683827757835
-12.396021842957 -70.121627807617 -223.636947631836 1.667945504189
-20.987455368042 -75.524833679199 -225.605209350586 1.076067924500
-1.673766016960 -73.389411926270 -232.612747192383 2.750933408737
-9.323214530945 -70.827262878418 -228.817764282227 0.966559767723
15.092342376709 -74.822067260742 -231.754562377930 2.219866275787
-19.077110290527 -74.219535827637 -226.560592651367 2.435129880905
-161.674652099609 -74.222137451172 -220.656158447266 3.771363496780
-2.889239072800 -71.659118652344 -230.031616210938 1.144848227501
81.744865417480 -73.327980041504 -229.842117309570 1.207217216492
7.069550037384 -71.433120727539 -236.568405151367 2.227046489716
-10.699076652527 -71.846038818359 -227.740310668945 1.908446073532
-155.708740234375 -68.986427307129 -230.032928466797 0.703883111477
-138.936126708984 -75.481056213379 -231.015502929688 2.449105024338
68.849426269531 -68.286437988281 -237.190643310547 1.660361289978
-8.271029472351 -72.103355407715 -233.112075805664 1.980064034462
1.033043026924 -71.658660888672 -234.869659423828 2.189408540726
72.409088134766 -72.224891662598 -239.863159179688 1.924847006798
76.699218750000 -73.704887390137 -237.267211914063 3.807508230209
65.913116455078 -76.176368713379 -236.906082153320 1.822883963585
-3.639978885651 -69.976051330566 -235.418624877930 1.282330036163
53.855319976807 -72.802200317383 -238.923950195313 4.074249267578
-16.572185516357 -72.318145751953 -237.943267822266 1.105608701706
-16.376266479492 -71.036483764648 -239.461425781250 1.196331262589
8.382591247559 -73.369766235352 -238.852783203125 0.965559959412
65.405830383301 -72.419143676758 -246.440093994141 2.957838535309
58.801128387451 -73.161590576172 -239.822845458984 2.094651937485
52.416454315186 -68.833892822266 -247.633956909180 1.121404647827
61.089126586914 -75.645683288574 -245.078491210938 3.528257846832
-17.955089569092 -69.909629821777 -245.993865966797 4.396310329437
-84.980613708496 -70.526847839355 -245.763290405273 4.908938884735
-78.486999511719 -68.812805175781 -251.761062622070 1.163957238197
40.852062225342 -72.465049743652 -251.034927368164 2.369994163513
-144.144393920898 -69.727539062500 -246.342086791992 2.579241275787
39.332271575928 -73.475883483887 -258.896667480469 3.964081048965
-86.332298278809 -73.892143249512 -250.248703002930 0.970308482647
-154.855392456055 -74.455886840820 -253.376434326172 1.836100816727
-144.819702148438 -72.481491088867 -253.070495605469 0.735803127289
47.289085388184 -74.349769592285 -252.245803833008 3.532397747040
-128.228469848633 -71.636688232422 -249.700332641602 5.157828807831
-118.715347290039 -73.118621826172 -254.103698730469 1.756447672844
-96.788169860840 -72.676055908203 -251.975662231445 1.981813430786
-18.371389389038 -78.789779663086 -253.732620239258 6.714935779572
30.943387985229 -73.480361938477 -260.039001464844 3.316913127899
20.290395736694 -76.615379333496 -261.448883056641 1.806243419647
-156.807235717773 -72.906982421875 -252.753128051758 3.294665813446
-114.555633544922 -73.613739013672 -261.639373779297 0.989870607853
-13.442476272583 -74.298019409180 -258.334716796875 2.511926412582
-135.921310424805 -72.549438476563 -263.041961669922 0.915293037891
-13.661070823669 -71.289947509766 -272.016479492188 0.448709011078
-164.043960571289 -73.561492919922 -275.960174560547 2.138451099396
-11.173032760620 -69.211486816406 -275.811370849609 1.855040788651
-164.993194580078 -71.721855163574 -287.475341796875 1.943746924400
-159.450271606445 -73.310623168945 -274.256256103516 1.235181212425
-151.963897705078 -72.044334411621 -282.638641357422 2.696388959885
-171.023117065430 -73.114074707031 -280.407135009766 3.691312551498
17.624275207520 -68.496192932129 -287.985290527344 3.063312530518
-106.608894348145 -77.955299377441 -284.315124511719 6.275992870331
-90.081321716309 -71.786117553711 -283.833251953125 4.071483612061
-171.754165649414 -73.058151245117 -281.021759033203 4.270503997803
-90.942245483398 -75.185150146484 -287.839385986328 1.421949028969
-158.179458618164 -78.483001708984 -286.106781005859 2.903092145920
-77.258277893066 -75.397552490234 -290.304870605469 1.701904296875
-68.945114135742 -73.714828491211 -288.608917236328 2.509968757629
-83.499786376953 -72.002441406250 -288.727355957031 2.320546627045
-4.673066139221 -68.246566772461 -287.643859863281 1.800568342209
-86.376716613770 -74.778274536133 -290.431243896484 2.598657846451
-99.096176147461 -74.201576232910 -289.380401611328 1.592199444771
-119.461532592773 -72.852287292480 -290.951843261719 1.520568013191
-118.175109863281 -71.820976257324 -292.957672119141 2.246417284012
-140.740417480469 -68.872795104980 -290.143432617188 1.683709859848
-143.899383544922 -80.816024780273 -297.226013183594 3.195013761520
-147.218460083008 -79.246368408203 -308.039855957031 2.289330244064
28.367788314819 -70.159194946289 -17.742870330811 1.820820569992
32.422599792480 -66.799011230469 -23.745586395264 5.163070201874
32.748695373535 -73.182502746582 -17.388923645020 1.984581947327
49.014495849609 -71.557243347168 -26.996335983276 1.033086299896
24.214145660400 -72.307205200195 -31.745075225830 1.874592661858
-77.651138305664 -69.064796447754 -49.090541839600 2.440159320831
87.190032958984 -69.323661804199 -66.018013000488 1.219543933868
-10.769074440002 -69.843200683594 -67.151458740234 2.640480041504
103.286895751953 -71.834533691406 -73.221557617188 4.259654998779
97.156250000000 -66.683441162109 -80.203865051270 4.821015357971
74.839271545410 -75.724960327148 -82.829223632813 1.360052943230
69.622070312500 -68.492042541504 -87.591423034668 3.005315542221
-47.573383331299 -70.029197692871 -81.159660339355 3.879029750824
61.027267456055 -70.290718078613 -82.211708068848 2.527506351471
-97.892646789551 -71.408859252930 -86.811508178711 2.654095411301
-47.416023254395 -71.117027282715 -87.417938232422 2.652610301971
-54.963607788086 -75.020751953125 -83.883819580078 6.087140083313
97.058563232422 -71.151741027832 -98.109970092773 0.869047462940
57.774589538574 -71.591964721680 -101.901985168457 2.263653039932
63.001194000244 -67.350982666016 -92.253929138184 1.100219726563
-93.670394897461 -69.713577270508 -93.256607055664 4.284650325775
110.353828430176 -66.827369689941 -95.717002868652 3.812839746475
48.913425445557 -69.983421325684 -94.811462402344 1.834690093994
102.683456420898 -68.079795837402 -98.655876159668 1.102076649666
107.392860412598 -69.629592895508 -108.354385375977 0.704948425293
101.780784606934 -68.837478637695 -105.438377380371 1.963050007820
76.084777832031 -69.336120605469 -105.560707092285 1.428727626801
86.922203063965 -69.728691101074 -108.445755004883 3.663499355316
47.772853851318 -73.379280090332 -110.819503784180 1.840029358864
109.081062316895 -68.047119140625 -109.221282958984 1.417371034622
47.661716461182 -70.958396911621 -109.814125061035 1.329905986786
47.619979858398 -67.621009826660 -101.939140319824 1.123518466949
108.089088439941 -72.633102416992 -117.592300415039 1.386422395706
-78.209777832031 -67.732986450195 -106.365577697754 1.968646883965
48.636913299561 -68.433113098145 -114.992759704590 2.690371990204
36.630439758301 -71.175460815430 -112.035537719727 2.304922819138
107.898880004883 -71.090522766113 -109.593032836914 1.307299494743
44.157806396484 -69.392112731934 -113.696197509766 1.811531901360
-88.762489318848 -69.839179992676 -117.111862182617 1.886538147926
-96.634696960449 -70.038352966309 -114.554794311523 2.039593696594
109.760482788086 -67.526374816895 -123.729049682617 2.011269569397
-91.226516723633 -75.118377685547 -114.434509277344 1.959225654602
40.375934600830 -69.546661376953 -123.776985168457 0.935570478439
37.952884674072 -69.942817687988 -117.570411682129 1.044579625130
-77.652214050293 -72.290168762207 -121.613922119141 3.628514289856
29.401504516602 -67.392280578613 -129.547363281250 3.893705129623
109.974182128906 -70.251564025879 -135.341766357422 2.069229841232
-47.314731597900 -71.619873046875 -136.905929565430 0.735598623753
-88.433082580566 -72.492599487305 -129.428237915039 2.879111528397
35.817302703857 -71.263244628906 -138.167175292969 2.420600414276
-86.544570922852 -71.281486511230 -133.738418579102 1.568764805794
-89.990104675293 -73.797431945801 -133.129913330078 4.161818981171
-46.958892822266 -73.841697692871 -134.679504394531 2.478237628937
-71.977752685547 -72.281608581543 -137.298385620117 0.674869716167
-49.249916076660 -70.836967468262 -137.313308715820 1.088427424431
114.668266296387 -67.895835876465 -139.986480712891 1.518592834473
-74.579368591309 -66.708015441895 -139.355239868164 0.957799196243
36.698757171631 -71.770851135254 -129.769790649414 1.128780126572
-75.038986206055 -67.149688720703 -137.187377929688 1.420696139336
-77.820022583008 -69.896995544434 -130.989349365234 1.415796637535
-86.294021606445 -72.110107421875 -134.089416503906 2.440191268921
-56.760578155518 -70.468017578125 -150.495086669922 2.384319543839
31.828655242920 -68.699447631836 -150.956253051758 1.994098186493
33.437892913818 -70.550094604492 -152.544555664063 2.073029518127
20.552713394165 -69.139907836914 -145.084396362305 1.128673553467
113.815559387207 -73.630348205566 -151.692199707031 1.652610659599
-97.437866210938 -77.796028137207 -154.195037841797 9.157567024231
17.906587600708 -71.294609069824 -146.489089965820 1.766974925995
-68.927360534668 -73.978256225586 -145.126708984375 2.276541233063
23.583221435547 -69.447052001953 -149.217376708984 1.839823961258
-44.104942321777 -69.317497253418 -152.597702026367 1.924345731735
7.461612224579 -67.352310180664 -148.463623046875 4.471121311188
7.629178047180 -69.860267639160 -155.945312500000 0.905402660370
17.176181793213 -70.117576599121 -162.065170288086 3.451908826828
-46.296218872070 -72.585250854492 -163.512680053711 1.453037142754
-40.698451995850 -65.461906433105 -151.915786743164 4.533473968506
-46.701366424561 -69.642601013184 -155.271286010742 1.816220760345
-100.602180480957 -70.371383666992 -167.637161254883 2.499095916748
17.318017959595 -67.022438049316 -171.566528320313 2.423283338547
-37.548042297363 -73.263717651367 -173.070495605469 1.033055663109
12.689153671265 -63.560180664063 -178.211975097656 6.417299270630
-146.523147583008 -76.466674804688 -168.562469482422 7.943845272064
-35.042842864990 -66.528953552246 -174.515670776367 2.328256845474
-151.738250732422 -68.461242675781 -173.494033813477 2.575123548508
18.623453140259 -72.350692749023 -181.055023193359 2.232331037521
-33.247650146484 -75.897850036621 -170.402450561523 2.764817237854
-108.698852539063 -74.718154907227 -180.587402343750 5.438288688660
-104.573043823242 -71.757804870605 -180.315353393555 3.913952827454
-34.153591156006 -69.127853393555 -179.815643310547 2.217265129089
-18.061822891235 -71.396499633789 -187.711196899414 2.050546884537
13.614201545715 -71.924674987793 -189.216186523438 1.571567654610
19.755363464355 -70.923828125000 -196.116699218750 0.670531928539
17.338603973389 -65.061569213867 -187.801712036133 2.071489334106
-139.913879394531 -72.020545959473 -182.400360107422 2.226364135742
16.187681198120 -70.908813476563 -194.073577880859 2.583111763000
9.876274108887 -72.080818176270 -197.766830444336 0.991210997105
-140.905349731445 -69.317893981934 -193.824478149414 0.810617864132
-118.708244323730 -73.225585937500 -197.086654663086 3.716081619263
15.089338302612 -68.601943969727 -198.372192382813 1.976159930229
-112.394927978516 -74.651580810547 -189.989837646484 5.307256698608
-109.217651367188 -73.813171386719 -189.709579467773 3.848052978516
-163.287399291992 -75.483749389648 -197.845855712891 3.965994834900
-17.488866806030 -76.735153198242 -203.233352661133 1.407377481461
15.460794448853 -67.124626159668 -202.352859497070 0.756620824337
-138.568954467773 -68.539497375488 -196.558410644531 1.673496246338
-134.751022338867 -73.221481323242 -205.493255615234 3.558428525925
-19.661924362183 -69.776191711426 -206.072219848633 1.676810383797
-12.602704048157 -69.010108947754 -203.817001342773 1.624506711960
-15.308594703674 -73.111991882324 -209.398376464844 2.115736484528
-146.587844848633 -75.235092163086 -205.248153686523 1.383806109428
-20.795433044434 -73.853340148926 -202.750900268555 2.143467187881
-12.980182647705 -68.594665527344 -209.365142822266 2.006471872330
15.025604248047 -70.172294616699 -208.951675415039 1.205542325974
-11.468411445618 -71.543792724609 -207.558624267578 2.351500988007
10.317165374756 -67.089340209961 -212.320495605469 1.441301822662
-8.033196449280 -74.127967834473 -216.647277832031 3.400685787201
-15.678276062012 -74.436424255371 -210.536361694336 1.915606021881
9.713023185730 -71.343200683594 -224.973770141602 1.707043051720
-5.079322814941 -72.122444152832 -218.719482421875 2.003767490387
11.842411041260 -69.836593627930 -221.855743408203 1.861295342445
-5.287852764130 -73.842010498047 -223.045120239258 3.101033210754
-159.602996826172 -73.057556152344 -217.872390747070 4.613525867462
83.818443298340 -71.966842651367 -222.894897460938 1.689224958420
-135.193847656250 -71.738159179688 -218.919570922852 6.277355194092
-135.085769653320 -71.865432739258 -221.848175048828 3.497058629990
-9.141393661499 -71.447128295898 -227.715713500977 1.228816151619
12.436903953552 -73.976074218750 -234.220001220703 2.354413509369
-151.526626586914 -70.614280700684 -218.936859130859 2.460795879364
84.381111145020 -67.893280029297 -222.985580444336 2.479609727859
-8.438985824585 -71.872886657715 -223.572952270508 1.316994309425
2.363920927048 -73.234504699707 -226.908782958984 1.913499832153
70.747032165527 -70.367614746094 -229.142929077148 1.553030848503
3.609231948853 -73.607460021973 -232.178054809570 1.827351570129
-18.594549179077 -69.188583374023 -230.308761596680 2.778546571732
-121.914062500000 -76.397163391113 -234.428085327148 4.211896896362
-5.914599895477 -71.736495971680 -237.393295288086 1.813631415367
-1.559461951256 -72.862113952637 -232.761062622070 2.300146579742
67.470138549805 -72.875877380371 -236.689727783203 2.196753025055
-163.122955322266 -72.192375183105 -235.506759643555 1.335842728615
-10.586602210999 -70.772499084473 -246.270797729492 2.292230129242
-167.112274169922 -74.275894165039 -236.173721313477 2.782380342484
7.356433868408 -73.124084472656 -244.517761230469 2.001924991608
-167.905426025391 -72.209510803223 -234.941177368164 1.308359861374
-157.339065551758 -69.339340209961 -239.633041381836 0.734084010124
53.282943725586 -75.714431762695 -252.718276977539 5.264174461365
62.501712799072 -69.272125244141 -244.774841308594 1.480232715607
53.488746643066 -70.756965637207 -243.942749023438 2.127187013626
48.920532226563 -75.145423889160 -248.864807128906 3.066038608551
-161.513442993164 -71.875915527344 -242.817398071289 3.200145959854
-153.449829101563 -73.512489318848 -247.292877197266 0.918320536613
-16.667491912842 -71.277107238770 -246.574569702148 3.171473264694
-155.273223876953 -71.257164001465 -244.193328857422 2.064782381058
19.457994461060 -74.458679199219 -255.996551513672 2.624672174454
-166.801651000977 -71.795692443848 -247.915695190430 0.966211557388
-170.274353027344 -67.230163574219 -240.312408447266 4.430232524872
-81.583641052246 -70.256011962891 -250.176437377930 2.516394376755
-172.604995727539 -74.015960693359 -261.941925048828 5.521080493927
-87.432518005371 -73.835968017578 -257.939392089844 1.924211263657
35.812870025635 -66.476417541504 -250.032516479492 2.879745960236
23.200136184692 -75.362983703613 -256.035644531250 1.251651525497
-159.173171997070 -69.742866516113 -255.760009765625 2.137408494949
-103.470809936523 -68.869590759277 -258.745574951172 2.123400211334
37.896282196045 -70.916870117188 -258.878204345703 1.429072380066
-102.506988525391 -72.696960449219 -256.817718505859 2.180881261826
-153.141769409180 -69.829299926758 -255.789108276367 1.377215027809
-108.009941101074 -69.407485961914 -255.940170288086 2.218422651291
-164.165130615234 -72.729621887207 -255.279785156250 1.853524327278
-114.666885375977 -73.696792602539 -259.654479980469 0.948503911495
-155.994033813477 -74.039718627930 -265.232391357422 0.658524036407
-158.779067993164 -75.157272338867 -260.165344238281 2.114214897156
-168.488204956055 -76.173248291016 -261.493194580078 3.497578382492
-161.241989135742 -72.957633972168 -261.785125732422 1.984648942947
-167.236114501953 -69.590789794922 -265.075195312500 1.157246589661
-165.138122558594 -67.644622802734 -263.948455810547 1.698970079422
22.641199111938 -72.846466064453 -263.964904785156 1.729334235191
-150.669815063477 -71.098968505859 -264.673980712891 2.133033275604
-150.192657470703 -71.114669799805 -284.326324462891 3.224210023880
16.540628433228 -78.719902038574 -279.582336425781 2.402175903320
-9.657152175903 -71.008354187012 -275.233642578125 2.590196847916
-128.118423461914 -76.593261718750 -282.105133056641 4.107223510742
-139.040847778320 -79.372787475586 -285.698547363281 0.901167452335
-139.548950195313 -73.661224365234 -283.678741455078 2.663907527924
-130.780273437500 -69.621528625488 -282.332214355469 2.800198316574
-117.909141540527 -72.268119812012 -286.266082763672 1.381442546844
-109.848426818848 -75.031623840332 -284.981750488281 3.635134935379
10.396645545959 -71.044380187988 -291.780334472656 2.953549623489
-91.761108398438 -71.296394348145 -283.334350585938 5.077638149261
-148.137695312500 -74.751739501953 -291.814514160156 1.629273176193
-101.307998657227 -70.437042236328 -286.555206298828 1.720028877258
-130.746261596680 -72.195075988770 -289.305969238281 5.138949394226
9.879091262817 -78.254371643066 -288.430541992188 1.664501190186
-117.168853759766 -75.756561279297 -291.718444824219 1.646117210388
-0.417784988880 -72.804916381836 -288.638732910156 2.410808801651
-144.480346679688 -75.279830932617 -286.444396972656 1.892964005470
-158.318542480469 -75.997421264648 -298.559143066406 4.553677082062
-165.914382934570 -74.489776611328 -304.755035400391 10.169719696045
-155.097290039063 -74.606475830078 -308.140380859375 1.598776459694
51.931549072266 -73.964508056641 -25.590330123901 3.635763645172
22.301296234131 -70.243759155273 -31.579053878784 1.622981905937
37.401241302490 -71.226402282715 -38.105484008789 1.612900257111
-48.120613098145 -68.820388793945 -50.258476257324 2.998879671097
-11.347153663635 -67.640281677246 -61.172466278076 1.491968274117
95.825431823730 -74.678878784180 -75.786613464355 2.274649858475
68.572853088379 -67.209342956543 -68.415435791016 1.819044232368
-18.347267150879 -71.409011840820 -73.677871704102 1.686003923416
-91.580215454102 -69.640777587891 -79.465286254883 3.053614854813
-36.906814575195 -70.782432556152 -78.875114440918 2.481452941895
65.684295654297 -70.441291809082 -81.341751098633 2.825717449188
57.851810455322 -75.633460998535 -84.263008117676 5.143829345703
58.752754211426 -71.549102783203 -87.599555969238 0.273033171892
-54.607074737549 -72.657424926758 -83.689437866211 5.512923717499
69.680747985840 -68.143821716309 -88.575805664063 3.624815225601
46.406589508057 -74.510223388672 -96.409172058105 2.254858016968
68.314880371094 -73.018234252930 -91.100799560547 1.230955481529
-61.672782897949 -68.914337158203 -95.556434631348 3.605388879776
55.217220306396 -66.027381896973 -97.425765991211 0.906704783440
47.986835479736 -71.723320007324 -98.195037841797 1.433953762054
105.209518432617 -73.120018005371 -96.017173767090 1.560519337654
-68.574523925781 -76.869384765625 -97.653762817383 2.392245769501
111.808181762695 -71.286972045898 -103.112953186035 2.167117834091
-78.794548034668 -68.515319824219 -92.961769104004 7.094817161560
57.594963073730 -71.736335754395 -107.180465698242 4.785365104675
51.192310333252 -68.199928283691 -102.168724060059 2.531252145767
97.048904418945 -69.717475891113 -100.463005065918 0.963669896126
88.969825744629 -61.580574035645 -114.744056701660 5.771186351776
57.282115936279 -73.016578674316 -104.537590026855 2.540912389755
-68.921775817871 -71.954338073730 -103.893226623535 3.967972278595
-78.357109069824 -71.537712097168 -107.855468750000 2.891911745071
-82.901992797852 -73.910499572754 -118.161674499512 3.461430311203
-93.188987731934 -79.263771057129 -114.063079833984 3.635283708572
103.543426513672 -71.374427795410 -115.736122131348 2.944686651230
-85.152702331543 -67.900558471680 -117.988937377930 1.209121823311
-78.629135131836 -67.921676635742 -117.935592651367 1.052656412125
112.184867858887 -67.536499023438 -117.778778076172 3.240386962891
-62.279880523682 -65.171646118164 -116.195343017578 1.846400976181
113.337600708008 -73.009376525879 -132.718185424805 0.879347920418
108.924514770508 -69.468864440918 -131.590545654297 1.923188567162
113.430229187012 -69.159027099609 -119.069465637207 1.536177635193
-93.093803405762 -68.788787841797 -132.131927490234 2.573979139328
-52.155738830566 -66.384490966797 -137.770477294922 2.552098035812
-75.372436523438 -73.498512268066 -144.585342407227 1.411214232445
-68.203292846680 -68.179191589355 -149.069519042969 2.129857301712
-73.003257751465 -69.099380493164 -142.157119750977 0.840104401112
-53.005008697510 -66.605834960938 -145.830993652344 0.691944420338
-47.313175201416 -68.433540344238 -150.693710327148 1.647503495216
20.625261306763 -72.371871948242 -144.683288574219 3.209797859192
-94.324813842773 -65.972930908203 -152.534057617188 0.719988226891
-42.762111663818 -73.920394897461 -146.775909423828 1.594930291176
-54.396583557129 -69.641830444336 -150.712814331055 1.516924500465
-43.894840240479 -66.051841735840 -154.847198486328 1.804510235786
28.556875228882 -74.509330749512 -159.835708618164 2.767965793610
-47.759929656982 -69.996421813965 -153.992935180664 1.019074678421
-95.544120788574 -71.794120788574 -146.444412231445 3.339413642883
-41.738700866699 -69.591438293457 -158.994171142578 1.296421051025
25.650907516479 -67.651435852051 -157.337814331055 2.413655757904
-100.370643615723 -71.864311218262 -161.674942016602 4.038019657135
22.376068115234 -68.934112548828 -158.500335693359 1.997114300728
-104.458213806152 -65.444335937500 -169.189575195313 2.872300148010
-100.130233764648 -66.757080078125 -161.894149780273 2.291144132614
22.703529357910 -64.444213867188 -168.376266479492 3.236311674118
25.687889099121 -67.617202758789 -167.765808105469 1.296114921570
-106.854339599609 -73.166847229004 -171.801666259766 4.269375801086
-143.801208496094 -71.068809509277 -172.597808837891 2.915545940399
-24.862554550171 -68.763816833496 -185.883392333984 1.558840155602
-22.299203872681 -67.423301696777 -182.825454711914 2.242017745972
-113.314170837402 -69.152694702148 -186.891601562500 1.504041314125
-141.435134887695 -69.993667602539 -186.212951660156 1.383816719055
-105.147140502930 -74.199073791504 -178.259033203125 5.461949825287
-150.679473876953 -75.401626586914 -194.816314697266 1.682024359703
-129.069488525391 -74.136169433594 -190.154342651367 6.349462032318
-137.104721069336 -70.269721984863 -192.611312866211 4.488807678223
-21.641696929932 -65.396415710449 -192.503433227539 2.401528596878
-120.231590270996 -71.698852539063 -189.359527587891 6.698486328125
-113.913505554199 -68.107048034668 -192.196502685547 1.480816245079
-18.364936828613 -73.565391540527 -193.395797729492 0.838966310024
-154.610397338867 -67.237701416016 -191.651794433594 1.819044947624
-136.010498046875 -73.813400268555 -207.894424438477 6.167974472046
-124.054145812988 -67.859550476074 -201.614837646484 2.945850133896
14.587602615356 -67.808006286621 -204.589202880859 1.903280973434
-161.346160888672 -71.474723815918 -202.397491455078 2.455844640732
10.726943016052 -74.030387878418 -210.472656250000 2.087645292282
13.532884597778 -76.320068359375 -213.809829711914 2.274381875992
-19.085649490356 -70.166000366211 -207.779312133789 0.761682212353
-6.235470771790 -71.489028930664 -212.693817138672 1.703014492989
-167.270614624023 -72.230377197266 -209.688629150391 2.533029556274
-159.530670166016 -69.219566345215 -214.369689941406 1.663908004761
-102.491264343262 -72.145072937012 -215.644134521484 3.392502784729
-101.226768493652 -69.468925476074 -224.862442016602 1.503664612770
-158.971679687500 -68.618850708008 -216.643234252930 1.208976268768
-106.887077331543 -71.081344604492 -219.647796630859 3.055441141129
-17.326158523560 -72.589286804199 -217.500122070313 1.718672871590
-125.260215759277 -70.664550781250 -226.208892822266 2.181519985199
-145.270874023438 -74.085678100586 -220.687271118164 1.483499169350
-8.305598258972 -73.981254577637 -226.733978271484 1.068863749504
-133.078399658203 -68.925621032715 -223.680664062500 0.991676628590
-126.452201843262 -66.389190673828 -224.227416992188 0.694261789322
-111.881706237793 -73.104400634766 -228.400695800781 1.826144218445
-1.010380029678 -70.642364501953 -229.574020385742 2.151436805725
-109.118316650391 -68.934234619141 -224.771255493164 1.339324831963
-158.502853393555 -76.464302062988 -218.353485107422 5.651007175446
-147.329055786133 -75.998733520508 -222.724090576172 1.534470558167
-165.671142578125 -72.110977172852 -224.132049560547 0.924368202686
-7.698661804199 -70.024894714355 -228.312591552734 1.097300529480
-10.407859802246 -61.250267028809 -229.823684692383 6.868868827820
76.074050903320 -61.467063903809 -228.119049072266 6.751921653748
2.217642068863 -67.946655273438 -233.457275390625 0.762479901314
-144.378402709961 -69.889343261719 -230.398635864258 3.597942829132
-13.359194755554 -72.803436279297 -229.484802246094 0.419492453337
76.523277282715 -74.843627929688 -224.167968750000 2.000262498856
68.702949523926 -70.657707214355 -232.627624511719 2.012019634247
-130.820281982422 -71.162628173828 -228.319442749023 3.515530824661
-161.566589355469 -70.669410705566 -223.973129272461 2.784054994583
-112.084182739258 -67.674713134766 -229.254425048828 2.165088176727
-120.393188476563 -70.248268127441 -231.112564086914 3.108257293701
-170.044952392578 -67.056510925293 -230.279113769531 4.402395248413
-159.288208007813 -69.458038330078 -235.269287109375 1.819065928459
-136.437454223633 -70.341453552246 -237.909744262695 4.536943912506
-10.736201286316 -76.482711791992 -232.587448120117 1.944894552231
-3.858999967575 -69.547065734863 -242.839996337891 4.091420173645
-161.438934326172 -68.896720886230 -238.521682739258 1.729025244713
7.600010871887 -73.901100158691 -240.508483886719 1.296803116798
7.932021141052 -69.180953979492 -238.949417114258 1.143121123314
-165.026077270508 -70.699020385742 -238.985733032227 2.238795518875
12.130279541016 -70.582145690918 -242.439422607422 1.687523007393
50.343807220459 -69.684867858887 -248.239379882813 0.470325410366
51.459980010986 -67.164550781250 -252.718048095703 1.833265185356
-8.389513015747 -71.794586181641 -244.504623413086 1.196328997612
49.533676147461 -68.120384216309 -246.628524780273 0.974892973900
-163.937652587891 -72.119796752930 -252.287872314453 2.194713354111
-165.982757568359 -69.059387207031 -245.902450561523 1.804703593254
-164.097396850586 -73.546844482422 -243.603881835938 2.738631248474
53.808212280273 -68.643539428711 -255.109222412109 4.394795417786
-91.563865661621 -74.740623474121 -250.971328735352 2.222370386124
-125.370803833008 -70.308166503906 -249.757278442383 4.404097080231
-108.739341735840 -73.182807922363 -251.893020629883 5.262712001801
30.188966751099 -70.964096069336 -256.544677734375 2.015420198441
37.471435546875 -71.524047851563 -253.961532592773 1.140769600868
-98.334709167480 -71.084869384766 -250.785964965820 3.016333580017
-93.596176147461 -69.756111145020 -255.009963989258 2.345874786377
43.946647644043 -68.794311523438 -256.604980468750 2.379264116287
39.598472595215 -68.223762512207 -254.663742065430 1.593835234642
-158.412612915039 -72.805747985840 -257.025970458984 2.992042303085
32.345020294189 -67.321182250977 -254.332122802734 0.308389157057
-140.170043945313 -73.597206115723 -262.778991699219 2.283375024796
-118.957565307617 -67.806129455566 -256.987762451172 2.633615493774
-133.434631347656 -68.884887695313 -263.314331054688 1.622384548187
34.548805236816 -75.002525329590 -264.451416015625 6.913453578949
-129.021362304688 -74.266967773438 -261.411346435547 2.241817951202
-11.163102149963 -67.703079223633 -256.591918945313 1.351204872131
19.984666824341 -73.355583190918 -274.886444091797 2.264678478241
-14.634830474854 -69.609031677246 -267.377624511719 0.660612285137
22.666057586670 -67.718139648438 -284.146759033203 4.867983341217
-151.529251098633 -73.671592712402 -279.929382324219 2.731572389603
-13.066385269165 -74.725334167480 -275.403808593750 2.014240264893
-155.789505004883 -74.646377563477 -285.815338134766 0.364720463753
-128.661666870117 -70.662574768066 -282.168090820313 2.682437658310
-161.903900146484 -73.725334167480 -286.250671386719 1.167778372765
-124.049118041992 -71.329689025879 -283.387145996094 1.535087823868
-108.107162475586 -75.517433166504 -288.292205810547 2.633898735046
-10.348691940308 -71.477416992188 -288.741821289063 2.721635818481
-113.070640563965 -72.518142700195 -291.426269531250 0.869615852833
-120.144630432129 -77.197929382324 -287.554626464844 2.390470981598
-123.470954895020 -74.800170898438 -288.936218261719 1.641204595566
-139.224349975586 -69.141212463379 -287.396148681641 3.700820446014
-126.544372558594 -76.360656738281 -290.999603271484 0.946773171425
-161.278610229492 -73.355621337891 -285.949768066406 1.783063769341
-147.268447875977 -78.451148986816 -293.865844726563 1.321368336678
-154.814712524414 -71.619514465332 -294.419891357422 1.826858282089
-156.346527099609 -69.471672058105 -303.675445556641 2.581901788712
-161.206863403320 -70.515289306641 -298.517669677734 5.370524883270
-149.799163818359 -74.430229187012 -309.275451660156 3.309255599976
-152.162521362305 -73.536857604980 -310.315795898438 2.897006511688
36.971176147461 -68.258750915527 -17.244232177734 2.181801557541
47.773765563965 -70.444854736328 -19.278474807739 0.698782563210
33.332641601563 -64.419960021973 -31.543685913086 5.556437969208
54.738319396973 -66.503875732422 -31.139463424683 5.819026947021
34.749313354492 -66.387474060059 -37.801647186279 2.344976186752
44.149898529053 -73.309471130371 -35.906757354736 2.387224435806
-52.030960083008 -69.013717651367 -43.724079132080 3.107064008713
87.688934326172 -67.605087280273 -60.624313354492 2.250381946564
86.401641845703 -67.350097656250 -67.280097961426 2.245392799377
-91.284500122070 -65.265068054199 -61.748050689697 1.473334074020
-11.315596580505 -66.481605529785 -60.903858184814 1.463887810707
-84.444786071777 -72.879577636719 -65.019874572754 2.144460439682
99.692947387695 -66.209236145020 -70.849510192871 0.888087868690
-13.955665588379 -65.567146301270 -66.497016906738 1.732973456383
71.192604064941 -70.177406311035 -78.501785278320 2.478835344315
-36.974792480469 -71.195915222168 -75.736732482910 1.144367098808
-27.191070556641 -73.185966491699 -79.536972045898 1.662233233452
58.033222198486 -64.799446105957 -87.574783325195 2.242985963821
-44.857376098633 -79.246406555176 -86.888702392578 2.350701332092
64.283332824707 -63.636825561523 -81.267875671387 0.529268682003
55.793258666992 -67.151985168457 -85.545616149902 2.010226011276
51.527858734131 -72.434509277344 -92.675834655762 1.315200805664
67.691879272461 -66.871818542480 -93.217483520508 1.706939935684
60.409076690674 -67.676300048828 -99.868698120117 3.006363153458
105.676025390625 -63.902275085449 -96.863342285156 2.688164949417
105.837455749512 -71.559776306152 -97.015663146973 0.959753990173
60.052398681641 -72.753845214844 -98.688835144043 2.221190929413
110.835723876953 -66.278800964355 -101.606956481934 2.595400571823
-69.660194396973 -76.323188781738 -98.521224975586 2.308646678925
-69.610610961914 -72.252845764160 -101.529678344727 2.383515357971
106.843391418457 -72.367301940918 -98.370437622070 1.921053051949
56.246414184570 -66.916358947754 -102.467819213867 3.189820766449
73.446403503418 -70.750366210938 -102.962425231934 1.081383705139
-66.599174499512 -61.483600616455 -99.015090942383 0.604267597198
-78.380676269531 -66.803459167480 -104.747543334961 1.862714052200
96.706100463867 -66.760902404785 -112.392234802246 6.461931705475
45.016338348389 -68.603462219238 -103.951339721680 2.092755079269
103.333168029785 -68.103668212891 -103.343215942383 1.182770013809
45.348979949951 -66.926452636719 -111.103507995605 2.095037698746
115.347511291504 -64.555946350098 -110.720748901367 5.490777492523
-83.838500976563 -64.353782653809 -105.841667175293 1.645692110062
106.723625183105 -63.197372436523 -112.039550781250 4.171090126038
-84.945686340332 -65.721023559570 -113.983078002930 2.910718202591
-57.216098785400 -71.025596618652 -122.854888916016 2.836782217026
-57.736995697021 -68.065093994141 -127.479606628418 1.255788922310
-71.672561645508 -71.671554565430 -128.745910644531 3.745598077774
-48.574478149414 -70.873542785645 -129.864562988281 3.283488988876
-85.694656372070 -69.826217651367 -131.476959228516 1.395171403885
-76.989143371582 -73.114738464355 -133.178192138672 1.278073310852
-84.688812255859 -69.745208740234 -126.485954284668 1.139395475388
-53.282962799072 -73.022354125977 -136.417327880859 1.792329668999
-71.091712951660 -68.252120971680 -137.610382080078 1.749611973763
-58.885654449463 -69.332145690918 -133.659606933594 1.779095888138
-62.325557708740 -71.616104125977 -136.276107788086 2.940552234650
23.827966690063 -71.710052490234 -140.066131591797 1.695313811302
-85.167350769043 -72.369750976563 -142.757919311523 6.427480697632
-44.970939636230 -73.145484924316 -146.271286010742 1.862041115761
-97.561302185059 -67.380455017090 -148.139633178711 1.450583696365
-102.063865661621 -68.489616394043 -150.568145751953 3.186357021332
18.595893859863 -74.573616027832 -153.589920043945 3.056160449982
15.425064086914 -73.281768798828 -159.981872558594 1.154732227325
-100.089912414551 -70.593894958496 -157.515808105469 2.505473136902
-98.992919921875 -67.708915710449 -155.998382568359 1.520401835442
-94.582077026367 -69.112106323242 -166.177276611328 6.005753993988
18.851947784424 -66.291213989258 -170.641204833984 2.033188104630
-113.389343261719 -73.484725952148 -164.612762451172 9.746921539307
19.533126831055 -71.754501342773 -169.011672973633 1.071365833282
-144.948425292969 -73.755012512207 -175.509704589844 1.223170399666
17.242650985718 -69.562973022461 -176.344223022461 0.965805709362
22.336729049683 -71.565765380859 -187.261718750000 1.937393307686
-153.308288574219 -68.167762756348 -184.876251220703 2.284121036530
19.125999450684 -72.845458984375 -180.248962402344 2.722799062729
14.689808845520 -68.214340209961 -177.751602172852 2.925489664078
-137.123504638672 -77.950996398926 -189.450225830078 7.290767669678
-151.172821044922 -73.236892700195 -186.844284057617 0.772871375084
16.711574554443 -68.709259033203 -189.776596069336 0.417409420013
20.928176879883 -67.195877075195 -186.112869262695 0.608610510826
-146.739944458008 -70.238090515137 -189.511016845703 2.944398641586
-108.725044250488 -75.400657653809 -191.705276489258 5.577877044678
22.109420776367 -68.883552551270 -196.427276611328 0.935411334038
-126.391502380371 -66.827575683594 -189.203689575195 5.894014358521
11.133352279663 -71.650146484375 -197.916885375977 1.013784050941
-132.571807861328 -67.034866333008 -192.877700805664 2.230045318604
-150.149551391602 -70.890228271484 -189.883773803711 1.320035815239
-162.305160522461 -74.179298400879 -198.603286743164 2.382259130478
-163.414962768555 -69.105522155762 -198.813644409180 1.055603146553
-19.504941940308 -66.914878845215 -203.609634399414 1.754296898842
-166.752014160156 -70.586174011230 -198.889282226563 2.477343320847
-21.079122543335 -68.682861328125 -193.794479370117 1.075074076653
-16.137567520142 -68.737754821777 -197.173751831055 0.878815233707
12.130023002625 -69.537620544434 -195.434600830078 1.606690526009
-159.010314941406 -67.576080322266 -193.900878906250 2.253772020340
-111.115180969238 -68.675743103027 -199.927368164063 1.830723047256
-17.134996414185 -73.024986267090 -207.481338500977 2.512916326523
-156.084625244141 -72.687202453613 -196.882446289063 1.855831027031
18.162830352783 -66.031044006348 -199.801300048828 2.237948417664
-163.865631103516 -70.719657897949 -196.499114990234 1.958229780197
-121.043991088867 -73.758308410645 -202.805068969727 2.825136899948
