-167.858215332031 -81.850067138672 -253.116470336914 8.564776420593
-163.254943847656 -83.100631713867 -254.806076049805 9.329518318176
-123.586212158203 -75.670005798340 -254.186630249023 2.132675647736
-149.475784301758 -82.140769958496 -255.641143798828 1.895431995392
-109.631927490234 -76.128395080566 -257.863189697266 3.687529802322
-15.384275436401 -82.659248352051 -260.911163330078 5.446834564209
-143.898284912109 -76.147338867188 -258.829223632813 2.371684551239
-126.988487243652 -76.810562133789 -259.457214355469 1.841768145561
-157.290725708008 -77.029312133789 -262.082794189453 3.465486526489
20.211105346680 -78.577491760254 -269.007690429688 2.183999061584
-153.583908081055 -75.504074096680 -279.946472167969 3.224645853043
-169.657638549805 -75.695701599121 -276.454345703125 3.380779743195
-6.762997150421 -82.997528076172 -283.034027099609 6.998256683350
-150.325958251953 -80.282012939453 -277.160522460938 1.167492628098
-8.015199661255 -76.066574096680 -278.420471191406 0.901042401791
13.630306243896 -77.603599548340 -287.220886230469 2.922653675079
-134.855133056641 -75.689231872559 -285.082641601563 1.617985844612
-71.215652465820 -81.100494384766 -280.970123291016 8.501485824585
-41.151252746582 -76.489463806152 -282.179565429688 4.565908432007
-117.047981262207 -75.204071044922 -286.467895507813 2.212494611740
-92.178543090820 -77.468437194824 -292.318847656250 3.161343097687
-92.203865051270 -76.780548095703 -293.721282958984 3.727385997772
-49.929229736328 -81.895217895508 -288.115173339844 4.716093540192
-116.683959960938 -73.628448486328 -290.798736572266 1.273605823517
-109.700180053711 -78.383453369141 -290.454254150391 4.024580001831
-33.578399658203 -80.580101013184 -291.375579833984 3.101365089417
-117.236755371094 -79.237953186035 -287.246276855469 3.296821832657
-127.338188171387 -80.456634521484 -287.414184570313 3.357801675797
-146.179260253906 -80.517837524414 -291.871765136719 2.199392080307
7.902938842773 -74.849998474121 -289.272308349609 1.581196069717
13.332191467285 -79.418212890625 -294.466918945313 2.388000488281
-157.751754760742 -77.911888122559 -291.688110351563 3.569761753082
-156.617843627930 -77.633171081543 -300.936798095703 2.873106002808
-147.906463623047 -80.541000366211 -308.091156005859 3.219021797180
-152.436859130859 -74.477455139160 -305.691101074219 2.901732444763
-154.098052978516 -81.688949584961 -310.605682373047 3.783531427383
30.737152099609 -74.758300781250 -16.241161346436 2.498397111893
29.846538543701 -73.091079711914 -22.725624084473 3.552922248840
28.661272048950 -74.647537231445 -21.640855789185 3.083392381668
32.060276031494 -75.665466308594 -41.420295715332 3.502146005630
-49.027526855469 -68.844215393066 -54.191787719727 5.845457553864
-60.619850158691 -73.493240356445 -51.746425628662 2.902816772461
-35.738784790039 -74.294486999512 -52.465011596680 3.397095441818
-77.861396789551 -76.782707214355 -58.889595031738 3.126921892166
84.959022521973 -80.330039978027 -81.382957458496 2.995865106583
-15.405589103699 -73.274551391602 -74.801116943359 4.199838638306
94.102020263672 -78.352432250977 -70.719886779785 5.814855098724
99.591560363770 -74.100784301758 -82.593620300293 1.332687616348
-89.165756225586 -74.771034240723 -80.405189514160 2.456848621368
78.124244689941 -71.474731445313 -78.721214294434 4.897740364075
-37.431720733643 -79.091697692871 -84.625495910645 3.102943897247
104.993339538574 -74.869781494141 -87.042968750000 5.717696189880
-52.197330474854 -78.161575317383 -89.675292968750 1.692071199417
54.256671905518 -74.549354553223 -90.178749084473 2.890159606934
75.866134643555 -76.432197570801 -89.517440795898 1.916073083878
60.296360015869 -79.355216979980 -96.561012268066 6.082163810730
51.180194854736 -74.129562377930 -105.073814392090 1.586443305016
71.508491516113 -77.790054321289 -96.943176269531 4.190358161926
50.759586334229 -69.219497680664 -99.773704528809 2.668682336807
104.648635864258 -75.543167114258 -105.841827392578 3.236116409302
114.964599609375 -76.709587097168 -110.277679443359 5.318683147430
80.194244384766 -71.901824951172 -103.080116271973 1.582522153854
92.400306701660 -75.308937072754 -106.878776550293 5.361855983734
104.562225341797 -73.384048461914 -103.838912963867 0.643270611763
109.238655090332 -67.085884094238 -103.994384765625 0.525566458702
42.796527862549 -81.940780639648 -108.628097534180 2.648397207260
110.978263854980 -76.018165588379 -122.238685607910 2.693658828735
117.098197937012 -77.528800964355 -124.585258483887 4.709456443787
35.639087677002 -74.864891052246 -120.146369934082 1.145798683167
42.855640411377 -76.920257568359 -120.597160339355 1.479744672775
110.602073669434 -73.325729370117 -132.436035156250 1.677362442017
40.957363128662 -79.532142639160 -127.901039123535 2.175281524658
117.439514160156 -71.930381774902 -133.759643554688 1.358859539032
112.681167602539 -74.237342834473 -130.016159057617 1.913229346275
27.310928344727 -73.398406982422 -138.462783813477 0.463505208492
-45.738842010498 -79.350097656250 -132.186584472656 7.416475296021
-54.144031524658 -76.891815185547 -139.672561645508 2.131568670273
116.793678283691 -73.728668212891 -136.351577758789 2.069389343262
-72.262374877930 -78.930915832520 -142.164566040039 4.587596893311
-73.000114440918 -74.847839355469 -137.913848876953 1.693922400475
-56.395278930664 -78.614562988281 -139.519744873047 3.344623088837
36.003330230713 -76.480674743652 -140.501495361328 1.564814686775
108.028793334961 -73.709915161133 -150.686126708984 1.603326678276
-62.340496063232 -77.564926147461 -144.388351440430 6.713821411133
-42.742595672607 -72.067893981934 -144.149826049805 0.987773001194
41.428203582764 -80.728240966797 -151.327529907227 8.196133613586
-62.368564605713 -78.782760620117 -150.598068237305 5.008739471436
115.326148986816 -69.501724243164 -147.508819580078 1.573696494102
111.685905456543 -77.053199768066 -159.569747924805 1.280714988708
113.241844177246 -77.285942077637 -151.698074340820 2.623516082764
-36.520713806152 -75.927734375000 -155.649063110352 0.708481252193
-63.913368225098 -76.139404296875 -156.377334594727 1.129158377647
-68.102882385254 -68.770538330078 -152.501159667969 1.889326691628
31.138456344604 -72.663787841797 -153.305969238281 0.797776520252
1.380352973938 -78.598876953125 -164.412139892578 1.616180777550
109.521301269531 -74.813682556152 -159.675170898438 1.320657491684
110.652259826660 -71.107009887695 -158.713378906250 1.419530510902
115.187103271484 -74.639144897461 -161.124771118164 1.335956692696
-62.960620880127 -80.537162780762 -159.379394531250 2.444809198380
-45.238689422607 -78.047462463379 -161.156646728516 2.523490190506
5.954090118408 -78.451911926270 -170.139144897461 6.410186767578
-23.668563842773 -73.764007568359 -173.623260498047 2.667126655579
107.597526550293 -75.853271484375 -165.604492187500 1.079072833061
-34.802246093750 -73.585784912109 -160.857437133789 1.595730185509
111.885139465332 -77.716125488281 -171.461196899414 2.356740951538
-40.058094024658 -73.987442016602 -171.480407714844 1.624924778938
112.175918579102 -77.988761901855 -170.852676391602 2.588133096695
-149.325668334961 -73.108367919922 -179.166641235352 2.442266941071
-29.844894409180 -74.399932861328 -174.762359619141 2.193457126617
-19.609224319458 -72.393630981445 -179.906982421875 3.223938226700
31.380025863647 -80.543525695801 -176.695220947266 6.386844635010
16.447641372681 -74.911506652832 -180.258239746094 1.192620873451
24.262107849121 -77.501876831055 -183.039901733398 1.977775335312
107.059242248535 -79.313110351563 -189.978286743164 2.614917993546
-151.514038085938 -72.982490539551 -184.829040527344 2.484524250031
-20.618741989136 -76.657142639160 -187.730117797852 1.843593716621
106.010292053223 -74.961570739746 -181.276046752930 1.436366438866
103.921386718750 -74.617004394531 -194.252029418945 1.391185164452
105.949737548828 -76.354270935059 -183.570312500000 1.265462279320
96.659591674805 -80.429382324219 -198.307983398438 3.553442478180
-154.926467895508 -85.711334228516 -194.306976318359 5.904749393463
98.774169921875 -81.173744201660 -205.892440795898 4.007920265198
-31.508405685425 -75.913757324219 -195.617187500000 4.235459804535
98.506065368652 -73.425567626953 -198.925231933594 1.354619264603
-126.935340881348 -77.016807556152 -190.723678588867 7.513709068298
-30.377656936646 -78.686561584473 -191.312866210938 1.400151014328
-141.261077880859 -77.164199829102 -199.768081665039 2.076200246811
91.557334899902 -75.143638610840 -201.793029785156 3.006196737289
9.522709846497 -75.464508056641 -201.750976562500 1.217744708061
24.254722595215 -78.528785705566 -197.013168334961 4.410541057587
-148.972808837891 -78.154991149902 -196.594436645508 2.044754028320
-137.713729858398 -74.315025329590 -204.098083496094 3.480282306671
-14.839776039124 -77.693450927734 -206.377700805664 1.146753430367
-125.122695922852 -82.988410949707 -201.420043945313 8.950245857239
-146.533676147461 -79.489158630371 -198.973648071289 1.366400122643
7.490654945374 -74.246002197266 -200.188262939453 1.608224272728
-24.842216491699 -75.927215576172 -204.442321777344 2.645683050156
18.751903533936 -75.601814270020 -208.186935424805 1.126256465912
6.609819889069 -76.510055541992 -210.636337280273 1.762986302376
86.626991271973 -76.368522644043 -214.914764404297 2.258765220642
-24.659463882446 -69.772560119629 -211.635742187500 4.311779975891
94.130073547363 -75.111305236816 -213.433303833008 1.225115895271
100.971710205078 -76.205818176270 -209.903396606445 4.669145107269
-144.268112182617 -72.633476257324 -216.378692626953 1.898603320122
94.915824890137 -72.410438537598 -213.420318603516 1.410742878914
6.403698921204 -72.549873352051 -210.052658081055 2.037402153015
4.296006202698 -75.213516235352 -211.100753784180 2.534371376038
-34.129066467285 -74.616233825684 -209.664993286133 2.299396514893
-91.766792297363 -72.371215820313 -212.569580078125 1.852937459946
-33.238525390625 -76.269340515137 -213.741592407227 1.084324002266
84.417022705078 -77.260406494141 -218.662124633789 2.663850307465
83.927680969238 -77.560020446777 -219.982696533203 2.017678022385
-37.617488861084 -71.768791198730 -215.001220703125 5.527827262878
-79.182792663574 -69.531822204590 -222.484634399414 8.633997917175
-3.161860942841 -75.169891357422 -216.422790527344 0.838813066483
88.480316162109 -76.987762451172 -220.571350097656 2.534947872162
-147.729751586914 -79.356521606445 -218.661682128906 3.070251226425
-169.245803833008 -78.404228210449 -208.941329956055 8.032735824585
-158.501083374023 -75.831649780273 -217.392807006836 4.917379379272
-19.867752075195 -78.973327636719 -228.502593994141 4.014365673065
-152.367980957031 -80.046394348145 -220.931564331055 3.679184198380
-7.532091140747 -82.370605468750 -228.266128540039 4.030005931854
6.277678012848 -74.324035644531 -218.547210693359 2.275114774704
-161.916259765625 -81.721176147461 -218.528015136719 9.649340629578
-163.991561889648 -75.791732788086 -222.668365478516 3.594363689423
77.676040649414 -75.736869812012 -232.408248901367 2.187904596329
4.622854232788 -77.233314514160 -230.307189941406 1.879562139511
-150.183059692383 -78.454483032227 -219.965942382813 2.769298553467
-143.061370849609 -77.510063171387 -219.075592041016 2.455954551697
-21.374094009399 -78.744003295898 -225.733123779297 2.507462024689
3.258301973343 -77.251518249512 -223.994827270508 1.245408058167
83.282417297363 -76.017066955566 -224.813858032227 1.796050310135
-159.234619140625 -78.608314514160 -226.710540771484 5.122498989105
-146.661911010742 -74.928436279297 -225.528656005859 3.199640035629
-125.872512817383 -73.631355285645 -228.118728637695 1.337707519531
81.487037658691 -79.629043579102 -233.153747558594 5.843689441681
-115.719093322754 -72.644157409668 -229.911727905273 1.017447710037
-146.583618164063 -79.362808227539 -226.592941284180 1.181320428848
-153.327102661133 -81.191490173340 -226.492675781250 1.279041528702
-147.326065063477 -76.601066589355 -224.680679321289 2.627192735672
-152.634124755859 -73.127624511719 -227.342605590820 2.190404653549
-167.016769409180 -73.181098937988 -233.284606933594 2.169664859772
-137.236862182617 -76.242179870605 -233.292510986328 2.422846555710
-136.082366943359 -75.633285522461 -230.878524780273 0.928476095200
-155.900466918945 -76.454223632813 -226.183929443359 2.471330642700
-145.866775512695 -75.381813049316 -229.426696777344 1.417105674744
-152.485855102539 -73.139366149902 -230.767074584961 2.204449176788
71.546073913574 -75.009429931641 -222.989059448242 6.259287357330
67.524574279785 -72.524314880371 -241.159957885742 0.936252117157
-161.596618652344 -75.155799865723 -236.023056030273 2.037750244141
68.815307617188 -76.506050109863 -235.987899780273 2.439746856689
-21.056859970093 -75.430068969727 -236.374847412109 3.001347064972
8.597579002380 -76.391380310059 -239.743728637695 1.013250589371
14.930035591125 -80.217491149902 -236.051300048828 1.333293676376
-143.753952026367 -76.085594177246 -240.912261962891 2.691379308701
15.256719589233 -76.013137817383 -244.226730346680 2.898511409760
65.527786254883 -77.548416137695 -239.119552612305 3.601552009583
10.093213081360 -75.207305908203 -236.608764648438 1.729837656021
4.500638961792 -79.617164611816 -245.011032104492 2.023757219315
-8.263607025146 -71.726768493652 -240.762161254883 0.582995891571
-19.075681686401 -80.388473510742 -246.957229614258 5.801791667938
0.404626011848 -80.019020080566 -242.937820434570 3.976168155670
2.288746118546 -74.463333129883 -242.230255126953 0.985965251923
56.159881591797 -78.037376403809 -242.832153320313 5.271106243134
-59.485603332520 -77.791320800781 -245.035720825195 1.093125224113
17.840328216553 -77.289611816406 -250.731399536133 0.684613823891
-59.024662017822 -75.242919921875 -244.790985107422 1.685156583786
-8.093970298767 -75.824623107910 -250.075393676758 1.777801752090
-64.913352966309 -73.930061340332 -252.471771240234 2.823611021042
-85.315116882324 -82.724761962891 -250.056945800781 8.125053405762
-82.077590942383 -80.864768981934 -250.886047363281 5.486800193787
-17.421594619751 -75.430923461914 -252.121597290039 4.115447044373
-125.269088745117 -81.111557006836 -258.800506591797 4.898434162140
-16.148794174194 -72.330055236816 -256.342254638672 2.183792352676
-123.248901367188 -76.295593261719 -253.834289550781 2.901191949844
-118.857269287109 -73.091438293457 -256.648651123047 1.467067718506
-104.762603759766 -81.165397644043 -255.827087402344 7.962145328522
-143.537017822266 -75.566093444824 -257.779296875000 2.464813232422
-147.320053100586 -74.822341918945 -264.096740722656 1.434193849564
-168.179977416992 -73.820915222168 -262.029754638672 1.455722332001
12.658393859863 -78.836608886719 -282.463012695313 2.378493309021
-61.670185089111 -80.014366149902 -282.990417480469 5.358263015747
-66.849655151367 -78.092689514160 -283.102539062500 4.803782463074
-46.038272857666 -79.113235473633 -284.425170898438 4.717310428619
-28.217004776001 -78.821151733398 -282.544403076172 4.886057853699
-94.252067565918 -77.293670654297 -292.689636230469 3.781698226929
-31.981452941895 -75.013931274414 -288.431060791016 2.347491264343
-3.186039924622 -71.722839355469 -286.073059082031 2.783123016357
-166.518676757813 -78.928794860840 -286.887115478516 4.274581432343
-16.932783126831 -79.106422424316 -290.442565917969 2.453353881836
6.095589160919 -72.594169616699 -290.805755615234 1.446213603020
13.389710426331 -71.235740661621 -292.319183349609 1.343594193459
-57.070758819580 -78.448196411133 -291.658355712891 3.915399551392
-29.828237533569 -80.681892395020 -286.636413574219 3.710186004639
14.156261444092 -74.136642456055 -290.886810302734 1.843024373055
-69.595611572266 -78.756607055664 -293.220764160156 4.484412670135
-39.406036376953 -76.388404846191 -290.260467529297 0.993527710438
-18.129718780518 -75.757362365723 -291.990631103516 0.905475974083
8.549988746643 -76.564643859863 -292.519439697266 1.367143750191
-15.346734046936 -79.974555969238 -289.536193847656 3.345833539963
4.636470794678 -74.716636657715 -293.439239501953 1.194478869438
10.496375083923 -77.252861022949 -293.325042724609 3.157445430756
-135.574752807617 -80.054840087891 -288.300506591797 0.603351652622
-142.524017333984 -79.022926330566 -299.707794189453 4.147107601166
-151.641189575195 -81.835426330566 -307.951507568359 3.723172664642
42.836734771729 -65.404197692871 -13.494934082031 1.711191058159
34.556407928467 -73.082756042480 -10.106354713440 3.266527652740
44.159259796143 -73.560104370117 -16.325662612915 2.501316547394
24.890718460083 -73.753570556641 -22.398771286011 1.519706010818
46.061908721924 -73.669090270996 -27.098608016968 2.738387346268
25.171522140503 -70.900932312012 -20.698019027710 2.294046163559
27.722770690918 -77.876617431641 -31.366514205933 5.571094036102
25.918193817139 -76.406021118164 -37.057403564453 4.384639739990
46.058570861816 -70.431442260742 -35.283206939697 1.411516070366
30.566955566406 -72.943206787109 -39.412769317627 1.688571333885
43.503059387207 -74.000244140625 -33.435546875000 2.175251483917
37.330070495605 -70.417785644531 -38.669101715088 2.550000429153
34.596382141113 -74.159431457520 -41.713165283203 3.145478963852
36.072826385498 -71.692054748535 -42.873340606689 1.775692343712
47.301891326904 -73.542266845703 -45.412864685059 7.980292320251
37.606094360352 -69.098388671875 -46.222282409668 5.237900257111
-34.989208221436 -69.259620666504 -55.891265869141 4.136290550232
-26.101327896118 -69.192382812500 -44.741950988770 6.900982379913
-85.672111511230 -72.408920288086 -54.679050445557 3.914718389511
-83.666404724121 -76.658096313477 -62.605236053467 3.725757598877
83.999305725098 -73.884147644043 -68.842727661133 1.926219105721
85.200645446777 -74.515548706055 -73.161544799805 0.595925569534
-12.087374687195 -76.718040466309 -75.625297546387 8.203312873840
-82.087097167969 -76.465232849121 -70.146903991699 2.172419786453
-21.223476409912 -73.993141174316 -79.644432067871 4.626424312592
-46.813694000244 -79.475013732910 -89.463462829590 2.471230983734
65.821159362793 -73.684242248535 -87.201156616211 3.749855041504
58.064193725586 -70.382789611816 -92.967636108398 2.055485725403
99.369842529297 -74.827659606934 -90.358474731445 2.050698041916
77.395523071289 -76.732635498047 -97.475730895996 1.872099041939
-61.028911590576 -78.563941955566 -91.380493164063 3.456556558609
-62.326881408691 -72.684692382813 -95.173713684082 2.096530437469
47.004943847656 -74.851661682129 -98.187660217285 1.643559217453
74.400245666504 -80.131011962891 -102.791679382324 7.578315734863
52.985065460205 -78.535949707031 -103.010093688965 2.359846353531
104.330490112305 -77.841827392578 -100.063941955566 4.658705234528
-86.921356201172 -75.779586791992 -105.707260131836 4.447607994080
41.907508850098 -81.010696411133 -111.451301574707 2.052948236465
109.743812561035 -72.013488769531 -111.048500061035 1.156250596046
48.364112854004 -71.044013977051 -111.976165771484 1.328052997589
105.996154785156 -71.491783142090 -109.752799987793 1.822929501534
-81.567176818848 -73.625671386719 -113.640213012695 3.298594474792
38.001304626465 -72.801177978516 -117.856796264648 1.973457813263
112.873146057129 -76.728477478027 -121.908813476563 2.168090581894
103.791778564453 -74.169509887695 -119.388214111328 3.537910938263
109.413124084473 -77.786582946777 -117.701850891113 2.728627681732
112.081077575684 -79.445960998535 -118.588218688965 4.250232219696
35.194213867188 -75.897300720215 -116.089637756348 1.610361337662
35.374702453613 -79.425559997559 -119.602012634277 2.369703531265
46.293125152588 -74.104911804199 -114.204421997070 1.087839245796
111.817520141602 -74.932723999023 -126.965660095215 1.132521152496
42.836669921875 -72.941192626953 -125.477416992188 1.834653735161
112.756904602051 -76.810859680176 -135.176330566406 1.313453435898
116.670471191406 -72.653793334961 -131.539764404297 1.553930759430
34.526111602783 -73.647041320801 -121.738967895508 0.612372934818
-75.195991516113 -78.121589660645 -124.256706237793 8.559660911560
118.913520812988 -79.425964355469 -138.811187744141 5.914025306702
-58.199462890625 -81.458496093750 -140.886764526367 6.506879329681
35.643047332764 -76.887443542480 -137.504501342773 1.835219383240
-72.231422424316 -75.365928649902 -138.501800537109 1.801197171211
31.162895202637 -73.116889953613 -136.034225463867 2.253289937973
-71.122001647949 -77.670913696289 -140.867172241211 3.594517230988
-41.536430358887 -78.271713256836 -147.913803100586 1.160599827766
-71.067733764648 -79.363990783691 -134.431732177734 7.355459213257
111.827857971191 -68.983360290527 -140.918685913086 2.014578819275
118.792182922363 -75.928733825684 -143.309585571289 2.687669038773
125.381484985352 -74.824821472168 -149.390670776367 8.471112251282
-70.384948730469 -77.350563049316 -144.030807495117 2.409799337387
10.158795356750 -74.119049072266 -150.923339843750 2.838470220566
-56.610004425049 -73.374259948730 -153.194595336914 3.595506429672
-45.150447845459 -78.651412963867 -152.901809692383 1.587129354477
110.281059265137 -72.696434020996 -162.256103515625 0.714576184750
-37.991966247559 -78.433227539063 -151.145339965820 3.409667491913
11.855622291565 -73.134376525879 -161.746063232422 2.897537708282
23.894052505493 -73.747604370117 -160.739700317383 2.401834011078
114.462890625000 -76.047645568848 -166.817932128906 0.840805053711
33.541786193848 -70.652084350586 -161.158065795898 3.043878316879
-1.322808027267 -79.894363403320 -159.652236938477 4.182758331299
32.518470764160 -74.307518005371 -164.547668457031 1.328290104866
-67.754867553711 -68.949447631836 -157.423645019531 2.231707096100
-60.717697143555 -73.515457153320 -157.924545288086 2.427576541901
-65.299835205078 -73.998336791992 -161.555969238281 1.414920806885
113.534561157227 -73.719604492188 -164.357238769531 1.210163116455
-44.908515930176 -72.497055053711 -163.227416992188 1.182062268257
18.260553359985 -80.333976745605 -171.963958740234 2.914476633072
-61.826221466064 -78.755088806152 -173.387710571289 1.551135182381
-58.809391021729 -78.477836608887 -173.302856445313 0.800623774529
-41.771072387695 -77.689140319824 -162.016128540039 2.357736587524
-35.813549041748 -68.452178955078 -166.867370605469 2.694534540176
114.432479858398 -70.366027832031 -177.385635375977 3.117252111435
-33.787372589111 -76.574531555176 -173.966934204102 2.171635627747
17.333311080933 -74.662857055664 -171.150177001953 1.382974743843
107.387649536133 -80.373847961426 -192.803909301758 4.868443489075
-151.587844848633 -78.672859191895 -174.179061889648 6.554096698761
-141.959426879883 -77.198951721191 -171.810287475586 6.591134071350
-150.914474487305 -74.560173034668 -174.752593994141 3.463169574738
-143.227508544922 -71.859062194824 -178.201919555664 1.030856132507
-26.138992309570 -73.490264892578 -181.129867553711 2.530611753464
-24.196540832520 -74.671653747559 -184.464599609375 2.234376907349
23.597597122192 -71.681503295898 -191.697143554688 0.621967792511
-140.820312500000 -75.754608154297 -184.622528076172 4.483692169189
-143.362213134766 -73.996421813965 -181.169784545898 1.602620959282
-21.795413970947 -67.381759643555 -187.086441040039 1.184389472008
15.271611213684 -79.636016845703 -183.001876831055 2.861062049866
-140.063369750977 -76.865005493164 -190.078063964844 4.703003883362
-34.774715423584 -79.832588195801 -181.244308471680 1.727170944214
102.395019531250 -78.547286987305 -191.947952270508 1.966655850410
107.724639892578 -73.081161499023 -196.908889770508 2.959126472473
21.337318420410 -75.105880737305 -190.379776000977 1.897874474525
-19.939033508301 -80.714538574219 -189.963363647461 2.997028827667
-24.533325195313 -79.488937377930 -198.038101196289 2.236938714981
-147.118560791016 -72.376579284668 -194.280441284180 1.989424347878
-133.886734008789 -74.578262329102 -196.302581787109 2.086961746216
-122.378341674805 -74.670425415039 -192.392791748047 4.484076976776
-123.410255432129 -78.528198242188 -195.400161743164 5.516964435577
-17.599679946899 -74.512397766113 -195.182693481445 2.074198484421
12.316224098206 -78.078033447266 -193.656951904297 2.175140142441
94.449134826660 -70.778938293457 -202.315719604492 1.077787518501
-145.831253051758 -76.542709350586 -192.987380981445 1.560145735741
-145.963272094727 -72.913734436035 -199.862503051758 1.480827808380
-146.080429077148 -69.878921508789 -195.860580444336 2.436170816422
-155.193496704102 -71.280845642090 -198.168121337891 0.970798015594
-28.642719268799 -74.610794067383 -200.639434814453 3.665627241135
-13.168150901794 -81.269699096680 -193.930465698242 4.863528251648
-143.945938110352 -69.003173828125 -193.427307128906 1.604386925697
-18.484968185425 -78.565544128418 -195.749649047852 1.510882854462
-162.784408569336 -76.965042114258 -196.518661499023 5.624095439911
-130.776611328125 -75.912536621094 -196.811721801758 2.837848186493
11.916212081909 -72.321937561035 -210.328048706055 2.456197738647
-161.920730590820 -74.532951354980 -199.838790893555 2.969282865524
-143.296615600586 -77.762405395508 -200.109664916992 2.545631647110
11.459827423096 -77.543914794922 -201.641128540039 1.819141983986
-155.430389404297 -79.017066955566 -203.446395874023 3.195221424103
-22.855916976929 -77.020027160645 -201.264602661133 1.878133296967
103.232101440430 -75.238777160645 -202.447341918945 3.094857931137
-153.438858032227 -75.878494262695 -211.652328491211 4.270316600800
-162.816070556641 -76.841201782227 -210.335662841797 4.555253505707
-79.471755981445 -73.588005065918 -212.519363403320 1.230073451996
92.489456176758 -74.950202941895 -212.245605468750 1.859473109245
-3.753537893295 -75.550765991211 -213.261581420898 1.117301940918
-153.278305053711 -75.982879638672 -207.957641601563 3.677032709122
-89.400932312012 -70.184204101563 -214.483963012695 1.824638605118
-5.865194797516 -75.591964721680 -209.670318603516 1.890493631363
15.215768814087 -72.958023071289 -222.888809204102 0.260862588882
-143.815246582031 -77.407302856445 -215.858093261719 2.193285703659
-2.799782991409 -77.650459289551 -219.971649169922 1.818773746490
-15.747260093689 -70.302352905273 -219.949218750000 2.282770872116
-19.235084533691 -71.738670349121 -218.742935180664 2.594099998474
87.156486511230 -76.475357055664 -217.161895751953 0.654661357403
-22.169885635376 -71.137039184570 -214.857620239258 2.621905565262
-28.615722656250 -75.915039062500 -217.959579467773 1.070248842239
-103.425155639648 -75.539611816406 -219.436676025391 2.971929311752
-15.097438812256 -74.953376770020 -225.511795043945 1.748453617096
89.561538696289 -74.096870422363 -221.098770141602 1.177221655846
81.408966064453 -74.069282531738 -220.534149169922 2.130405664444
7.012348175049 -79.941673278809 -224.972030639648 3.189008474350
-12.705574989319 -74.779174804688 -226.469314575195 1.034811019897
78.974815368652 -82.888153076172 -224.203338623047 7.269952297211
-128.213958740234 -75.651855468750 -220.607437133789 5.672115802765
-23.776760101318 -77.697364807129 -221.449295043945 1.794159531593
-102.449523925781 -73.578712463379 -223.712081909180 0.964021325111
-107.317115783691 -78.381126403809 -226.981903076172 5.941679954529
-134.375747680664 -74.374298095703 -225.556823730469 2.234300374985
78.469635009766 -76.147834777832 -225.736755371094 1.585177063942
-126.876869201660 -77.974845886230 -225.926101684570 3.756323575974
1.198202967644 -75.046401977539 -230.654632568359 2.259743928909
73.954925537109 -75.394203186035 -225.501464843750 3.835870265961
-15.202621459961 -77.019714355469 -230.044357299805 1.305178165436
-9.364858627319 -77.224021911621 -230.462142944336 2.079421758652
-5.815278053284 -74.056770324707 -232.917266845703 1.689970374107
7.265284061432 -76.631423950195 -230.507354736328 1.430173397064
82.860000610352 -75.683197021484 -227.558700561523 2.535342216492
14.923007011414 -76.384796142578 -233.026596069336 2.267169952393
2.312506914139 -77.057044982910 -232.214004516602 0.768447160721
-5.717090129852 -77.832450866699 -226.024246215820 0.961359858513
-6.275444984436 -73.587867736816 -234.284530639648 1.759939670563
15.501524925232 -73.879219055176 -233.058868408203 1.374350428581
-9.861597061157 -73.034973144531 -235.525650024414 2.494507551193
73.456222534180 -74.890441894531 -238.220809936523 2.289384365082
-8.824043273926 -73.194000244141 -234.595138549805 2.296637058258
21.632635116577 -75.944747924805 -230.149475097656 3.225425720215
-162.303237915039 -72.454154968262 -240.293426513672 1.148552060127
-5.683671951294 -75.492485046387 -242.760482788086 2.147906064987
-10.703868865967 -75.049003601074 -241.379104614258 1.645743370056
-167.900573730469 -74.549263000488 -254.974639892578 1.898882627487
-10.181943893433 -76.864135742188 -244.139938354492 4.278409481049
18.328762054443 -78.295143127441 -244.281616210938 3.110600709915
-148.128234863281 -79.219665527344 -249.007598876953 2.779314517975
-67.794898986816 -75.587783813477 -247.504791259766 2.130900859833
-58.671867370605 -73.832572937012 -247.994659423828 1.455528497696
53.695415496826 -74.201576232910 -249.201080322266 2.253473520279
-77.625396728516 -76.323028564453 -245.101654052734 4.220246791840
14.239716529846 -75.875144958496 -246.210479736328 1.265867352486
-77.549377441406 -76.758033752441 -249.788238525391 1.241647362709
-19.176570892334 -76.349975585938 -247.749755859375 5.509029865265
-150.083114624023 -77.506088256836 -252.321807861328 0.454743564129
47.553115844727 -73.419036865234 -250.227615356445 2.249161720276
-83.678344726563 -72.312286376953 -247.832565307617 2.411795854568
-96.941413879395 -76.582832336426 -254.212738037109 2.961794853210
-96.564987182617 -82.233680725098 -251.185745239258 9.156955718994
-124.034698486328 -76.863403320313 -257.094787597656 2.134596347809
-109.430412292480 -73.678985595703 -255.403686523438 2.376645326614
-108.384696960449 -73.815757751465 -258.306549072266 1.995442390442
16.850038528442 -75.514175415039 -259.539001464844 3.990567684174
-129.959579467773 -72.694709777832 -264.213378906250 1.188408851624
-9.869101524353 -79.050697326660 -277.300292968750 3.548880338669
-147.821701049805 -79.555999755859 -279.849334716797 2.660544395447
-170.478637695313 -75.324478149414 -279.641937255859 3.842701435089
-129.269714355469 -77.018310546875 -285.690856933594 3.231029272079
-117.317741394043 -78.076110839844 -278.626403808594 9.753233909607
-80.809455871582 -71.864654541016 -286.698822021484 2.420190811157
-57.780185699463 -70.942184448242 -289.071838378906 0.647428452969
-46.044818878174 -74.959342956543 -285.992919921875 3.260786294937
-14.805254936218 -74.691436767578 -289.760009765625 2.517892360687
-12.522590637207 -74.352851867676 -288.058074951172 1.940210223198
-36.723148345947 -76.795982360840 -289.420959472656 1.664531826973
-36.115139007568 -75.003166198730 -287.340087890625 2.580865383148
-21.788341522217 -72.648094177246 -292.571868896484 2.597191810608
-74.585289001465 -78.346336364746 -291.345275878906 3.816050767899
-55.841690063477 -72.949684143066 -293.894195556641 3.071491718292
-14.914310455322 -71.298690795898 -291.367034912109 0.514981508255
-16.386289596558 -75.917282104492 -291.339477539063 0.617004632950
-6.391378879547 -74.923393249512 -292.167816162109 1.643807411194
1.801527023315 -71.439445495605 -295.905181884766 4.123414516449
-89.122085571289 -74.953109741211 -284.296783447266 2.804550170898
-148.032394409180 -73.995697021484 -285.768920898438 1.603626966476
-119.243347167969 -77.140800476074 -293.948974609375 4.307252407074
-155.514038085938 -80.187469482422 -299.378845214844 3.225676059723
-157.009780883789 -77.386726379395 -296.285308837891 3.432214975357
-145.591781616211 -76.295295715332 -300.768524169922 1.263182878494
49.797027587891 -75.565704345703 -26.377950668335 4.175950527191
21.847948074341 -73.132202148438 -25.174688339233 2.700025796890
53.911037445068 -75.103179931641 -27.414251327515 5.676858425140
52.538757324219 -76.902503967285 -34.523269653320 7.207611083984
89.313209533691 -68.881347656250 -69.576232910156 3.282868862152
100.190559387207 -71.363716125488 -77.880714416504 2.406763792038
99.785621643066 -72.180046081543 -82.991455078125 1.458166956902
98.317306518555 -71.785789489746 -90.448677062988 2.267617225647
53.040359497070 -73.840782165527 -89.072639465332 2.586427211761
52.732532501221 -73.975608825684 -93.660964965820 1.430421233177
63.231803894043 -71.314155578613 -94.165588378906 2.132097721100
-62.550849914551 -69.900634765625 -91.718360900879 2.164736032486
74.560180664063 -74.747734069824 -92.236602783203 1.815019488335
105.169227600098 -72.202690124512 -95.132171630859 1.386699676514
76.084251403809 -77.143142700195 -101.626525878906 4.285642147064
96.283874511719 -70.008758544922 -99.019256591797 2.237057209015
-78.923652648926 -75.636619567871 -100.191688537598 1.338669300079
48.030807495117 -74.144058227539 -105.512840270996 3.313599824905
-85.705978393555 -77.495666503906 -107.790039062500 3.318091392517
52.366237640381 -75.280792236328 -114.604690551758 3.587510824203
44.219696044922 -69.739318847656 -107.546905517578 0.669416844845
104.938560485840 -76.072990417480 -108.328208923340 2.206684112549
42.291542053223 -70.795761108398 -109.908607482910 1.104915857315
43.091377258301 -76.457046508789 -116.306282043457 2.231720685959
43.129535675049 -70.773979187012 -117.489837646484 2.147486925125
105.772529602051 -68.642021179199 -120.010856628418 1.968143105507
-79.295516967773 -73.276275634766 -118.535415649414 2.972412347794
115.229843139648 -75.814666748047 -124.756942749023 2.515685081482
40.929222106934 -68.483360290527 -119.353828430176 1.893666744232
45.675373077393 -74.784507751465 -118.209327697754 1.199059724808
34.963478088379 -74.940048217773 -121.423233032227 1.714034080505
-53.629531860352 -73.511573791504 -130.661865234375 1.861826658249
31.415653228760 -72.515693664551 -123.290870666504 1.658669233322
-76.306427001953 -76.078887939453 -135.534973144531 3.769417285919
-58.397197723389 -73.504287719727 -133.422073364258 1.462331295013
-74.795707702637 -72.264022827148 -130.250457763672 1.543764114380
35.835563659668 -73.340309143066 -127.994110107422 3.379363298416
-54.608943939209 -72.369705200195 -131.567825317383 1.824938416481
40.623554229736 -73.955093383789 -133.658569335938 1.781032204628
-74.692573547363 -74.760292053223 -137.555084228516 1.610153794289
-55.926876068115 -77.056968688965 -139.737670898438 1.745799899101
30.467727661133 -73.027153015137 -139.648712158203 2.364634752274
112.977462768555 -77.611915588379 -148.662033081055 1.801749110222
120.361679077148 -74.076126098633 -140.759857177734 4.104113578796
34.963626861572 -73.118736267090 -141.462631225586 1.146253585815
-46.217891693115 -71.867897033691 -143.545211791992 0.994343638420
110.382156372070 -73.510177612305 -160.459014892578 0.964902579784
-72.006378173828 -73.949226379395 -147.368072509766 1.246755123138
-48.809539794922 -75.958969116211 -138.183593750000 0.815132439137
35.870952606201 -78.281692504883 -152.821594238281 3.290165662766
-68.654533386230 -75.733383178711 -142.573898315430 2.916225433350
-68.718070983887 -76.463409423828 -145.016937255859 2.887748956680
118.401763916016 -69.800971984863 -150.270355224609 2.828370332718
-62.037647247314 -72.676254272461 -147.844558715820 4.868807315826
-39.206264495850 -72.724372863770 -150.267028808594 2.216009855270
32.187656402588 -69.186798095703 -153.620635986328 1.164175152779
-74.230712890625 -73.674629211426 -147.394485473633 0.803730249405
9.667697906494 -76.382942199707 -159.638000488281 1.646169781685
35.155509948730 -70.673522949219 -157.205642700195 3.126441478729
27.375211715698 -74.896118164063 -151.722183227539 3.644754648209
7.949365139008 -78.189865112305 -155.672882080078 3.223648309708
-46.616756439209 -71.866973876953 -152.872665405273 2.344422817230
26.226268768311 -73.749252319336 -152.575546264648 2.868340253830
-46.035472869873 -76.216011047363 -148.914276123047 1.359031915665
7.720574855804 -76.166481018066 -150.834075927734 4.279531478882
22.226606369019 -75.120315551758 -149.051132202148 1.906745314598
-71.208961486816 -78.202491760254 -152.053588867188 2.325265407562
-43.690578460693 -74.498130798340 -154.457244873047 3.833776950836
-69.716850280762 -71.471382141113 -160.258728027344 1.193588376045
12.185551643372 -67.519424438477 -165.161697387695 6.632836341858
20.883661270142 -74.745506286621 -146.739364624023 2.312769412994
2.406387090683 -72.051872253418 -163.077499389648 0.735556900501
23.186548233032 -70.435218811035 -155.781234741211 1.060403823853
29.894731521606 -74.760704040527 -163.119094848633 1.145152807236
-45.276008605957 -76.706115722656 -161.889160156250 1.906813621521
-31.562213897705 -73.907157897949 -160.109313964844 1.965354681015
-35.930427551270 -72.849472045898 -160.572769165039 1.341172575951
31.474128723145 -75.388977050781 -164.262069702148 0.426857471466
-44.787292480469 -74.334159851074 -165.071609497070 1.177970886230
-42.040851593018 -74.874191284180 -161.877487182617 2.583832263947
21.566164016724 -76.686752319336 -163.294876098633 1.783949494362
-41.384483337402 -73.948234558105 -172.087036132813 0.601560533047
33.334823608398 -71.250457763672 -174.433197021484 4.993265151978
118.342399597168 -71.289176940918 -166.286361694336 4.285757064819
-31.423177719116 -73.486068725586 -172.938491821289 2.533145904541
106.551582336426 -70.811569213867 -172.521881103516 0.866720438004
-32.729625701904 -70.753005981445 -177.329147338867 1.815354108810
-37.810848236084 -75.213012695313 -179.032562255859 1.675975441933
18.549018859863 -76.131851196289 -175.375549316406 1.521256923676
103.587684631348 -70.867218017578 -180.986999511719 2.155347824097
-28.194969177246 -73.609535217285 -182.488525390625 3.521306276321
-30.176311492920 -68.071647644043 -173.684020996094 2.247618436813
-21.718004226685 -76.953788757324 -186.292938232422 1.525157690048
-145.494674682617 -79.640411376953 -184.870925903320 2.862057447433
13.778763771057 -76.936508178711 -182.758255004883 1.757105588913
107.056144714355 -72.354850769043 -195.975173950195 2.838215589523
-158.267730712891 -74.546028137207 -191.101181030273 5.359685897827
-25.286136627197 -74.799057006836 -190.083740234375 3.331100463867
-114.648529052734 -72.138671875000 -192.597595214844 3.417627334595
-130.492782592773 -75.260253906250 -194.989013671875 3.270253181458
-107.214813232422 -72.368377685547 -200.117263793945 3.364645242691
-109.944801330566 -70.366203308105 -197.561416625977 1.679594278336
-15.729845046997 -70.776306152344 -199.279129028320 1.090277791023
19.290605545044 -76.263496398926 -198.347976684570 2.162873744965
-21.275817871094 -66.605491638184 -200.469436645508 2.040172815323
-125.303787231445 -72.197578430176 -200.325973510742 2.225699663162
-26.008527755737 -72.494720458984 -206.895370483398 4.003214836121
-129.290695190430 -78.693740844727 -200.604522705078 4.879916191101
-11.021451950073 -70.312263488770 -201.142974853516 2.806746006012
-144.009429931641 -74.638496398926 -200.601486206055 1.885295152664
90.566207885742 -73.389739990234 -211.640792846680 1.289884090424
-164.870025634766 -74.800460815430 -200.609954833984 3.416663885117
-0.207169994712 -76.049705505371 -213.641433715820 3.502202033997
13.403689384460 -67.812500000000 -212.576583862305 2.199354410172
8.858505249023 -69.682235717773 -216.758468627930 2.186125755310
83.167526245117 -73.578041076660 -220.324432373047 0.975142478943
3.403014898300 -70.122406005859 -216.799423217773 4.764112949371
15.444992065430 -74.706733703613 -214.026565551758 1.938102483749
-14.215284347534 -79.552207946777 -211.876510620117 1.056712508202
-88.578659057617 -74.774421691895 -212.753387451172 1.419705510139
-101.622573852539 -76.463134765625 -215.731735229492 5.314919948578
-3.141922950745 -73.372566223145 -221.141006469727 1.796262621880
-169.300750732422 -75.355041503906 -227.689743041992 4.909670352936
11.716751098633 -71.689941406250 -219.662628173828 1.825104117393
-142.842346191406 -76.350166320801 -220.236938476563 3.653468370438
11.916046142578 -71.201004028320 -226.318557739258 0.461901307106
-134.475570678711 -75.615928649902 -218.837982177734 7.229888439178
-115.896530151367 -73.952438354492 -226.325958251953 2.039822578430
19.553104400635 -68.391052246094 -225.429183959961 4.632819652557
74.046562194824 -73.268501281738 -231.288635253906 0.898772001266
3.381947994232 -71.515708923340 -225.962829589844 1.696980357170
-115.298988342285 -77.005279541016 -218.749694824219 8.573873519897
73.715560913086 -73.078720092773 -228.397384643555 1.317089915276
78.732521057129 -75.937904357910 -233.152236938477 2.604799032211
-122.454208374023 -75.448974609375 -228.018661499023 2.389972686768
-120.361579895020 -77.268760681152 -230.202331542969 5.300952911377
-11.462073326111 -73.803298950195 -231.325561523438 1.503634095192
69.101882934570 -76.977912902832 -229.758361816406 3.780745744705
66.804046630859 -72.199745178223 -237.468353271484 1.348555564880
72.066642761230 -72.839302062988 -235.249908447266 0.611525595188
-134.087036132813 -77.578468322754 -235.513458251953 4.923470497131
68.563270568848 -79.409736633301 -235.410003662109 4.707620143890
64.220848083496 -77.705047607422 -236.781921386719 3.802442073822
-167.807525634766 -77.957603454590 -224.049377441406 6.346328258514
-1.297155022621 -76.806335449219 -241.955932617188 2.260537147522
14.565462112427 -73.446975708008 -245.763763427734 1.305367469788
-3.896204948425 -76.959312438965 -242.870986938477 3.856854915619
13.996608734131 -78.123741149902 -244.193313598633 3.180804252625
68.538063049316 -75.928527832031 -242.044540405273 3.308097124100
9.635113716125 -78.816772460938 -240.131454467773 1.737342238426
-8.089141845703 -71.487373352051 -244.433670043945 1.256809353828
-5.192224025726 -76.051689147949 -246.280700683594 1.263085603714
65.681999206543 -73.670867919922 -246.866104125977 3.760713338852
5.638871192932 -77.532035827637 -246.398269653320 1.406316876411
-10.608590126038 -74.697761535645 -239.753646850586 1.733004808426
14.310435295105 -77.002189636230 -247.432968139648 0.580734014511
-166.008178710938 -69.884895324707 -237.916809082031 1.158150792122
60.505229949951 -72.475776672363 -251.355117797852 4.662477016449
51.884983062744 -73.718704223633 -253.019714355469 3.836328744888
56.215515136719 -78.310302734375 -242.843307495117 5.503394603729
-15.128060340881 -73.863410949707 -252.572906494141 1.745187044144
53.370666503906 -77.997779846191 -246.654876708984 5.600544452667
-74.692100524902 -77.209350585938 -247.417755126953 2.242821693420
50.913955688477 -76.352279663086 -252.597778320313 5.449340820313
-89.614082336426 -77.607040405273 -253.509994506836 3.431583166122
-128.987396240234 -77.994453430176 -251.332550048828 6.331121921539
-135.805145263672 -70.070816040039 -249.440383911133 5.484439373016
50.520774841309 -72.888450622559 -258.571594238281 6.446873188019
-138.857910156250 -72.355285644531 -254.414886474609 2.584947586060
-106.633827209473 -82.732833862305 -250.244125366211 11.645808219910
-112.516273498535 -74.246688842773 -255.958038330078 2.860691070557
-85.414138793945 -75.895050048828 -249.533264160156 2.981233119965
-113.613807678223 -77.243965148926 -261.277099609375 3.880176305771
-126.079795837402 -72.035156250000 -263.734344482422 1.529599189758
-145.522155761719 -75.117301940918 -263.077545166016 2.462577342987
-13.257819175720 -76.709800720215 -260.246093750000 0.206014081836
-173.822952270508 -74.225067138672 -263.983764648438 6.802610874176
-10.408489227295 -78.696395874023 -271.197418212891 1.343429088593
-159.220108032227 -69.739524841309 -262.551605224609 1.228544354439
-155.914230346680 -71.463897705078 -269.198181152344 2.991935491562
-170.431289672852 -69.205856323242 -270.339385986328 3.443214654922
-13.738931655884 -72.090705871582 -276.376037597656 2.140270709991
-134.982528686523 -75.662483215332 -280.727416992188 4.295030117035
-158.770980834961 -71.799613952637 -285.404663085938 1.566847443581
-144.510421752930 -74.630973815918 -279.200500488281 2.922837495804
-137.943588256836 -77.892051696777 -281.879730224609 4.922030448914
-10.587942123413 -75.494430541992 -281.158569335938 3.492704868317
-125.455551147461 -80.098167419434 -280.300628662109 6.934990406036
-143.359024047852 -76.124649047852 -283.060028076172 1.782763719559
-115.549095153809 -73.352180480957 -283.188293457031 3.531264305115
-79.743316650391 -72.696189880371 -288.873321533203 2.662512779236
-63.252418518066 -75.658515930176 -281.937866210938 4.912222862244
-6.868935108185 -75.970237731934 -288.414062500000 1.890523910522
-51.327297210693 -76.792884826660 -289.345184326172 0.991999387741
-63.748870849609 -77.297416687012 -286.153961181641 2.277734994888
-71.186988830566 -73.144218444824 -290.010742187500 2.171278715134
-88.769309997559 -76.472892761230 -294.652679443359 4.979272842407
-106.639221191406 -69.234863281250 -286.577850341797 1.096031069756
-161.028121948242 -75.008766174316 -287.518402099609 1.712768197060
-157.236694335938 -74.035224914551 -285.596374511719 1.792661666870
-128.595138549805 -77.791824340820 -294.617126464844 3.517546653748
-146.740722656250 -75.186477661133 -290.302612304688 1.675098776817
-159.345382690430 -73.524711608887 -295.867340087891 2.191155910492
-149.219635009766 -76.005004882813 -314.420074462891 2.280020713806
50.332489013672 -70.941139221191 -21.846979141235 2.033143520355
23.598554611206 -80.632987976074 -26.279640197754 8.531401634216
49.220817565918 -73.750389099121 -38.559516906738 4.647902488708
-16.135816574097 -74.857887268066 -65.610519409180 2.405655384064
83.662673950195 -71.619010925293 -68.531173706055 0.852433085442
88.380081176758 -66.475646972656 -73.893112182617 7.628771781921
79.135192871094 -71.032783508301 -74.989234924316 3.640210866928
80.730285644531 -72.254684448242 -69.824424743652 1.054686307907
99.928863525391 -73.951362609863 -76.250648498535 2.667669296265
-93.361412048340 -75.680465698242 -71.701187133789 4.198308467865
71.723136901855 -75.088920593262 -80.089378356934 2.372854948044
-32.653141021729 -70.040046691895 -76.259605407715 3.707933902740
101.660293579102 -73.788200378418 -89.420295715332 2.851036310196
67.631958007813 -79.116287231445 -90.555068969727 6.877139568329
112.979858398438 -72.025642395020 -93.459617614746 6.339622497559
108.675476074219 -76.148818969727 -100.678741455078 3.111920833588
74.294036865234 -75.354568481445 -98.672065734863 2.002908706665
-75.974670410156 -74.648956298828 -97.725975036621 2.795485019684
58.262481689453 -74.909111022949 -110.392692565918 6.726668834686
110.367263793945 -74.398735046387 -108.375190734863 1.652351737022
51.182170867920 -79.208686828613 -115.774665832520 4.511988162994
87.741249084473 -73.796302795410 -103.951362609863 2.511587381363
45.841499328613 -78.559806823730 -111.737915039063 1.307983875275
108.846336364746 -70.683738708496 -102.405029296875 1.580924391747
50.849807739258 -71.922142028809 -108.942680358887 2.072312593460
114.202140808105 -76.243026733398 -115.435638427734 4.322299480438
109.861389160156 -72.657752990723 -118.740966796875 1.260860681534
-76.577545166016 -65.336700439453 -112.598030090332 1.461442470551
-74.086830139160 -72.822463989258 -113.551986694336 4.302014827728
44.830528259277 -73.328613281250 -119.348228454590 1.849642634392
118.443763732910 -68.595550537109 -120.224098205566 4.604914188385
118.170242309570 -70.117469787598 -124.692443847656 3.184850692749
-78.428504943848 -73.250511169434 -124.783027648926 3.534998416901
110.606796264648 -72.014793395996 -124.391975402832 1.037929892540
-63.952880859375 -73.868614196777 -134.113311767578 5.015284061432
-86.727882385254 -70.460136413574 -125.642494201660 1.482459664345
-72.485061645508 -71.588302612305 -127.705581665039 3.449833154678
-55.209899902344 -67.383399963379 -123.896820068359 1.708086609840
37.804813385010 -72.250114440918 -131.429870605469 1.145730495453
44.661029815674 -72.162422180176 -135.474411010742 5.809884071350
