36.521572113037 -72.772529602051 -41.028152465820 0.797788441181
-48.825119018555 -69.671157836914 -54.211109161377 5.280053138733
-11.909586906433 -68.431541442871 -64.627487182617 0.816453993320
95.407371520996 -75.676521301270 -78.030853271484 1.850011825562
68.097854614258 -68.237304687500 -70.842048645020 1.516089081764
-18.766338348389 -71.886238098145 -77.301879882813 4.518492698669
-91.909904479980 -69.625251770020 -83.979293823242 3.300970554352
-37.254547119141 -71.051818847656 -82.719467163086 5.295146465302
65.360191345215 -71.166442871094 -83.872947692871 2.301481723785
57.541538238525 -76.253295898438 -87.008689880371 4.623437881470
58.504356384277 -72.100242614746 -90.241554260254 1.975249528885
-54.900203704834 -72.731132507324 -87.799140930176 3.420894861221
69.459823608398 -68.728507995605 -91.002532958984 2.971175670624
46.258441925049 -74.803153991699 -99.271347045898 0.978977441788
68.103599548340 -73.538681030273 -93.652816772461 2.955431222916
-61.795486450195 -68.689826965332 -99.668579101563 5.093387603760
55.121089935303 -66.343750000000 -99.986297607422 2.171868324280
47.874523162842 -71.985107421875 -100.974349975586 2.665454864502
105.057357788086 -73.714668273926 -98.100616455078 0.291140764952
-68.707008361816 -76.561798095703 -102.030471801758 1.976861238480
111.755012512207 -71.757072448730 -105.069236755371 1.461071014404
-78.947052001953 -68.263435363770 -97.283615112305 2.807961940765
57.596931457520 -71.846023559570 -109.834915161133 5.515236377716
51.147193908691 -68.390174865723 -104.827346801758 2.736666202545
96.970497131348 -70.173484802246 -102.572860717773 1.890450239182
89.113517761230 -61.680767059326 -116.770408630371 7.745808124542
57.244213104248 -73.183174133301 -107.225448608398 4.550455093384
-68.951141357422 -71.507484436035 -108.162628173828 5.402232646942
-78.332817077637 -70.955856323242 -112.234268188477 1.058803200722
-82.756225585938 -73.076118469238 -122.647811889648 2.821711063385
-93.119941711426 -78.467994689941 -118.800834655762 4.932411193848
103.652519226074 -71.522529602051 -117.795310974121 2.610119342804
-84.980743408203 -67.060386657715 -122.369674682617 1.859017252922
-78.458572387695 -67.115150451660 -122.233856201172 2.025387763977
112.337356567383 -67.683151245117 -119.641769409180 1.502157330513
-62.120262145996 -64.485916137695 -120.224899291992 1.371113061905
113.655906677246 -72.827972412109 -134.683685302734 1.716396212578
109.245391845703 -69.291503906250 -133.533554077148 1.823525905609
113.591545104980 -69.282745361328 -120.952384948730 0.570410847664
-92.743873596191 -67.594207763672 -136.628814697266 1.761134982109
-51.726047515869 -65.268814086914 -141.691223144531 1.431507587433
-74.886543273926 -72.113830566406 -148.957809448242 0.986939072609
-67.635604858398 -66.731803894043 -153.230667114258 3.649021863937
-72.528091430664 -67.781654357910 -146.402114868164 2.619944810867
-52.472896575928 -65.306541442871 -149.764831542969 3.161487817764
-46.727802276611 -67.053909301758 -154.594329833984 1.441798448563
21.108705520630 -71.463043212891 -147.809722900391 1.803546428680
-93.699890136719 -64.319038391113 -156.977050781250 2.650530338287
-42.253158569336 -72.649154663086 -150.742355346680 0.723762333393
-53.815971374512 -68.226211547852 -154.730468750000 3.455301284790
-43.245346069336 -64.597434997559 -158.649826049805 3.897455930710
29.223884582520 -73.302299499512 -162.903945922852 0.517504632473
-47.139533996582 -68.540756225586 -157.933013916016 1.414643287659
-95.024497985840 -70.268127441406 -151.034790039063 2.205594062805
-41.052825927734 -68.054573059082 -162.846984863281 2.332389116287
26.318330764771 -66.487297058105 -160.290847778320 1.692027568817
-99.655555725098 -69.975433349609 -166.323242187500 2.157435894012
23.052690505981 -67.727478027344 -161.523239135742 1.947663545609
-103.616249084473 -63.369598388672 -173.744155883789 1.535741090775
-99.388397216797 -64.865844726563 -166.425384521484 3.934630632401
23.527851104736 -63.020660400391 -171.291580200195 4.093193531036
26.489213943481 -66.221252441406 -170.714172363281 2.231856822968
-106.014877319336 -71.020057678223 -176.558151245117 2.238632202148
-142.938232421875 -68.720985412598 -177.777099609375 2.392993688583
-23.829507827759 -66.712913513184 -189.494247436523 1.987519860268
-21.299327850342 -65.453544616699 -186.374801635742 3.288707733154
-112.261734008789 -66.639076232910 -191.635711669922 1.552853822708
-140.392715454102 -67.354980468750 -191.333679199219 3.022669553757
-104.229858398438 -71.916847229004 -183.014709472656 3.839249849319
-149.551223754883 -72.524116516113 -200.172424316406 1.134154796600
-127.997108459473 -71.470252990723 -195.208938598633 1.839527130127
-135.981948852539 -67.510162353516 -197.681015014648 3.190904617310
-20.508247375488 -63.215133666992 -195.996002197266 4.140310287476
-119.158805847168 -69.095245361328 -194.247604370117 2.891137599945
-112.788070678711 -65.472694396973 -196.923141479492 0.799681484699
-17.258676528931 -71.378440856934 -197.028671264648 1.396076798439
-153.484069824219 -64.413162231445 -196.876800537109 2.234493017197
-134.708435058594 -70.718345642090 -213.024230957031 8.716723442078
-122.805801391602 -64.965248107910 -206.461822509766 1.889429926872
15.861351966858 -65.537506103516 -207.670852661133 2.228167295456
-160.101242065430 -68.376487731934 -207.799148559570 2.119224786758
12.047316551208 -71.608161926270 -213.740280151367 1.426383495331
14.885053634644 -73.836967468262 -217.091735839844 1.484035253525
-17.778896331787 -67.656333923340 -211.340759277344 2.776441574097
-4.873096942902 -68.933631896973 -216.119735717773 0.492047816515
-165.935180664063 -68.940246582031 -215.180084228516 1.143549799919
-158.121795654297 -65.864593505859 -219.694000244141 2.832038640976
-101.085113525391 -69.044837951660 -220.307876586914 1.214318633080
-99.689949035645 -66.170593261719 -229.447357177734 5.038352012634
-157.530883789063 -65.216224670410 -221.946273803711 2.572225570679
-105.424179077148 -67.870437622070 -224.342391967773 1.952332854271
-15.906265258789 -69.871475219727 -221.090042114258 1.730870246887
-123.709487915039 -67.216346740723 -231.125686645508 2.163851261139
-143.805145263672 -70.659851074219 -225.936706542969 1.816459178925
-6.774652004242 -71.102539062500 -230.237197875977 1.388561248779
-131.551208496094 -65.495208740234 -228.658920288086 2.470713138580
-124.906723022461 -62.980247497559 -229.064651489258 1.145140647888
-110.315567016602 -69.673370361328 -233.201065063477 2.221529960632
0.571974992752 -67.737632751465 -232.909027099609 1.532661795616
-107.579421997070 -65.598800659180 -229.444641113281 2.150533199310
-157.076980590820 -73.023925781250 -223.825042724609 2.093717813492
-145.845977783203 -72.516845703125 -228.041717529297 0.832216203213
-164.150054931641 -68.507499694824 -229.595748901367 2.413511514664
-6.128962993622 -67.115104675293 -231.719299316406 3.067692995071
-8.777356147766 -58.295658111572 -233.068588256836 6.292633056641
77.673576354980 -58.980709075928 -230.269485473633 9.169729232788
3.862148046494 -64.972297668457 -236.689804077148 1.526967287064
-142.768508911133 -66.252983093262 -235.539901733398 2.143016576767
-11.786967277527 -69.838676452637 -233.025100708008 0.890375971794
78.009323120117 -72.443931579590 -226.612426757813 0.770101130009
70.317871093750 -68.031967163086 -235.075363159180 1.913278579712
-129.244308471680 -67.639671325684 -233.317367553711 2.669053077698
-160.041168212891 -67.090263366699 -229.352523803711 1.384177565575
-110.481605529785 -64.225097656250 -233.935943603516 4.429246425629
-118.778076171875 -66.715293884277 -235.956558227539 2.618191480637
-168.420898437500 -63.295814514160 -235.683639526367 5.673810958862
-157.612426757813 -65.639228820801 -240.588943481445 2.973362207413
-134.734100341797 -66.577377319336 -242.957626342773 8.743246078491
-9.141689300537 -73.461013793945 -236.175460815430 2.959528923035
-2.101097106934 -66.333297729492 -246.182418823242 2.605785846710
-159.718612670898 -64.994987487793 -243.855102539063 3.682061672211
9.306509971619 -70.795104980469 -243.803070068359 0.400798887014
9.640640258789 -66.112518310547 -242.135009765625 1.195920586586
-163.307922363281 -66.768646240234 -244.404815673828 2.112763404846
13.876691818237 -67.456596374512 -245.601715087891 2.426674842834
52.165237426758 -66.620681762695 -250.893753051758 0.767618000507
53.350574493408 -64.006927490234 -255.300521850586 5.264897823334
-6.620379924774 -68.520652770996 -247.954254150391 4.785310268402
51.341861724854 -65.088417053223 -249.258834838867 0.957576215267
-162.055648803711 -67.898513793945 -257.720428466797 2.854651212692
-164.168106079102 -64.970794677734 -251.294845581055 3.402080774307
-162.333450317383 -69.517601013184 -249.073181152344 2.113564252853
55.722316741943 -65.444023132324 -257.694061279297 7.546004295349
-89.717826843262 -70.908126831055 -255.542358398438 1.812537193298
-123.516372680664 -66.335594177246 -254.659774780273 2.701835632324
-106.872566223145 -69.244735717773 -256.647430419922 1.629768013954
32.112804412842 -67.614494323730 -259.481201171875 1.367677807808
39.358833312988 -68.268013000488 -256.818786621094 1.910539269447
-96.473258972168 -67.223754882813 -255.361602783203 1.661929130554
-91.674766540527 -65.824943542480 -259.494293212891 3.801043033600
45.880149841309 -65.512405395508 -259.318084716797 4.861817359924
41.510162353516 -64.963554382324 -257.420074462891 1.334495067596
-156.473571777344 -68.506370544434 -262.402008056641 1.627863168716
34.257369995117 -64.032485961914 -257.160675048828 1.289021730423
-138.162658691406 -69.260414123535 -267.938781738281 4.946818351746
-116.999259948730 -63.705257415771 -261.750488281250 2.057261705399
-131.398895263672 -64.570930480957 -268.283172607422 5.509608268738
36.554691314697 -71.497665405273 -267.419952392578 7.717296600342
-127.035697937012 -70.015914916992 -266.444732666016 2.093949079514
-9.219486236572 -64.147491455078 -259.981567382813 3.968584060669
22.133480072021 -69.546501159668 -278.000030517578 1.407126665115
-12.561498641968 -65.795700073242 -270.850372314453 3.297253370285
24.959840774536 -63.717842102051 -287.097412109375 7.422435760498
-149.301177978516 -68.896682739258 -285.229644775391 2.107805013657
-10.914266586304 -70.739906311035 -278.968139648438 1.761094093323
-153.490127563477 -69.719062805176 -291.189605712891 2.508678913116
-126.392898559570 -65.952445983887 -287.109649658203 0.669349312782
-159.594024658203 -68.758140563965 -291.682006835938 1.754528880119
-121.768287658691 -66.615219116211 -288.284545898438 2.709143638611
-105.784561157227 -70.772079467773 -293.078643798828 1.967378973961
-8.010520935059 -67.209617614746 -292.194732666016 4.291495323181
-110.693305969238 -67.679138183594 -296.207885742188 5.490543842316
-117.838249206543 -72.408645629883 -292.531890869141 1.660774946213
-121.135292053223 -69.964218139648 -293.901855468750 3.140664339066
-136.880416870117 -64.262596130371 -292.436370849609 3.726141691208
-124.189270019531 -71.463088989258 -296.038452148438 2.674507141113
-158.970916748047 -68.398330688477 -291.364990234375 2.294239044189
-144.884445190430 -73.386138916016 -299.213958740234 0.984611213207
-152.390853881836 -66.506401062012 -299.711364746094 1.754312276840
-153.793746948242 -64.145568847656 -308.935424804688 3.480663061142
-158.724670410156 -65.279479980469 -303.864440917969 5.822046279907
-147.198425292969 -69.010833740234 -314.560943603516 2.639599084854
-149.544036865234 -68.082786560059 -315.611083984375 3.570073843002
35.837913513184 -70.267639160156 -20.113039016724 3.382826089859
46.655323028564 -72.461677551270 -22.057996749878 3.191105365753
32.401126861572 -66.093597412109 -34.368408203125 2.407403469086
53.789840698242 -68.292488098145 -33.738578796387 4.999518871307
33.888698577881 -67.928421020508 -40.650184631348 1.356424570084
43.231624603271 -74.937561035156 -38.790794372559 4.020063877106
-52.819808959961 -69.990348815918 -47.732906341553 1.540253400803
87.110359191895 -68.901412963867 -62.819213867188 1.311024785042
85.909744262695 -68.492004394531 -69.483482360840 3.380680084229
-91.820922851563 -65.646324157715 -66.166519165039 3.353297472000
-11.876040458679 -67.279296875000 -64.332717895508 0.982960462570
-84.975608825684 -73.220100402832 -69.520164489746 2.697771549225
99.250938415527 -67.338172912598 -72.857231140137 1.602493643761
-14.439837455750 -66.227500915527 -69.937210083008 2.200859546661
70.832794189453 -70.993225097656 -80.957977294922 1.927534461021
-37.364715576172 -71.534683227539 -79.592208862305 2.996168613434
-27.542505264282 -73.488357543945 -83.311164855957 5.249942302704
57.816246032715 -65.349311828613 -90.075355529785 3.400017261505
-45.141304016113 -79.295745849609 -91.020355224609 4.722069263458
63.990333557129 -64.358421325684 -83.665100097656 1.642283678055
55.539428710938 -67.735237121582 -88.127830505371 1.256329059601
51.341091156006 -72.836524963379 -95.427803039551 2.420156717300
67.536643981934 -67.343673706055 -95.639595031738 1.739183664322
60.336055755615 -67.963722229004 -102.399185180664 3.964647769928
105.577926635742 -64.482818603516 -98.734924316406 1.828209996223
105.705368041992 -72.135742187500 -99.055984497070 1.804623961449
59.940456390381 -73.064422607422 -101.337532043457 3.501972913742
110.786827087402 -66.778869628906 -103.464378356934 1.993367075920
-69.778884887695 -75.991043090820 -102.899261474609 2.080899715424
-69.671623229980 -71.855072021484 -105.815284729004 5.552023887634
106.724792480469 -72.917922973633 -100.415534973145 1.105738282204
56.210681915283 -67.125434875488 -105.033432006836 3.699150800705
73.397415161133 -71.033042907715 -105.394668579102 2.596549749374
-66.642196655273 -61.159561157227 -103.022964477539 2.450469970703
-78.374031066895 -66.291870117188 -109.022048950195 1.819680333138
96.794593811035 -66.950569152832 -114.436553955078 8.270735740662
44.992767333984 -68.723213195801 -106.696922302246 1.036289453506
103.298683166504 -68.527290344238 -105.336196899414 1.259001731873
45.424980163574 -66.889167785645 -113.805091857910 1.982445478439
115.423171997070 -64.876152038574 -112.479347229004 5.299849033356
-83.805816650391 -63.791320800781 -110.130577087402 2.172855854034
106.823371887207 -63.445667266846 -113.877082824707 4.397712707520
-84.814895629883 -64.971572875977 -118.313880920410 2.004817247391
-56.999008178711 -70.215377807617 -126.948455810547 1.619900465012
-57.446651458740 -67.150154113770 -131.512222290039 3.258400201797
-71.381591796875 -70.658157348633 -133.035797119141 1.325485944748
-48.267581939697 -69.950416564941 -133.842514038086 1.199226021767
-85.358695983887 -68.682754516602 -135.903106689453 1.854225993156
-76.647598266602 -71.975891113281 -137.566421508789 1.240540742874
-84.416572570801 -68.717811584473 -130.899154663086 1.159345626831
-52.901664733887 -71.929450988770 -140.500946044922 2.736609697342
-70.671066284180 -67.045280456543 -141.813659667969 1.285143971443
-58.521888732910 -68.273674011230 -137.733062744141 1.054278135300
-61.938625335693 -70.481704711914 -140.443405151367 2.436702013016
24.254997253418 -70.920059204102 -143.138580322266 2.574462652206
-84.698684692383 -70.977272033691 -147.230392456055 7.434635639191
-44.464614868164 -71.874679565430 -150.248687744141 2.288188934326
-96.999038696289 -65.807861328125 -152.656631469727 2.992703437805
-101.475234985352 -66.840293884277 -155.166366577148 1.437014937401
19.183429718018 -73.455955505371 -156.788330078125 1.544134736061
16.100938796997 -72.006454467773 -163.189697265625 3.361912488937
-99.422233581543 -68.799278259277 -162.133560180664 2.523151397705
-98.331268310547 -65.954261779785 -160.538330078125 1.927381634712
-93.796875000000 -67.152580261230 -170.689071655273 7.612959384918
19.697011947632 -64.797622680664 -173.645965576172 3.492917776108
-112.642959594727 -71.465270996094 -169.461822509766 6.667411804199
20.331594467163 -70.299133300781 -172.130187988281 2.342612743378
-144.060592651367 -71.335998535156 -180.762557983398 2.260121345520
18.145660400391 -67.933631896973 -179.440567016602 1.493654370308
23.369886398315 -69.718360900879 -190.334365844727 1.586092352867
-152.273330688477 -65.500205993652 -190.107696533203 2.440826892853
20.063510894775 -71.137763977051 -183.393295288086 2.555373668671
15.617435455322 -66.541336059570 -180.849868774414 3.171471595764
-136.077301025391 -75.259674072266 -194.692581176758 2.798546075821
-150.136596679688 -70.534858703613 -192.160995483398 1.403237581253
17.790916442871 -66.778656005859 -192.856216430664 2.594774961472
21.967233657837 -65.368156433105 -189.106307983398 3.152668476105
-145.655868530273 -67.499565124512 -194.703567504883 2.593297719955
-107.640617370605 -72.801162719727 -196.528823852539 3.934268951416
23.272737503052 -66.831794738770 -199.439941406250 4.097686290741
-125.297279357910 -64.198043823242 -194.061462402344 2.044223308563
12.303821563721 -69.509902954102 -201.130371093750 0.802961111069
-131.430862426758 -64.292778015137 -197.817489624023 1.652335882187
-149.063446044922 -68.126274108887 -195.134124755859 3.001411199570
-161.121505737305 -71.160003662109 -204.078735351563 2.423969745636
-162.204711914063 -66.077339172363 -204.189941406250 1.748080253601
-18.236373901367 -64.496742248535 -207.105255126953 3.241976499557
-165.547409057617 -67.539321899414 -204.341018676758 1.245995163918
-19.944585800171 -66.474800109863 -197.352798461914 0.977396607399
-14.960412025452 -66.479087829590 -200.669342041016 1.640049934387
13.278473854065 -67.458122253418 -198.589111328125 1.724232673645
-157.856307983398 -64.679519653320 -199.188659667969 2.159909486771
-109.893524169922 -65.883171081543 -204.628570556641 3.471671104431
-15.845661163330 -70.530914306641 -211.081848144531 0.573547661304
-154.916641235352 -69.737533569336 -202.246063232422 2.295181512833
19.383174896240 -63.885322570801 -202.799407958984 4.108282089233
-162.692596435547 -67.740303039551 -201.917922973633 1.824564218521
-119.808341979980 -70.850975036621 -207.744979858398 5.152679443359
-108.625251770020 -66.720352172852 -210.624130249023 8.429951667786
-125.711944580078 -63.301498413086 -210.778381347656 6.111941337585
-13.213082313538 -70.792572021484 -205.577819824219 0.933380067348
-18.313186645508 -64.387344360352 -207.125198364258 3.352797269821
-161.420745849609 -64.603775024414 -211.493453979492 3.297581672668
-159.778076171875 -65.762054443359 -215.254272460938 2.611357927322
-165.028823852539 -68.958160400391 -220.838150024414 2.150332927704
-148.197448730469 -70.849609375000 -210.757705688477 3.260209560394
-142.764923095703 -66.499816894531 -226.581161499023 1.764869570732
-5.859934806824 -65.178192138672 -224.021011352539 1.822179675102
-13.594481468201 -66.077239990234 -221.678176879883 3.622616052628
-100.879699707031 -67.182708740234 -225.000549316406 1.758984565735
-6.820796012878 -65.873794555664 -222.595977783203 1.832593083382
-164.178878784180 -66.168174743652 -228.199478149414 1.986711859703
-113.524253845215 -62.732284545898 -234.444747924805 3.749967098236
0.176634997129 -64.477096557617 -232.739410400391 2.227753877640
6.408588886261 -65.165992736816 -232.951705932617 2.467266798019
-111.984184265137 -66.074485778809 -235.957992553711 4.511481285095
-2.565839052200 -61.266307830811 -234.964187622070 2.667979240417
-114.846183776855 -65.906394958496 -239.978530883789 5.653669357300
-3.553527116776 -63.497108459473 -243.960052490234 1.317229151726
-3.522515058517 -69.249938964844 -235.525070190430 1.172840476036
-0.699742019176 -64.482841491699 -244.410690307617 2.614288091660
67.140060424805 -67.988250732422 -240.071121215820 2.303247213364
-14.681001663208 -69.470649719238 -238.511169433594 1.893619894981
5.292270183563 -65.154708862305 -240.249588012695 1.911158800125
11.231801033020 -67.051322937012 -244.791854858398 1.288133025169
8.632330894470 -71.774864196777 -242.697433471680 1.216868162155
2.372874021530 -72.202369689941 -244.565307617188 1.985956668854
67.494163513184 -69.880691528320 -242.561187744141 1.333492994308
71.865814208984 -65.849426269531 -243.901855468750 6.172708988190
15.871088981628 -68.821914672852 -244.658233642578 1.226374983788
59.866046905518 -66.717651367188 -243.134414672852 2.417093515396
57.915740966797 -70.485031127930 -242.595977783203 0.885094344616
47.590354919434 -61.400821685791 -248.290985107422 4.080465316772
36.903625488281 -68.103645324707 -254.967193603516 1.787796616554
39.841846466064 -68.313362121582 -256.919769287109 1.833226799965
-133.294708251953 -66.956489562988 -256.728790283203 1.575986862183
-15.187812805176 -71.450798034668 -254.233169555664 1.230949640274
26.783987045288 -68.845169067383 -261.284423828125 1.573592662811
48.672130584717 -66.715599060059 -256.970214843750 3.241072654724
24.928256988525 -61.524532318115 -258.544403076172 1.812440633774
-99.662857055664 -65.529632568359 -263.975769042969 5.589095115662
33.783035278320 -65.481658935547 -257.729370117188 2.101628303528
-149.900604248047 -66.138710021973 -262.725616455078 2.358743190765
-115.530647277832 -62.929866790771 -263.995819091797 3.710099220276
-102.558433532715 -67.802627563477 -257.375762939453 1.865560531616
-6.208922863007 -65.037788391113 -262.340515136719 3.046514511108
-154.441726684570 -72.622093200684 -257.116546630859 1.564856767654
31.632083892822 -63.969764709473 -260.681854248047 1.913410186768
-111.596496582031 -69.297317504883 -257.131072998047 1.902408361435
29.907909393311 -66.671974182129 -260.779022216797 1.052786946297
-131.252365112305 -64.899070739746 -263.316467285156 2.005315542221
-118.256652832031 -67.861595153809 -262.394622802734 1.548357486725
-104.630340576172 -62.476276397705 -263.627471923828 6.511267662048
-115.679100036621 -66.684585571289 -267.600799560547 4.314381599426
-137.443252563477 -68.659034729004 -265.895904541016 2.984382390976
28.323007583618 -64.550605773926 -267.503234863281 2.411073684692
-117.779418945313 -63.408927917480 -268.649688720703 5.743945598602
-142.914184570313 -67.607208251953 -272.421295166016 4.639857769012
-4.290894985199 -68.771507263184 -276.364044189453 2.834253311157
-153.746170043945 -65.582344055176 -281.433532714844 2.482539415359
-9.984361648560 -68.196037292480 -285.715728759766 2.819743633270
-2.293723106384 -70.299682617188 -290.579071044922 1.718044996262
-134.612808227539 -69.725341796875 -290.289337158203 2.333242893219
-120.672477722168 -62.582431793213 -292.522766113281 4.119121074677
-138.212097167969 -62.313064575195 -293.602813720703 6.219377994537
-127.729476928711 -67.735008239746 -297.597442626953 3.494323968887
-149.214355468750 -68.047027587891 -298.378936767578 1.689043521881
-149.454483032227 -71.149826049805 -304.061553955078 4.774389743805
-149.556274414063 -72.436203002930 -308.127960205078 3.914156198502
-149.917526245117 -63.151161193848 -299.382141113281 3.552295684814
-141.598373413086 -67.926254272461 -305.941375732422 4.282514572144
-143.777542114258 -67.583442687988 -307.229522705078 2.203875064850
-150.664733886719 -67.609031677246 -313.248291015625 0.920937418938
26.076498031616 -73.975402832031 -34.777839660645 2.436052083969
51.122531890869 -72.059112548828 -38.191516876221 4.947012424469
29.660753250122 -75.860923767090 -40.473987579346 3.637689828873
34.536022186279 -71.793724060059 -44.283172607422 3.570188045502
-44.685455322266 -67.365394592285 -54.283729553223 5.914889335632
-77.295852661133 -68.359046936035 -52.874076843262 2.078381538391
81.840171813965 -68.110435485840 -67.139938354492 2.881251811981
83.872177124023 -64.125984191895 -64.038009643555 2.786250114441
72.277549743652 -68.998718261719 -69.846000671387 1.837027192116
-95.682594299316 -67.131591796875 -73.903488159180 2.493886709213
102.197441101074 -69.970985412598 -76.357505798340 2.450089931488
-34.290584564209 -62.816169738770 -78.979278564453 2.989467382431
72.664604187012 -69.533500671387 -80.044265747070 3.742049455643
-41.503059387207 -65.073265075684 -82.708053588867 3.675816297531
-49.102466583252 -67.493637084961 -83.168701171875 2.376561641693
54.216037750244 -67.634796142578 -92.711730957031 2.520198106766
103.652008056641 -66.970840454102 -91.966247558594 2.060912609100
66.928489685059 -66.594543457031 -97.129402160645 0.910002410412
57.776145935059 -68.092552185059 -98.110794067383 1.078888654709
49.569187164307 -69.214958190918 -107.218955993652 1.013374328613
62.994365692139 -66.562881469727 -101.360771179199 5.424000263214
107.505111694336 -67.700973510742 -103.246040344238 1.898311734200
72.698600769043 -72.208900451660 -111.939186096191 8.482615470886
53.320007324219 -67.729927062988 -110.833297729492 4.519908905029
79.464523315430 -68.364868164063 -110.127685546875 3.761191368103
92.782051086426 -67.734451293945 -115.273315429688 7.362577915192
-79.525695800781 -69.944252014160 -114.598663330078 1.506846427917
-84.482910156250 -71.230812072754 -111.833824157715 2.761055469513
-85.132164001465 -69.370620727539 -118.989768981934 0.845592439175
-60.834175109863 -68.119239807129 -119.044113159180 3.051403045654
-53.088626861572 -73.239151000977 -125.064002990723 4.342298507690
-92.199340820313 -64.071708679199 -123.189636230469 0.761192381382
-77.926940917969 -68.582565307617 -122.969551086426 0.408465206623
-76.026176452637 -68.284973144531 -129.006927490234 1.338958144188
-59.494056701660 -71.063438415527 -128.032684326172 1.193189859390
-87.565658569336 -60.504676818848 -132.619384765625 3.503627777100
-93.030609130859 -68.399314880371 -133.310302734375 1.903303861618
-49.640239715576 -68.056968688965 -140.851394653320 0.921230375767
-56.143268585205 -64.350097656250 -139.450485229492 1.811234116554
-75.620277404785 -66.144256591797 -141.142837524414 0.414915621281
-56.232200622559 -66.869956970215 -146.211242675781 1.751599788666
-72.529472351074 -68.788284301758 -151.418472290039 1.491767883301
22.186346054077 -65.628791809082 -146.405548095703 1.704824686050
-58.458736419678 -66.770103454590 -148.548706054688 3.847659587860
-47.859531402588 -67.734855651855 -151.469940185547 2.141885280609
16.521526336670 -69.320312500000 -156.647430419922 2.530853271484
14.590944290161 -66.273300170898 -155.880355834961 2.698179244995
-142.695083618164 -64.651161193848 -178.370925903320 1.664211630821
-104.473350524902 -70.604339599609 -183.512573242188 3.160766839981
-107.739707946777 -68.873832702637 -188.304122924805 0.963879704475
-146.219741821289 -68.487632751465 -197.645675659180 2.158199787140
-109.508079528809 -67.220428466797 -188.163024902344 2.827209949493
-152.095291137695 -64.285049438477 -198.818328857422 3.123033285141
-114.043785095215 -62.523456573486 -197.605972290039 2.312875270844
-143.753082275391 -69.582527160645 -200.649154663086 3.318101644516
-149.088958740234 -73.245117187500 -204.077362060547 2.021568775177
-152.458786010742 -72.360778808594 -212.388519287109 1.861050844193
-143.989349365234 -69.668334960938 -222.756790161133 0.574522197247
-153.505950927734 -71.833114624023 -225.199554443359 1.055572032928
-103.482917785645 -66.982749938965 -225.670730590820 1.642596721649
-99.906143188477 -67.228637695313 -230.055831909180 5.114073753357
-121.643028259277 -60.913764953613 -227.484039306641 4.563414573669
-110.816902160645 -63.158256530762 -230.511398315430 3.349377870560
-153.612274169922 -68.822669982910 -235.920425415039 1.421904444695
-3.479523897171 -69.318016052246 -233.974456787109 1.800887227058
-128.823196411133 -64.950325012207 -230.301254272461 3.335958719254
-157.147232055664 -67.923217773438 -238.957138061523 1.267270326614
-135.041564941406 -65.386596679688 -236.583160400391 3.044749259949
-9.667442321777 -67.868972778320 -245.952606201172 2.197365045547
7.183662891388 -69.531951904297 -247.133605957031 4.540336132050
63.646415710449 -61.247535705566 -244.071975708008 5.969030380249
21.269962310791 -67.819602966309 -251.211364746094 1.733669281006
62.754501342773 -65.164176940918 -250.646453857422 5.763724327087
40.517932891846 -63.505191802979 -246.145736694336 5.517984867096
54.603866577148 -66.254241943359 -251.800231933594 2.496978282928
-151.733459472656 -68.432716369629 -253.934234619141 1.625546693802
-152.549255371094 -64.831939697266 -253.189483642578 1.444643855095
42.968730926514 -72.597282409668 -254.911392211914 1.883521437645
30.769233703613 -63.532821655273 -263.459167480469 2.159219980240
49.336330413818 -62.136730194092 -252.794662475586 3.178817510605
-142.309844970703 -68.751411437988 -260.163513183594 2.202186346054
-134.956771850586 -65.404548645020 -256.501281738281 0.913876712322
-124.903297424316 -66.712661743164 -260.995117187500 0.643549859524
-131.888839721680 -60.773437500000 -260.661163330078 4.284379482269
-138.940063476563 -61.796112060547 -261.594207763672 4.037666320801
-122.248161315918 -66.015380859375 -258.574859619141 2.261578798294
-141.757736206055 -66.485000610352 -262.553833007813 1.899752855301
-125.741622924805 -68.204330444336 -263.054077148438 1.115429401398
-124.740989685059 -60.775997161865 -263.231933593750 4.766424655914
-125.790817260742 -71.276229858398 -265.417510986328 1.166945576668
-117.945709228516 -67.483863830566 -262.087768554688 1.807160019875
-2.363940000534 -67.189743041992 -267.913574218750 1.774036288261
30.230449676514 -69.247268676758 -266.081817626953 3.823003530502
-144.908233642578 -70.262298583984 -266.403320312500 0.497372865677
32.146896362305 -62.081256866455 -270.928283691406 6.853531837463
-6.637792110443 -65.377777099609 -271.673980712891 2.209238052368
16.865188598633 -70.059730529785 -286.835998535156 3.082705736160
-141.844192504883 -67.033096313477 -292.580810546875 2.229421854019
-121.975357055664 -64.831016540527 -290.785308837891 3.107972383499
-132.826629638672 -67.477249145508 -285.885772705078 1.788519263268
-157.206436157227 -64.496620178223 -290.807800292969 1.828553438187
-123.172218322754 -66.646446228027 -290.611877441406 1.975847721100
-116.160285949707 -61.910121917725 -290.743347167969 4.141372203827
-126.354583740234 -63.980792999268 -291.622680664063 1.844249248505
-153.709335327148 -67.822937011719 -298.603668212891 2.144045352936
31.602264404297 -71.750740051270 -17.007946014404 1.001554608345
27.445920944214 -74.962379455566 -23.720897674561 3.713408231735
41.121219635010 -74.510971069336 -21.723112106323 4.097682476044
46.746913909912 -66.091903686523 -29.391382217407 3.148963928223
26.326286315918 -72.114669799805 -30.822216033936 1.223333001137
28.285198211670 -72.466896057129 -34.435745239258 0.651561737061
-34.871776580811 -72.140441894531 -46.671302795410 4.818161964417
-77.549156188965 -70.708381652832 -53.087074279785 1.573457956314
-11.484896659851 -68.798225402832 -59.275600433350 3.711536884308
71.628112792969 -67.368515014648 -70.154373168945 2.645796537399
97.706413269043 -68.248558044434 -69.931083679199 1.527030467987
65.182914733887 -66.313865661621 -83.387313842773 0.537313818932
64.262947082520 -61.511756896973 -85.532623291016 1.667930841446
99.088272094727 -62.889049530029 -86.195297241211 5.737906932831
-60.279842376709 -64.990898132324 -89.240142822266 0.597419559956
-62.055221557617 -63.747394561768 -94.923500061035 2.961127519608
51.086807250977 -63.702301025391 -97.115112304688 0.808629870415
-59.227962493896 -64.323738098145 -100.616371154785 7.306890010834
-68.630783081055 -61.888484954834 -102.521621704102 0.824601590633
-100.350486755371 -65.307342529297 -100.213294982910 2.762152910233
-70.521697998047 -65.651657104492 -102.792945861816 1.364092588425
50.545516967773 -67.464538574219 -109.783905029297 2.474316835403
-69.430114746094 -69.304939270020 -106.390007019043 3.637595176697
51.753524780273 -68.374641418457 -102.101737976074 2.226161241531
99.331268310547 -69.483955383301 -104.416259765625 3.330598354340
90.929191589355 -69.086845397949 -111.377372741699 4.437986373901
-73.305328369141 -67.811927795410 -114.274024963379 2.404376029968
-81.520187377930 -68.315216064453 -112.081939697266 1.322617888451
-62.679901123047 -62.876777648926 -120.986274719238 2.054006338120
-93.033309936523 -65.157135009766 -118.410377502441 2.786493539810
-76.062103271484 -72.164001464844 -131.898254394531 1.728847622871
-87.715431213379 -61.325321197510 -130.985214233398 2.517548561096
-63.704044342041 -66.134475708008 -124.336944580078 1.325003266335
-58.251045227051 -67.909851074219 -120.569572448730 2.111983060837
-88.245727539063 -63.641311645508 -134.416549682617 1.960534930229
-59.633476257324 -66.138458251953 -132.374130249023 1.152762889862
-79.789382934570 -65.192077636719 -127.689025878906 1.679916024208
-69.485237121582 -66.510643005371 -134.674636840820 3.313737154007
-68.076278686523 -68.749938964844 -134.089447021484 4.035843372345
-58.712543487549 -63.947082519531 -139.839035034180 2.271417617798
-52.776054382324 -66.244697570801 -140.532928466797 1.527364492416
-89.909858703613 -66.656349182129 -140.055526733398 1.729860067368
-96.625198364258 -65.619171142578 -142.196960449219 2.106630563736
-87.995712280273 -69.140182495117 -142.288681030273 2.409208297729
26.226112365723 -67.884986877441 -152.120849609375 0.839501202106
-49.567466735840 -67.854499816895 -146.271362304688 1.392391085625
15.570462226868 -63.486618041992 -152.116714477539 1.792252898216
-96.882598876953 -62.946788787842 -163.160629272461 2.853309631348
-94.489814758301 -62.088218688965 -172.391510009766 8.117408752441
-95.252006530762 -59.318927764893 -174.212509155273 9.381629943848
-109.419433593750 -68.927169799805 -172.256072998047 1.808330655098
-105.492630004883 -68.738830566406 -185.987243652344 2.503444671631
-106.961677551270 -60.595340728760 -185.523284912109 3.289694309235
-146.084335327148 -65.800712585449 -189.401779174805 2.017383575439
-108.158691406250 -66.576789855957 -189.535415649414 2.274918079376
-132.920303344727 -60.407978057861 -191.497528076172 5.828996658325
-142.282028198242 -70.687377929688 -199.948745727539 2.675735235214
-124.337463378906 -67.179389953613 -200.299087524414 3.407206296921
-156.079910278320 -69.325004577637 -200.719146728516 2.621785879135
-140.085784912109 -63.887111663818 -202.073822021484 1.249811172485
-120.318183898926 -59.373329162598 -200.389678955078 4.671415805817
-134.068099975586 -64.987663269043 -205.233398437500 1.991631746292
-146.302642822266 -62.943771362305 -214.421844482422 1.922656893730
-130.141281127930 -63.823150634766 -224.545944213867 2.626605272293
-111.422271728516 -63.399219512939 -230.497482299805 2.760804414749
-152.089202880859 -68.330299377441 -229.110260009766 2.484127283096
-118.083099365234 -61.972114562988 -234.934539794922 3.311825037003
-105.341529846191 -64.119064331055 -235.993698120117 8.057775497437
-123.896980285645 -68.200996398926 -237.354827880859 2.978189229965
-131.278884887695 -68.116500854492 -237.546020507813 3.074995994568
-118.286262512207 -60.605869293213 -239.968490600586 7.690521717072
2.613775014877 -67.833412170410 -239.192810058594 0.689813613892
-148.404373168945 -65.826011657715 -238.195297241211 3.030134201050
7.748900890350 -69.132591247559 -236.017288208008 2.087388992310
8.853788375854 -62.661464691162 -245.676528930664 1.217542171478
1.900118947029 -67.990005493164 -243.707641601563 3.499074697495
13.709513664246 -65.770469665527 -244.001068115234 1.845250487328
-142.242919921875 -66.173141479492 -239.902999877930 3.935644149780
-3.820219039917 -66.206092834473 -247.775573730469 3.532857179642
19.115316390991 -60.727783203125 -244.407531738281 2.499608278275
48.213069915771 -62.679752349854 -252.432617187500 2.457301139832
51.306468963623 -64.712730407715 -246.984985351563 1.380303740501
-147.518722534180 -67.440490722656 -253.135314941406 1.354757070541
-5.761648178101 -69.629104614258 -258.228088378906 3.103348970413
31.913341522217 -64.666549682617 -259.260284423828 1.598528623581
-132.187332153320 -58.124649047852 -262.457519531250 7.062297821045
-128.302841186523 -62.996963500977 -263.387542724609 2.641167402267
-128.200607299805 -66.500709533691 -261.322601318359 1.995075702667
25.453002929688 -63.968933105469 -264.694030761719 2.212266921997
-138.561477661133 -64.384826660156 -265.176513671875 4.925746917725
32.050865173340 -67.639122009277 -260.007812500000 1.503029108047
31.044534683228 -63.948619842529 -269.853363037109 5.544485092163
-154.069625854492 -63.385700225830 -266.426849365234 2.566971063614
-147.502593994141 -68.373001098633 -291.393524169922 2.091546297073
-154.984817504883 -66.071586608887 -294.225097656250 1.419565081596
-141.970809936523 -65.466209411621 -291.571502685547 1.282102465630
7.992763042450 -66.293624877930 -298.738647460938 6.823440551758
-154.242431640625 -66.401489257813 -298.644714355469 2.465271234512
46.986965179443 -73.264717102051 -30.083803176880 1.979657649994
38.589714050293 -73.586517333984 -43.439178466797 3.575762748718
-65.417556762695 -67.776870727539 -51.064514160156 3.684736251831
-75.906761169434 -65.031295776367 -49.443481445313 2.792032003403
-26.542108535767 -68.404975891113 -54.474697113037 3.464655876160
-21.738422393799 -68.184989929199 -64.570404052734 5.652489662170
-11.844273567200 -68.864372253418 -70.916587829590 3.688995122910
-27.792039871216 -63.179634094238 -75.260147094727 3.339902162552
69.093017578125 -68.346717834473 -75.985290527344 1.780692696571
-96.279357910156 -65.866104125977 -85.234687805176 1.943061590195
-49.177833557129 -65.993644714355 -86.400283813477 2.466343402863
55.084770202637 -64.118957519531 -86.748695373535 1.624540090561
58.855110168457 -67.701568603516 -91.497367858887 2.996011734009
72.774307250977 -66.219650268555 -88.543601989746 6.782438755035
104.771774291992 -66.998023986816 -98.368034362793 1.299138188362
56.752799987793 -66.206253051758 -94.122291564941 1.822879195213
98.875991821289 -66.855186462402 -105.560272216797 1.933111310005
-77.906455993652 -67.878990173340 -107.182365417480 1.258299946785
-97.158554077148 -67.834617614746 -107.239097595215 1.175505280495
78.603302001953 -67.017478942871 -114.009582519531 6.055253505707
-75.950607299805 -65.746070861816 -103.866355895996 2.131128787994
-80.580497741699 -67.188232421875 -120.724472045898 2.072870254517
-83.083839416504 -64.100646972656 -123.419029235840 0.340564966202
-53.218299865723 -67.553558349609 -127.984695434570 1.639232158661
-79.503837585449 -62.515876770020 -127.318664550781 1.189558625221
-60.687576293945 -69.125572204590 -132.815383911133 1.294042587280
-78.116447448730 -70.505310058594 -138.824844360352 0.689070820808
-72.747222900391 -60.986785888672 -135.179199218750 4.549128055573
-81.364212036133 -64.270240783691 -129.036682128906 1.365785956383
-86.574325561523 -65.011360168457 -129.575149536133 0.991260051727
-59.690269470215 -67.326072692871 -133.578979492188 1.843838810921
-88.700759887695 -67.629623413086 -135.671981811523 2.128961563110
-51.970199584961 -68.402282714844 -134.485626220703 1.581497311592
-51.513973236084 -66.912483215332 -145.356613159180 1.474543213844
26.841629028320 -66.725021362305 -142.492828369141 2.152405977249
-59.020030975342 -60.994754791260 -136.947433471680 1.994119286537
12.015789985657 -67.465126037598 -150.169174194336 2.547384500504
20.512945175171 -62.819789886475 -150.037292480469 1.856417417526
18.843254089355 -66.172744750977 -155.081039428711 2.824094772339
-96.531974792480 -69.077522277832 -147.857315063477 1.870251893997
-94.822631835938 -65.388725280762 -159.476104736328 2.033551216125
-99.020233154297 -59.624744415283 -156.504486083984 2.943118572235
-93.652992248535 -66.100479125977 -158.684310913086 2.754404783249
-91.261138916016 -62.109260559082 -163.010971069336 7.247787475586
-151.193435668945 -70.845008850098 -180.053817749023 2.432745456696
-152.747039794922 -67.965950012207 -179.626800537109 1.262029290199
-104.327880859375 -67.887382507324 -190.087646484375 3.282385587692
-142.185501098633 -60.572254180908 -180.754058837891 3.212137460709
-110.872879028320 -67.538269042969 -181.497817993164 1.599321246147
-148.718521118164 -65.431030273438 -191.155120849609 2.513722896576
-113.881164550781 -66.308456420898 -193.881011962891 1.532202005386
-103.280654907227 -65.857948303223 -189.469924926758 3.859956264496
-145.112777709961 -66.424964904785 -197.938919067383 1.588870882988
-133.772232055664 -65.182785034180 -203.071868896484 1.369312286377
-106.207466125488 -64.399383544922 -202.483779907227 5.245666027069
-114.532638549805 -66.300125122070 -204.320465087891 1.474666714668
-115.164993286133 -62.909938812256 -205.749969482422 2.457859754562
-111.698097229004 -63.035003662109 -207.943176269531 5.735435009003
-132.829589843750 -64.296859741211 -201.907196044922 0.963307201862
-135.281417846680 -65.260383605957 -200.817718505859 1.887376070023
-130.762191772461 -68.046386718750 -202.342376708984 3.273624658585
-122.479103088379 -62.034065246582 -205.842193603516 3.048799276352
-120.795494079590 -61.201812744141 -212.256896972656 8.605904579163
-116.254356384277 -61.745014190674 -209.000686645508 5.439384460449
-146.057876586914 -65.555053710938 -221.560897827148 1.187310695648
-151.145996093750 -64.220329284668 -230.499435424805 1.373640298843
-157.124771118164 -61.937217712402 -225.525329589844 3.014851808548
-140.062896728516 -66.253799438477 -226.923660278320 1.368765354156
-137.490524291992 -63.684547424316 -232.098510742188 3.420910120010
-124.898857116699 -65.789955139160 -225.735748291016 0.790271759033
-141.505050659180 -60.957561492920 -236.180389404297 3.409069538116
-147.005889892578 -66.810577392578 -234.016342163086 1.957167983055
-141.699340820313 -63.599830627441 -228.211746215820 1.765473246574
-130.347290039063 -61.266918182373 -230.837310791016 3.770439386368
-149.169647216797 -63.983261108398 -235.016159057617 2.069051027298
-136.188705444336 -64.503433227539 -237.055450439453 4.401529788971
-124.854446411133 -61.081592559814 -234.446304321289 3.653239965439
-6.153664112091 -66.560455322266 -241.090103149414 1.505292654037
3.742717027664 -64.881820678711 -239.484573364258 1.121124744415
9.446048736572 -63.638626098633 -245.813415527344 0.898939371109
13.568304061890 -63.727249145508 -243.313934326172 1.346114277840
-8.666163444519 -66.532424926758 -248.687149047852 2.895281791687
-12.017580986023 -59.864734649658 -252.070037841797 5.010170459747
45.448993682861 -57.896888732910 -256.093139648438 6.998162269592
50.941146850586 -66.217536926270 -252.610229492188 2.235206604004
-147.021347045898 -63.357543945313 -260.765045166016 1.109958648682
43.344413757324 -62.171943664551 -262.138122558594 6.518184661865
31.598247528076 -62.534965515137 -254.859924316406 1.689626216888
-158.645767211914 -60.507514953613 -258.306427001953 4.180744647980
-150.694183349609 -62.600349426270 -264.279998779297 0.829688489437
-146.448013305664 -63.783069610596 -264.920440673828 1.110910058022
2.643098115921 -65.590721130371 -267.898834228516 3.314514636993
-156.039764404297 -63.366683959961 -269.035736083984 5.599511623383
2.667216062546 -62.803222656250 -280.174560546875 0.549229681492
-143.535995483398 -66.892578125000 -275.697540283203 3.642807722092
-144.305145263672 -62.909507751465 -289.616485595703 1.789879918098
-152.690338134766 -64.366043090820 -286.112670898438 0.662128865719
-150.570617675781 -61.393646240234 -285.221557617188 2.164409637451
-146.780212402344 -62.076534271240 -286.209838867188 1.546169519424
-155.094329833984 -58.144889831543 -292.805328369141 5.747254371643
-150.135757446289 -59.672912597656 -287.100006103516 3.805622577667
-151.490509033203 -63.714332580566 -286.629852294922 0.747542798519
-143.937301635742 -68.244651794434 -291.750885009766 0.958581387997
-141.134994506836 -62.856101989746 -291.445373535156 3.026296615601
15.182658195496 -65.737144470215 -298.462402343750 8.629341125488
-149.461517333984 -57.347240447998 -291.677276611328 5.955866813660
-158.778869628906 -62.887592315674 -294.165649414063 4.384388446808
-150.578430175781 -61.869205474854 -292.293182373047 1.688544273376
-148.001907348633 -61.792713165283 -297.859802246094 3.628143548965
-153.773910522461 -62.888786315918 -290.058807373047 1.473667144775
-151.966445922852 -67.829528808594 -295.022979736328 0.692603588104
4.292994022369 -58.044849395752 -298.075958251953 3.776811361313
-144.782348632813 -62.897041320801 -296.544158935547 3.286723136902
-144.129562377930 -64.579925537109 -296.318817138672 2.603667020798
32.859260559082 -62.641155242920 -23.303493499756 5.739852905273
39.707164764404 -66.204185485840 -17.278879165649 2.380244016647
43.178146362305 -64.124107360840 -29.114849090576 1.698832750320
20.056482315063 -72.220497131348 -35.559413909912 2.800850391388
31.851644515991 -63.200244903564 -40.223655700684 1.898146986961
44.031204223633 -76.266853332520 -40.780891418457 5.497013092041
-56.509738922119 -66.254882812500 -46.793251037598 2.375787973404
-55.485832214355 -68.162658691406 -50.949268341064 3.838544845581
93.440299987793 -66.089492797852 -62.269458770752 3.121586799622
-95.136695861816 -64.347541809082 -68.040054321289 1.815121889114
94.905708312988 -68.717262268066 -72.462348937988 2.407621622086
62.944080352783 -62.724212646484 -70.957061767578 3.466212034225
105.341247558594 -67.589462280273 -81.845069885254 3.010770320892
66.949417114258 -65.255401611328 -74.992965698242 1.460919260979
-39.060688018799 -69.781425476074 -82.174430847168 4.618259906769
59.252574920654 -64.596778869629 -88.086097717285 2.878475427628
-58.980422973633 -64.367752075195 -77.836242675781 3.788830518723
62.692325592041 -61.985763549805 -88.575813293457 2.520525217056
67.246910095215 -64.635017395020 -83.832420349121 2.226549863815
-99.056198120117 -65.777549743652 -82.447143554688 1.995436906815
52.315246582031 -66.937065124512 -94.808319091797 1.789741396904
51.096561431885 -68.009109497070 -99.264900207520 1.490442156792
67.449394226074 -65.071418762207 -95.752311706543 1.386454820633
53.798637390137 -62.164554595947 -97.957397460938 2.272464990616
-80.538642883301 -67.971549987793 -114.047073364258 1.681879162788
87.089309692383 -70.812736511230 -108.927413940430 3.962764024734
-74.476203918457 -62.411865234375 -117.526115417480 2.126615524292
-72.743850708008 -64.105072021484 -111.139358520508 1.892625808716
-84.420822143555 -66.480369567871 -124.724960327148 1.956854224205
-85.580894470215 -64.612060546875 -112.144859313965 1.208963394165
-87.483100891113 -67.767364501953 -122.749137878418 1.897367596626
-76.794929504395 -64.926101684570 -126.360076904297 1.835208892822
-52.182411193848 -60.996856689453 -130.108383178711 0.976455092430
-71.089752197266 -69.125709533691 -138.223037719727 0.840171396732
-52.174545288086 -61.812099456787 -141.396621704102 3.123221158981
-89.654037475586 -64.500541687012 -137.828994750977 1.399504184723
28.059911727905 -62.738727569580 -142.423828125000 3.096528291702
20.576227188110 -64.281463623047 -142.325347900391 2.569215059280
-91.886917114258 -66.713768005371 -142.037796020508 2.272296667099
19.515192031860 -63.743083953857 -159.334564208984 5.433858871460
-86.446830749512 -67.592201232910 -148.257934570313 5.416212558746
-94.015762329102 -64.137634277344 -148.506118774414 2.082031488419
19.982093811035 -63.797355651855 -158.563827514648 5.452276706696
-95.321975708008 -61.095088958740 -149.984329223633 2.188297748566
-93.862937927246 -61.904827117920 -147.823257446289 1.802424788475
-98.110153198242 -62.779827117920 -159.543746948242 0.643669605255
-98.038887023926 -67.059600830078 -160.818420410156 1.892365694046
-105.438400268555 -62.982357025146 -176.501373291016 2.058568954468
-103.229049682617 -61.433113098145 -170.744888305664 1.840548992157
-99.724441528320 -68.636169433594 -166.252014160156 1.680962324142
-104.377372741699 -61.918502807617 -175.680450439453 1.918638110161
-131.753128051758 -72.359779357910 -180.728134155273 9.774997711182
-106.719024658203 -64.138061523438 -179.207717895508 1.860365509987
-141.563522338867 -62.650020599365 -190.988449096680 4.126125335693
-148.151596069336 -68.770072937012 -188.126098632813 3.067546844482
