-12.893809318542 -65.600128173828 -211.300659179688 2.256225347519
15.107831001282 -67.092933654785 -210.486526489258 2.450659513474
-11.399373054504 -68.595512390137 -209.556930541992 1.646938204765
10.441392898560 -63.929149627686 -213.838806152344 4.302790641785
-7.810495853424 -70.901481628418 -218.661026000977 2.209014654160
-15.550202369690 -71.414443969727 -212.684448242188 0.827979087830
10.054457664490 -67.813919067383 -226.618652343750 1.727763772011
-4.831995010376 -68.826194763184 -220.626541137695 1.921394109726
12.128269195557 -66.391662597656 -223.424484252930 2.269203424454
-4.965237140656 -70.419479370117 -225.003219604492 1.477127552032
-159.344787597656 -70.316452026367 -222.272705078125 2.438530445099
84.119453430176 -68.243408203125 -223.376693725586 1.935004591942
-134.927459716797 -68.883209228516 -222.891403198242 2.110149383545
-134.772476196289 -68.924575805664 -225.820373535156 0.807795822620
-8.753576278687 -67.902542114258 -229.662948608398 1.261516213417
12.934782028198 -70.166419982910 -235.893020629883 0.778571188450
-151.262161254883 -67.815422058105 -223.136535644531 0.829901158810
84.667602539063 -64.167022705078 -223.339675903320 5.153643131256
-8.115261077881 -68.446617126465 -225.523666381836 1.418912291527
2.744379043579 -69.673179626465 -228.724945068359 0.608138561249
71.142578125000 -66.507400512695 -229.783248901367 2.733536243439
4.074490070343 -69.887886047363 -233.982299804688 2.183780431747
-18.173177719116 -65.601760864258 -232.339599609375 6.021808147430
-121.385482788086 -73.041908264160 -238.315185546875 5.249864578247
-5.372707843781 -67.898223876953 -239.292129516602 2.587632894516
-1.087178945541 -69.143600463867 -234.625762939453 1.560644626617
67.995513916016 -68.805557250977 -237.451232910156 1.636115908623
-162.588165283203 -68.949012756348 -239.928298950195 1.308035254478
-9.907146453857 -66.691574096680 -248.211196899414 1.911399006844
-166.558258056641 -71.025871276855 -240.719238281250 1.505185604095
8.014876365662 -69.031669616699 -246.241333007813 3.671128034592
-167.378890991211 -68.999084472656 -239.439834594727 1.201115131378
-156.750762939453 -65.956909179688 -243.876907348633 3.408880710602
54.075313568115 -71.223770141602 -253.779998779297 3.702918767929
63.141838073730 -64.984443664551 -245.506179809570 3.945476770401
54.122680664063 -66.523887634277 -244.861618041992 1.687083840370
49.650192260742 -70.782478332520 -249.981689453125 1.491890549660
-160.864242553711 -68.413780212402 -247.200012207031 1.831950187683
-152.724395751953 -69.891311645508 -251.592025756836 1.995252847672
-15.980441093445 -67.207992553711 -248.626525878906 2.329395771027
-154.605453491211 -67.733703613281 -248.457580566406 3.023688793182
20.301948547363 -69.989074707031 -257.559570312500 3.855031013489
-166.071243286133 -68.202949523926 -252.377517700195 1.371480703354
-169.681793212891 -63.873245239258 -244.700851440430 6.006860733032
-80.834808349609 -66.305198669434 -253.232452392578 3.497698783875
-171.642868041992 -70.032783508301 -266.553283691406 5.170714378357
-86.545913696289 -69.677116394043 -261.188720703125 5.167930126190
36.528991699219 -62.128158569336 -251.105361938477 3.235528707504
24.047735214233 -70.878982543945 -257.565307617188 1.570505142212
-158.327468872070 -65.895835876465 -260.036010742188 2.633819341660
-102.588645935059 -64.744445800781 -262.105682373047 4.079875469208
38.769630432129 -66.301338195801 -260.042266845703 2.230461835861
-101.640586853027 -68.623123168945 -260.275024414063 0.945085406303
-152.296081542969 -65.960662841797 -259.971374511719 1.832233428955
-107.169532775879 -65.379585266113 -259.389923095703 1.293383121490
-163.314727783203 -68.912467956543 -259.722686767578 0.750717103481
-113.750000000000 -69.581489562988 -263.333374023438 1.959167361259
-154.981872558594 -69.903427124023 -269.577575683594 4.816287994385
-157.842498779297 -71.177963256836 -264.590332031250 1.131100296974
-167.525314331055 -72.188095092773 -266.101959228516 3.389752388000
-160.287994384766 -68.940460205078 -266.184448242188 1.079571485519
-166.242294311523 -65.499626159668 -269.470275878906 4.581690788269
-164.170028686523 -63.579990386963 -268.253997802734 5.860177993774
23.604730606079 -68.134033203125 -265.425781250000 2.065909862518
-149.678680419922 -66.961959838867 -268.848846435547 2.704309463501
-148.890060424805 -66.402397155762 -288.483215332031 2.073780536652
17.775392532349 -73.570045471191 -281.303009033203 1.236826062202
-8.517874717712 -66.078758239746 -277.150115966797 2.478079795837
-126.832626342773 -71.867622375488 -286.070617675781 2.003848552704
-137.685791015625 -74.578582763672 -289.917297363281 2.492025613785
-138.248107910156 -68.930183410645 -287.740356445313 2.869021654129
-129.517700195313 -64.901420593262 -286.136962890625 2.758773565292
-116.575630187988 -67.387825012207 -289.940399169922 0.959195613861
-108.525573730469 -70.159934997559 -288.608642578125 2.319824695587
11.795630455017 -65.562904357910 -293.368743896484 2.874105691910
-90.481346130371 -66.412269592285 -286.564758300781 3.224414348602
-146.702514648438 -69.812263488770 -296.040435791016 1.184921741486
-99.979255676270 -65.492073059082 -289.911132812500 3.051315784454
-129.363128662109 -67.270187377930 -293.181304931641 2.018314838409
11.253165245056 -72.869331359863 -290.239074707031 2.358564615250
-115.735420227051 -70.713073730469 -295.479553222656 3.062032699585
0.939716994762 -67.451522827148 -290.452728271484 2.604115247726
-143.128707885742 -70.484306335449 -290.630310058594 1.907959938049
-156.770263671875 -70.895515441895 -302.980072021484 3.081810235977
-164.272766113281 -69.233764648438 -309.249816894531 8.568015098572
-153.402999877930 -69.214447021484 -312.464111328125 1.627427458763
49.117568969727 -76.108757019043 -26.747976303101 4.681933403015
19.571681976318 -72.316596984863 -33.097782135010 2.314615488052
34.776878356934 -73.056449890137 -39.408306121826 2.375141859055
-50.550312042236 -70.590538024902 -52.849071502686 3.368669271469
-13.613398551941 -68.966056823730 -63.135910034180 1.317304849625
93.803916931152 -75.206878662109 -76.237007141113 1.781569361687
66.409034729004 -68.049346923828 -69.087142944336 3.393411636353
-20.399684906006 -72.392189025879 -75.855888366699 3.355137348175
-93.538009643555 -70.707366943359 -82.757087707520 1.566790819168
-38.876823425293 -71.677932739258 -81.328147888184 3.531752347946
63.738330841064 -70.912513732910 -82.146560668945 3.296070337296
55.973434448242 -76.044090270996 -85.342430114746 5.322495937347
56.911212921143 -71.861007690430 -88.543777465820 1.935107111931
-56.491107940674 -73.472404479980 -86.476844787598 4.663769245148
67.839942932129 -68.391159057617 -89.245933532715 1.821380615234
44.717868804932 -74.606117248535 -97.631782531738 1.531581282616
66.533279418945 -73.194458007813 -91.933319091797 3.008506536484
-63.382385253906 -69.408821105957 -98.341003417969 3.336497783661
53.510356903076 -66.067008972168 -98.260131835938 2.015680789948
46.315341949463 -71.762870788574 -99.310264587402 1.513180971146
103.501304626465 -73.025955200195 -96.261260986328 1.520295858383
-70.218948364258 -77.322921752930 -100.779029846191 1.995598793030
110.204399108887 -70.963920593262 -103.194442749023 1.661571264267
-80.544540405273 -69.144523620605 -96.009330749512 4.487396717072
56.064643859863 -71.480598449707 -108.137817382813 3.733942031860
49.569629669189 -68.114006042480 -103.127975463867 1.278029441833
95.398971557617 -69.523155212402 -100.735733032227 2.449446201324
87.515586853027 -61.000682830811 -114.900779724121 5.633374214172
55.714942932129 -72.838508605957 -105.538688659668 2.506584167480
-70.486427307129 -72.229072570801 -106.877410888672 5.010916233063
-79.859329223633 -71.729385375977 -110.975875854492 2.310420036316
-84.231010437012 -73.815940856934 -121.418029785156 3.548743247986
-94.560714721680 -79.321868896484 -117.641777038574 5.958071231842
102.141143798828 -70.711288452148 -115.945068359375 3.991307020187
-86.507591247559 -67.821372985840 -121.106231689453 0.431812852621
-79.985656738281 -67.821632385254 -120.949447631836 1.396853089333
110.798843383789 -66.785697937012 -117.736907958984 2.804985284805
-63.676891326904 -65.067420959473 -118.869186401367 1.777235984802
112.209533691406 -71.816200256348 -132.809112548828 0.849055409431
107.765365600586 -68.325294494629 -131.649368286133 3.112509250641
112.070823669434 -68.365585327148 -119.054275512695 2.101246356964
-94.220016479492 -68.323684692383 -135.393997192383 2.608472824097
-53.207435607910 -65.615211486816 -140.306198120117 1.771774649620
-76.285278320313 -72.607002258301 -147.694976806641 1.150553226471
-69.066772460938 -67.134468078613 -151.907348632813 2.427081584930
-73.972061157227 -68.272506713867 -145.102142333984 1.693928241730
-53.927978515625 -65.604103088379 -148.382278442383 2.191537380219
-48.152713775635 -67.269538879395 -153.204727172852 2.034927129745
19.696737289429 -71.148216247559 -146.228332519531 2.622048854828
-95.138488769531 -64.917770385742 -155.722488403320 2.358520507813
-43.642955780029 -72.852737426758 -149.376312255859 1.353578448296
-55.230159759521 -68.501083374023 -153.372039794922 3.852209806442
-44.678295135498 -64.755889892578 -157.232009887695 3.886532306671
27.875774383545 -72.815231323242 -161.308090209961 1.872286200523
-48.541023254395 -68.736976623535 -156.554794311523 1.942333340645
-96.431449890137 -70.918373107910 -149.825225830078 2.360433816910
-42.442916870117 -68.165504455566 -161.445388793945 1.048168063164
24.903865814209 -66.043190002441 -158.658187866211 1.940220117569
-101.015670776367 -70.560562133789 -165.126403808594 2.025702714920
21.652891159058 -67.302627563477 -159.909667968750 1.452598214149
-105.008628845215 -63.938064575195 -172.515106201172 2.189199209213
-100.791725158691 -65.448310852051 -165.192886352539 3.408884763718
22.119323730469 -62.525287628174 -169.644134521484 4.493332386017
25.105979919434 -65.704467773438 -169.078826904297 2.091093063354
-107.332923889160 -71.589225769043 -175.388946533203 3.198379993439
-144.270416259766 -69.595779418945 -176.713043212891 2.128245115280
-25.146089553833 -66.495414733887 -188.026397705078 2.550997018814
-22.636774063110 -65.235931396484 -184.890197753906 4.157344341278
-113.568389892578 -67.158546447754 -190.456680297852 1.060564517975
-141.693054199219 -68.115570068359 -190.251586914063 2.821673154831
-105.519584655762 -72.426658630371 -181.845581054688 3.317344903946
-150.778732299805 -73.301818847656 -199.155242919922 2.726946353912
-129.250442504883 -72.098754882813 -194.114196777344 2.672497510910
-137.260757446289 -68.189865112305 -196.585372924805 2.948831558228
-21.833873748779 -62.925178527832 -194.493286132813 4.233992576599
-120.435844421387 -69.655334472656 -193.107803344727 3.179627895355
-114.087638854980 -65.960571289063 -195.737762451172 1.466836929321
-18.511556625366 -71.053314208984 -195.570846557617 0.986607849598
-154.791122436523 -65.247299194336 -195.817367553711 2.098666906357
-135.910644531250 -71.282165527344 -211.945831298828 8.264990806580
-124.078620910645 -65.473106384277 -205.305480957031 1.657847881317
14.591529846191 -64.858505249023 -206.064590454102 3.412776708603
-161.339141845703 -69.191986083984 -206.788040161133 3.169945240021
10.848893165588 -70.919731140137 -212.187637329102 1.371748924255
13.716278076172 -73.101379394531 -215.544891357422 2.688333034515
-19.017467498779 -67.238037109375 -209.858901977539 1.840006351471
-6.085958003998 -68.372909545898 -214.604202270508 2.355862140656
-167.144302368164 -69.754844665527 -214.191696166992 2.254844427109
-159.342941284180 -66.582115173340 -218.658981323242 2.334399938583
-102.279563903809 -69.273208618164 -219.107833862305 1.391898155212
-100.879570007324 -66.324806213379 -228.222915649414 3.514430284500
-158.750335693359 -65.913375854492 -220.904846191406 2.217366695404
-106.615486145020 -68.108184814453 -223.148437500000 1.724128484726
-17.094697952271 -69.370498657227 -219.616851806641 2.993832588196
-124.883804321289 -67.563179016113 -229.986923217773 2.970530748367
-144.965972900391 -71.212738037109 -224.887283325195 1.594398617744
-7.923572063446 -70.461357116699 -228.742233276367 1.062744855881
-132.747787475586 -65.925651550293 -227.534179687500 1.866792082787
-126.123710632324 -63.351593017578 -227.901031494141 0.656075000763
-111.462829589844 -69.892036437988 -232.035125732422 0.609902322292
-0.597335994244 -67.015953063965 -231.367050170898 0.688921093941
-108.773597717285 -65.820121765137 -228.242126464844 1.503758072853
-158.223876953125 -73.703903198242 -222.835220336914 1.420702934265
-146.984130859375 -73.072578430176 -227.011566162109 1.049529194832
-165.316604614258 -69.208419799805 -228.598159790039 2.139044761658
-7.307124137878 -66.458549499512 -230.195053100586 2.492568254471
-10.026223182678 -57.652908325195 -231.492919921875 7.399289608002
76.417953491211 -57.622287750244 -228.415664672852 10.490443229675
2.681288957596 -64.196975708008 -235.118133544922 1.708710670471
-143.936050415039 -66.731689453125 -234.456817626953 1.060489773750
-12.937486648560 -69.221115112305 -231.537872314453 1.581561207771
76.856658935547 -71.106849670410 -224.849243164063 0.349854797125
69.155128479004 -66.702674865723 -233.307083129883 1.822832703590
-130.407730102539 -68.018539428711 -232.199539184570 2.878351926804
-161.220748901367 -67.758010864258 -228.331848144531 1.684199929237
-111.672927856445 -64.440475463867 -232.733444213867 2.768264293671
-119.941337585449 -66.987220764160 -234.798110961914 2.984792709351
-169.612106323242 -63.991741180420 -234.664367675781 6.077737808228
-158.768356323242 -66.209625244141 -239.550125122070 2.118579387665
-135.875366210938 -66.937080383301 -241.850250244141 7.862170219421
-10.251325607300 -72.799224853516 -234.704132080078 1.771933197975
-3.239595890045 -65.543701171875 -244.639251708984 0.985626339912
-160.869445800781 -65.560997009277 -242.818695068359 3.286240339279
8.197908401489 -69.924545288086 -242.253021240234 0.362083792686
8.486760139465 -65.250801086426 -240.552032470703 0.584389865398
-164.441726684570 -67.361305236816 -243.392211914063 1.743117451668
12.745233535767 -66.535102844238 -244.013916015625 1.433442592621
51.042076110840 -65.337638854980 -249.174819946289 1.046392679214
52.219253540039 -62.683856964111 -253.559783935547 4.242584228516
-7.734356880188 -67.757217407227 -246.440719604492 3.876925706863
50.200420379639 -63.823642730713 -247.532211303711 1.579948902130
-163.137069702148 -68.389457702637 -256.711029052734 3.053769588470
-165.295028686523 -65.523780822754 -250.272613525391 3.109869718552
-163.428863525391 -70.069900512695 -248.075958251953 2.086362123489
54.610836029053 -64.084350585938 -255.955261230469 6.166805744171
-90.783615112305 -70.798957824707 -254.316787719727 2.873774290085
-124.622558593750 -66.519989013672 -253.513702392578 2.500486850739
-107.948257446289 -69.273910522461 -255.466629028320 2.105703830719
31.026546478271 -66.443138122559 -257.834411621094 0.968946814537
38.269287109375 -67.053230285645 -255.152786254883 1.691243052483
-97.570739746094 -67.173454284668 -254.133071899414 1.352097392082
-92.771080017090 -65.705696105957 -258.240417480469 3.041600942612
44.774883270264 -64.225273132324 -257.611907958984 3.034681320190
40.394298553467 -63.726570129395 -255.724533081055 1.097354531288
-157.535003662109 -68.917831420898 -261.378356933594 2.119231700897
33.133041381836 -62.858974456787 -255.482543945313 1.938764333725
-139.200622558594 -69.478355407715 -266.860198974609 4.725064754486
-118.105331420898 -63.785957336426 -260.564971923828 2.638682603836
-132.475982666016 -64.729316711426 -267.150482177734 4.234071731567
35.526859283447 -70.234062194824 -265.784820556641 5.510082244873
-128.072494506836 -70.149452209473 -265.334899902344 1.835568547249
-10.331959724426 -63.324207305908 -258.446411132813 5.595773220062
21.123630523682 -68.333274841309 -276.398529052734 0.713385999203
-13.624850273132 -64.926437377930 -269.337066650391 4.709295272827
23.929447174072 -62.418762207031 -285.446716308594 5.594407558441
-150.286193847656 -69.091140747070 -284.184509277344 2.320264339447
-11.909461975098 -69.800872802734 -277.482849121094 1.608164668083
-154.448806762695 -69.908340454102 -290.163604736328 1.963565945625
-127.397918701172 -65.939529418945 -285.969451904297 1.239764094353
-160.559066772461 -68.995986938477 -290.669433593750 0.794346690178
-122.764068603516 -66.554931640625 -287.133697509766 2.082780838013
-106.730178833008 -70.542922973633 -291.903656005859 1.291107654572
-8.993403434753 -66.155708312988 -290.675537109375 4.556046962738
-111.655014038086 -67.470497131348 -295.027801513672 4.057667732239
-118.771171569824 -72.285575866699 -291.407501220703 1.932084798813
-122.084510803223 -69.859954833984 -292.771575927734 2.756035327911
-137.882278442383 -64.302513122559 -291.318847656250 4.122046470642
-125.118721008301 -71.370086669922 -294.928314208984 1.870098829269
-159.940063476563 -68.633071899414 -290.347930908203 1.445292115211
-145.786453247070 -73.447212219238 -298.184539794922 1.619165062904
-153.349563598633 -66.628288269043 -298.659667968750 2.224018335342
-154.742858886719 -64.216476440430 -307.871978759766 3.424616098404
-159.680221557617 -65.426879882813 -302.825012207031 6.519382476807
-148.088272094727 -68.986946105957 -313.508880615234 1.921623229980
-150.438323974609 -68.071708679199 -314.560333251953 2.300683975220
34.004673004150 -70.700469970703 -18.478977203369 1.645577430725
44.846580505371 -72.789138793945 -20.403415679932 1.356249690056
30.578283309937 -66.458450317383 -32.716770172119 2.863588809967
51.982822418213 -68.479728698730 -32.031932830811 2.908990144730
32.101619720459 -68.237586975098 -39.005989074707 2.404807567596
41.497909545898 -75.179611206055 -37.163787841797 3.600336551666
-54.562946319580 -70.987937927246 -46.386299133301 1.764048099518
85.400627136230 -68.606666564941 -61.006835937500 2.910064935684
84.217994689941 -68.161933898926 -67.672058105469 2.518192291260
-93.540199279785 -66.849662780762 -64.917449951172 2.637328147888
-13.590620040894 -67.815605163574 -62.833190917969 1.657112360001
-86.619850158691 -74.341888427734 -68.300148010254 1.853759884834
97.559646606445 -66.871719360352 -70.994194030762 2.131145954132
-16.145256042480 -66.747352600098 -68.438751220703 1.335720658302
69.199867248535 -70.712722778320 -79.212585449219 1.480454564095
-38.992923736572 -72.183082580566 -78.204627990723 1.572998523712
-29.142517089844 -74.027732849121 -81.904624938965 3.784499168396
56.165069580078 -65.117462158203 -88.333885192871 1.431400299072
-46.666316986084 -79.931655883789 -89.710723876953 2.639934301376
62.309852600098 -64.117965698242 -81.896865844727 1.188874006271
53.902416229248 -67.535911560059 -86.410110473633 0.663785159588
49.771190643311 -72.622680664063 -93.758331298828 2.249957799911
65.919944763184 -66.991058349609 -93.879730224609 2.334394216537
58.746669769287 -67.626075744629 -100.666908264160 2.184534072876
103.945220947266 -63.785900115967 -96.831001281738 2.081430435181
104.138893127441 -71.435089111328 -97.203735351563 1.288704633713
58.391136169434 -72.737083435059 -99.641304016113 1.861832261086
109.188674926758 -66.005218505859 -101.558906555176 2.449657917023
-71.292854309082 -76.755371093750 -101.647422790527 2.148658514023
-71.211463928223 -72.598808288574 -104.534851074219 4.185244083405
105.169319152832 -72.199264526367 -98.565231323242 1.432590842247
54.622791290283 -66.804893493652 -103.308876037598 1.535421848297
71.843269348145 -70.563720703125 -103.640457153320 2.136287212372
-68.282279968262 -61.897270202637 -101.659896850586 1.548107147217
-79.950607299805 -67.087982177734 -107.732131958008 1.832737922668
95.233757019043 -66.220840454102 -112.577728271484 5.746452331543
43.424304962158 -68.486549377441 -105.019905090332 1.776614785194
101.721755981445 -67.804389953613 -103.467079162598 2.090924263000
43.863719940186 -66.600357055664 -112.113967895508 1.162047982216
113.837585449219 -64.001594543457 -110.545486450195 4.867794513702
-85.399909973145 -64.626167297363 -108.841384887695 2.747636556625
105.230453491211 -62.634731292725 -111.961593627930 5.139088153839
-86.372581481934 -65.758995056152 -117.035797119141 2.890617370605
-58.485416412354 -70.707054138184 -125.614784240723 2.826205253601
-58.944488525391 -67.614631652832 -130.159011840820 1.644363641739
-72.844062805176 -71.230445861816 -131.752029418945 1.451051712036
-49.734451293945 -70.320785522461 -132.478271484375 1.845852732658
-86.828193664551 -69.354362487793 -134.651550292969 1.125875592232
-78.084060668945 -72.561897277832 -136.308731079102 0.760659813881
-85.901901245117 -69.415611267090 -129.644897460938 1.583465099335
-54.330070495605 -72.293579101563 -139.165145874023 1.677236080170
-72.136138916016 -67.551757812500 -140.502731323242 1.020959019661
-59.990112304688 -68.704704284668 -136.390853881836 1.542221307755
-63.379180908203 -70.923118591309 -139.127319335938 3.306544542313
22.823257446289 -70.610450744629 -141.543334960938 3.341228723526
-86.112251281738 -71.565719604492 -145.991973876953 6.385547637939
-45.862506866455 -72.100479125977 -148.884628295898 1.894355416298
-98.438705444336 -66.464073181152 -151.423126220703 1.211178302765
-102.897850036621 -67.517326354980 -153.954452514648 2.909981012344
17.817386627197 -73.096008300781 -155.226562500000 2.795063495636
14.743248939514 -71.629043579102 -161.627960205078 2.535066366196
-100.805847167969 -69.411132812500 -160.928070068359 1.934745192528
-99.744300842285 -66.567916870117 -159.309951782227 2.281427621841
-95.167251586914 -67.658248901367 -169.453720092773 6.059108257294
18.311355590820 -64.318611145020 -172.023086547852 3.693331718445
-113.979743957520 -72.139244079590 -168.317535400391 8.495779991150
18.987918853760 -69.824760437012 -170.542724609375 2.212999582291
-145.360855102539 -72.199768066406 -179.719879150391 2.319116830826
16.805416107178 -67.428016662598 -177.843933105469 0.947848021984
22.079652786255 -69.093780517578 -188.732482910156 0.953156411648
-153.592941284180 -66.370254516602 -189.051895141602 2.361403226852
18.763196945190 -70.588638305664 -181.812103271484 2.470303058624
14.269963264465 -66.047660827637 -179.251998901367 3.943086147308
-137.299667358398 -75.960151672363 -193.650085449219 3.619501113892
-151.406799316406 -71.372413635254 -191.132431030273 2.445177555084
16.483970642090 -66.184432983398 -191.252502441406 1.346487164497
20.636041641235 -64.764152526855 -187.479431152344 2.541379690170
-146.943939208984 -68.281837463379 -193.639602661133 3.876549005508
-108.879219055176 -73.247543334961 -195.376480102539 3.931183099747
21.987180709839 -66.145980834961 -197.818466186523 2.838717222214
-126.616386413574 -64.811874389648 -192.908416748047 3.345096588135
11.046974182129 -68.905601501465 -199.562973022461 0.553805589676
-132.736846923828 -64.933059692383 -196.685058593750 0.999428331852
-150.344650268555 -68.934532165527 -194.085556030273 1.569186806679
-162.347610473633 -72.009429931641 -203.090011596680 1.198556065559
-163.473709106445 -66.935516357422 -203.170166015625 2.127987146378
-19.515464782715 -64.111465454102 -205.603500366211 3.771410942078
-166.803344726563 -68.424781799316 -203.342147827148 0.699646472931
-21.238098144531 -66.170585632324 -195.870391845703 2.326636075974
-16.243432998657 -66.109848022461 -199.170547485352 3.197348594666
11.995933532715 -66.863021850586 -197.004638671875 2.986184597015
-159.153472900391 -65.535003662109 -198.145294189453 1.626092314720
-111.164947509766 -66.293754577637 -203.436279296875 1.982529044151
-17.060649871826 -70.097785949707 -209.613235473633 1.855122089386
-156.160995483398 -70.546829223633 -201.227416992188 2.237573862076
18.083469390869 -63.209781646729 -201.170501708984 4.424256801605
-163.954711914063 -68.618057250977 -200.911132812500 1.607326507568
-121.027000427246 -71.324234008789 -206.618865966797 3.515028715134
-109.870323181152 -67.079132080078 -209.433212280273 6.798580646515
-126.984939575195 -63.804649353027 -209.620117187500 5.017185211182
-14.443642616272 -70.374671936035 -204.102539062500 1.621103405952
-19.593141555786 -64.002593994141 -205.622955322266 3.873204469681
-162.678863525391 -65.405456542969 -210.460876464844 2.272374629974
-161.014312744141 -66.524002075195 -214.224105834961 1.956574916840
-166.219650268555 -69.726379394531 -219.846771240234 0.521880924702
-149.405273437500 -71.543563842773 -209.724395751953 3.169394969940
-143.959167480469 -67.039703369141 -225.500015258789 1.584955692291
-7.079359054565 -64.572074890137 -222.482910156250 2.757597446442
-14.813452720642 -65.552818298340 -220.171585083008 3.914360046387
-102.074943542480 -67.377365112305 -223.787033081055 1.994978666306
-8.038832664490 -65.285545349121 -221.065811157227 1.544701933861
-165.369842529297 -66.879028320313 -227.186111450195 1.035807967186
-114.726531982422 -62.970134735107 -233.242034912109 2.640133380890
-1.020987987518 -63.760124206543 -231.176544189453 3.174659490585
5.217258930206 -64.394561767578 -231.373123168945 1.807228565216
-113.153190612793 -66.288703918457 -234.772949218750 3.111860275269
-3.783557891846 -60.557632446289 -233.388366699219 4.382381439209
-116.003570556641 -66.117462158203 -238.801589965820 4.296576499939
-4.723278045654 -62.735214233398 -242.402389526367 1.575325489044
-4.670359134674 -68.545082092285 -234.006713867188 1.681037545204
-1.859763979912 -63.693553924561 -242.850387573242 1.552361369133
65.993141174316 -66.651832580566 -238.312789916992 1.338171839714
-15.816902160645 -68.840217590332 -237.030746459961 2.848617553711
4.124350070953 -64.342895507813 -238.674362182617 0.332590818405
10.094395637512 -66.157867431641 -243.209976196289 1.049400687218
7.528553009033 -70.917533874512 -241.156280517578 1.409953474998
1.279003024101 -71.385452270508 -243.047485351563 1.106123805046
66.371360778809 -68.524124145508 -240.814514160156 1.636548161507
70.712783813477 -64.446784973145 -242.113388061523 4.940876483917
14.748148918152 -67.889831542969 -243.073226928711 1.197241187096
58.718448638916 -65.422187805176 -241.391159057617 1.488327980042
56.798595428467 -69.209602355957 -240.884765625000 0.670745432377
46.414535522461 -60.174766540527 -246.551559448242 5.281651496887
35.806827545166 -66.922393798828 -253.308181762695 1.434308171272
38.752990722656 -67.093780517578 -255.252502441406 1.578581571579
-134.388534545898 -67.209815979004 -255.618896484375 1.394651651382
-16.256282806396 -70.717094421387 -252.767425537109 1.558761954308
25.714235305786 -67.706703186035 -259.663391113281 1.333532810211
47.569454193115 -65.420715332031 -255.263183593750 1.844581365585
23.787393569946 -60.421001434326 -256.879699707031 1.534539222717
-100.746955871582 -65.447669982910 -262.745880126953 4.232467174530
32.672904968262 -64.308204650879 -256.062652587891 1.372147083282
-150.981445312500 -66.492233276367 -261.664337158203 2.455818414688
-116.636169433594 -62.982784271240 -262.800170898438 2.816966772079
-103.644256591797 -67.790245056152 -256.171020507813 2.644931316376
-7.306352138519 -64.172744750977 -260.801513671875 3.134152173996
-155.485168457031 -73.052162170410 -256.114410400391 0.679830849171
30.518648147583 -62.794502258301 -259.011810302734 1.367987513542
-112.669990539551 -69.363342285156 -255.966110229492 1.237889528275
28.817886352539 -65.510536193848 -259.132995605469 1.609803795815
-132.342636108398 -65.090141296387 -262.185699462891 1.235121011734
-119.325187683105 -67.948333740234 -261.241516113281 2.997712135315
-105.741363525391 -62.439094543457 -262.393096923828 5.418530941010
-116.741035461426 -66.713905334473 -266.431091308594 2.954071283340
-138.492935180664 -68.884864807129 -264.810882568359 3.589473962784
27.236587524414 -63.356811523438 -265.847747802734 2.103451490402
-118.865806579590 -63.449119567871 -267.464538574219 4.626177787781
-143.951629638672 -67.834999084473 -271.346862792969 4.662738323212
-5.311510086060 -67.794090270996 -274.843780517578 2.363572835922
-154.771453857422 -65.840728759766 -280.380493164063 3.691704273224
-10.979582786560 -67.203132629395 -284.209899902344 3.563980340958
-3.255705118179 -69.208045959473 -289.062255859375 2.218669891357
-135.575119018555 -69.760330200195 -289.201629638672 2.440428733826
-121.689048767090 -62.484096527100 -291.340759277344 4.256243705750
-139.226760864258 -62.356441497803 -292.476318359375 5.140855789185
-128.685546875000 -67.661659240723 -296.473480224609 3.158409595490
-150.164352416992 -68.150932312012 -297.327362060547 1.547185897827
-150.359771728516 -71.216743469238 -303.031738281250 4.542799472809
-150.437515258789 -72.476112365723 -307.107086181641 4.924249172211
-150.905975341797 -63.254474639893 -298.299530029297 3.321619749069
-142.525405883789 -67.913749694824 -304.863830566406 4.243928432465
-144.703262329102 -67.580673217773 -306.156768798828 2.166871309280
-151.570602416992 -67.623657226563 -312.198059082031 0.633833944798
24.322397232056 -74.390739440918 -33.200542449951 2.982717275620
49.362033843994 -72.238365173340 -36.519111633301 2.683929443359
27.940881729126 -76.206756591797 -38.897632598877 3.959183692932
32.793533325195 -72.072326660156 -42.663066864014 1.805402040482
-46.430240631104 -68.249237060547 -52.892444610596 4.490020751953
-79.035339355469 -69.529624938965 -51.596317291260 0.879873216152
80.137802124023 -67.830993652344 -65.339302062988 2.260595321655
82.125801086426 -63.850711822510 -62.203689575195 1.521157979965
70.591850280762 -68.782005310059 -68.082626342773 2.148376703262
-97.364181518555 -68.314781188965 -72.676940917969 2.803378820419
100.539703369141 -69.455413818359 -74.502647399902 0.774529397488
-35.995182037354 -63.443145751953 -77.522308349609 2.214742422104
71.016220092773 -69.243759155273 -78.282974243164 3.039321184158
-43.176136016846 -65.735923767090 -81.289939880371 1.416460752487
-50.753124237061 -68.217590332031 -81.791915893555 3.578409671783
52.592964172363 -67.415390014648 -90.997520446777 0.855025351048
102.018829345703 -66.336402893066 -90.085762023926 1.535821080208
65.310226440430 -66.236961364746 -95.366386413574 1.284720659256
56.174179077148 -67.805961608887 -96.387893676758 1.380507707596
48.006401062012 -68.935798645020 -105.530296325684 0.418108671904
61.389591217041 -66.209815979004 -99.610290527344 3.650314331055
105.914245605469 -66.956649780273 -101.357589721680 1.619474530220
71.175544738770 -71.700721740723 -110.195075988770 7.265378952026
51.756031036377 -67.394279479980 -109.122154235840 2.339299917221
77.902603149414 -67.811790466309 -108.335319519043 2.531470775604
91.230743408203 -67.033058166504 -113.432929992676 5.233756542206
-81.053176879883 -70.711822509766 -113.337219238281 1.475326061249
-86.008110046387 -72.059333801270 -110.597442626953 1.838604807854
-86.650177001953 -70.155860900879 -117.742645263672 2.464665651321
-62.363693237305 -68.697669982910 -117.708946228027 3.132984876633
-54.555488586426 -73.710296630859 -123.738166809082 5.285516738892
-93.748725891113 -64.888626098633 -121.929450988770 1.932497143745
-79.439186096191 -69.279411315918 -121.693367004395 1.291635990143
-77.521621704102 -68.924415588379 -127.722320556641 1.084008455276
-60.969646453857 -71.568870544434 -126.712921142578 2.846516847610
-89.115318298340 -61.217975616455 -131.319473266602 2.752199172974
-94.510543823242 -69.153861999512 -132.082000732422 3.826049566269
-51.100654602051 -68.391212463379 -139.478546142578 1.751044392586
-57.639507293701 -64.749404907227 -138.073730468750 1.241736054420
-77.094978332520 -66.697433471680 -139.841979980469 1.557613372803
-57.685230255127 -67.223663330078 -144.851745605469 1.961820006371
-73.948738098145 -69.244804382324 -150.125198364258 1.332712650299
20.720104217529 -65.314750671387 -144.780960083008 2.968817472458
-59.905010223389 -67.126770019531 -147.195739746094 4.143054485321
-49.288635253906 -67.981414794922 -150.088775634766 1.214416027069
15.119899749756 -68.984199523926 -155.066207885742 2.015425205231
13.160967826843 -65.959022521973 -154.284744262695 1.335521101952
-144.060043334961 -65.520072937012 -177.278350830078 2.272163391113
-105.772651672363 -71.112899780273 -182.335296630859 2.085475206375
-109.038215637207 -69.377502441406 -187.125610351563 1.642990231514
-147.489898681641 -69.254531860352 -196.590194702148 2.536341190338
-110.821060180664 -67.740196228027 -186.979034423828 1.757476449013
-153.397247314453 -65.094123840332 -197.753433227539 1.480375647545
-115.366241455078 -63.017513275146 -196.404602050781 2.599507570267
-145.004379272461 -70.307868957520 -199.592971801758 1.686394095421
-150.297805786133 -73.992164611816 -203.063476562500 2.745641231537
-153.648300170898 -73.079711914063 -211.379394531250 3.433695554733
-145.168823242188 -70.244575500488 -221.701324462891 1.184041500092
-154.658737182617 -72.473426818848 -224.189895629883 1.712996006012
-104.677604675293 -67.194969177246 -224.464340209961 1.035040140152
-101.084785461426 -67.380470275879 -228.839279174805 3.542516231537
-122.882843017578 -61.268299102783 -226.295730590820 3.765432357788
-112.028305053711 -63.399951934814 -229.302825927734 2.613230705261
-154.756240844727 -69.390785217285 -234.890304565430 2.155590295792
-4.631773948669 -68.623397827148 -232.456451416016 1.813724756241
-130.019271850586 -65.346389770508 -229.163833618164 2.417464256287
-158.288955688477 -68.500671386719 -237.932388305664 1.461587667465
-136.213470458984 -65.792549133301 -235.468872070313 2.937481880188
-10.793280601501 -67.145156860352 -244.444656372070 1.044769644737
6.075091838837 -68.656745910645 -245.581802368164 4.185457229614
62.455059051514 -59.913864135742 -242.279083251953 6.402238845825
20.159320831299 -66.796905517578 -249.601684570313 2.142518520355
61.617691040039 -63.792919158936 -248.882965087891 4.702854633331
39.353443145752 -62.353786468506 -244.443847656250 7.435326576233
53.480392456055 -64.944305419922 -250.070785522461 1.986284255981
-152.822921752930 -68.861763000488 -252.894805908203 1.101517081261
-153.671768188477 -65.273231506348 -252.128234863281 2.284717798233
41.909793853760 -71.364593505859 -253.263122558594 0.440387010574
29.661037445068 -62.345935821533 -261.788879394531 0.810884177685
48.181182861328 -60.865013122559 -251.054397583008 3.802264213562
-143.376968383789 -69.057777404785 -259.095245361328 3.018018960953
-136.064498901367 -65.673652648926 -255.386260986328 2.079748153687
-125.985847473145 -66.865516662598 -259.855987548828 2.058451414108
-133.022781372070 -60.988307952881 -259.504455566406 3.909490346909
-140.061996459961 -62.064472198486 -260.467498779297 3.052131175995
-123.344535827637 -66.162261962891 -257.422332763672 1.607274293900
-142.836517333984 -66.770469665527 -261.468231201172 1.216867089272
-126.804809570313 -68.350158691406 -261.927795410156 2.651548624039
-125.866935729980 -60.912548065186 -262.051788330078 3.828832626343
-126.820228576660 -71.406135559082 -264.312225341797 0.613669574261
-119.018455505371 -67.570075988770 -260.931060791016 2.860345125198
-3.425276994705 -66.253807067871 -266.376464843750 1.892339706421
29.179401397705 -68.046699523926 -264.452117919922 1.889788866043
-145.942321777344 -70.548004150391 -265.353637695313 1.118976473808
31.050283432007 -60.831703186035 -269.243377685547 4.958775997162
-7.702302932739 -64.452568054199 -270.138427734375 3.414304256439
15.888334274292 -68.830856323242 -285.254943847656 1.808151006699
-142.821762084961 -67.114044189453 -291.498382568359 1.467555999756
-122.978294372559 -64.755500793457 -289.622924804688 2.247783422470
-133.822311401367 -67.527282714844 -284.777038574219 1.397863388062
-158.210693359375 -64.720397949219 -289.758422851563 1.806413054466
-124.160202026367 -66.582176208496 -289.465759277344 1.298344612122
-117.188491821289 -61.785644531250 -289.542053222656 3.650271177292
-127.361892700195 -63.936820983887 -290.468811035156 1.578251719475
-154.660324096680 -67.963516235352 -297.565277099609 2.774631023407
29.771858215332 -72.240699768066 -15.397931098938 1.363416671753
25.664630889893 -75.441589355469 -22.146154403687 3.247359514236
39.329090118408 -74.887634277344 -20.100599288940 4.470589160919
44.907463073730 -66.368850708008 -27.692930221558 2.379070758820
24.543605804443 -72.555030822754 -29.231548309326 0.564867794514
26.517051696777 -72.865890502930 -32.840961456299 0.557599604130
-36.600749969482 -72.992614746094 -45.280624389648 6.051198005676
-79.267929077148 -71.879516601563 -51.826129913330 2.173779726028
-13.202804565430 -69.365676879883 -57.785278320313 3.157086133957
69.929534912109 -67.155303955078 -68.382019042969 1.861282229424
96.013534545898 -67.815185546875 -68.079383850098 2.093937158585
63.518150329590 -66.065055847168 -81.628486633301 1.488530635834
62.564197540283 -61.256393432617 -83.744064331055 1.445845365524
97.401939392090 -62.333084106445 -84.302131652832 7.071741104126
-61.931842803955 -65.768501281738 -87.882728576660 1.768269777298
-63.699478149414 -64.501319885254 -93.563262939453 0.983620762825
49.444507598877 -63.479629516602 -95.384246826172 0.650101184845
-60.849124908447 -65.014694213867 -99.250648498535 5.583303451538
-70.266181945801 -62.646476745605 -101.170036315918 1.942057013512
-101.962860107422 -66.350494384766 -98.988853454590 4.378218650818
-72.124084472656 -66.423637390137 -101.473159790039 1.708207488060
48.976020812988 -67.159652709961 -108.080055236816 1.889059424400
-70.989845275879 -70.042846679688 -105.091407775879 3.387247323990
50.167037963867 -68.111938476563 -100.400360107422 1.903337359428
97.759696960449 -68.801002502441 -102.566665649414 1.808894872665
89.376968383789 -68.427742004395 -109.552368164063 2.687464952469
-74.852287292480 -68.528976440430 -112.977714538574 0.469119548798
-83.069557189941 -69.117027282715 -110.816001892090 2.831051111221
-64.247772216797 -63.457931518555 -119.621414184570 0.571938395500
-94.588768005371 -66.013740539551 -117.160446166992 2.805111885071
-77.515197753906 -72.783752441406 -130.640090942383 1.876743197441
-89.263343811035 -62.051010131836 -129.691421508789 2.834709405899
-65.233345031738 -66.701240539551 -122.997512817383 2.870398044586
-59.777553558350 -68.455909729004 -119.224487304688 2.802852630615
-89.762855529785 -64.347915649414 -133.140167236328 1.427878856659
-61.137077331543 -66.615699768066 -131.021179199219 1.640768527985
-81.315269470215 -65.872695922852 -126.395721435547 1.434519529343
-70.977859497070 -67.055870056152 -133.356384277344 1.762508988380
-69.551757812500 -69.287048339844 -132.781845092773 3.236044168472
-60.210857391357 -64.365600585938 -138.467941284180 0.982826352119
-54.252803802490 -66.607879638672 -139.158020019531 1.877856135368
-91.383094787598 -67.338378906250 -138.804946899414 1.960937738419
-98.100112915039 -66.343696594238 -140.961242675781 3.265846967697
-89.440681457520 -69.790527343750 -141.048690795898 2.256153345108
24.797300338745 -67.497413635254 -150.498229980469 2.132844686508
-51.012187957764 -68.151092529297 -144.896743774414 1.230485796928
14.104600906372 -63.189903259277 -150.499038696289 2.314260959625
-98.312881469727 -63.530387878418 -161.906967163086 1.181250452995
-95.897850036621 -62.588439941406 -171.123901367188 6.332056999207
-96.677749633789 -59.813350677490 -172.928497314453 7.532591819763
-110.768997192383 -69.554794311523 -171.083877563477 3.538733243942
-106.799827575684 -69.239242553711 -184.800521850586 2.518448829651
-108.339698791504 -61.111904144287 -184.285949707031 2.504652976990
-147.403915405273 -66.622962951660 -188.327804565430 2.948343038559
-109.472793579102 -67.075744628906 -188.342605590820 2.862321853638
-134.279632568359 -61.104347229004 -190.343688964844 6.616818428040
-143.526214599609 -71.404937744141 -198.895278930664 2.156655073166
-125.611160278320 -67.742248535156 -199.163009643555 4.085227489471
-157.332641601563 -70.154647827148 -199.701553344727 3.312944173813
-141.381164550781 -64.571884155273 -200.966827392578 0.976841986179
-121.658271789551 -59.901874542236 -199.187316894531 3.506756067276
-135.344207763672 -65.599639892578 -204.114105224609 1.573094010353
-147.566131591797 -63.597045898438 -213.328414916992 2.487174510956
-131.365386962891 -64.269821166992 -223.405319213867 3.003779649734
-112.631645202637 -63.646141052246 -229.292541503906 2.348776102066
-153.259323120117 -68.932044982910 -228.072021484375 2.141872167587
-119.290092468262 -62.245410919189 -233.741561889648 3.092696189880
-106.527351379395 -64.276695251465 -234.773605346680 6.420821189880
-125.042877197266 -68.506790161133 -236.223205566406 2.193539857864
-132.424591064453 -68.483726501465 -236.437973022461 2.500174522400
-119.488716125488 -60.846565246582 -238.766738891602 6.755961894989
1.465394973755 -67.051429748535 -237.644622802734 1.678900241852
-149.566787719727 -66.334495544434 -237.127685546875 1.762695193291
6.601171016693 -68.328582763672 -234.461242675781 0.570551276207
7.681918144226 -61.782436370850 -244.072525024414 0.826021194458
0.767615020275 -67.183212280273 -242.162734985352 2.208958148956
12.558547973633 -64.861434936523 -242.402389526367 0.872761130333
-143.397140502930 -66.617568969727 -238.817535400391 3.147084712982
-4.954609870911 -65.420219421387 -246.237106323242 2.422389507294
17.922462463379 -59.770328521729 -242.756820678711 2.261406660080
47.061435699463 -61.420024871826 -250.699752807617 3.573796749115
50.154518127441 -63.463817596436 -245.255981445313 3.072783708572
-148.619400024414 -67.839241027832 -252.075363159180 2.185667991638
-6.833190917969 -68.788093566895 -256.718963623047 3.232745647430
30.801263809204 -63.498573303223 -257.594085693359 1.817259192467
-133.338058471680 -58.329933166504 -261.283721923828 6.502144813538
-129.409210205078 -63.162586212158 -262.234161376953 2.998537540436
-129.283767700195 -66.679367065430 -260.192810058594 3.368870496750
24.352714538574 -62.818767547607 -263.044036865234 2.301223039627
-139.649841308594 -64.625335693359 -264.066101074219 3.781414985657
30.966512680054 -66.464691162109 -258.361358642578 0.995508074760
29.960424423218 -62.715671539307 -268.184814453125 4.418119907379
-155.161849975586 -63.749526977539 -265.360351562500 1.993940114975
-148.472335815430 -68.510078430176 -290.338745117188 1.276608467102
-155.964752197266 -66.253044128418 -293.179077148438 1.545067667961
-142.964981079102 -65.555221557617 -290.478851318359 1.023752689362
7.022445201874 -65.059028625488 -297.160675048828 4.924960613251
-155.205383300781 -66.546401977539 -297.598388671875 3.694833040237
45.210853576660 -73.534461975098 -28.433372497559 2.373183488846
36.859619140625 -73.836334228516 -41.818035125732 2.051872968674
-67.168319702148 -68.858894348145 -49.743972778320 2.125523328781
-77.685691833496 -66.213706970215 -48.138622283936 2.236470937729
-28.278173446655 -69.133239746094 -53.031112670898 1.240795493126
-23.444108963013 -68.803443908691 -63.109310150146 4.716246604919
-13.524183273315 -69.355316162109 -69.427558898926 2.281832456589
-29.505765914917 -63.776775360107 -73.784484863281 2.590123414993
67.421630859375 -68.115142822266 -74.227729797363 1.372981071472
-97.935279846191 -66.977005004883 -84.001159667969 1.148323535919
-50.830879211426 -66.696243286133 -85.013442993164 1.282524466515
53.412532806396 -63.933135986328 -85.007881164551 2.206358671188
57.228504180908 -67.451026916504 -89.768463134766 2.433893442154
71.125007629395 -65.871086120605 -86.759147644043 5.356695175171
103.159347534180 -66.310317993164 -96.483886718750 1.022992253304
55.121982574463 -65.955734252930 -92.390014648438 2.906797885895
97.285713195801 -66.168434143066 -103.694236755371 0.728281021118
-79.475440979004 -68.683601379395 -105.901779174805 2.716839551926
-98.726936340332 -68.802474975586 -106.021202087402 3.142091035843
77.042419433594 -66.445274353027 -112.210754394531 3.963439226151
-77.548507690430 -66.556854248047 -102.564941406250 1.440709471703
-82.111724853516 -67.923057556152 -119.447540283203 2.878392934799
-84.632614135742 -64.838516235352 -122.129196166992 2.223361968994
-54.724216461182 -68.006179809570 -126.620506286621 1.136842846870
-81.053726196289 -63.196762084961 -126.006217956543 1.219152808189
-62.164257049561 -69.608573913574 -131.486190795898 1.270291209221
-79.561325073242 -71.095291137695 -137.561904907227 1.755038022995
-74.285156250000 -61.556613922119 -133.833999633789 3.536048650742
-82.893554687500 -64.955093383789 -127.742218017578 1.307491064072
-88.095405578613 -65.736770629883 -128.302764892578 2.314712285995
-61.179874420166 -67.795478820801 -132.234252929688 1.394618034363
-90.179847717285 -68.331283569336 -134.424194335938 1.185679316521
-53.448040008545 -68.799819946289 -133.122940063477 2.220105886459
-52.969585418701 -67.231933593750 -143.981979370117 1.844669103622
25.371957778931 -66.398094177246 -140.860580444336 1.420838117599
-60.552783966064 -61.435829162598 -135.557327270508 0.984745144844
10.577717781067 -67.211692810059 -148.590270996094 3.004419088364
19.034511566162 -62.495319366455 -148.398956298828 1.330122828484
17.409673690796 -65.827789306641 -153.470840454102 1.531038165092
-97.959220886230 -69.762367248535 -146.644668579102 3.397844076157
-96.244033813477 -65.979850769043 -158.232421875000 1.009895563126
-100.500129699707 -60.272201538086 -155.235382080078 2.729512691498
-95.070930480957 -66.687034606934 -157.441665649414 1.986972451210
-92.699279785156 -62.646156311035 -161.733215332031 5.383860111237
-152.499862670898 -71.774269104004 -179.031158447266 2.400832891464
-154.079299926758 -68.911506652832 -178.589645385742 1.490445256233
-105.629196166992 -68.349929809570 -188.891204833984 1.516326308250
-143.577590942383 -61.420787811279 -179.631973266602 2.536051034927
-112.204513549805 -68.115165710449 -180.320663452148 1.538729906082
-150.035491943359 -66.263710021973 -190.087203979492 2.257033348083
-115.183349609375 -66.826362609863 -192.704986572266 1.614449381828
-104.601295471191 -66.315933227539 -188.256256103516 2.201743841171
-146.399627685547 -67.180572509766 -196.865753173828 1.388077735901
-135.053649902344 -65.806999206543 -201.952987670898 1.638543725014
-107.498588562012 -64.793388366699 -201.269378662109 3.499478816986
-115.801307678223 -66.752220153809 -203.146209716797 1.107704520226
-116.457931518555 -63.357841491699 -204.554656982422 0.744070649147
-112.983062744141 -63.438442230225 -206.737304687500 4.366795063019
-134.122314453125 -64.921073913574 -200.779251098633 1.043358087540
-136.569351196289 -65.912826538086 -199.704376220703 3.302345991135
-132.021667480469 -68.649841308594 -201.233169555664 2.885055780411
-123.778907775879 -62.543552398682 -204.664855957031 1.567389130592
-122.081840515137 -61.653202056885 -211.068206787109 7.242719173431
-117.546722412109 -62.180027008057 -207.800918579102 4.255356788635
-147.276168823242 -66.157302856445 -220.484237670898 2.340594768524
-152.346710205078 -64.804809570313 -229.430084228516 2.817864418030
-158.360687255859 -62.606643676758 -224.460144042969 4.439426898956
-141.258239746094 -66.768402099609 -225.831985473633 1.439993262291
-138.691238403320 -64.142066955566 -230.980773925781 2.809428691864
-126.102607727051 -66.183822631836 -224.591323852539 0.394741505384
-142.715713500977 -61.421466827393 -235.057113647461 1.818456530571
-148.173400878906 -67.335678100586 -232.950973510742 2.035843849182
-142.913085937500 -64.119697570801 -227.107315063477 1.712986588478
-131.572967529297 -61.672489166260 -229.679779052734 2.695376396179
-150.357955932617 -64.520088195801 -233.938598632813 1.996757745743
-137.366561889648 -64.915962219238 -235.938888549805 4.433921337128
-126.070320129395 -61.415828704834 -233.269439697266 2.601477384567
-7.306427955627 -65.840087890625 -239.561889648438 1.776288628578
2.570075988770 -64.088424682617 -237.912597656250 1.674124956131
8.282920837402 -62.753566741943 -244.214126586914 1.456819891930
