13.300806045532 -77.824096679688 -295.544403076172 2.281022310257
-128.720352172852 -76.703163146973 -283.938659667969 3.350838661194
-59.303852081299 -80.971923828125 -285.529022216797 5.335511684418
-43.063796997070 -76.380981445313 -294.001861572266 3.188861131668
-39.030872344971 -78.891899108887 -290.746215820313 1.694062113762
-13.113682746887 -78.780868530273 -290.159729003906 1.351606845856
4.026484966278 -76.478950500488 -289.429840087891 1.042863607407
-142.519546508789 -79.722282409668 -287.380096435547 1.204711437225
3.726016998291 -80.435768127441 -296.449249267578 6.089202404022
-159.799057006836 -80.764633178711 -300.049102783203 7.411403656006
-152.558456420898 -76.610755920410 -295.747650146484 1.928017973900
-155.746017456055 -75.663421630859 -306.302124023438 1.655735254288
-151.506881713867 -77.029708862305 -306.621520996094 1.358567237854
-44.283782958984 -77.832550048828 -51.165370941162 4.196900844574
-43.079784393311 -78.901382446289 -56.521038055420 2.884315729141
-61.355442047119 -78.588630676270 -53.793014526367 3.864750862122
-36.346561431885 -79.643363952637 -57.648715972900 3.995325326920
-32.778739929199 -74.543487548828 -59.115600585938 0.793350338936
-15.963337898254 -75.141914367676 -60.850597381592 5.123045444489
-74.087966918945 -79.609359741211 -64.398437500000 1.794016599655
89.114555358887 -78.144607543945 -86.744865417480 0.876809239388
-84.076309204102 -79.925460815430 -80.440162658691 3.367400169373
92.574195861816 -82.711143493652 -87.233055114746 5.829083442688
93.854812622070 -80.468856811523 -89.094841003418 4.212328910828
101.434547424316 -78.879241943359 -89.847320556641 6.144232749939
-53.315334320068 -84.300811767578 -92.256118774414 1.061659574509
92.801681518555 -82.713569641113 -99.338455200195 7.730629920959
87.552795410156 -77.605163574219 -98.801895141602 2.782236576080
100.386459350586 -82.209709167480 -98.751258850098 9.400269508362
-54.185199737549 -82.036552429199 -96.586723327637 4.112709999084
62.670406341553 -77.959167480469 -101.883216857910 7.673180103302
52.014625549316 -79.968544006348 -108.954772949219 3.191288471222
44.172805786133 -79.963500976563 -111.868843078613 1.663700461388
43.295608520508 -78.638290405273 -113.534790039063 1.586647391319
-87.273735046387 -77.142303466797 -111.654930114746 2.070154190063
40.289375305176 -81.424057006836 -122.026176452637 3.158330917358
-77.500213623047 -78.660545349121 -111.111511230469 5.606289386749
46.592418670654 -79.600364685059 -130.975997924805 6.319077491760
37.422702789307 -79.261550903320 -125.289901733398 1.512929677963
37.487358093262 -82.436576843262 -127.415008544922 2.228348731995
47.293914794922 -77.127525329590 -126.320182800293 4.199350357056
45.232551574707 -83.066833496094 -130.984451293945 7.372950553894
-51.807884216309 -71.440559387207 -140.301528930664 3.412591457367
41.395477294922 -81.568107604980 -137.294265747070 5.608614444733
40.849407196045 -79.580932617188 -144.576828002930 5.732908248901
-43.606636047363 -73.347717285156 -139.337463378906 2.568045616150
-44.446739196777 -82.120018005371 -140.790267944336 5.893371582031
38.463550567627 -79.435180664063 -147.218170166016 4.875681400299
112.581420898438 -77.496726989746 -148.808425903320 2.102454900742
114.196830749512 -78.115859985352 -151.507095336914 2.521017074585
31.548007965088 -81.692901611328 -148.094467163086 2.457232952118
-38.749267578125 -77.809700012207 -146.610916137695 3.679158926010
116.142745971680 -82.566368103027 -167.298889160156 6.857352256775
-39.831027984619 -77.499488830566 -156.312881469727 2.025147914886
-59.742431640625 -80.824546813965 -160.831924438477 3.904474973679
114.103309631348 -79.672660827637 -170.055969238281 3.966447830200
28.526102066040 -80.973945617676 -171.214904785156 2.833300352097
2.436786890030 -79.106849670410 -167.803375244141 3.279819726944
116.060111999512 -81.415771484375 -160.373611450195 5.385828018188
-58.997013092041 -80.490089416504 -159.686874389648 4.399343490601
-32.079971313477 -83.494621276855 -162.050354003906 5.067867755890
113.363906860352 -77.806510925293 -171.985260009766 2.051683902740
29.050781250000 -74.369468688965 -161.751525878906 2.035192012787
-63.816905975342 -78.431488037109 -168.561386108398 1.315949440002
109.863708496094 -76.386337280273 -179.394485473633 2.558744668961
-61.606899261475 -80.541694641113 -168.376159667969 1.486025094986
-50.620708465576 -81.358886718750 -177.689285278320 3.110682487488
107.751792907715 -78.302337646484 -185.575775146484 3.310923099518
-60.709678649902 -78.283439636230 -168.044937133789 1.379612207413
115.578140258789 -78.036857604980 -180.841537475586 5.721348762512
-55.719131469727 -81.266136169434 -171.330352783203 2.068823575974
-11.233805656433 -78.099227905273 -177.037948608398 1.363364577293
-7.905589103699 -79.119697570801 -180.648696899414 4.530803203583
108.366851806641 -79.702758789063 -177.914642333984 2.837357044220
24.694835662842 -78.161682128906 -170.815948486328 0.774241507053
32.026313781738 -80.555953979492 -171.530395507813 5.054664611816
-52.357978820801 -81.827507019043 -177.274887084961 2.890913248062
19.710168838501 -77.991119384766 -188.437377929688 1.154910683632
-54.599090576172 -80.050003051758 -179.632156372070 1.805994272232
-50.359779357910 -74.861801147461 -191.675582885742 0.650811791420
15.017280578613 -79.292877197266 -182.807327270508 3.012282848358
-59.677127838135 -76.073310852051 -184.134155273438 3.303305387497
112.617713928223 -75.218376159668 -192.736846923828 5.576705455780
23.045967102051 -79.659828186035 -182.771636962891 1.579553008080
-30.017919540405 -79.553489685059 -188.162170410156 1.068970441818
-43.630828857422 -74.830932617188 -194.937286376953 2.396402835846
11.881232261658 -77.096366882324 -199.157211303711 1.014580130577
-24.411579132080 -79.197875976563 -187.835830688477 1.549939751625
-51.865009307861 -78.494033813477 -195.572891235352 3.556242704391
101.937255859375 -81.856155395508 -194.766159057617 4.273317813873
15.584373474121 -75.896301269531 -193.383514404297 2.002294063568
-134.025665283203 -78.655944824219 -189.975418090820 7.567670822144
-40.419986724854 -76.544853210449 -190.912399291992 2.181556463242
104.120254516602 -81.132667541504 -203.329864501953 5.753073692322
-147.417098999023 -77.996505737305 -195.881912231445 2.168298959732
19.390993118286 -77.990180969238 -195.849792480469 1.578135013580
-44.613651275635 -86.043548583984 -203.890274047852 3.316228866577
-32.473777770996 -79.451110839844 -204.769302368164 1.812551140785
-39.390769958496 -74.509117126465 -204.975708007813 0.605937182903
-41.153835296631 -78.844810485840 -192.085083007813 0.733154892921
103.019805908203 -81.734901428223 -207.348999023438 7.069324016571
-17.020507812500 -77.104461669922 -202.981002807617 1.196680903435
-150.494338989258 -73.717857360840 -195.126007080078 3.315526485443
12.890703201294 -76.443008422852 -211.445312500000 2.632353067398
-70.747207641602 -80.325027465820 -201.604904174805 5.403855323792
-143.951141357422 -76.188056945801 -205.516632080078 1.280712604523
97.868835449219 -76.908477783203 -215.834487915039 4.589004993439
-34.066600799561 -78.375747680664 -206.789184570313 0.955695569515
-25.074878692627 -76.967605590820 -217.390716552734 1.162037253380
6.715791225433 -79.711959838867 -213.174407958984 1.741239309311
-71.358055114746 -76.736732482910 -210.706085205078 2.092784881592
-26.199743270874 -77.064102172852 -209.032928466797 2.416714668274
-7.710072994232 -81.924392700195 -219.182159423828 2.394335031509
-79.688507080078 -81.369003295898 -215.235702514648 1.806272625923
-13.153854370117 -81.687217712402 -220.596694946289 3.784117937088
9.982747077942 -77.398223876953 -218.088684082031 1.664055943489
17.746248245239 -85.458801269531 -224.364822387695 6.278181552887
-145.595123291016 -77.643333435059 -212.399353027344 0.829253017902
-3.674511909485 -75.402938842773 -217.947128295898 0.615188658237
-91.386741638184 -73.961776733398 -219.736724853516 1.391333937645
-22.563629150391 -73.776412963867 -219.343307495117 1.292439103127
94.902694702148 -79.839294433594 -218.847869873047 6.269705772400
6.245485782623 -80.230247497559 -231.402481079102 2.267636299133
15.219999313354 -82.451179504395 -217.920455932617 2.567316055298
79.097854614258 -71.530632019043 -227.832778930664 1.685748696327
2.772043943405 -76.920127868652 -228.319244384766 1.032272815704
85.725814819336 -76.353668212891 -227.600143432617 2.640855312347
-16.105401992798 -77.099090576172 -224.406661987305 1.934780001640
12.926613807678 -80.406326293945 -226.088043212891 1.519251108170
-149.186523437500 -79.342460632324 -219.741439819336 3.213961124420
-18.398359298706 -86.010604858398 -228.179748535156 8.985539436340
1.328513026237 -82.777816772461 -228.875640869141 3.885914087296
-151.380172729492 -80.139434814453 -222.863128662109 2.344699621201
-133.765228271484 -78.039909362793 -221.997558593750 5.691565513611
10.909859657288 -76.650596618652 -230.081436157227 2.599788665771
-6.829852104187 -77.471549987793 -242.654083251953 4.017081260681
-138.339599609375 -78.128410339355 -226.798034667969 1.201865434647
-149.031433105469 -81.488037109375 -229.396392822266 1.664205431938
-145.522109985352 -74.724189758301 -233.247680664063 2.377454519272
-26.039869308472 -78.512428283691 -235.336914062500 3.043447971344
-145.333679199219 -75.693290710449 -239.558731079102 2.375476360321
18.148523330688 -77.122642517090 -242.736206054688 3.348851680756
6.006124019623 -78.935089111328 -246.745925903320 1.722182393074
-153.181472778320 -74.623985290527 -230.666046142578 2.568234443665
-153.130828857422 -77.125770568848 -236.752914428711 3.224946498871
-46.300567626953 -78.144439697266 -239.376770019531 3.263257741928
-34.255302429199 -81.879348754883 -245.371215820313 2.637714624405
5.154015064240 -80.404251098633 -252.030593872070 3.161949872971
-36.344036102295 -75.767349243164 -247.466125488281 2.991197347641
22.820241928101 -80.301109313965 -254.662399291992 4.327699184418
-3.324250936508 -79.353805541992 -246.948638916016 2.460503578186
-155.718856811523 -75.256446838379 -246.697448730469 2.939444541931
-6.429062843323 -71.185005187988 -249.172683715820 3.083350658417
-142.251419067383 -79.304435729980 -247.330886840820 3.371998786926
-67.649017333984 -78.549392700195 -249.377395629883 1.454035162926
-155.554687500000 -84.128555297852 -252.233062744141 4.633874416351
-128.020065307617 -80.475982666016 -258.185241699219 4.620369911194
-151.778381347656 -73.335716247559 -254.113357543945 1.430832386017
-14.243789672852 -75.882278442383 -268.550933837891 2.173655986786
-147.121276855469 -79.440139770508 -258.863372802734 1.886421680450
-151.029495239258 -77.540809631348 -257.885528564453 2.631645202637
-12.986352920532 -80.312797546387 -269.408294677734 3.210591793060
-150.720870971680 -78.455619812012 -261.871765136719 2.898264884949
-8.085910797119 -81.181167602539 -285.413757324219 4.954912662506
-46.937091827393 -79.784820556641 -280.302154541016 7.677162647247
-141.596145629883 -79.438003540039 -279.988647460938 5.017713546753
-135.997848510742 -74.038200378418 -276.005157470703 8.741000175476
-128.542907714844 -76.638061523438 -278.898986816406 6.675234794617
-57.889617919922 -76.288238525391 -278.511688232422 7.586548328400
-117.341110229492 -76.582611083984 -286.368225097656 2.150403022766
11.967199325562 -84.146133422852 -292.420715332031 6.257562637329
-65.786834716797 -77.073196411133 -285.033752441406 2.907053232193
-144.458740234375 -74.251869201660 -281.574920654297 1.719287633896
-65.762031555176 -73.782669067383 -285.340972900391 0.863815069199
-146.918609619141 -83.124114990234 -284.954132080078 1.659418344498
-122.448493957520 -75.868362426758 -280.524108886719 5.185133934021
-50.632469177246 -76.703643798828 -291.244079589844 2.521820545197
-43.643016815186 -77.961105346680 -290.530395507813 2.153707027435
-137.791671752930 -77.178749084473 -285.139312744141 2.801023483276
-15.522192001343 -72.963348388672 -294.135070800781 2.354402065277
-5.155712127686 -81.391555786133 -294.180236816406 5.705749034882
4.686001777649 -77.784309387207 -293.466003417969 2.304832220078
9.489102363586 -77.397407531738 -296.233978271484 3.904473781586
-151.678054809570 -81.889694213867 -289.872497558594 1.081021666527
-149.148742675781 -75.164543151855 -292.708312988281 2.503937482834
-61.892261505127 -75.285530090332 -61.555625915527 3.911427021027
95.240455627441 -79.301193237305 -84.943328857422 3.827456712723
87.765243530273 -79.985687255859 -82.529411315918 2.874522924423
-18.888414382935 -82.975646972656 -75.196014404297 7.842786312103
93.751312255859 -77.623992919922 -80.311439514160 2.479160070419
-31.252138137817 -75.726394653320 -81.298179626465 2.958803653717
98.314743041992 -83.490989685059 -84.689521789551 9.006064414978
97.275466918945 -83.149070739746 -86.842536926270 8.029674530029
-63.316333770752 -74.474586486816 -92.042198181152 1.837817668915
86.170356750488 -78.710700988770 -96.511451721191 2.449089527130
87.034080505371 -76.079467773438 -104.093780517578 3.933925867081
99.662666320801 -77.836738586426 -96.686134338379 5.430210113525
60.912624359131 -79.018157958984 -96.786537170410 6.094048023224
-72.536209106445 -83.204666137695 -99.282989501953 1.849395990372
-76.767555236816 -73.567703247070 -97.184883117676 2.253530263901
56.344970703125 -78.008300781250 -114.529693603516 7.363919258118
-86.011138916016 -81.285476684570 -106.807304382324 0.801419496536
49.722217559814 -78.591041564941 -119.715698242188 4.468187808990
117.087638854980 -77.870033264160 -123.271812438965 4.753301620483
112.938545227051 -75.790199279785 -139.133117675781 1.631658554077
29.700044631958 -73.983306884766 -141.329452514648 2.868899583817
118.057830810547 -83.787818908691 -138.248291015625 8.637903213501
32.894172668457 -76.141777038574 -137.424789428711 3.364404439926
115.056060791016 -80.228996276855 -139.936004638672 3.919052124023
37.242519378662 -82.608276367188 -141.788177490234 4.864650249481
-48.596744537354 -81.058250427246 -150.304046630859 2.014813899994
39.593856811523 -78.358123779297 -144.543960571289 4.271116733551
116.687118530273 -77.197265625000 -144.963226318359 1.877925395966
-46.481937408447 -78.625801086426 -148.955673217773 2.108976125717
33.196861267090 -82.739547729492 -149.582733154297 3.596488237381
-50.414463043213 -78.059135437012 -133.786575317383 4.218700408936
-51.949043273926 -84.119453430176 -147.536834716797 6.262727260590
-48.890762329102 -74.112358093262 -150.447280883789 3.130237340927
-63.058403015137 -80.298416137695 -154.283630371094 3.958457946777
115.708915710449 -77.282669067383 -155.754226684570 2.108749628067
-47.420612335205 -76.606460571289 -151.355621337891 1.945823907852
22.501070022583 -80.585632324219 -162.413909912109 1.871123552322
112.602119445801 -83.301048278809 -165.074752807617 6.665449619293
-64.539680480957 -80.907638549805 -154.111785888672 4.260619163513
-45.312061309814 -76.279052734375 -156.644790649414 1.771601319313
10.295147895813 -76.946739196777 -159.933349609375 2.469735860825
-60.147785186768 -73.947555541992 -156.184906005859 3.547747373581
-56.091178894043 -78.904563903809 -161.506286621094 4.708241462708
2.074464082718 -86.162040710449 -163.019012451172 8.006406784058
-42.326755523682 -81.081710815430 -171.497161865234 3.605848312378
29.835968017578 -75.176452636719 -168.070297241211 2.741961956024
-63.806125640869 -77.230346679688 -161.308334350586 1.680760383606
-47.406696319580 -72.841766357422 -167.875762939453 3.248719453812
25.772758483887 -77.462738037109 -165.799697875977 1.950719594955
-28.051179885864 -83.093788146973 -175.866836547852 3.915058135986
-30.019264221191 -72.343841552734 -168.042770385742 0.769649684429
16.611579895020 -75.494552612305 -179.009719848633 2.406168937683
-36.121433258057 -82.322662353516 -176.364425659180 3.313971519470
-5.292243003845 -77.153846740723 -176.272949218750 3.044227123260
-61.470119476318 -76.946304321289 -169.353790283203 1.617314219475
-3.455792903900 -78.621788024902 -172.574447631836 1.187648534775
-21.065950393677 -83.399894714355 -178.917266845703 1.380503773689
20.781915664673 -80.398696899414 -185.940582275391 2.043863773346
-34.163112640381 -76.342933654785 -176.517776489258 2.993769884109
19.463903427124 -78.964767456055 -181.455841064453 1.839086055756
-15.726882934570 -77.973579406738 -187.126754760742 3.259046316147
-31.072053909302 -78.140266418457 -180.703094482422 1.100288629532
-143.701660156250 -70.122062683105 -181.198486328125 2.393606901169
-23.083858489990 -77.656532287598 -186.763427734375 0.263304501772
-144.193161010742 -74.508270263672 -187.124938964844 0.767305731773
-150.616271972656 -77.047927856445 -182.451889038086 4.089303016663
-44.235881805420 -80.993156433105 -188.544342041016 3.283126831055
103.290023803711 -81.462066650391 -200.928741455078 4.840724468231
-144.161712646484 -75.383422851563 -186.251190185547 1.498844981194
-150.395309448242 -77.534065246582 -192.150772094727 1.663890361786
21.172060012817 -78.237251281738 -199.021499633789 2.550053596497
-133.439910888672 -73.157752990723 -189.700469970703 6.252339839935
23.731512069702 -71.946502685547 -200.586624145508 3.076015710831
-138.999542236328 -72.773544311523 -197.049179077148 1.812186717987
11.790303230286 -78.443275451660 -198.024719238281 1.022136211395
-136.223556518555 -74.821182250977 -197.057235717773 1.275027751923
8.324402809143 -75.717147827148 -207.950622558594 1.252188086510
-148.258132934570 -75.860839843750 -195.331665039063 2.595543384552
92.003791809082 -74.335868835449 -210.478088378906 0.800727963448
-13.237266540527 -75.262847900391 -208.167144775391 3.003580093384
-25.753578186035 -75.531349182129 -206.639724731445 3.840229988098
-9.263773918152 -82.368453979492 -204.453369140625 5.407024860382
-148.906387329102 -79.662841796875 -203.860092163086 0.898449420929
-40.251079559326 -80.103050231934 -207.197174072266 2.267739772797
-82.478164672852 -75.558578491211 -207.322814941406 3.790234565735
-29.733215332031 -78.164283752441 -213.284652709961 1.228021025658
18.516504287720 -72.561416625977 -211.596710205078 0.820579767227
-145.331909179688 -77.476158142090 -201.904861450195 2.720597743988
-86.326545715332 -76.272026062012 -210.855636596680 1.882797002792
-24.533136367798 -77.237541198730 -215.636337280273 1.590516805649
-25.487760543823 -72.680572509766 -221.756912231445 2.863573551178
-14.756106376648 -74.981719970703 -218.493377685547 0.931042611599
-24.700242996216 -76.454216003418 -216.360610961914 1.411751151085
-79.167594909668 -77.874595642090 -217.336257934570 2.451045036316
-83.840332031250 -78.414123535156 -220.609375000000 4.490459442139
-21.802278518677 -78.530052185059 -224.223251342773 2.741314411163
-5.895289897919 -75.591300964355 -223.595123291016 1.744521617889
-147.174865722656 -73.144523620605 -210.369323730469 1.796562671661
-2.127435922623 -74.346939086914 -219.555725097656 1.294494986534
82.233200073242 -75.754104614258 -231.581237792969 3.595914125443
-144.461380004883 -80.640785217285 -223.059204101563 2.250668287277
-6.168279170990 -75.904777526855 -225.064331054688 1.144648194313
-143.854034423828 -76.669395446777 -225.571258544922 1.984680294991
-150.206909179688 -84.177413940430 -219.803100585938 2.294630050659
-6.454555988312 -76.830970764160 -230.562667846680 1.164039134979
21.456127166748 -77.731346130371 -224.228378295898 3.708703994751
-140.968444824219 -76.136947631836 -222.662979125977 2.868326187134
-14.782421112061 -76.773017883301 -233.130538940430 3.836033344269
75.678024291992 -78.655616760254 -233.120071411133 3.274430990219
80.870368957520 -78.767379760742 -242.346740722656 11.057857513428
8.137868881226 -74.325111389160 -233.931304931641 1.306690335274
-26.002479553223 -74.716522216797 -243.818435668945 1.200674414635
-21.205675125122 -77.268409729004 -234.749099731445 3.882189512253
7.271331787109 -76.235740661621 -246.624877929688 2.330850362778
-47.677623748779 -72.595947265625 -242.293670654297 1.688637495041
-27.591466903687 -78.327629089355 -248.847061157227 6.133746623993
7.071938991547 -78.341461181641 -246.998565673828 1.516158103943
-65.919570922852 -76.695793151855 -248.910156250000 1.603164315224
-31.625951766968 -74.233146667480 -249.210113525391 5.800646781921
-44.672744750977 -75.644271850586 -243.235061645508 1.910794377327
-151.446578979492 -74.899780273438 -237.546890258789 2.898063182831
-50.964962005615 -78.065399169922 -248.785629272461 1.840782642365
-55.524375915527 -76.716880798340 -245.519882202148 2.164854049683
-66.112258911133 -82.528839111328 -249.172851562500 5.343499183655
-7.432806968689 -73.476036071777 -251.425521850586 3.212957859039
-85.603363037109 -73.446472167969 -250.483123779297 0.752426087856
-150.028823852539 -81.774276733398 -252.903350830078 1.594526529312
-139.571075439453 -84.180778503418 -253.874542236328 3.836258172989
-126.775512695313 -71.704200744629 -257.495910644531 3.079104900360
-155.897277832031 -73.419677734375 -255.968673706055 0.801247119904
17.555587768555 -75.856552124023 -263.910858154297 3.751466035843
-12.379366874695 -76.370567321777 -270.406341552734 2.388415098190
-154.172988891602 -76.456893920898 -259.766326904297 3.195295095444
-154.143051147461 -75.033424377441 -268.638641357422 2.737575769424
-144.353561401367 -78.534515380859 -275.223876953125 3.001178026199
-59.433261871338 -79.962501525879 -284.165100097656 5.081620216370
-39.027828216553 -75.002914428711 -287.975067138672 2.042791128159
-27.605892181396 -76.237258911133 -293.655731201172 2.178075075150
-16.834922790527 -76.648124694824 -288.178497314453 1.343279123306
-69.601387023926 -76.194465637207 -283.111755371094 3.934542417526
-79.837989807129 -74.674537658691 -284.069763183594 2.589144945145
-8.882008552551 -79.136169433594 -290.742492675781 2.522152662277
8.233686447144 -78.751762390137 -293.488128662109 2.780268192291
-136.621246337891 -78.532409667969 -284.481475830078 2.987177371979
-80.035789489746 -73.423370361328 -287.193420410156 0.913178086281
-150.693054199219 -75.821029663086 -286.527648925781 1.472534537315
-96.093940734863 -74.408378601074 -286.769256591797 2.609779119492
-71.955520629883 -73.427703857422 -288.269470214844 2.412665843964
-87.019546508789 -78.467712402344 -287.750152587891 3.006266832352
-67.089683532715 -79.198783874512 -288.388549804688 2.769532680511
-24.460847854614 -76.450706481934 -295.580383300781 4.708414077759
-5.189929962158 -74.838218688965 -292.748718261719 2.630597829819
-158.679077148438 -76.775016784668 -288.461181640625 3.041932582855
-148.301254272461 -77.846038818359 -291.792877197266 3.011481523514
-148.275268554688 -75.545845031738 -297.463378906250 2.314851522446
-157.920486450195 -74.933319091797 -302.210845947266 3.198392629623
-50.834789276123 -76.203063964844 -55.325016021729 1.713808298111
-39.161079406738 -74.468261718750 -52.988132476807 1.662930965424
-34.542919158936 -74.089454650879 -53.751701354980 2.589282512665
-68.148063659668 -82.086997985840 -56.911949157715 5.612188339233
-22.761634826660 -77.193450927734 -59.350425720215 4.743394374847
-21.081878662109 -77.060127258301 -79.029449462891 4.634706497192
81.923866271973 -83.495155334473 -92.161346435547 6.186945915222
87.338417053223 -79.895385742188 -92.669891357422 2.848532199860
86.336517333984 -76.673393249512 -92.792884826660 1.123746991158
103.278144836426 -82.346496582031 -97.916259765625 9.050984382629
79.442520141602 -79.124214172363 -97.806365966797 3.489619255066
63.373558044434 -79.552398681641 -99.160392761230 8.050650596619
50.729633331299 -78.066810607910 -106.194541931152 1.061450481415
-59.415504455566 -80.806381225586 -101.730140686035 5.790186405182
-66.992813110352 -74.691986083984 -97.170471191406 1.873017787933
50.272933959961 -75.360076904297 -107.302307128906 1.259178638458
-78.172645568848 -78.449256896973 -106.273605346680 2.798946142197
-86.151580810547 -72.307205200195 -108.541946411133 1.965435504913
54.940196990967 -75.414978027344 -107.439018249512 3.788546323776
110.375564575195 -76.201835632324 -120.651130676270 2.286701679230
39.017070770264 -79.032844543457 -125.293327331543 0.705637991428
50.263713836670 -81.855354309082 -120.900856018066 6.533062934875
48.828231811523 -79.412666320801 -127.443199157715 6.448484897614
33.683696746826 -77.967430114746 -130.249298095703 1.522084712982
114.919059753418 -77.048088073730 -124.561607360840 2.970506906509
37.697483062744 -80.537864685059 -128.867004394531 2.840487241745
35.992359161377 -76.674621582031 -133.507675170898 2.286688566208
-37.767837524414 -73.072639465332 -142.297821044922 5.532186031342
-65.653617858887 -78.180709838867 -146.927642822266 4.039192199707
-48.477069854736 -75.443893432617 -149.457916259766 1.832681179047
-66.829635620117 -76.135429382324 -140.132522583008 4.758047103882
-37.436725616455 -77.980430603027 -149.147994995117 3.747026681900
113.288360595703 -75.337089538574 -158.817031860352 1.561756253242
-67.821075439453 -76.547348022461 -151.138305664063 2.045879125595
25.632816314697 -83.625228881836 -155.507354736328 3.624785900116
36.292778015137 -72.638511657715 -154.580734252930 3.268212080002
117.984405517578 -75.031669616699 -161.509490966797 2.513175487518
11.088811874390 -73.644493103027 -158.700149536133 1.311231255531
36.999168395996 -75.067565917969 -160.653244018555 5.236309051514
-55.071033477783 -77.032951354980 -159.055572509766 5.966933250427
-44.612007141113 -80.384384155273 -170.608245849609 4.562505722046
22.078010559082 -77.045608520508 -167.659088134766 1.966163516045
-64.484046936035 -74.405189514160 -166.120132446289 1.772749781609
-61.027606964111 -72.240936279297 -158.420898437500 3.237159967422
114.120628356934 -81.025222778320 -172.829177856445 5.115062713623
-8.627797126770 -71.666526794434 -169.251037597656 3.719748497009
-53.747745513916 -80.127700805664 -175.817520141602 1.508188843727
-28.163097381592 -74.803596496582 -174.124206542969 0.533490240574
-52.223556518555 -76.064056396484 -171.461227416992 3.061227321625
33.419128417969 -83.019638061523 -173.027984619141 7.703240394592
113.154800415039 -71.247627258301 -175.266296386719 1.510057687759
111.138496398926 -81.711036682129 -188.655441284180 6.381814479828
116.333908081055 -80.541732788086 -199.538970947266 12.893878936768
110.351303100586 -78.942131042480 -181.008834838867 2.284639120102
-57.026428222656 -77.688034057617 -190.302322387695 4.781709194183
-50.334796905518 -75.017761230469 -180.419448852539 1.614572644234
25.351305007935 -77.571578979492 -187.432342529297 2.419300079346
-50.028556823730 -69.711105346680 -185.148071289063 4.506189346313
-20.937957763672 -74.007141113281 -187.714965820313 1.662595152855
-48.651473999023 -74.107704162598 -191.072769165039 2.242650508881
-142.633117675781 -77.953643798828 -191.510543823242 2.782271385193
101.438552856445 -74.735145568848 -199.032760620117 2.104211091995
-44.120189666748 -76.131843566895 -190.287109375000 1.258474946022
-12.619413375854 -78.826438903809 -196.455688476563 3.505845069885
-136.237274169922 -76.116683959961 -197.401809692383 0.844226837158
-42.810997009277 -78.732040405273 -194.894378662109 0.990855336189
107.690361022949 -84.954963684082 -200.964309692383 10.168589591980
109.914756774902 -78.769897460938 -196.687606811523 5.923489570618
-46.022510528564 -79.061988830566 -197.322708129883 0.948645651340
-21.521518707275 -75.849594116211 -195.893875122070 2.425618886948
-148.508529663086 -81.752929687500 -195.187072753906 0.968327879906
-26.049789428711 -74.553657531738 -201.840805053711 2.299576997757
-150.740066528320 -78.862792968750 -192.154998779297 2.619740724564
-151.299392700195 -76.599769592285 -196.925827026367 2.064954996109
-140.093200683594 -76.168151855469 -195.899261474609 1.414003849030
-35.951038360596 -75.824844360352 -196.770095825195 2.693845748901
104.113632202148 -80.046791076660 -207.829238891602 6.606271743774
-36.977149963379 -75.363693237305 -201.396438598633 2.278992176056
-142.662994384766 -78.915191650391 -196.179229736328 0.638679325581
-36.871212005615 -76.967063903809 -209.319473266602 0.423096507788
-17.764328002930 -78.858016967773 -211.348480224609 1.933923602104
94.830764770508 -78.658935546875 -210.468261718750 2.408715724945
95.752197265625 -78.145713806152 -213.548660278320 2.539533853531
-26.298709869385 -78.598777770996 -216.952407836914 1.814217805862
-86.976432800293 -79.659301757813 -209.708297729492 3.816494464874
-69.675811767578 -77.757553100586 -210.448760986328 1.228820443153
-17.789375305176 -77.763526916504 -219.091079711914 2.626280784607
-149.447311401367 -72.004142761230 -208.456756591797 2.598479270935
86.109298706055 -80.059364318848 -223.188674926758 3.986506462097
87.577018737793 -74.288383483887 -228.245040893555 3.932262897491
88.394577026367 -80.355224609375 -224.851837158203 5.696039676666
-100.317733764648 -69.343322753906 -220.414703369141 1.458109617233
-146.234344482422 -77.457015991211 -219.240066528320 1.994161963463
-17.849771499634 -82.760681152344 -220.223342895508 4.735657215118
81.066474914551 -75.567825317383 -229.987396240234 2.539176702499
-144.963287353516 -83.615219116211 -220.351928710938 3.158486366272
-32.790634155273 -76.022987365723 -221.998443603516 5.378894329071
-132.959564208984 -69.161407470703 -228.504058837891 3.057633399963
-11.840863227844 -78.509010314941 -228.470214843750 2.665054559708
20.120752334595 -76.056365966797 -222.700317382813 2.851834535599
14.981790542603 -75.826316833496 -238.074371337891 2.977601051331
-156.793914794922 -79.617126464844 -229.044342041016 2.601942539215
-122.894790649414 -72.311119079590 -227.261581420898 0.622840642929
-8.735573768616 -76.692535400391 -234.141464233398 2.367248535156
0.719588994980 -74.231475830078 -242.187622070313 1.357605814934
66.176765441895 -79.699562072754 -240.788650512695 5.838700294495
67.698501586914 -76.208564758301 -241.971069335938 3.118824481964
0.719691991806 -77.966293334961 -243.182220458984 2.940046787262
19.553039550781 -77.636421203613 -240.366912841797 1.573933720589
-24.826341629028 -75.066986083984 -242.921356201172 1.511484622955
-40.668479919434 -80.090324401855 -246.522903442383 1.977336645126
-48.111438751221 -79.453384399414 -235.563522338867 6.487674713135
-42.182628631592 -79.134414672852 -242.892623901367 2.166031360626
-20.061698913574 -79.659492492676 -245.808410644531 4.244132041931
-55.532684326172 -73.185211181641 -240.158081054688 3.571924686432
4.634417057037 -76.264488220215 -247.146453857422 2.451333045959
-72.645156860352 -70.703544616699 -244.939819335938 3.331099987030
13.858709335327 -73.878868103027 -247.872222900391 2.698424100876
-147.185302734375 -78.052978515625 -243.339401245117 1.607590317726
-70.171760559082 -80.919776916504 -250.513595581055 4.288801193237
10.335437774658 -78.823944091797 -250.923461914063 2.489933490753
-166.112579345703 -75.427375793457 -244.422927856445 3.666416645050
16.403860092163 -74.618644714355 -252.504180908203 3.173798322678
-84.995254516602 -78.082084655762 -251.343933105469 3.811783313751
-75.365806579590 -72.483764648438 -249.401489257813 1.712429285049
21.938283920288 -76.330024719238 -260.438964843750 1.911610484123
-89.573265075684 -73.886482238770 -254.840637207031 1.177205085754
-131.968643188477 -77.017402648926 -250.772735595703 5.720172405243
-138.225463867188 -77.306739807129 -252.755203247070 3.835704326630
-135.663269042969 -76.380012512207 -253.703262329102 3.538834095001
-144.144348144531 -73.502807617188 -254.159545898438 1.360172152519
-140.621215820313 -78.936431884766 -250.974319458008 4.396947383881
-137.710433959961 -73.792182922363 -258.300018310547 2.685300350189
-159.508102416992 -76.724311828613 -251.750625610352 3.312397718430
-130.017318725586 -72.001686096191 -259.300689697266 4.227479457855
-136.118362426758 -72.902633666992 -253.569366455078 2.182404756546
-163.848144531250 -79.093345642090 -260.754913330078 4.895202159882
-156.198822021484 -75.700485229492 -258.082550048828 2.184237480164
-151.222198486328 -74.928665161133 -261.088409423828 2.367504119873
-147.438354492188 -80.728729248047 -259.688354492188 2.398127794266
11.313467979431 -85.561332702637 -284.568878173828 7.959374904633
-165.637954711914 -78.787178039551 -261.948394775391 4.538487434387
-157.190338134766 -71.575698852539 -270.869262695313 3.270666122437
-7.867673873901 -76.178962707520 -278.273803710938 1.083506822586
-161.915130615234 -75.836067199707 -261.316467285156 1.084118008614
12.706104278564 -80.923431396484 -283.374877929688 4.493524551392
-155.464096069336 -74.148086547852 -277.215301513672 4.262850761414
-163.701187133789 -72.207740783691 -286.075408935547 3.059912204742
-154.570800781250 -71.984535217285 -275.622985839844 2.077692985535
-171.025527954102 -67.907577514648 -274.994049072266 4.419532775879
-0.181713998318 -75.078765869141 -290.653259277344 2.525997877121
8.683720588684 -81.394256591797 -285.021789550781 4.416059017181
-99.719680786133 -68.647987365723 -283.430938720703 3.831489324570
-154.455612182617 -76.992401123047 -282.967956542969 2.621230125427
-150.324874877930 -76.214752197266 -278.442413330078 2.565530776978
-113.410110473633 -72.020179748535 -288.014312744141 1.384166836739
-152.665344238281 -73.829986572266 -285.732116699219 2.731013298035
-152.436157226563 -74.093116760254 -288.818847656250 2.168755769730
-70.991409301758 -75.194053649902 -288.734893798828 1.496894240379
-164.560806274414 -78.252136230469 -286.858825683594 4.043070316315
-123.513206481934 -77.750236511230 -284.257293701172 3.509002923965
-45.884536743164 -80.805175781250 -291.518371582031 4.633107662201
-155.391860961914 -72.462776184082 -287.197875976563 1.620760202408
-144.529678344727 -75.157806396484 -286.306396484375 1.978943824768
-21.089946746826 -79.610534667969 -293.369354248047 4.052210807800
-129.310653686523 -73.653289794922 -294.030700683594 2.627182960510
-0.493106007576 -76.929916381836 -292.935882568359 2.123923301697
8.855765342712 -79.200584411621 -292.029510498047 1.894454479218
-135.816848754883 -74.472770690918 -291.043609619141 1.061117410660
-147.773086547852 -73.344604492188 -289.647918701172 1.740495562553
-159.333709716797 -72.090736389160 -302.850799560547 4.309005737305
-62.711036682129 -75.793502807617 -48.012664794922 4.370629310608
-17.116909027100 -75.999267578125 -62.363418579102 4.319212913513
-14.795931816101 -77.867126464844 -66.721153259277 4.988710403442
82.014579772949 -76.435951232910 -79.168998718262 0.887671053410
97.569900512695 -76.945564270020 -82.460845947266 3.663377523422
-29.907041549683 -71.335769653320 -79.196060180664 1.373537302017
87.700256347656 -79.660636901855 -81.308280944824 3.113437414169
94.255325317383 -81.515586853027 -86.460861206055 5.050817489624
79.405845642090 -77.439941406250 -85.778907775879 2.338037967682
75.697753906250 -74.838912963867 -94.609153747559 0.919307589531
-38.697288513184 -80.000312805176 -84.687644958496 1.665946960449
-87.662742614746 -74.331726074219 -88.424201965332 4.096658706665
64.822631835938 -79.219123840332 -96.850212097168 8.623257637024
54.270240783691 -79.311698913574 -101.468688964844 2.619155406952
102.792442321777 -73.228271484375 -104.818832397461 1.732888221741
-88.181785583496 -72.738189697266 -101.354347229004 6.054636001587
90.886550903320 -76.779479980469 -102.445777893066 3.750842571259
89.157890319824 -77.276763916016 -106.260269165039 5.809772968292
96.938339233398 -79.002243041992 -101.755500793457 7.049135684967
88.234809875488 -73.071029663086 -109.875152587891 5.224025249481
99.924255371094 -76.310386657715 -107.295249938965 5.849059581757
-77.547950744629 -82.046257019043 -100.210304260254 3.204667091370
47.051364898682 -81.475196838379 -114.758247375488 2.510954380035
108.915000915527 -78.483978271484 -120.229942321777 3.571237802505
118.385894775391 -73.538833618164 -117.336303710938 5.258203506470
51.689476013184 -76.262672424316 -121.870674133301 6.173587799072
114.687362670898 -73.757560729980 -132.438156127930 1.320605516434
119.050361633301 -79.494224548340 -143.086120605469 5.144846439362
-47.198200225830 -74.650726318359 -130.024276733398 5.221711158752
35.235214233398 -78.178695678711 -136.461578369141 1.480227828026
38.540893554688 -81.887634277344 -131.612258911133 3.552157878876
25.699712753296 -74.049575805664 -145.875167846680 1.075895667076
118.599586486816 -77.038177490234 -145.910736083984 3.726165294647
114.953208923340 -78.705383300781 -141.373748779297 2.366475820541
-70.561393737793 -77.718406677246 -147.687316894531 2.044769048691
-44.671623229980 -78.431518554688 -148.535354614258 1.193388938904
-69.515853881836 -73.455856323242 -147.450775146484 1.712686181068
23.990457534790 -79.558006286621 -155.317016601563 1.755857348442
114.812080383301 -75.708053588867 -161.684738159180 1.251133084297
-51.474948883057 -76.689384460449 -151.920410156250 0.642027258873
-66.786087036133 -75.152618408203 -148.301010131836 1.544240593910
-37.425727844238 -80.823478698730 -156.573135375977 2.090192794800
40.760761260986 -76.788146972656 -154.002639770508 7.280435085297
112.707168579102 -78.751266479492 -164.080795288086 2.715401887894
121.257469177246 -79.262794494629 -164.536636352539 8.019326210022
-65.391059875488 -75.826690673828 -150.213745117188 1.756719946861
-69.798591613770 -77.215614318848 -162.654739379883 2.840911149979
22.883392333984 -81.046997070313 -165.865325927734 2.842514753342
-54.010356903076 -79.651992797852 -161.575332641602 6.752054691315
-27.419370651245 -85.030143737793 -164.462966918945 8.153072357178
10.286678314209 -74.798995971680 -166.692657470703 5.478362560272
114.611755371094 -79.965629577637 -173.949874877930 4.444756031036
9.175752639771 -76.060485839844 -167.871231079102 5.660775661469
-34.402961730957 -77.383857727051 -167.470977783203 0.902358114719
2.036602973938 -73.777824401855 -166.307464599609 1.646047711372
106.681228637695 -75.735473632813 -182.228897094727 1.206560611725
-39.325702667236 -69.895996093750 -175.044036865234 2.537012338638
32.786304473877 -73.683296203613 -172.700119018555 3.799663782120
115.248908996582 -75.255157470703 -178.228195190430 3.392472028732
-48.861495971680 -75.385589599609 -179.356170654297 2.145505666733
-25.468042373657 -78.802345275879 -170.753509521484 2.873430252075
101.780754089355 -80.666679382324 -181.032180786133 4.947971343994
35.918121337891 -79.909431457520 -176.013015747070 8.823394775391
118.295677185059 -73.874420166016 -184.037170410156 7.343487739563
-35.740676879883 -79.068389892578 -171.405441284180 1.570844888687
109.002326965332 -75.256980895996 -188.151199340820 1.361133575439
-55.063194274902 -75.444000244141 -177.694641113281 1.632293820381
-21.508409500122 -75.931915283203 -176.741912841797 2.442272186279
-140.441925048828 -74.794525146484 -176.936614990234 4.156735420227
-52.529819488525 -75.957313537598 -184.607666015625 0.948754072189
-144.393356323242 -73.252326965332 -178.490463256836 1.922935128212
-30.301204681396 -75.722137451172 -187.272460937500 1.415136098862
23.202405929565 -75.649513244629 -190.186096191406 2.471021652222
113.590461730957 -72.749809265137 -189.037887573242 4.941659450531
-28.364473342896 -75.834785461426 -191.811920166016 2.115880250931
15.358684539795 -78.399406433105 -195.425567626953 2.019294977188
18.295511245728 -76.672523498535 -201.862777709961 1.889460444450
-147.346237182617 -71.512245178223 -188.279373168945 1.563923597336
103.765914916992 -81.158882141113 -205.144500732422 6.711011409760
-17.023416519165 -72.916007995605 -195.584289550781 1.367339968681
107.466072082520 -72.346939086914 -198.859344482422 3.373536825180
17.932413101196 -75.360168457031 -192.511901855469 3.112425565720
-129.023468017578 -73.761344909668 -198.331909179688 2.807510137558
-142.714248657227 -72.945480346680 -192.313232421875 2.266876935959
95.866943359375 -70.189216613770 -205.864807128906 0.968811273575
-10.113014221191 -75.046379089355 -201.856582641602 1.317975759506
-14.190273284912 -78.754310607910 -197.935272216797 2.084796905518
13.905507087708 -76.781860351563 -206.189682006836 2.751231431961
-145.277770996094 -73.935142517090 -201.496704101563 2.013583183289
-146.144515991211 -75.927139282227 -201.810363769531 1.776204586029
101.808807373047 -82.852836608887 -212.598419189453 8.909750938416
-73.539321899414 -77.405021667480 -208.853012084961 0.238247454166
-35.045845031738 -73.489273071289 -201.808914184570 1.575222969055
21.974000930786 -75.157058715820 -213.626312255859 3.761294603348
-22.401996612549 -79.402343750000 -210.731582641602 3.796498537064
-77.576744079590 -73.161308288574 -211.969635009766 1.029974341393
94.333648681641 -75.915359497070 -213.493225097656 0.775487065315
-81.040275573730 -71.361228942871 -213.226013183594 2.243594884872
-146.761505126953 -75.343872070313 -214.113342285156 2.263415098190
-77.746231079102 -77.744178771973 -214.910537719727 0.715763390064
-14.781910896301 -76.748268127441 -213.453674316406 0.986647665501
-21.360027313232 -77.838737487793 -218.675521850586 1.399093508720
24.314744949341 -74.167137145996 -214.373214721680 6.215839862823
-4.529895782471 -74.315177917480 -213.426986694336 1.706919074059
-80.147422790527 -74.876953125000 -217.854095458984 2.001877069473
91.767387390137 -77.083618164063 -221.151718139648 3.206031799316
-93.361351013184 -76.971588134766 -211.758972167969 3.917656421661
-145.151168823242 -81.886589050293 -220.698577880859 3.225837230682
-11.333757400513 -78.024841308594 -219.161926269531 1.157938957214
17.339962005615 -76.294662475586 -218.458633422852 1.459950447083
-103.241432189941 -73.169075012207 -216.102035522461 3.627444744110
10.112632751465 -78.471923828125 -221.784484863281 1.637204766273
-26.160289764404 -79.268135070801 -216.305130004883 0.911992967129
82.956642150879 -79.152053833008 -230.739318847656 5.812790393829
-145.209320068359 -73.485977172852 -214.824401855469 2.739871501923
8.455492019653 -73.162284851074 -228.446441650391 1.038940072060
-5.292705059052 -76.734291076660 -223.063125610352 2.119583606720
17.480022430420 -72.093765258789 -223.561141967773 1.772263884544
85.629547119141 -73.918487548828 -233.096664428711 5.444659709930
-12.982416152954 -76.892036437988 -227.545059204102 1.099810838699
-128.814376831055 -78.746543884277 -224.189514160156 5.578652858734
-6.783577919006 -80.540328979492 -226.899276733398 1.920973062515
16.963802337646 -74.949905395508 -237.135238647461 1.687196969986
-125.433624267578 -73.696571350098 -218.498397827148 6.564356803894
-150.010314941406 -76.256889343262 -224.851119995117 2.323050737381
-139.216201782227 -75.113029479980 -224.376937866211 3.456763029099
-130.956451416016 -74.079048156738 -224.943237304688 1.649390101433
-9.995358467102 -75.427947998047 -228.680419921875 0.970545768738
71.746551513672 -76.080825805664 -235.219757080078 1.642111659050
-141.270187377930 -75.708435058594 -231.673599243164 1.205574393272
72.489067077637 -74.523643493652 -232.371887207031 1.420756220818
-14.866805076599 -78.314147949219 -227.128479003906 1.800427556038
-142.068801879883 -80.445266723633 -227.206344604492 1.500500202179
76.882270812988 -80.868202209473 -239.188369750977 8.215747833252
14.318674087524 -80.356666564941 -239.353744506836 1.086305499077
-142.031646728516 -71.358383178711 -232.124908447266 1.323824882507
-149.160095214844 -75.120933532715 -232.024978637695 2.994036912918
12.536676406860 -70.827461242676 -237.458694458008 2.376547574997
-2.472233057022 -76.770317077637 -240.948257446289 3.320413827896
-24.050422668457 -72.929588317871 -244.986907958984 2.958159208298
-5.369340896606 -75.191574096680 -242.044494628906 1.741082191467
-162.027786254883 -75.853561401367 -230.974182128906 3.675643682480
9.282544136047 -75.764770507813 -248.027450561523 3.204196929932
-163.292572021484 -72.934936523438 -228.891082763672 1.377469778061
-17.054800033569 -74.640930175781 -233.201019287109 4.016587734222
68.012840270996 -77.866233825684 -244.493515014648 5.721909046173
-8.226453781128 -74.279159545898 -242.802322387695 2.468591690063
-26.060508728027 -75.885795593262 -239.835113525391 2.306288480759
-26.647468566895 -72.654716491699 -242.154067993164 1.460784435272
-15.472185134888 -72.657432556152 -247.012176513672 2.759793758392
-143.194183349609 -72.944496154785 -230.715530395508 2.206809520721
9.007817268372 -78.789794921875 -246.315307617188 0.167664751410
64.760612487793 -79.904800415039 -245.643127441406 7.204886913300
11.110202789307 -76.932518005371 -246.317016601563 1.327727794647
-162.458236694336 -72.981224060059 -233.698104858398 2.142963409424
-47.957401275635 -78.442703247070 -244.148773193359 1.299909591675
5.658843994141 -79.645896911621 -250.444213867188 2.564477920532
16.944461822510 -70.752731323242 -253.205230712891 4.928553581238
-59.144027709961 -74.957283020020 -249.821685791016 0.518955647945
-3.739890098572 -74.920455932617 -244.293869018555 2.181074857712
19.897747039795 -78.840614318848 -254.548477172852 2.015352487564
-166.237823486328 -73.841361999512 -239.710327148438 2.123639822006
-72.829109191895 -78.127365112305 -252.265319824219 2.835550069809
-53.563934326172 -72.551765441895 -247.059066772461 0.762185573578
-80.408645629883 -73.249534606934 -246.047531127930 3.198410034180
-162.202484130859 -72.838943481445 -236.738967895508 1.507851958275
-152.841339111328 -74.756515502930 -245.843002319336 1.863571763039
-60.209957122803 -71.251213073730 -252.781143188477 4.108017444611
-69.574890136719 -80.813446044922 -249.411697387695 3.972430229187
-155.169769287109 -72.498962402344 -247.049285888672 2.475769042969
-153.163772583008 -71.686141967773 -243.799331665039 2.001121997833
-78.568832397461 -74.666885375977 -248.797805786133 0.324637651443
-93.104316711426 -70.498405456543 -249.231536865234 3.474466562271
-163.684844970703 -75.522201538086 -245.438552856445 3.492279291153
-155.310104370117 -73.418228149414 -246.513412475586 2.488451242447
-135.886016845703 -70.437606811523 -252.646942138672 3.033472299576
-82.418029785156 -77.792572021484 -250.690795898438 2.621817588806
-164.564254760742 -70.173973083496 -248.241836547852 2.826779127121
-148.207885742188 -78.781738281250 -251.394332885742 2.157164573669
-93.563796997070 -74.651367187500 -251.811050415039 2.370624065399
-101.505691528320 -68.283561706543 -256.765655517578 1.446706056595
-150.001251220703 -72.435653686523 -253.482284545898 2.122548341751
-98.315597534180 -73.905685424805 -259.600891113281 1.631628990173
-152.552764892578 -72.914192199707 -248.398712158203 0.760753095150
-101.175338745117 -76.350090026855 -252.551483154297 4.333432197571
-167.991165161133 -77.914848327637 -250.043243408203 4.777938365936
-163.450866699219 -79.202774047852 -251.869628906250 5.467484474182
-123.685363769531 -72.289459228516 -252.210754394531 2.828838109970
-149.687088012695 -78.409027099609 -253.057907104492 1.637556552887
-109.840065002441 -72.879966735840 -256.261444091797 1.279642224312
-15.799482345581 -80.578674316406 -261.887908935547 4.697148799896
-144.117263793945 -72.447624206543 -256.318603515625 1.794953346252
-127.240066528320 -73.319435119629 -257.402923583984 2.657602787018
-157.601226806641 -73.116622924805 -259.226501464844 2.041999578476
19.620706558228 -76.851020812988 -270.874542236328 2.512277841568
-154.346786499023 -71.412712097168 -277.162048339844 2.680474758148
-170.324005126953 -71.442619323730 -273.247558593750 3.142961502075
-7.769454002380 -80.746955871582 -284.234069824219 5.487842559814
-151.079620361328 -76.266921997070 -274.522613525391 1.923196315765
-8.808425903320 -73.859558105469 -279.503814697266 1.771963119507
12.575543403625 -75.562126159668 -288.893432617188 2.088834047318
-135.763931274414 -71.772705078125 -282.794952392578 2.602530717850
-72.114807128906 -78.050590515137 -280.438537597656 7.119802951813
-42.034729003906 -73.810180664063 -282.387817382813 3.588721990585
-117.994644165039 -71.498214721680 -284.645843505859 2.381271123886
-93.319961547852 -74.006698608398 -291.181701660156 0.212083250284
