-27.348031997681 -78.235740661621 -214.817184448242 1.221895694733
-89.931678771973 -80.241523742676 -221.588256835938 5.537228107452
-85.076133728027 -77.888229370117 -214.972427368164 1.226327180862
10.908409118652 -74.418052673340 -221.008605957031 3.036918163300
-146.258285522461 -77.751014709473 -218.267364501953 1.356784820557
-11.839711189270 -74.734344482422 -213.488967895508 2.913280010223
8.377541542053 -79.875099182129 -220.772918701172 0.403732657433
-140.172576904297 -80.980850219727 -217.525665283203 4.965440750122
-21.025285720825 -78.757247924805 -225.045333862305 2.411916494370
-3.442621946335 -74.796897888184 -225.764770507813 3.371437311172
-0.542811989784 -76.377357482910 -220.089462280273 1.896184682846
-151.924743652344 -78.372177124023 -223.439575195313 1.162397861481
-133.516189575195 -75.296447753906 -226.306152343750 1.869853854179
-4.140674114227 -74.169486999512 -230.810546875000 1.291466236115
-148.308700561523 -83.479209899902 -228.920242309570 1.737378001213
-0.343336999416 -74.422721862793 -232.629989624023 3.188089370728
17.979980468750 -69.555587768555 -234.339080810547 2.194729328156
-4.168733119965 -71.068626403809 -239.782577514648 1.236963748932
1.965338945389 -75.700256347656 -234.394226074219 1.727082729340
9.463161468506 -81.422966003418 -237.645462036133 1.182610154152
-149.861770629883 -79.710411071777 -233.928665161133 2.146813869476
-17.202724456787 -74.931953430176 -239.790496826172 2.199554443359
-29.651344299316 -81.922103881836 -243.472290039063 2.948098659515
8.503586769104 -70.484489440918 -231.803695678711 0.873207747936
-0.085400000215 -71.680671691895 -240.405136108398 1.927479028702
5.813291072845 -75.893211364746 -237.570129394531 1.227122187614
-52.717132568359 -76.362876892090 -240.950653076172 2.420402288437
-152.907318115234 -76.202644348145 -246.864349365234 2.914237022400
-152.421859741211 -77.552230834961 -250.177856445313 3.069811344147
12.252961158752 -75.977699279785 -250.797454833984 3.366618156433
20.944856643677 -75.870330810547 -249.575119018555 2.684110879898
-58.498119354248 -75.335128784180 -250.225982666016 0.941896080971
-148.376434326172 -74.303024291992 -255.066314697266 2.336120128632
-153.095626831055 -83.291397094727 -256.511322021484 0.463722169399
-148.354583740234 -78.667793273926 -257.341674804688 2.097166776657
-145.733810424805 -82.068740844727 -258.156097412109 0.946553349495
-136.295837402344 -79.227264404297 -258.282989501953 1.248035311699
-13.014033317566 -73.415145874023 -259.986419677734 2.809759855270
-146.722152709961 -75.824020385742 -268.191925048828 2.943511486053
-11.845021247864 -78.095352172852 -261.606994628906 1.086019039154
-152.859527587891 -77.983070373535 -276.288879394531 2.464402675629
-153.362182617188 -79.844001770020 -284.236877441406 0.546664595604
-154.303237915039 -81.690933227539 -282.575012207031 2.187844753265
-6.877974033356 -68.520683288574 -292.229919433594 2.968859195709
-146.290924072266 -75.225288391113 -286.131896972656 2.391385316849
-36.901149749756 -73.850646972656 -282.680877685547 4.295773506165
-32.439403533936 -68.508972167969 -291.979766845703 4.365844726563
-22.472049713135 -73.088310241699 -286.974060058594 2.749075651169
-10.096172332764 -73.356842041016 -293.693725585938 2.536157608032
16.093883514404 -71.945549011230 -295.325195312500 2.619913101196
-126.230690002441 -75.104751586914 -289.025024414063 1.974283218384
-56.708381652832 -77.395477294922 -288.129272460938 2.256788492203
-40.307521820068 -72.114135742188 -295.857421875000 5.460198402405
-36.326042175293 -74.604255676270 -292.523437500000 1.649959921837
-10.461805343628 -73.789886474609 -290.962982177734 2.124712467194
6.566538810730 -71.034385681152 -289.527832031250 1.409775853157
-139.801544189453 -78.406341552734 -293.063323974609 2.488677501678
6.638028144836 -74.795295715332 -296.660064697266 3.754341840744
-156.567337036133 -79.565093994141 -306.395141601563 3.919610977173
-149.612228393555 -75.336540222168 -301.712280273438 2.657932758331
-152.436386108398 -74.176162719727 -312.348663330078 1.871310472488
-148.150756835938 -75.414405822754 -312.546508789063 1.043366551399
-50.393985748291 -80.555740356445 -53.369968414307 5.478662967682
-48.963977813721 -81.436820983887 -58.704196929932 4.442837238312
-67.328834533691 -81.710357666016 -56.655590057373 5.584284782410
-42.175323486328 -81.958793640137 -59.598720550537 4.897742748260
-38.704616546631 -76.721801757813 -60.789516448975 1.246919155121
-21.826622009277 -76.802749633789 -61.908794403076 3.300855875015
-79.628952026367 -82.780258178711 -67.754997253418 5.014160156250
84.173439025879 -76.141082763672 -83.918823242188 2.375465631485
-89.008720397949 -82.914085388184 -84.162483215332 4.678837776184
87.778892517090 -80.593849182129 -84.402832031250 3.627283811569
89.061767578125 -78.264419555664 -86.152709960938 0.848133742809
96.615028381348 -76.443878173828 -86.576362609863 1.991848945618
-57.721576690674 -86.092582702637 -94.933265686035 2.545612812042
88.450347900391 -80.243133544922 -96.486648559570 3.831709623337
83.040199279785 -75.300033569336 -96.006446838379 1.865804076195
95.990791320801 -79.545715332031 -95.601852416992 5.017928123474
-58.496891021729 -83.730224609375 -99.229286193848 4.963702678680
58.308177947998 -76.256950378418 -100.026954650879 3.130860090256
47.981399536133 -78.358253479004 -107.545761108398 1.032734751701
40.254890441895 -78.487640380859 -110.750495910645 1.221667528152
39.401561737061 -77.140136718750 -112.410949707031 1.868756771088
-91.137649536133 -79.327697753906 -115.386466979980 2.997956752777
36.790477752686 -79.763946533203 -121.082710266113 2.184200525284
-81.350936889648 -80.588691711426 -114.519157409668 5.413255214691
43.362438201904 -77.510131835938 -129.736206054688 2.311481714249
33.984317779541 -77.589324951172 -124.390670776367 1.264256715775
34.218421936035 -80.699134826660 -126.598686218262 2.276006460190
43.821048736572 -75.153160095215 -124.990898132324 2.024595499039
42.104316711426 -81.011390686035 -129.891311645508 4.105775833130
-54.823791503906 -71.824180603027 -142.515136718750 2.201372146606
38.459712982178 -79.439712524414 -136.296768188477 2.542848825455
38.124137878418 -77.260650634766 -143.537048339844 2.252325534821
-46.611862182617 -73.529525756836 -141.297332763672 1.979282617569
-47.144809722900 -82.276557922363 -143.022155761719 4.532034397125
35.833587646484 -77.105644226074 -146.260955810547 2.689934015274
109.873168945313 -73.063446044922 -145.017547607422 1.122067093849
111.603683471680 -73.559875488281 -147.669815063477 2.092255830765
29.022829055786 -79.528640747070 -147.457839965820 0.885261535645
-41.364265441895 -77.644584655762 -148.503952026367 0.500765204430
114.255210876465 -77.500335693359 -163.494369506836 1.964550733566
-42.097827911377 -77.086715698242 -158.227386474609 1.599596619606
-61.725864410400 -80.832992553711 -163.579727172852 2.575639963150
112.235717773438 -74.586616516113 -166.245056152344 2.214574337006
26.831771850586 -78.231834411621 -170.646667480469 1.324090600014
0.591874003410 -77.188980102539 -168.165298461914 1.354379415512
113.885398864746 -76.551353454590 -156.547943115234 1.780076742172
-61.032913208008 -80.510887145996 -162.398727416992 3.075161695480
-33.971843719482 -82.697288513184 -163.833541870117 3.026074886322
111.514091491699 -72.687217712402 -168.148452758789 0.120436005294
26.818237304688 -71.889167785645 -160.991592407227 1.688481450081
-65.581306457520 -78.333618164063 -171.387496948242 3.057995557785
108.248603820801 -71.153175354004 -175.641677856445 1.848989725113
-63.319656372070 -80.386032104492 -171.177871704102 1.970117330551
-51.980171203613 -80.630447387695 -180.091613769531 1.123439431190
106.421020507813 -72.949241638184 -181.948303222656 0.586885809898
-62.500679016113 -78.114128112793 -170.751052856445 1.468757987022
114.057487487793 -72.602119445801 -176.918487548828 1.656936407089
-57.309024810791 -80.861640930176 -173.928131103516 0.627687335014
-12.754062652588 -76.297492980957 -177.874526977539 0.975522041321
-9.267569541931 -77.121208190918 -181.384765625000 4.189259052277
106.794708251953 -74.550949096680 -174.311080932617 2.141929388046
22.908952713013 -75.539703369141 -170.314147949219 2.009311437607
30.327695846558 -77.707862854004 -170.819061279297 2.785256385803
-53.717243194580 -81.158851623535 -179.755722045898 1.843791246414
18.571327209473 -75.002952575684 -188.098617553711 2.122846364975
-55.920677185059 -79.377502441406 -182.145401000977 1.148609161377
-51.393703460693 -73.730583190918 -193.873657226563 3.159909725189
13.714521408081 -76.595390319824 -182.686523437500 1.701922655106
-60.942668914795 -75.416107177734 -186.723114013672 5.994820117950
111.455459594727 -69.527351379395 -188.834106445313 4.154168605804
21.743732452393 -76.739952087402 -182.360031127930 1.027058839798
-31.067636489868 -77.953887939453 -189.730987548828 1.778002381325
-44.553302764893 -73.419288635254 -196.878723144531 1.911965370178
11.118432044983 -74.019348144531 -199.075622558594 1.883787512779
-25.489629745483 -77.452110290527 -189.185012817383 2.425084829330
-52.649574279785 -77.290084838867 -197.923416137695 3.504664897919
101.052482604980 -76.398506164551 -191.444778442383 1.020389676094
14.571100234985 -72.882751464844 -193.136245727539 3.413919448853
-134.921432495117 -79.895469665527 -195.416412353516 2.304724454880
-41.444213867188 -75.157936096191 -192.785125732422 1.440719127655
103.526451110840 -75.369583129883 -199.897415161133 1.734156608582
-148.100570678711 -79.439476013184 -201.800308227539 2.132222414017
18.524435043335 -74.798515319824 -195.514938354492 2.273206472397
-44.883270263672 -84.393775939941 -206.168304443359 4.599209308624
-32.914455413818 -77.444046020508 -206.409347534180 1.444044232368
-39.958835601807 -72.692298889160 -206.738433837891 2.770153045654
-42.067920684814 -77.442855834961 -194.047531127930 1.692618608475
102.592025756836 -75.886772155762 -203.970046997070 2.316361665726
-17.611295700073 -74.721054077148 -203.978927612305 2.509134769440
-151.325561523438 -75.271415710449 -201.042480468750 2.845486402512
12.558814048767 -72.986404418945 -211.294525146484 3.166302442551
-71.237098693848 -79.471542358398 -204.707244873047 2.782930850983
-144.337051391602 -77.260108947754 -211.244750976563 1.320703506470
97.618827819824 -70.964225769043 -212.506225585938 2.397639274597
-34.462440490723 -76.355934143066 -208.457077026367 1.588203907013
-25.132144927979 -74.395301818848 -218.671173095703 0.678100228310
6.548326015472 -76.374809265137 -213.343444824219 1.793055295944
-71.616821289063 -75.642333984375 -213.722442626953 2.644187450409
-26.559648513794 -74.762435913086 -210.367279052734 2.492535829544
-7.577606201172 -78.814247131348 -219.946533203125 1.529484033585
-79.638435363770 -80.372634887695 -218.687271118164 3.774116277695
-12.970396995544 -78.688018798828 -221.557052612305 3.300642967224
9.925312995911 -73.831336975098 -218.066070556641 2.164476633072
18.143043518066 -81.489929199219 -224.266845703125 3.598158121109
-145.684738159180 -78.562728881836 -218.221801757813 1.229828357697
-3.779793024063 -72.221221923828 -218.381561279297 1.411608457565
-91.372360229492 -73.167449951172 -223.417510986328 3.889862298965
-22.644004821777 -71.080924987793 -220.439437866211 1.789842367172
94.850990295410 -73.888801574707 -215.708435058594 2.805931568146
6.762265205383 -76.383522033691 -231.583709716797 1.523410320282
15.296383857727 -78.739540100098 -217.841171264648 1.275667905807
79.153450012207 -65.768554687500 -225.046768188477 2.692870378494
3.084039926529 -73.260902404785 -228.542663574219 1.368627548218
85.904724121094 -70.410224914551 -224.699020385742 2.812626361847
-15.911234855652 -74.076416015625 -225.346908569336 1.179606795311
13.246204376221 -76.526046752930 -226.029434204102 3.175021648407
-148.953857421875 -80.149955749512 -225.737457275391 1.766360163689
-17.806306838989 -82.936454772949 -229.447830200195 6.567752361298
1.831393957138 -79.138099670410 -229.314239501953 1.604386925697
-151.007598876953 -80.917816162109 -228.959991455078 2.141441822052
-133.504150390625 -78.355247497559 -227.377075195313 1.161213517189
11.269872665405 -72.714942932129 -229.990447998047 2.303089857101
-5.965552806854 -73.668022155762 -243.237121582031 1.464747548103
-137.894851684570 -78.433265686035 -232.346282958984 1.656550765038
-148.382843017578 -82.012893676758 -235.435348510742 2.941359758377
-144.931045532227 -75.046577453613 -238.964233398438 3.295922040939
-25.393096923828 -75.451545715332 -236.676727294922 1.454890966415
-144.483337402344 -75.828857421875 -245.288116455078 2.602848768234
18.978565216064 -72.622894287109 -242.373168945313 0.893495202065
7.048768997192 -74.656455993652 -246.883743286133 3.471448659897
-152.679687500000 -75.233261108398 -236.669754028320 2.518053531647
-152.333633422852 -77.557266235352 -242.817169189453 3.166765689850
-45.494113922119 -75.531150817871 -241.461563110352 0.332600563765
-33.134342193604 -78.756614685059 -247.101043701172 3.908901214600
6.433844089508 -75.996719360352 -252.235183715820 5.982640266418
-35.320171356201 -72.647506713867 -249.103302001953 6.384954929352
24.174413681030 -75.327316284180 -254.199035644531 2.895521879196
-2.251929998398 -75.328315734863 -247.447570800781 1.835979580879
-154.607864379883 -75.476440429688 -252.796340942383 2.501667261124
-5.507297992706 -67.188583374023 -249.560119628906 3.326497554779
-141.015151977539 -79.128791809082 -253.035964965820 2.868442773819
-66.440704345703 -76.242538452148 -252.262817382813 2.747630596161
-153.984970092773 -84.178314208984 -258.564666748047 0.398949563503
-126.367279052734 -79.592941284180 -263.377410888672 4.335217952728
-150.454986572266 -73.235267639160 -260.003479003906 0.558862686157
-12.467083930969 -71.544097900391 -269.339965820313 2.114083766937
-145.452667236328 -79.069320678711 -264.742248535156 0.500881850719
-149.447265625000 -77.308120727539 -263.859558105469 1.537699818611
-11.051812171936 -75.911582946777 -270.271545410156 2.713131427765
-148.966339111328 -78.099426269531 -267.855133056641 2.799850225449
-5.544431209564 -76.184516906738 -286.099914550781 1.375136494637
-44.581092834473 -76.015396118164 -282.411743164063 4.188870906830
-139.158523559570 -78.308395385742 -285.637451171875 1.553083419800
-133.868179321289 -72.871444702148 -281.299377441406 3.007421255112
-126.240226745605 -75.179161071777 -283.982360839844 1.142995834351
-55.688201904297 -72.877273559570 -280.937286376953 5.238421916962
-114.778182983398 -74.598457336426 -291.022064208984 0.907166481018
14.829409599304 -78.389099121094 -292.429382324219 0.742769360542
-63.314888000488 -73.694206237793 -287.769958496094 2.708163261414
-142.109344482422 -73.160499572754 -287.186187744141 1.878030061722
-63.373714447021 -70.396812438965 -287.985107421875 0.670693039894
-144.186737060547 -81.997222900391 -290.898834228516 0.697875082493
-120.115020751953 -74.194145202637 -285.356018066406 2.166449308395
-47.959827423096 -72.725883483887 -293.395294189453 4.412287712097
-40.967918395996 -73.808555603027 -292.455078125000 3.144739627838
-135.234375000000 -75.797653198242 -290.577545166016 0.549657046795
-12.889575958252 -67.930038452148 -294.863739013672 5.675447940826
-2.289715051651 -76.062156677246 -294.752868652344 2.438709497452
7.411061763763 -72.204742431641 -293.570922851563 1.327432870865
12.299330711365 -71.605369567871 -296.145141601563 3.718581438065
-148.796127319336 -80.755134582520 -295.956176757813 2.053698301315
-146.359436035156 -73.883811950684 -298.508514404297 1.354046940804
-67.675498962402 -78.202400207520 -64.338752746582 1.602440714836
90.259918212891 -77.178123474121 -81.921524047852 1.874833703041
82.724021911621 -78.138961791992 -79.809333801270 1.986874222755
-23.996305465698 -84.300529479980 -76.564514160156 6.712679386139
88.554092407227 -75.676338195801 -77.304183959961 1.360110282898
-36.331691741943 -77.225807189941 -82.923469543457 1.763061285019
93.442352294922 -81.286415100098 -81.668380737305 5.081761360168
92.473342895508 -80.911972045898 -83.848587036133 4.964808940887
-68.002853393555 -76.558242797852 -94.823280334473 3.786664962769
81.607109069824 -76.508728027344 -93.800819396973 0.772510766983
82.672218322754 -73.638351440430 -101.269935607910 1.208815336227
95.065933227539 -75.255508422852 -93.445411682129 1.359007120132
56.395847320557 -77.509963989258 -95.030921936035 2.871218919754
-76.695304870605 -85.330131530762 -102.642791748047 1.017319679260
-81.276885986328 -75.878540039063 -100.439605712891 1.897661209106
52.455047607422 -76.119506835938 -112.898208618164 2.990760564804
-89.934822082520 -83.571365356445 -110.611114501953 5.033745765686
46.046585083008 -76.737243652344 -118.342941284180 1.287490367889
113.448310852051 -74.042854309082 -119.349983215332 0.376285582781
109.825714111328 -71.625556945801 -135.292236328125 2.429519176483
26.706375122070 -72.070358276367 -140.556671142578 1.032676815987
115.137550354004 -79.499885559082 -134.437179565430 3.516954183578
29.815998077393 -74.250213623047 -136.596069335938 2.766890764236
112.098365783691 -75.978973388672 -136.137374877930 2.206332921982
34.506153106689 -80.465713500977 -140.970199584961 2.827134370804
-50.971843719482 -81.058395385742 -152.651885986328 3.218838930130
36.833488464355 -76.074645996094 -143.517547607422 1.741108775139
113.824684143066 -72.760299682617 -141.014328002930 0.532355308533
-48.978950500488 -78.607742309570 -151.158569335938 0.790425360203
30.754667282104 -80.485992431641 -148.911575317383 1.948209285736
-53.480083465576 -78.585411071777 -136.137695312500 3.647495508194
-54.333759307861 -84.289596557617 -150.097824096680 7.252599239349
-51.460563659668 -74.122100830078 -152.614273071289 2.253572225571
-65.293647766113 -80.587036132813 -157.148315429688 2.545146942139
113.245925903320 -72.563652038574 -151.832656860352 1.207343220711
-49.886772155762 -76.547340393066 -153.535369873047 1.561514019966
20.479198455811 -78.263412475586 -162.070343017578 2.551624298096
110.658012390137 -78.396537780762 -161.425643920898 1.598172664642
-66.762054443359 -81.241867065430 -157.048995971680 3.089036226273
-47.595901489258 -76.010055541992 -158.730728149414 0.906773984432
8.090639114380 -75.037689208984 -159.949600219727 1.334518671036
-62.499561309814 -74.105880737305 -158.763137817383 1.272299766541
-58.109203338623 -78.793754577637 -164.063491821289 2.407171249390
0.257835000753 -84.385688781738 -163.594421386719 5.841033458710
-43.930435180664 -80.300415039063 -173.587631225586 5.132742881775
27.857673645020 -72.492652893066 -167.296356201172 1.466673493385
-65.871284484863 -77.340934753418 -164.108749389648 1.446659445763
-49.375301361084 -72.311958312988 -169.933181762695 5.936709880829
23.781503677368 -74.955085754395 -165.243637084961 3.051490783691
-29.452074050903 -81.788978576660 -177.472961425781 2.676137924194
-32.015037536621 -71.326446533203 -169.434463500977 1.340988159180
15.058230400085 -72.864578247070 -178.728439331055 1.390775442123
-37.517509460449 -81.228485107422 -178.251251220703 3.269640922546
-6.874300003052 -75.209671020508 -176.861526489258 2.823091030121
-63.250823974609 -76.761703491211 -172.050079345703 1.302517056465
-5.133222103119 -76.731369018555 -173.138717651367 1.524041295052
-22.353706359863 -81.813331604004 -180.266677856445 1.318361639977
19.619720458984 -77.450363159180 -185.630798339844 2.203338861465
-35.728115081787 -75.194702148438 -178.165985107422 2.350719690323
18.097253799438 -76.182685852051 -181.160751342773 0.580500006676
-16.875709533691 -76.007766723633 -188.117370605469 1.200045943260
-32.435043334961 -76.784790039063 -182.280502319336 0.444474339485
-145.154968261719 -71.888740539551 -186.776184082031 1.575253725052
-24.247142791748 -75.905822753906 -188.021469116211 2.709832429886
-145.302032470703 -76.115318298340 -192.835693359375 1.092684030533
-151.816360473633 -78.965332031250 -188.478591918945 2.884110689163
-45.214576721191 -79.776573181152 -190.685455322266 1.575578331947
102.618515014648 -75.790580749512 -197.539108276367 1.189640402794
-145.277435302734 -77.013931274414 -191.985870361328 1.628883957863
-151.225784301758 -79.167060852051 -198.172088623047 1.767290949821
20.427055358887 -74.905021667480 -198.623275756836 2.244210004807
-134.504928588867 -74.393249511719 -194.968048095703 3.023782730103
22.859758377075 -68.503318786621 -199.917129516602 2.713754177094
-139.799957275391 -73.953315734863 -202.506607055664 2.120270013809
11.024887084961 -75.400154113770 -197.984939575195 1.587393283844
-136.967666625977 -75.921951293945 -202.467117309570 1.466262459755
7.848339080811 -72.488143920898 -207.954772949219 0.992371857166
-149.022460937500 -77.344650268555 -201.223251342773 1.656264543533
91.489471435547 -68.710113525391 -207.304504394531 3.017252683640
-13.694995880127 -72.627189636230 -208.966796875000 3.854173660278
-26.245971679688 -73.287071228027 -207.917648315430 3.081487178802
-9.657209396362 -79.723114013672 -205.304199218750 2.728471755981
-149.247482299805 -80.917297363281 -209.871658325195 0.619490027428
-40.575405120850 -78.242034912109 -209.144134521484 3.215080022812
-82.882911682129 -74.871070861816 -210.727172851563 1.328378438950
-29.901554107666 -75.838119506836 -214.777221679688 1.953108191490
18.072120666504 -68.947227478027 -211.127746582031 1.642978787422
-145.811676025391 -78.689041137695 -207.724197387695 2.674395322800
-86.576919555664 -75.589675903320 -214.420104980469 2.039154052734
-24.647577285767 -74.700233459473 -216.905838012695 1.591469168663
-25.507993698120 -69.998069763184 -222.929794311523 3.137133359909
-14.841417312622 -72.092651367188 -219.331024169922 1.227921962738
-24.810516357422 -73.901420593262 -217.613983154297 1.356661319733
-79.141777038574 -76.806358337402 -220.669586181641 5.065078735352
-83.673774719238 -77.381538391113 -224.129211425781 7.181408882141
-21.567373275757 -75.669807434082 -225.416763305664 1.345500349998
-5.785494804382 -72.309341430664 -224.111892700195 2.324557542801
-147.466964721680 -74.169563293457 -216.129028320313 2.325816392899
-2.205831050873 -71.076995849609 -219.901275634766 1.414174556732
82.544692993164 -69.794143676758 -228.790191650391 1.690416097641
-144.074707031250 -81.220878601074 -228.910324096680 2.203952074051
-5.995243072510 -72.588058471680 -225.598403930664 1.609754800797
-143.490356445313 -77.163803100586 -231.287277221680 2.194230318069
-149.831466674805 -85.007644653320 -225.970733642578 1.317232966423
-6.052769184113 -73.363945007324 -231.127075195313 1.385487794876
21.621065139771 -73.669441223145 -223.778213500977 3.808863639832
-140.729980468750 -76.634910583496 -228.259277343750 1.183782458305
-14.279017448425 -73.463897705078 -234.002746582031 2.559871435165
76.136772155762 -72.831420898438 -230.653167724609 1.050052404404
81.665214538574 -72.534446716309 -239.678283691406 7.482458114624
8.575100898743 -70.358047485352 -233.875869750977 0.624419391155
-25.154010772705 -71.414634704590 -245.042907714844 4.074089527130
-20.621604919434 -74.091026306152 -235.874008178711 2.376014709473
8.230325698853 -71.927566528320 -246.640899658203 3.295783042908
-46.922630310059 -69.941780090332 -244.273788452148 3.899907112122
-26.452646255493 -74.922950744629 -250.225311279297 7.006892204285
8.105575561523 -74.026443481445 -247.079757690430 3.227574586868
-64.783729553223 -74.355735778809 -251.680084228516 2.037734508514
-30.587474822998 -70.933448791504 -250.626205444336 8.662178993225
-43.798587799072 -72.877197265625 -245.185653686523 1.430444478989
-150.686279296875 -75.263496398926 -243.485717773438 1.571406126022
-49.810489654541 -75.312232971191 -251.032897949219 3.936956405640
-54.523643493652 -74.185058593750 -247.904388427734 1.641056060791
-64.798385620117 -80.181968688965 -252.110717773438 3.832513809204
-6.361233234406 -69.441146850586 -251.911392211914 3.975187063217
-84.482055664063 -71.610954284668 -253.899551391602 2.271876573563
-148.508407592773 -81.653144836426 -258.962097167969 2.083327293396
-137.957031250000 -83.739288330078 -259.606628417969 1.427682995796
-125.402297973633 -70.813308715820 -262.400054931641 1.477635383606
-154.498901367188 -73.380462646484 -262.013519287109 0.811331510544
19.126667022705 -70.767639160156 -263.512145996094 5.034982681274
-10.522537231445 -71.927032470703 -271.136962890625 3.351583003998
-152.549575805664 -76.258544921875 -265.826232910156 2.404152631760
-152.235198974609 -74.581176757813 -274.648529052734 1.366367936134
-142.113815307617 -77.618766784668 -280.956268310547 3.734312534332
-56.916797637939 -76.429534912109 -286.743804931641 3.043662071228
-36.536804199219 -70.797676086426 -289.647857666016 2.122571945190
-24.883300781250 -71.550872802734 -294.928222656250 4.982333183289
-14.313179016113 -71.819015502930 -289.064514160156 0.646155059338
-67.221138000488 -72.977241516113 -285.968811035156 1.813074469566
-77.455261230469 -71.715553283691 -287.267547607422 1.943877935410
-6.203114986420 -74.010604858398 -291.396301269531 1.480583548546
10.983587265015 -73.072196960449 -293.486694335938 3.388028383255
-134.050323486328 -77.136558532715 -289.913940429688 0.824323356152
-77.574317932129 -70.381393432617 -290.360717773438 0.998667180538
-148.109909057617 -74.759765625000 -292.410552978516 2.203616619110
-93.602142333984 -71.824012756348 -290.566162109375 2.050568819046
-69.463249206543 -70.130340576172 -291.132812500000 0.683760762215
-84.384590148926 -75.599838256836 -291.317871093750 1.440613627434
-64.431938171387 -75.758193969727 -291.228637695313 1.898726582527
-21.664913177490 -71.621612548828 -296.738800048828 5.848201751709
-2.565375089645 -69.555992126465 -293.143310546875 2.872508764267
-155.988769531250 -75.879524230957 -294.667694091797 1.290209770203
-145.469146728516 -76.565841674805 -297.636291503906 2.688375711441
-145.301452636719 -74.104301452637 -303.236206054688 1.928000569344
-154.779647827148 -73.624282836914 -308.323181152344 1.438486933708
-56.832221984863 -78.990425109863 -57.725708007813 2.239182472229
-45.306987762451 -76.999549865723 -54.905868530273 2.979404687881
-40.676765441895 -76.470832824707 -55.485031127930 1.364162683487
-73.898757934570 -85.305343627930 -60.122333526611 8.310268402100
-28.613401412964 -79.084548950195 -60.721714019775 4.436806678772
-26.217294692993 -78.340850830078 -80.312759399414 3.274544239044
77.343589782715 -81.532012939453 -89.746665954590 4.545737743378
82.667106628418 -77.770072937012 -89.952339172363 0.363967895508
81.577911376953 -74.574966430664 -90.023826599121 3.411024332047
98.852630615234 -79.625961303711 -94.663139343262 5.759181022644
74.946029663086 -77.071777343750 -95.357948303223 2.332618951797
58.956600189209 -77.907386779785 -97.324707031250 4.023073196411
46.541698455811 -76.572822570801 -104.784210205078 1.777806401253
-63.568256378174 -82.499023437500 -104.529243469238 5.578874588013
-71.480903625488 -76.730705261230 -100.089813232422 2.297000169754
46.048095703125 -73.849197387695 -105.833183288574 3.030304908752
-82.206230163574 -80.534866333008 -109.705871582031 2.301755905151
-90.270339965820 -74.554450988770 -112.101341247559 2.467691421509
50.716869354248 -73.770431518555 -105.796302795410 1.762179970741
106.599288940430 -72.637596130371 -116.937713623047 2.035982370377
35.570484161377 -77.316398620605 -124.328018188477 1.714616060257
46.725097656250 -79.949958801270 -119.596603393555 2.518914699554
45.460784912109 -77.361663818359 -126.118247985840 2.403619289398
30.394033432007 -76.258049011230 -129.449142456055 1.557152271271
111.305709838867 -73.244880676270 -120.696983337402 1.287716150284
34.426845550537 -78.754493713379 -127.988815307617 3.290649175644
32.782455444336 -74.808761596680 -132.581756591797 3.298770666122
-40.678737640381 -73.007591247559 -144.027999877930 2.209393978119
-68.216987609863 -78.753883361816 -149.839141845703 3.489666461945
-51.045227050781 -75.469421386719 -151.647232055664 1.492080807686
-69.700012207031 -76.937606811523 -143.039016723633 2.910198450089
-39.955146789551 -77.706008911133 -150.993789672852 2.697091579437
110.884284973145 -70.599143981934 -154.929183959961 1.559825420380
-70.274688720703 -77.061424255371 -154.081405639648 0.767362654209
23.441774368286 -81.411422729492 -155.137771606445 2.913604021072
33.739337921143 -70.163780212402 -153.509323120117 1.888685703278
115.665199279785 -70.086318969727 -157.434265136719 0.630166530609
8.742977142334 -71.751342773438 -158.596862792969 2.059899330139
34.737800598145 -72.397285461426 -159.615814208984 3.325836181641
-57.234050750732 -76.965492248535 -161.525543212891 3.615162611008
-46.265922546387 -79.692611694336 -172.766098022461 6.459716320038
20.146974563599 -74.587692260742 -167.227996826172 1.335059046745
-66.453376770020 -74.399002075195 -168.862777709961 1.522373080254
-63.345592498779 -72.361015319824 -160.982589721680 2.396418333054
112.393760681152 -75.858161926270 -169.051940917969 1.828456163406
-10.622073173523 -70.020591735840 -169.820831298828 5.754633426666
-55.207981109619 -79.540763854980 -178.305114746094 1.995800137520
-29.866844177246 -73.558425903320 -175.507598876953 2.619831323624
-53.962451934814 -75.562812805176 -173.784255981445 1.400411486626
31.844976425171 -80.087966918945 -172.330810546875 4.633122444153
111.236480712891 -66.045372009277 -171.252761840820 3.584243535995
110.015319824219 -76.172874450684 -184.991760253906 1.059814929962
115.570671081543 -74.548316955566 -195.636459350586 9.091872215271
108.868591308594 -73.647132873535 -177.306533813477 0.779854059219
-58.021987915039 -76.779167175293 -192.829803466797 6.410302639008
-51.777240753174 -74.208206176758 -182.633087158203 2.005092382431
24.157348632813 -74.455764770508 -186.871627807617 0.644204676151
-51.450851440430 -68.761795043945 -187.198654174805 5.742101669312
-22.173894882202 -72.172447204590 -188.790817260742 1.499250292778
-49.731121063232 -72.946876525879 -193.186645507813 2.919385910034
-143.483428955078 -79.388946533203 -197.253158569336 2.018134832382
100.505538940430 -69.174797058105 -195.528930664063 2.980717897415
-45.175239562988 -74.865997314453 -192.287841796875 0.598974823952
-13.404756546021 -76.506309509277 -197.343231201172 2.280430555344
-136.931365966797 -77.206924438477 -202.847579956055 1.055518507957
-43.623455047607 -77.295738220215 -196.912796020508 1.088851451874
107.116088867188 -79.157394409180 -197.506072998047 4.474786758423
109.002799987793 -73.037963867188 -192.979919433594 2.237385749817
-46.732864379883 -77.645095825195 -199.467987060547 1.220334529877
-22.403612136841 -73.795318603516 -197.033584594727 2.460840702057
-149.108001708984 -83.243141174316 -201.250808715820 0.294178992510
-26.746122360229 -72.455871582031 -203.108047485352 3.207710266113
-151.531692504883 -80.504196166992 -198.225906372070 1.421211719513
-151.980606079102 -78.121833801270 -202.950073242188 1.143776416779
-140.836746215820 -77.408554077148 -201.492630004883 0.613151669502
-36.785976409912 -74.146484375000 -198.449081420898 3.549140214920
103.653602600098 -74.155853271484 -204.362182617188 2.638648509979
-37.654525756836 -73.581665039063 -203.096145629883 0.462962806225
-143.314254760742 -80.216796875000 -201.944442749023 1.708266019821
-37.211780548096 -74.953819274902 -211.050872802734 2.355236291885
-17.996740341187 -76.254158020020 -212.413619995117 2.119859218597
94.437652587891 -72.951454162598 -207.308029174805 1.897170543671
95.456306457520 -72.324783325195 -210.336380004883 1.643953919411
-26.323692321777 -76.071739196777 -218.324249267578 1.810011267662
-87.170524597168 -79.025184631348 -213.391860961914 1.461738705635
-69.916412353516 -76.622955322266 -213.430496215820 1.477291703224
-17.769243240356 -74.939407348633 -220.118560791016 1.113717198372
-149.839981079102 -73.148040771484 -214.272247314453 1.617145180702
86.232788085938 -74.228698730469 -220.380233764648 2.348727226257
87.718025207520 -68.276664733887 -225.216827392578 4.149023532867
88.585128784180 -74.413169860840 -221.964111328125 2.190885066986
-100.401916503906 -68.781440734863 -224.302078247070 1.156515121460
-146.077651977539 -78.198341369629 -225.073928833008 2.124139547348
-17.643945693970 -79.901817321777 -221.389770507813 2.549562931061
81.315383911133 -69.686096191406 -227.236663818359 1.457429051399
-144.589630126953 -84.284454345703 -226.306884765625 0.966849625111
-32.697673797607 -73.533843994141 -223.537078857422 6.617129802704
-132.716644287109 -69.275016784668 -233.601287841797 1.623411178589
-11.461595535278 -75.250282287598 -229.285110473633 1.317125678062
20.182785034180 -72.076690673828 -222.255645751953 2.594069480896
15.606862068176 -71.549163818359 -237.799316406250 1.151435971260
-156.203720092773 -80.369277954102 -235.323028564453 4.434728145599
-122.617591857910 -72.178115844727 -232.069793701172 0.776736557484
-8.203987121582 -73.186477661133 -234.783676147461 2.249494791031
1.465126991272 -70.234100341797 -242.398742675781 1.288698792458
66.957328796387 -73.918861389160 -238.698425292969 1.666161179543
68.420135498047 -70.354484558105 -239.726150512695 1.688107609749
1.609410047531 -73.937438964844 -243.495346069336 1.197625994682
20.309434890747 -73.165107727051 -239.967971801758 0.926462948322
-24.001964569092 -71.757835388184 -244.112380981445 2.984549283981
-39.549861907959 -77.114234924316 -248.442520141602 3.390841245651
-47.405178070068 -76.998626708984 -237.756454467773 4.184959411621
-41.223114013672 -76.305175781250 -244.846572875977 1.397107720375
-19.004165649414 -76.131561279297 -246.944442749023 4.748674869537
-54.830497741699 -70.810043334961 -242.451248168945 3.026756525040
5.616248130798 -72.014625549316 -247.261550903320 4.440356731415
-71.820442199707 -68.668914794922 -247.800796508789 2.096670150757
14.788333892822 -69.353775024414 -247.574890136719 2.696103096008
-146.126190185547 -78.129798889160 -249.199234008789 1.683906912804
-68.850669860840 -78.648590087891 -253.557769775391 3.463086366653
11.523435592651 -74.305397033691 -250.891403198242 4.916212081909
-165.068801879883 -76.001235961914 -250.918640136719 2.500705003738
17.521987915039 -69.889518737793 -252.126846313477 4.201292514801
-83.709365844727 -76.201309204102 -254.864578247070 1.642960906029
-74.323104858398 -70.395492553711 -252.408752441406 0.385354012251
23.390855789185 -71.218406677246 -259.892791748047 2.453774929047
-88.275077819824 -72.036087036133 -258.413299560547 1.652677297592
-130.683242797852 -76.459213256836 -256.025482177734 3.082763671875
-136.852172851563 -76.865402221680 -258.248352050781 0.690025031567
-134.284698486328 -75.841049194336 -259.073760986328 1.550660729408
-142.822753906250 -73.188751220703 -259.768066406250 1.950091481209
-139.263656616211 -78.611396789551 -256.604187011719 1.601215243340
-136.235595703125 -73.180473327637 -263.670837402344 1.443201899529
-158.165283203125 -76.903656005859 -258.026611328125 3.833950757980
-128.565765380859 -71.148941040039 -264.332641601563 1.852088570595
-134.844482421875 -72.382919311523 -258.861083984375 2.439359426498
-162.101913452148 -79.133438110352 -267.249206542969 5.474307537079
-154.656799316406 -75.607276916504 -264.199340820313 2.114970684052
-149.597564697266 -74.611648559570 -266.994079589844 2.211115121841
-145.701980590820 -80.342056274414 -265.613800048828 1.255011320114
13.929112434387 -80.046295166016 -284.649627685547 5.056665897369
-163.854812622070 -78.843063354492 -268.500030517578 4.374528884888
-155.297012329102 -71.146987915039 -276.895538330078 2.889277219772
-5.732628822327 -71.384803771973 -278.821441650391 4.517545700073
-160.244323730469 -75.808952331543 -267.647796630859 3.811792135239
15.142696380615 -75.407600402832 -283.276702880859 2.077913284302
-153.265655517578 -73.487541198730 -283.240997314453 1.143293738365
-161.224639892578 -71.523803710938 -292.346710205078 1.389656186104
-152.494140625000 -71.346511840820 -281.557189941406 1.346688866615
-169.071563720703 -67.748092651367 -281.433258056641 3.780251979828
2.367436885834 -69.717208862305 -290.868988037109 1.473665475845
11.198696136475 -75.942649841309 -285.085632324219 3.010049104691
-97.512504577637 -66.264617919922 -287.208404541016 2.853381872177
-151.965179443359 -76.136749267578 -289.028106689453 2.165273666382
-148.027420043945 -75.374588012695 -284.331146240234 2.402073383331
-110.922622680664 -69.883262634277 -292.393066406250 2.996619462967
-150.166641235352 -72.847915649414 -291.634857177734 2.549860000610
-149.816864013672 -73.016029357910 -294.716918945313 3.618256092072
-68.432182312012 -71.855155944824 -291.610321044922 0.927439272404
-161.880294799805 -77.564826965332 -293.328308105469 4.013862609863
-120.987342834473 -75.997154235840 -289.177032470703 1.835110425949
-43.088741302490 -76.684341430664 -293.604492187500 2.856919288635
-152.875823974609 -71.515563964844 -293.163513183594 2.638214349747
-141.980484008789 -73.932128906250 -291.940216064453 1.481442332268
-18.287696838379 -74.748588562012 -294.491027832031 2.976400613785
-126.538017272949 -71.784576416016 -299.044067382813 4.283649921417
2.193510055542 -71.510139465332 -293.211914062500 1.847174763680
11.564414978027 -73.545173645020 -292.018768310547 2.838019847870
-133.123092651367 -72.869789123535 -296.326751708984 2.239491701126
-145.150039672852 -72.114768981934 -295.349609375000 0.886706948280
-156.249801635742 -70.804901123047 -308.936950683594 1.203466176987
-68.975631713867 -79.120735168457 -50.855182647705 5.717823028564
-22.898712158203 -77.648132324219 -63.486877441406 3.082447767258
-20.366518020630 -79.325157165527 -67.804435729980 3.904812335968
76.753967285156 -74.848144531250 -76.570175170898 2.168234586716
92.427825927734 -74.830757141113 -79.289390563965 0.839930653572
-35.191787719727 -72.861526489258 -80.652023315430 3.384528875351
82.604927062988 -77.850967407227 -78.582992553711 1.135641574860
89.395385742188 -79.374649047852 -83.535453796387 2.131214380264
74.419548034668 -75.734458923340 -83.298423767090 1.710129618645
70.964477539063 -72.985557556152 -92.186309814453 2.179194927216
-43.521141052246 -81.606117248535 -86.706314086914 2.453554630280
-92.459609985352 -77.195732116699 -92.117927551270 2.487324953079
60.309726715088 -77.600288391113 -94.953498840332 4.335121631622
49.940952301025 -77.853721618652 -99.965103149414 1.644736647606
98.357803344727 -70.330734252930 -101.324775695801 0.896863222122
-92.549621582031 -75.247436523438 -105.009536743164 2.058293342590
86.480201721191 -74.277961730957 -99.498619079590 1.160067319870
84.907722473145 -74.713607788086 -103.387504577637 3.281507730484
92.564170837402 -76.350555419922 -98.643569946289 1.944985866547
83.997016906738 -70.433303833008 -106.916992187500 3.564694643021
95.672470092773 -73.419151306152 -103.991096496582 2.937342643738
-81.700965881348 -84.285354614258 -103.725006103516 1.544432997704
43.279914855957 -79.835357666016 -113.570579528809 0.696557402611
105.190666198730 -74.970581054688 -116.634719848633 3.076856136322
114.402488708496 -69.849082946777 -113.252700805664 2.172630548477
48.023628234863 -74.294326782227 -120.357566833496 2.649848937988
111.268379211426 -69.737747192383 -128.482864379883 2.026442050934
116.182701110840 -75.043525695801 -139.114059448242 3.028996706009
-50.503643035889 -75.198127746582 -132.164825439453 3.149657964706
32.177879333496 -76.248054504395 -135.602355957031 3.208693265915
35.408981323242 -80.001098632813 -130.736740112305 1.240387916565
22.879093170166 -72.117507934570 -145.249237060547 1.896711707115
115.765235900879 -72.521041870117 -141.884719848633 1.839335560799
112.004447937012 -74.418235778809 -137.535369873047 0.980252563953
-73.104873657227 -78.406578063965 -150.769210815430 3.181827783585
-47.191631317139 -78.375350952148 -150.665481567383 1.620773911476
-72.192062377930 -74.125144958496 -150.376083374023 1.801996588707
21.676948547363 -77.398544311523 -154.896942138672 2.054303884506
112.522254943848 -70.845306396484 -157.746902465820 1.559795260429
-53.913581848145 -76.726684570313 -154.253814697266 2.792543172836
-69.385139465332 -75.720336914063 -151.169891357422 1.901750683784
-39.589756011963 -80.333755493164 -158.488937377930 1.760406136513
38.300895690918 -74.202507019043 -152.878890991211 4.320768833160
110.595291137695 -73.875938415527 -160.303268432617 0.690462231636
119.167755126953 -74.136390686035 -160.452209472656 3.437150001526
-67.902023315430 -76.300308227539 -153.046859741211 1.319725036621
-71.808250427246 -77.454170227051 -165.677932739258 4.429414749146
21.001039505005 -78.614898681641 -165.516418457031 2.617818832397
-56.006565093994 -79.480773925781 -164.075088500977 4.218406677246
-29.183528900146 -84.032958984375 -166.111206054688 5.915230751038
8.268250465393 -72.698234558105 -166.642639160156 4.546915531158
112.894912719727 -74.753662109375 -170.123764038086 1.666909337044
7.238150119781 -73.955825805664 -167.896392822266 4.196784973145
-36.269618988037 -76.500656127930 -169.166732788086 2.480772972107
-0.016413999721 -71.918182373047 -166.538940429688 1.450061202049
105.154815673828 -70.510063171387 -178.574356079102 1.532401084900
-41.125041961670 -68.938591003418 -176.709457397461 4.462217807770
30.931608200073 -70.786048889160 -171.769348144531 2.796081066132
113.552528381348 -69.906661987305 -174.243545532227 2.102155685425
-50.333950042725 -74.565261840820 -181.525894165039 1.945440530777
-27.183095932007 -77.575668334961 -172.149902343750 1.111022472382
100.357955932617 -75.607810974121 -177.698730468750 5.071669578552
34.361087799072 -76.825271606445 -175.133087158203 6.399477005005
116.769302368164 -68.275924682617 -179.893905639648 6.432797908783
-37.412948608398 -78.108291625977 -173.193557739258 1.389576196671
107.676879882813 -69.797782897949 -184.390029907227 1.820046544075
-56.588169097900 -74.843582153320 -180.100250244141 0.961743831635
-23.090826034546 -74.425918579102 -177.904159545898 1.322960019112
-141.920440673828 -76.588989257813 -182.525695800781 3.719060182571
-53.789115905762 -75.088020324707 -186.924972534180 2.660352230072
-145.855010986328 -75.113311767578 -184.183425903320 2.411184549332
-31.493726730347 -74.158950805664 -188.747116088867 0.925065875053
22.056404113770 -72.516052246094 -189.649902343750 1.812523007393
112.220252990723 -67.139694213867 -185.034545898438 4.865009784698
-29.389305114746 -74.087638854980 -193.212158203125 1.676010727882
14.492753982544 -75.331626892090 -195.253631591797 1.921778082848
17.612770080566 -73.340080261230 -201.526107788086 1.873517513275
-148.495697021484 -73.176223754883 -194.024383544922 1.643108010292
103.239830017090 -75.353630065918 -201.724090576172 3.080330133438
-18.006355285645 -70.747940063477 -196.474746704102 0.755586266518
106.451271057129 -66.625953674316 -195.063827514648 6.037961006165
16.869142532349 -72.306762695313 -192.162750244141 3.808019399643
-129.759201049805 -74.626342773438 -203.441238403320 2.449508428574
-143.679428100586 -74.364028930664 -197.919799804688 2.098184585571
95.059593200684 -64.591583251953 -202.436950683594 5.497302532196
-10.811923027039 -72.504875183105 -202.539978027344 0.756117939949
-14.921699523926 -76.435501098633 -198.878097534180 1.612965941429
13.389454841614 -73.447357177734 -206.015914916992 4.045882225037
-145.874679565430 -75.161041259766 -207.216720581055 1.462221980095
-146.671539306641 -77.166542053223 -207.617507934570 2.536287784576
101.607177734375 -76.887077331543 -209.290039062500 4.508409500122
-73.844429016113 -76.423789978027 -211.971572875977 0.938622295856
-35.764236450195 -71.643249511719 -203.384048461914 2.740855455399
21.675159454346 -71.386573791504 -213.097167968750 3.606723070145
-22.636295318604 -76.944602966309 -211.986267089844 1.877474308014
-77.885467529297 -72.206367492676 -215.119049072266 2.665267944336
93.972961425781 -70.137214660645 -210.272628784180 1.682019352913
-81.351028442383 -70.467979431152 -216.454223632813 3.304167032242
-146.853271484375 -76.248405456543 -219.914199829102 2.300025939941
-77.814727783203 -76.706039428711 -218.189605712891 3.405718803406
-15.001164436340 -74.002899169922 -214.346511840820 0.465921401978
-21.349082946777 -75.125694274902 -219.839370727539 1.116417288780
24.012214660645 -70.310989379883 -213.728195190430 6.173779964447
-4.831452846527 -71.287605285645 -213.868362426758 0.443172365427
-80.187973022461 -73.823493957520 -221.140853881836 5.136539936066
91.724166870117 -71.156440734863 -218.051254272461 1.298202633858
-93.550735473633 -76.458297729492 -215.605484008789 1.906352281570
-144.814422607422 -82.552497863770 -226.612487792969 0.816488623619
-11.310523986816 -75.019088745117 -219.954544067383 0.366824090481
17.256267547607 -72.513595581055 -218.129379272461 0.955687940121
-103.370353698730 -72.808952331543 -220.209289550781 2.094178199768
10.221614837646 -74.794685363770 -221.782638549805 2.446064710617
-26.189872741699 -76.755264282227 -217.690948486328 1.648417711258
83.334434509277 -73.193397521973 -228.015838623047 1.499710559845
-145.330261230469 -74.328483581543 -220.515029907227 1.703799605370
8.657610893250 -69.344467163086 -228.352951049805 1.733112573624
-5.170129776001 -73.449913024902 -223.589416503906 2.802781581879
17.462257385254 -68.165969848633 -223.105148315430 3.189465284348
85.940017700195 -67.822189331055 -230.125991821289 4.831826210022
-12.682473182678 -73.692825317383 -228.359115600586 0.492829710245
-128.457901000977 -78.860939025879 -229.400573730469 3.913298368454
-6.408887863159 -77.184448242188 -227.582351684570 2.025750160217
17.526987075806 -70.645286560059 -236.762710571289 2.312551975250
-125.435234069824 -73.884086608887 -223.449508666992 2.929842472076
-149.678253173828 -76.943336486816 -230.787322998047 2.159368515015
-138.946273803711 -75.514007568359 -229.877441406250 2.118769407272
-130.704559326172 -74.235092163086 -230.104949951172 2.191656112671
-9.699228286743 -72.114364624023 -229.340866088867 0.782180488110
72.212387084961 -70.307777404785 -232.826904296875 0.526131629944
-140.713150024414 -75.956970214844 -237.259613037109 4.175182819366
72.804710388184 -68.812797546387 -229.911300659180 1.722163438797
-14.539088249207 -75.178100585938 -228.052886962891 1.638217091560
-141.538208007813 -80.840209960938 -232.957885742188 2.056312084198
77.626159667969 -74.834915161133 -236.730819702148 4.174090862274
15.122034072876 -76.057678222656 -239.227203369141 3.033663749695
-141.582641601563 -71.618614196777 -237.618927001953 3.142921686172
-148.598510742188 -75.579132080078 -237.890182495117 2.778421640396
12.997686386108 -66.639884948730 -237.138000488281 3.197797298431
-1.695485949516 -72.895118713379 -241.350433349609 1.334805727005
-23.212734222412 -69.541404724121 -246.087600708008 5.625354766846
-4.594738006592 -71.366737365723 -242.510528564453 2.596771717072
-161.469604492188 -76.698875427246 -237.343109130859 2.736785888672
10.277227401733 -71.360893249512 -247.953552246094 4.164229393005
-162.893600463867 -73.877395629883 -235.229125976563 0.960383951664
-16.607810974121 -71.394638061523 -234.099472045898 3.141621589661
68.874473571777 -71.929824829102 -242.279846191406 1.324627995491
-7.447241783142 -70.512741088867 -243.349456787109 1.730578541756
-25.324411392212 -72.698715209961 -241.098342895508 1.599887132645
-25.918813705444 -69.420082092285 -243.347595214844 4.759612083435
-14.577381134033 -68.973045349121 -247.781600952148 0.734092831612
-142.749893188477 -73.276153564453 -236.298431396484 2.653257608414
10.027202606201 -74.440193176270 -246.337051391602 2.166022539139
65.726753234863 -74.024215698242 -243.606384277344 2.310405492783
12.073808670044 -72.525924682617 -246.208694458008 1.910034298897
-161.882461547852 -73.762748718262 -240.000930786133 0.636626183987
-46.965457916260 -75.738502502441 -246.298736572266 0.796791732311
6.858053207397 -75.270393371582 -250.610656738281 5.467048168182
