-5.211742877960 -74.021453857422 -239.980255126953 1.847149372101
-161.628219604492 -76.311370849609 -236.232910156250 2.741303682327
10.178508758545 -73.851028442383 -245.266632080078 1.280730605125
-162.517959594727 -72.806884765625 -234.228744506836 2.010297536850
-17.261833190918 -72.662284851074 -230.072906494141 2.312257289886
69.686668395996 -75.887290954590 -238.664978027344 1.786337375641
-6.111570835114 -72.370719909668 -240.897552490234 1.531641960144
-25.449642181396 -74.984756469727 -238.428741455078 0.532735526562
-25.759006500244 -70.756492614746 -240.899856567383 2.777820348740
-14.016183853149 -70.787307739258 -246.182525634766 1.395401716232
-141.903381347656 -72.528282165527 -235.333328247070 2.031109809875
10.473018646240 -77.810516357422 -243.400009155273 0.949882507324
66.052314758301 -78.735794067383 -239.589080810547 4.833452224731
11.881054878235 -75.626029968262 -242.961334228516 1.447867631912
-161.958938598633 -72.905036926270 -239.124404907227 1.042580962181
-46.469272613525 -78.362503051758 -244.110931396484 1.955545306206
8.113923072815 -77.680252075195 -247.960449218750 2.033466815948
18.683204650879 -67.955749511719 -251.076599121094 3.161520004272
-58.620582580566 -74.324226379395 -251.171020507813 1.777459502220
-2.456172943115 -73.448226928711 -241.249679565430 1.459392309189
21.338888168335 -77.791908264160 -252.290252685547 3.443420648575
-165.440872192383 -73.972167968750 -244.713470458984 3.184804439545
-71.477066040039 -77.930458068848 -255.064300537109 4.629196166992
-52.988258361816 -70.831985473633 -247.385467529297 2.474881172180
-79.467391967773 -71.978172302246 -247.245971679688 1.563925504684
-161.927062988281 -72.710159301758 -240.864105224609 1.393207550049
-151.834365844727 -74.943832397461 -250.574157714844 2.267450094223
-58.693714141846 -69.244018554688 -254.333435058594 6.608600616455
-68.073768615723 -81.414527893066 -250.035919189453 4.362675666809
-154.024353027344 -72.294891357422 -251.875000000000 2.377340793610
-152.144943237305 -71.222557067871 -247.960784912109 2.300456047058
-77.243804931641 -73.881889343262 -249.399658203125 1.462190389633
-91.498748779297 -69.013259887695 -250.971313476563 2.006671667099
-161.573471069336 -76.153930664063 -251.198455810547 2.281842231750
-153.621154785156 -73.405792236328 -250.260070800781 2.187597274780
-134.561264038086 -69.396896362305 -257.295043945313 1.922908782959
-80.586288452148 -77.691764831543 -251.916015625000 2.631076812744
-163.393432617188 -69.469375610352 -254.381835937500 2.601739406586
-147.843353271484 -79.957740783691 -256.124359130859 3.285810947418
-93.668319702148 -74.231056213379 -253.626861572266 2.093222379684
-101.000328063965 -66.874084472656 -259.646087646484 1.180005311966
-148.564590454102 -72.093627929688 -258.689971923828 2.068640947342
-96.886375427246 -73.443450927734 -263.297058105469 4.840539455414
-151.678436279297 -72.756408691406 -252.522735595703 0.840696096420
-99.617660522461 -76.466773986816 -254.548919677734 3.281438827515
-166.925369262695 -79.105056762695 -254.926452636719 5.683661937714
-162.269531250000 -80.754653930664 -256.957183837891 7.347388744354
-121.777297973633 -71.626029968262 -255.466583251953 2.248238086700
-147.526840209961 -79.714622497559 -257.568481445313 2.777957677841
-106.522430419922 -72.242637634277 -258.859893798828 1.162100315094
-13.674663543701 -80.480613708496 -259.822021484375 2.838747739792
-142.351760864258 -72.097488403320 -260.739929199219 1.774525523186
-125.857406616211 -72.954246520996 -261.441772460938 1.977085828781
-155.840713500977 -73.155014038086 -265.198333740234 1.036635756493
21.864112854004 -75.494544982910 -267.205322265625 1.858336210251
-152.780944824219 -70.823684692383 -283.445739746094 1.625455379486
-167.924621582031 -71.265739440918 -279.672485351563 1.594946980476
-4.267091274261 -80.348915100098 -282.908599853516 3.552474021912
-148.802124023438 -76.812469482422 -278.731292724609 2.832617998123
-5.775695323944 -72.330955505371 -276.249145507813 4.482955455780
16.388895034790 -74.413368225098 -286.018432617188 3.301985979080
-132.045791625977 -71.151878356934 -287.173706054688 3.603209257126
-68.725959777832 -78.310325622559 -280.308685302734 7.281593799591
-40.665763854980 -72.578697204590 -280.972412109375 5.569501876831
-115.310272216797 -70.941665649414 -288.166442871094 1.837583780289
-89.341072082520 -73.495086669922 -293.934387207031 2.716470241547
-89.672996520996 -72.866378784180 -295.547760009766 3.990031480789
-47.805469512939 -79.191383361816 -287.507659912109 2.383074045181
-114.176513671875 -68.716255187988 -292.649871826172 0.889555931091
-106.748466491699 -74.698539733887 -292.180206298828 2.518013238907
-31.283643722534 -77.842208862305 -290.992034912109 1.628264188766
-115.620437622070 -76.119079589844 -288.027923583984 1.539363741875
-125.330924987793 -77.615829467773 -288.390411376953 0.541648864746
-144.087783813477 -77.265007019043 -294.500366210938 3.101899623871
10.651506423950 -70.971504211426 -286.837432861328 2.657640933990
15.859232902527 -76.159606933594 -292.861511230469 0.792884588242
-155.149826049805 -73.875740051270 -294.158935546875 1.328604102135
-154.078689575195 -73.141937255859 -304.016662597656 2.929068326950
-145.558441162109 -77.025749206543 -310.017517089844 1.642300128937
-149.843139648438 -70.007698059082 -306.997100830078 3.685644865036
-151.308303833008 -77.822860717773 -313.148040771484 1.613351821899
25.890197753906 -72.871055603027 -14.014254570007 2.250950574875
26.203001022339 -70.749908447266 -22.181373596191 1.029193162918
25.492328643799 -72.645111083984 -19.359123229980 1.725487828255
28.631607055664 -73.848167419434 -39.758670806885 1.481438159943
-51.010932922363 -65.228393554688 -55.544368743896 8.721934318542
-63.342510223389 -70.965911865234 -52.716907501221 2.571318387985
-39.110378265381 -71.846298217773 -52.170429229736 1.195567488670
-80.907585144043 -74.479583740234 -59.871166229248 1.532012581825
82.281379699707 -79.052627563477 -80.056083679199 2.498378753662
-17.842561721802 -69.946952819824 -74.994934082031 2.794183254242
91.880577087402 -76.809608459473 -66.684951782227 5.433433055878
96.940658569336 -71.794944763184 -79.426551818848 1.331036448479
-91.317382812500 -72.025741577148 -82.014289855957 2.557817697525
76.769950866699 -68.437774658203 -74.866920471191 5.482210636139
-39.196239471436 -76.666496276855 -84.588470458984 2.340677022934
103.186683654785 -73.179656982422 -83.589454650879 3.539935350418
-55.013210296631 -75.884170532227 -89.959045410156 1.700985789299
51.622001647949 -72.073707580566 -87.353607177734 3.376234054565
73.727355957031 -74.234413146973 -85.538505554199 1.622200250626
58.081279754639 -77.941261291504 -93.444625854492 3.607234001160
48.145977020264 -70.974540710449 -104.105766296387 2.869490861893
68.355323791504 -75.739639282227 -94.201873779297 4.623712539673
49.395164489746 -65.090057373047 -96.900138854980 2.145696640015
102.195991516113 -73.224411010742 -103.423004150391 1.796056270599
114.504722595215 -74.554359436035 -107.267654418945 4.221129894257
76.715438842773 -69.466384887695 -99.625091552734 3.223937988281
90.782463073730 -72.794387817383 -104.467079162598 2.456989526749
102.578361511230 -70.697479248047 -101.172782897949 1.406959772110
106.764709472656 -63.018341064453 -99.932189941406 3.548200845718
41.185192108154 -80.738800048828 -106.988830566406 3.266394138336
108.863471984863 -74.303878784180 -118.446128845215 1.189844250679
116.137130737305 -75.598350524902 -121.750205993652 3.216158390045
34.075225830078 -72.081047058105 -117.421684265137 2.692412376404
40.152496337891 -74.612037658691 -118.293693542480 4.291727066040
107.626640319824 -70.507881164551 -129.434036254883 1.496626853943
39.318637847900 -77.862373352051 -125.870918273926 0.635623931885
116.886070251465 -68.724563598633 -130.436004638672 2.423443317413
111.394569396973 -71.634246826172 -127.587547302246 1.851131081581
26.150278091431 -70.489883422852 -136.470428466797 2.314587831497
-46.609752655029 -77.327125549316 -131.395172119141 6.094849586487
-56.235435485840 -74.387878417969 -140.833389282227 1.365669250488
116.481475830078 -71.171676635742 -132.371292114258 0.614508032799
-73.964172363281 -76.481338500977 -142.903167724609 2.412632942200
-74.162872314453 -71.357269287109 -138.047454833984 1.606326103210
-57.803531646729 -76.130928039551 -138.642181396484 2.236965179443
34.942749023438 -74.333602905273 -137.981964111328 1.687247633934
105.779273986816 -70.860519409180 -148.067504882813 4.642204761505
-62.372676849365 -75.215644836426 -144.408996582031 5.517004489899
-43.427669525146 -68.521926879883 -143.886993408203 2.705211400986
41.841979980469 -79.027359008789 -149.541351318359 7.915714740753
-62.338260650635 -76.294548034668 -151.689895629883 3.815348386765
114.323898315430 -65.635536193848 -143.932601928711 3.394433975220
110.298698425293 -75.050880432129 -155.832153320313 2.222088098526
111.143310546875 -75.069839477539 -147.531326293945 2.138478279114
-37.315773010254 -72.806007385254 -155.754974365234 1.804327011108
-64.550170898438 -72.890190124512 -155.302261352539 1.318886995316
-68.254592895508 -63.806209564209 -152.096160888672 5.643463134766
29.633638381958 -68.977661132813 -152.000091552734 2.206777572632
1.285003423691 -76.057678222656 -163.597946166992 2.300590991974
108.818397521973 -71.790679931641 -155.293029785156 1.622945666313
109.370132446289 -67.585601806641 -155.503021240234 3.092687368393
114.986183166504 -72.101570129395 -157.785339355469 1.567416310310
-63.509124755859 -79.140548706055 -158.908859252930 2.141995668411
-46.083026885986 -75.268218994141 -161.026153564453 1.416670322418
6.710246086121 -76.424758911133 -169.995086669922 5.977335929871
-23.666318893433 -70.382286071777 -172.708465576172 4.037814617157
106.902832031250 -73.314186096191 -161.220993041992 1.550908327103
-35.302452087402 -69.926551818848 -160.628662109375 1.985047698021
111.447250366211 -75.766708374023 -167.517501831055 1.448265910149
-40.391990661621 -70.193168640137 -171.020767211914 0.858094990253
111.969207763672 -76.141769409180 -167.553863525391 1.228682398796
-149.980468750000 -68.754226684570 -181.325485229492 3.069747686386
-30.758970260620 -71.268959045410 -174.061981201172 2.593245029449
-19.632081985474 -68.584594726563 -178.533523559570 5.119235515594
32.275737762451 -78.635635375977 -174.373977661133 4.654772281647
15.970557212830 -71.415161132813 -178.103332519531 1.784749507904
23.366498947144 -74.989044189453 -181.003585815430 1.331883668900
106.811065673828 -77.613105773926 -187.698593139648 0.907385826111
-151.962295532227 -68.763336181641 -187.169891357422 1.466008067131
-20.938764572144 -73.332031250000 -186.720687866211 1.561275124550
106.057815551758 -72.375549316406 -177.736236572266 1.535733699799
103.852134704590 -71.704582214355 -191.003402709961 1.375659227371
105.328338623047 -73.976188659668 -180.308349609375 1.213195800781
96.458618164063 -78.543395996094 -195.296463012695 3.214654445648
-155.754699707031 -83.697547912598 -197.414001464844 4.253140926361
98.460899353027 -79.494178771973 -202.391845703125 3.224466085434
-32.375640869141 -73.112762451172 -195.448760986328 4.492000579834
98.286079406738 -70.179290771484 -195.210983276367 2.002877950668
-127.670295715332 -73.748031616211 -191.193893432617 5.304806232452
-30.875015258789 -75.504257202148 -190.513458251953 2.107179403305
-141.267929077148 -74.048843383789 -202.748794555664 2.490073680878
90.940216064453 -72.106735229492 -198.417053222656 4.524726390839
9.714722633362 -71.879371643066 -201.116592407227 1.794628977776
24.572469711304 -76.048645019531 -195.786987304688 2.774054765701
-149.492736816406 -75.579483032227 -198.401779174805 2.023247480392
-136.671127319336 -70.518562316895 -207.317306518555 5.024769306183
-15.592890739441 -75.000633239746 -206.192916870117 3.419911384583
-125.170448303223 -81.085182189941 -203.725692749023 7.892804145813
-147.354965209961 -75.894851684570 -200.523910522461 1.779625535011
7.434134960175 -70.807800292969 -198.475524902344 2.387097835541
-25.456653594971 -72.315322875977 -204.319320678711 2.812973260880
18.712236404419 -72.306755065918 -207.465972900391 1.816132783890
6.514657974243 -73.472984313965 -209.366989135742 1.988034367561
86.309120178223 -73.382469177246 -213.034637451172 1.087263226509
-25.596132278442 -65.301513671875 -210.958297729492 7.604974746704
94.952857971191 -72.202102661133 -210.715789794922 1.425949931145
102.673301696777 -73.596687316895 -206.562057495117 2.828628540039
-142.204879760742 -68.191619873047 -219.183349609375 2.730492353439
95.036201477051 -68.759864807129 -209.972274780273 2.654536724091
6.769503116608 -68.317642211914 -208.765747070313 3.033918619156
4.398615360260 -71.468070983887 -208.884002685547 3.300092458725
-33.684486389160 -71.050880432129 -209.509735107422 2.933331251144
-91.904579162598 -68.086540222168 -213.537475585938 3.566619873047
-34.043777465820 -73.173049926758 -213.724426269531 2.006980419159
84.950294494629 -74.526695251465 -215.914459228516 1.134632587433
83.694046020508 -75.164123535156 -216.571945190430 1.337124228477
-38.372467041016 -67.382705688477 -215.150115966797 8.749798774719
-76.892539978027 -64.588180541992 -224.845901489258 13.940798759460
-2.783823728561 -71.344696044922 -214.950286865234 1.218860983849
89.350578308105 -74.455352783203 -218.129684448242 0.962191224098
-146.320037841797 -76.632812500000 -220.455108642578 2.043705463409
-169.970962524414 -75.472038269043 -210.987533569336 6.205712795258
-157.630798339844 -72.242568969727 -219.043106079102 3.502473592758
-18.733488082886 -76.588867187500 -228.230377197266 2.153383016586
-151.651336669922 -77.533515930176 -223.239517211914 1.150223970413
-6.644804000854 -80.167587280273 -227.936965942383 1.744176626205
6.505573272705 -70.893287658691 -217.163024902344 2.944265365601
-160.825531005859 -79.522048950195 -220.246963500977 7.758850097656
-163.849166870117 -71.872871398926 -225.057754516602 1.232138395309
78.010192871094 -72.441513061523 -229.523056030273 0.677458226681
5.944917678833 -74.749015808105 -229.508163452148 1.401335835457
-148.410751342773 -75.545440673828 -221.385406494141 1.336850523949
-142.696670532227 -74.379165649414 -219.908874511719 3.407401323318
-20.974992752075 -75.935325622559 -225.415832519531 0.717767357826
4.227175235748 -73.519767761230 -222.297912597656 2.047801733017
84.698066711426 -73.151161193848 -221.528686523438 1.265987157822
-157.792526245117 -75.580780029297 -229.508758544922 3.857684612274
-145.708190917969 -71.031509399414 -227.674392700195 2.051523923874
-125.469459533691 -69.457641601563 -229.894866943359 3.886685848236
82.783485412598 -77.778388977051 -231.045333862305 4.895753860474
-114.904869079590 -68.337913513184 -232.061111450195 1.409479737282
-144.875015258789 -76.487525939941 -228.748367309570 1.940956234932
-153.488128662109 -78.913833618164 -228.447402954102 0.963735401630
-146.480972290039 -72.993972778320 -226.037643432617 1.935915231705
-150.951873779297 -68.786216735840 -229.810867309570 2.009092092514
-166.394943237305 -68.713104248047 -237.407638549805 1.013444066048
-136.715545654297 -72.933845520020 -235.922439575195 4.019888877869
-135.820770263672 -71.614532470703 -232.930084228516 1.342568993568
-155.300689697266 -72.951171875000 -227.793914794922 1.336156010628
-145.142501831055 -71.934417724609 -230.722518920898 2.470240831375
-151.499786376953 -68.769279479980 -232.664611816406 2.506903648376
71.617202758789 -71.866737365723 -217.781738281250 8.398267745972
68.651435852051 -68.799263000488 -238.810928344727 1.234853744507
-160.992599487305 -71.179977416992 -239.318466186523 2.780630588531
69.516227722168 -73.885459899902 -233.425216674805 2.096736907959
-20.637430191040 -71.774749755859 -235.505371093750 2.629407405853
9.454284667969 -73.268646240234 -239.346023559570 2.075878858566
18.274805068970 -77.843124389648 -234.340866088867 1.374990940094
-140.361267089844 -72.320243835449 -242.595413208008 4.930727958679
17.169357299805 -72.786476135254 -243.392822265625 1.733807086945
67.070487976074 -74.822570800781 -236.563873291016 1.380786061287
10.216309547424 -71.921379089355 -234.841812133789 1.165299534798
5.265378952026 -76.922607421875 -244.387145996094 0.982677400112
-7.595294952393 -67.177902221680 -239.487304687500 2.712453842163
-17.513414382935 -78.123748779297 -247.281951904297 5.885275840759
1.839114308357 -77.786918640137 -241.410903930664 1.008452415466
3.468265533447 -70.504226684570 -240.658737182617 1.177813410759
57.031158447266 -75.432861328125 -240.060516357422 3.651830196381
-58.928443908691 -74.792137145996 -245.484542846680 2.062085866928
19.129199981689 -74.461303710938 -250.098358154297 0.725152611732
-57.084815979004 -71.215629577637 -245.224136352539 1.771400094032
-6.527329444885 -72.425292968750 -249.653289794922 2.762211561203
-63.440032958984 -70.119148254395 -253.622528076172 4.458170413971
-83.591133117676 -80.450622558594 -250.776458740234 5.328115463257
-80.380691528320 -78.543006896973 -252.245758056641 3.270982027054
-17.174974441528 -71.931770324707 -251.302978515625 1.854752540588
-123.765388488770 -78.706390380859 -261.887420654297 3.349831342697
-15.005141258240 -67.686859130859 -255.737396240234 2.510337114334
-123.219726562500 -72.446716308594 -255.082580566406 0.615925550461
-118.287155151367 -68.579498291016 -258.216094970703 2.461139678955
-103.556488037109 -78.754859924316 -256.563385009766 5.860243797302
-141.498489379883 -71.501670837402 -258.817626953125 3.433621406555
-145.845321655273 -70.746726989746 -266.468475341797 1.048885226250
-166.414611816406 -69.262451171875 -264.781250000000 0.439264327288
14.043231964111 -75.647384643555 -281.508087158203 2.523519754410
-61.100498199463 -77.314170837402 -282.683929443359 4.401375293732
-64.764198303223 -74.941635131836 -282.928558349609 3.261296510696
-44.631305694580 -75.881950378418 -284.005096435547 2.984276294708
-25.433183670044 -75.507858276367 -281.383941650391 5.245987892151
-90.847023010254 -73.686904907227 -295.458557128906 3.736486911774
-30.091602325439 -71.276847839355 -288.256072998047 1.533403396606
-0.300761878490 -66.832366943359 -284.558898925781 2.758605003357
-163.750885009766 -75.580764770508 -289.748352050781 1.069278001785
-15.710482597351 -76.016609191895 -290.527923583984 1.309915781021
8.260125160217 -67.939590454102 -289.979919433594 2.209104537964
15.786040306091 -66.114761352539 -291.484924316406 3.689260244370
-54.511772155762 -75.290946960449 -292.128448486328 1.372066617012
-27.288787841797 -78.409873962402 -285.183532714844 2.370384454727
16.791847229004 -70.344062805176 -288.927032470703 3.541327714920
-66.895660400391 -75.540245056152 -294.357360839844 3.643169879913
-37.437263488770 -72.844993591309 -289.874786376953 1.459615826607
-15.663064002991 -72.275314331055 -291.436248779297 1.135492920876
9.256603240967 -72.868011474609 -291.575408935547 2.025455474854
-13.981053352356 -77.321685791016 -288.083282470703 1.583289027214
7.682922840118 -71.060165405273 -292.328857421875 2.210788488388
12.285618782043 -74.051551818848 -291.678314208984 2.548365592957
-133.204696655273 -77.217567443848 -289.209533691406 1.439593911171
-139.107299804688 -75.209320068359 -302.013946533203 5.338070869446
-149.650909423828 -78.565124511719 -309.642089843750 1.772669672966
38.240768432617 -61.444744110107 -11.100716590881 2.721427917480
30.182861328125 -71.002227783203 -7.373482704163 5.091142177582
40.545372009277 -71.573432922363 -13.873936653137 1.018377780914
20.983203887939 -71.776405334473 -21.071449279785 0.813318967819
41.735546112061 -71.649391174316 -26.058506011963 3.369790077209
20.316289901733 -67.964157104492 -18.298831939697 3.650613784790
23.893133163452 -76.637878417969 -29.930961608887 4.370367527008
22.318241119385 -74.720611572266 -35.772571563721 2.830531358719
42.217433929443 -67.614418029785 -33.872211456299 1.972823619843
26.998342514038 -70.429580688477 -38.500831604004 1.052838802338
39.238754272461 -71.993179321289 -30.659019470215 4.129526138306
34.292423248291 -67.332855224609 -36.792781829834 1.309098958969
29.794219970703 -72.028068542480 -40.697330474854 1.516782999039
32.854763031006 -68.854667663574 -41.353851318359 0.994065225124
44.484466552734 -71.359153747559 -44.225368499756 4.916107177734
33.802318572998 -65.686401367188 -45.104885101318 4.233436584473
-38.030212402344 -66.256546020508 -57.135753631592 7.626806735992
-29.156984329224 -66.383743286133 -42.467712402344 6.814367294312
-89.106964111328 -70.408790588379 -55.270015716553 3.859336853027
-86.534339904785 -74.346031188965 -63.166179656982 1.837410092354
81.519508361816 -71.422172546387 -64.946701049805 2.232643365860
81.911033630371 -72.100929260254 -69.844978332520 1.707941651344
-14.115791320801 -75.188186645508 -75.776252746582 6.362587928772
-84.046119689941 -73.639747619629 -70.936813354492 3.306270837784
-23.499097824097 -71.228263854980 -79.674552917480 3.371953487396
-49.082469940186 -78.016517639160 -90.536094665527 2.718664169312
62.698402404785 -72.116355895996 -84.460678100586 2.525399208069
56.188938140869 -67.016136169434 -90.302261352539 2.633940219879
96.271270751953 -72.924453735352 -86.191780090332 1.708456397057
76.335372924805 -75.129760742188 -94.500205993652 1.043694853783
-62.907474517822 -76.116928100586 -91.189987182617 3.585651636124
-64.282859802246 -69.138946533203 -95.314254760742 1.734645009041
44.642787933350 -72.123199462891 -95.910804748535 1.665885686874
70.928245544434 -79.246398925781 -99.594871520996 6.996210098267
50.182876586914 -76.456207275391 -100.001663208008 2.220653295517
102.497886657715 -76.604682922363 -96.428794860840 3.620877742767
-87.205810546875 -73.363136291504 -106.561882019043 3.960334539413
40.586471557617 -79.763450622559 -108.865104675293 1.936669230461
108.128974914551 -69.223892211914 -107.751304626465 0.802071273327
46.216964721680 -67.851074218750 -109.701629638672 1.050318837166
104.229263305664 -68.580520629883 -106.125968933105 1.614808559418
-82.644172668457 -70.106986999512 -114.964477539063 2.275502920151
36.175102233887 -69.408409118652 -117.460090637207 2.040319204330
112.547058105469 -74.886810302734 -118.894309997559 1.542515993118
101.334091186523 -72.113937377930 -116.425346374512 4.967237472534
107.473625183105 -76.340301513672 -114.205276489258 2.555111646652
110.443908691406 -78.390525817871 -115.124137878418 4.270976066589
32.185131072998 -73.966407775879 -114.614936828613 2.796216964722
34.122406005859 -77.729087829590 -117.380310058594 1.731982350349
44.604274749756 -71.547836303711 -111.087036132813 1.823551177979
110.395141601563 -72.770454406738 -123.683906555176 1.875956892967
41.881237030029 -70.063987731934 -122.957756042480 1.732417345047
112.156997680664 -74.984825134277 -131.857208251953 1.361070513725
115.836853027344 -70.002548217773 -127.294822692871 2.395039796829
32.642166137695 -70.928421020508 -119.038230895996 1.626725792885
-76.723808288574 -76.335807800293 -123.907859802246 6.652598381042
117.924644470215 -78.285240173340 -135.291763305664 4.009631156921
-60.181652069092 -80.102249145508 -142.421890258789 6.786093235016
33.720813751221 -74.665496826172 -135.764251708984 3.494315624237
-73.693527221680 -72.365226745605 -139.338775634766 1.340337514877
29.963602066040 -70.108604431152 -134.337631225586 1.603287816048
-71.051528930664 -75.382255554199 -141.515991210938 1.283620834351
-41.984798431396 -75.644859313965 -149.338195800781 1.353997230530
-72.638877868652 -77.962608337402 -134.411361694336 5.952102184296
110.252861022949 -65.309211730957 -137.210494995117 3.756286144257
118.701599121094 -73.980224609375 -139.135528564453 4.083538055420
126.229293823242 -72.085090637207 -145.993484497070 9.598494529724
-71.330589294434 -75.457084655762 -144.677337646484 0.216242015362
8.920411109924 -71.656967163086 -149.377487182617 2.515744447708
-58.406074523926 -69.756874084473 -153.840377807617 5.945006370544
-45.368141174316 -76.517318725586 -152.149002075195 1.719523787498
109.786514282227 -69.773963928223 -158.781188964844 0.950119614601
-38.122543334961 -76.305717468262 -151.041107177734 2.176506519318
10.570256233215 -69.861610412598 -161.428359985352 2.720713853836
23.351819992065 -70.612739562988 -159.465347290039 1.759182333946
113.428512573242 -73.531234741211 -163.207458496094 1.296874880791
33.706264495850 -66.668121337891 -158.395782470703 4.516330718994
-2.426592588425 -78.106292724609 -157.620697021484 5.106535434723
31.837442398071 -71.148277282715 -163.118743896484 1.042396068573
-68.730613708496 -64.731948852539 -157.328033447266 5.554111957550
-60.795879364014 -70.297286987305 -158.002563476563 3.729457139969
-65.676460266113 -70.484909057617 -161.316223144531 2.355802059174
112.217155456543 -71.254653930664 -160.855957031250 2.038706302643
-45.960388183594 -68.912979125977 -163.262756347656 2.162484884262
17.092178344727 -78.664871215820 -171.650863647461 2.372174263000
-61.900615692139 -76.425865173340 -174.890579223633 0.957976281643
-59.001998901367 -76.128929138184 -174.231048583984 0.979904174805
-43.533760070801 -75.477249145508 -162.580459594727 0.991464018822
-37.631072998047 -63.862136840820 -165.744537353516 5.338614463806
114.056007385254 -66.556579589844 -174.578018188477 4.791349887848
-33.722160339355 -73.971397399902 -172.989730834961 3.635223388672
16.973594665527 -71.494888305664 -168.591094970703 2.620466947556
106.325126647949 -78.739219665527 -191.462615966797 2.566027402878
-153.000106811523 -75.823745727539 -176.666091918945 4.216732978821
-141.803115844727 -74.107353210449 -173.420440673828 3.494005203247
-151.362716674805 -71.031715393066 -176.996749877930 1.341428160667
-143.756439208984 -67.732254028320 -180.302658081055 3.103719234467
-25.495313644409 -70.043251037598 -179.210845947266 2.328853130341
-24.897016525269 -71.641792297363 -183.414108276367 1.159312963486
23.676029205322 -67.894470214844 -190.405166625977 3.271386623383
-140.677703857422 -72.531852722168 -186.664794921875 1.483610868454
-143.022186279297 -70.221328735352 -182.123413085938 1.799829363823
-22.460494995117 -62.969970703125 -186.096801757813 5.715440750122
15.289960861206 -77.484848022461 -181.480148315430 1.390827775002
-138.241806030273 -73.680908203125 -192.138641357422 4.782801628113
-36.035785675049 -77.433921813965 -179.808929443359 2.669776439667
102.644241333008 -76.845001220703 -188.759414672852 0.832809925079
107.649620056152 -69.655776977539 -194.427612304688 4.376597881317
20.735509872437 -72.460700988770 -187.733322143555 2.955321788788
-20.556459426880 -78.795608520508 -189.619415283203 1.615028381348
-24.077510833740 -77.064521789551 -198.394256591797 1.513739466667
-145.481735229492 -68.306327819824 -196.674728393555 2.604979753494
-134.296096801758 -70.761367797852 -198.553100585938 1.579026579857
-121.983001708984 -71.258827209473 -193.677215576172 2.172040462494
-123.693138122559 -76.237144470215 -196.919174194336 2.806134700775
-16.206216812134 -71.780982971191 -193.695419311523 1.998927474022
12.700731277466 -75.728408813477 -192.209533691406 1.880801439285
94.564628601074 -67.059120178223 -198.721923828125 4.888590812683
-145.368103027344 -73.586570739746 -194.677841186523 2.371934175491
-145.758926391602 -68.911178588867 -202.946487426758 3.179682254791
-145.212356567383 -65.328987121582 -197.886047363281 1.842571735382
-155.141143798828 -66.937072753906 -200.901779174805 1.491326570511
-29.201551437378 -71.061859130859 -200.413619995117 4.417335987091
-12.978479385376 -79.072029113770 -192.464904785156 4.265746593475
-142.826339721680 -64.048881530762 -194.214752197266 2.141280412674
-19.213291168213 -76.367683410645 -194.107437133789 2.875154495239
-162.817367553711 -73.964675903320 -199.211288452148 2.365798473358
-129.973556518555 -72.543907165527 -198.403671264648 2.067799091339
11.032703399658 -68.747917175293 -209.446960449219 1.465273022652
-161.293640136719 -70.875343322754 -202.060607910156 2.853826522827
-142.589889526367 -74.872245788574 -201.303222656250 2.438660621643
11.801086425781 -75.175354003906 -200.353836059570 2.160377740860
-155.669784545898 -76.548835754395 -206.536666870117 5.186597347260
-22.661350250244 -74.153961181641 -200.848617553711 1.522584319115
103.493087768555 -72.630271911621 -198.926010131836 1.220913887024
-152.347534179688 -72.462516784668 -213.662261962891 2.060647010803
-161.936065673828 -73.569084167480 -213.689529418945 2.148652791977
-79.235527038574 -69.929039001465 -213.772933959961 3.063813447952
93.993461608887 -72.166648864746 -208.795455932617 1.115460872650
-3.322952747345 -72.813240051270 -211.332473754883 3.018600940704
-153.439666748047 -72.677680969238 -209.635238647461 3.481731653214
-89.169967651367 -65.729087829590 -215.551483154297 5.164995193481
-4.905227661133 -72.429359436035 -207.959411621094 3.052778720856
16.025009155273 -69.119277954102 -221.167098999023 1.254405379295
-142.667785644531 -74.156486511230 -217.861022949219 3.145094394684
-2.145497083664 -74.959716796875 -218.489807128906 1.348026990891
-13.454366683960 -66.173980712891 -218.742752075195 2.241154432297
-19.752126693726 -68.133224487305 -217.886917114258 4.123584747314
87.403984069824 -73.965515136719 -213.754531860352 1.296661853790
-21.712081909180 -67.029960632324 -213.317733764648 5.203479290009
-27.982450485229 -72.856231689453 -217.977081298828 1.530446529388
-101.823959350586 -72.165153503418 -220.000823974609 1.396926403046
-14.210682868958 -71.768371582031 -225.423019409180 1.128761649132
90.102890014648 -71.273864746094 -217.764511108398 1.303829431534
82.062469482422 -70.934036254883 -217.404449462891 1.389388680458
8.226473808289 -77.740524291992 -224.592193603516 1.860810875893
-12.406720161438 -71.194671630859 -225.808074951172 1.609399437904
79.946281433105 -81.563728332520 -221.106140136719 5.755589962006
-128.604278564453 -72.176696777344 -221.782653808594 3.064949750900
-23.183469772339 -75.228332519531 -220.527496337891 0.721665322781
-102.355422973633 -69.837371826172 -225.127258300781 1.655205726624
-106.966796875000 -75.593780517578 -228.826889038086 4.241331100464
-133.415039062500 -70.265441894531 -227.447509765625 1.911443114281
78.435348510742 -73.640968322754 -222.556701660156 1.121238827705
-126.769134521484 -75.097122192383 -227.860061645508 1.003407239914
1.032373189926 -71.663543701172 -229.959991455078 3.253517150879
73.179199218750 -72.651016235352 -222.465438842773 4.390585899353
-14.468655586243 -74.131561279297 -230.239990234375 1.833837866783
-7.743087291718 -74.366722106934 -229.319091796875 1.463138818741
-5.033821105957 -70.258987426758 -232.525024414063 0.730148434639
7.949728012085 -73.776481628418 -229.885131835938 1.981981396675
82.918144226074 -72.784126281738 -224.646774291992 0.582972586155
16.879308700562 -73.605163574219 -231.527877807617 1.633528470993
3.024419546127 -73.969314575195 -231.638717651367 2.055633544922
-4.107817173004 -75.161994934082 -223.840499877930 3.226727485657
-5.097759723663 -70.003677368164 -233.320877075195 0.298525065184
16.227455139160 -70.525894165039 -231.637939453125 1.158218860626
-8.172107696533 -69.213104248047 -234.860855102539 1.823847651482
75.113952636719 -71.668411254883 -234.880523681641 1.342675209045
-7.954552173615 -69.728225708008 -232.718795776367 1.740114927292
23.332002639771 -72.669258117676 -226.790512084961 5.732137203217
-160.000885009766 -67.745841979980 -243.123077392578 1.301507353783
-4.609032154083 -72.299713134766 -242.490005493164 1.901098251343
-9.784386634827 -72.005622863770 -240.198440551758 1.383771181107
-166.197921752930 -70.605445861816 -259.162689208984 1.531362771988
-8.799002647400 -73.835609436035 -242.824295043945 2.057470321655
20.010150909424 -75.957702636719 -241.892150878906 1.780116200447
-147.015518188477 -75.941909790039 -251.090606689453 1.673498630524
-66.076515197754 -72.499084472656 -247.958801269531 2.002002716064
-56.717994689941 -70.077285766602 -248.624237060547 2.870022535324
55.063823699951 -70.689224243164 -246.966064453125 2.085084915161
-76.335998535156 -72.986839294434 -245.195510864258 2.794194459915
14.589033126831 -72.476394653320 -243.757431030273 1.958223819733
-77.044837951660 -73.857498168945 -249.999450683594 1.856944441795
-18.924486160278 -73.079284667969 -246.145690917969 3.573787689209
-149.554687500000 -74.013999938965 -255.020935058594 2.513179779053
48.724899291992 -69.778755187988 -247.974151611328 0.715366065502
-83.501693725586 -68.230201721191 -247.310516357422 4.237253189087
-94.044250488281 -73.379570007324 -255.490081787109 1.145904898643
-94.756996154785 -79.971725463867 -251.620086669922 6.838423728943
-123.957099914551 -73.170951843262 -259.632049560547 1.096804261208
-108.775077819824 -69.289489746094 -256.733093261719 1.698338508606
-106.964164733887 -69.450683593750 -259.731475830078 1.933892846107
17.187625885010 -71.794036865234 -257.515594482422 5.841203689575
-128.636123657227 -68.327377319336 -266.305999755859 3.080141067505
-7.261105537415 -76.217369079590 -276.452667236328 1.669547080994
-145.964279174805 -76.572692871094 -282.161499023438 1.471325635910
-168.546035766602 -71.134216308594 -282.076568603516 2.151408672333
-127.842964172363 -73.316833496094 -287.864196777344 3.497192621231
-115.753349304199 -75.129714965820 -278.477264404297 8.462122917175
-79.594543457031 -67.707824707031 -287.452911376953 2.054119825363
-55.367637634277 -66.380783081055 -289.901977539063 3.889282464981
-44.259216308594 -71.193153381348 -285.753417968750 2.095416784286
-12.115909576416 -70.974105834961 -289.341064453125 1.009117841721
-9.566444396973 -70.753585815430 -286.801361083984 2.889018297195
-33.843555450439 -73.684768676758 -289.226470947266 2.974772453308
-34.022506713867 -71.416694641113 -286.617065429688 2.710274457932
-19.892490386963 -68.514862060547 -292.676483154297 5.004357337952
-73.198348999023 -75.421012878418 -292.195434570313 2.588119029999
-53.491996765137 -68.655792236328 -294.909332275391 5.232275485992
-12.063516616821 -66.919456481934 -290.518554687500 4.718980789185
-14.417169570923 -72.434226989746 -290.533966064453 1.279134273529
-4.291712284088 -71.481292724609 -291.385345458984 0.967997074127
4.518270969391 -67.005119323730 -295.683715820313 3.022627115250
-86.481674194336 -70.939735412598 -283.539520263672 3.507972955704
-146.869903564453 -69.844245910645 -286.789489746094 2.007637977600
-116.831710815430 -73.421623229980 -296.316223144531 3.959091663361
-152.982940673828 -76.794609069824 -302.983001708984 2.529631376266
-154.772216796875 -73.760505676270 -298.504425048828 1.790319681168
-142.556671142578 -72.094551086426 -303.772308349609 1.332394361496
45.860446929932 -74.094528198242 -25.665447235107 2.375947475433
17.588008880615 -71.000579833984 -23.743652343750 2.704068660736
50.426628112793 -73.515037536621 -24.849712371826 2.553273677826
49.331348419189 -75.681335449219 -31.981521606445 4.104218959808
86.438041687012 -65.596359252930 -66.319786071777 3.554833650589
98.169853210449 -68.575408935547 -75.099685668945 2.321145772934
96.327377319336 -70.087745666504 -79.572296142578 3.144397020340
95.321212768555 -68.747283935547 -88.537254333496 5.445025920868
48.683475494385 -71.405410766602 -86.582511901855 4.609123229980
50.883590698242 -71.254112243652 -90.925888061523 1.276449441910
60.384952545166 -68.647384643555 -92.028511047363 2.157644987106
-64.922798156738 -67.005233764648 -92.155281066895 1.672697067261
72.999145507813 -72.396903991699 -89.811149597168 2.743068695068
103.029754638672 -69.933258056641 -90.302993774414 1.523956775665
73.754814147949 -75.244812011719 -98.765998840332 2.227393150330
93.634994506836 -66.901687622070 -94.549667358398 6.977303981781
-81.108894348145 -73.059700012207 -100.983757019043 1.060383558273
46.500091552734 -71.697471618652 -103.871376037598 2.883492469788
-88.579788208008 -75.384689331055 -109.405029296875 3.758847951889
50.583599090576 -72.752838134766 -112.862228393555 1.509454607964
42.865135192871 -66.240203857422 -105.779998779297 1.316091179848
102.096771240234 -74.478302001953 -105.440849304199 2.900733470917
40.912132263184 -67.801902770996 -107.826667785645 2.470396518707
41.850360870361 -74.898094177246 -114.244422912598 3.691702604294
40.878940582275 -67.870819091797 -116.108329772949 1.522362112999
103.150009155273 -65.217987060547 -117.274971008301 5.709295749664
-80.617218017578 -70.326263427734 -118.880165100098 1.615061163902
114.243621826172 -74.193458557129 -119.913383483887 0.716001451015
39.704433441162 -64.771682739258 -115.789237976074 4.080331325531
44.533344268799 -72.944953918457 -115.020744323730 1.582128643990
32.592052459717 -72.806144714355 -118.888587951660 0.569750368595
-54.588790893555 -70.358932495117 -131.050750732422 2.275035858154
29.495031356812 -69.661369323730 -120.972969055176 3.798252344131
-77.924873352051 -73.189453125000 -136.080795288086 1.166758298874
-60.726932525635 -70.451293945313 -133.863418579102 1.881120324135
-75.409599304199 -69.058418273926 -129.874649047852 1.329248309135
34.522140502930 -70.838356018066 -125.531288146973 2.333773136139
-55.263607025146 -69.325096130371 -131.171310424805 1.977831721306
40.327831268311 -71.572212219238 -131.123825073242 1.378244042397
-76.648681640625 -72.162544250488 -137.820953369141 1.388866186142
-56.652900695801 -74.490005493164 -140.420074462891 1.505608320236
29.288806915283 -70.289108276367 -137.529876708984 2.115975618362
112.587837219238 -75.772323608398 -145.539764404297 1.537642121315
119.933174133301 -72.085151672363 -137.221679687500 3.936860322952
34.381626129150 -70.516685485840 -139.712585449219 1.846073150635
-47.827892303467 -68.726989746094 -144.111801147461 1.550486207008
109.567123413086 -71.068374633789 -158.339401245117 1.180474162102
-72.805725097656 -70.963630676270 -148.845123291016 1.732334852219
-47.883934020996 -73.495346069336 -137.115661621094 1.290233373642
35.800670623779 -76.564872741699 -151.300018310547 1.852106690407
-68.187301635742 -73.180389404297 -142.169158935547 2.413987636566
-69.474906921387 -73.891960144043 -144.104629516602 2.401832580566
117.594047546387 -66.333488464355 -145.713745117188 3.851721286774
-62.592086791992 -69.025497436523 -146.650680541992 5.672266006470
-40.476741790771 -69.466545104980 -149.270141601563 2.158062696457
32.166580200195 -65.619079589844 -152.688552856445 4.600485801697
-75.310432434082 -70.626464843750 -147.617630004883 1.761249184608
8.017380714417 -73.929710388184 -160.126190185547 1.675435304642
34.961605072021 -67.340209960938 -155.568786621094 4.561335563660
25.418462753296 -72.600105285645 -150.689773559570 2.963029861450
5.892499446869 -75.892936706543 -154.315811157227 3.498057842255
-47.279048919678 -68.555099487305 -152.605651855469 2.299199104309
24.705430984497 -71.380630493164 -150.365844726563 2.255737781525
-47.598533630371 -73.986824035645 -148.951141357422 3.565701246262
6.688384532928 -73.895233154297 -148.578338623047 5.359226703644
20.934686660767 -72.795341491699 -146.893081665039 2.709758281708
-72.239891052246 -76.112754821777 -151.833496093750 0.972586989403
-44.335132598877 -72.046524047852 -154.437591552734 2.366525173187
-71.184661865234 -68.075683593750 -161.701995849609 4.942787647247
10.777306556702 -63.214939117432 -165.199447631836 9.293738365173
18.463241577148 -72.395637512207 -144.003067016602 3.500177145004
1.503038048744 -68.780212402344 -162.141799926758 2.826809167862
22.825851440430 -66.460494995117 -153.709167480469 2.358929157257
28.770433425903 -71.971282958984 -160.630859375000 1.330660700798
-45.607547760010 -73.971282958984 -161.870147705078 0.866032421589
-31.903898239136 -70.821548461914 -159.388031005859 2.873246192932
-35.956546783447 -69.751533508301 -160.293304443359 2.422737836838
31.506374359131 -73.137641906738 -162.980682373047 1.662890195847
-45.839752197266 -71.255508422852 -164.333496093750 1.642972946167
-43.278320312500 -72.291458129883 -161.606048583984 1.350015878677
20.946624755859 -74.598487854004 -160.585998535156 1.601034283638
-42.265323638916 -70.841278076172 -171.639633178711 2.685924768448
33.911495208740 -67.801406860352 -173.235687255859 6.594353199005
118.668998718262 -68.300613403320 -161.375976562500 4.542824268341
-31.777549743652 -70.478584289551 -172.786422729492 1.085678696632
105.810256958008 -67.693313598633 -168.132217407227 4.064374446869
-32.701873779297 -66.999038696289 -177.076705932617 3.872272729874
-38.535781860352 -72.255264282227 -178.465438842773 2.616869211197
18.082565307617 -73.462409973145 -173.680053710938 1.812067389488
102.965476989746 -67.694351196289 -176.492355346680 5.042878627777
-28.331487655640 -70.570632934570 -181.391128540039 1.722501993179
-29.810260772705 -63.812740325928 -173.087112426758 5.536299228668
-21.352830886841 -74.775238037109 -185.725433349609 0.612255692482
-144.868026733398 -77.280700683594 -186.883682250977 1.194553971291
12.946880340576 -74.711647033691 -180.927307128906 1.869886517525
107.237281799316 -69.502098083496 -193.371017456055 3.307233572006
-158.912582397461 -71.163337707520 -193.368240356445 3.088289976120
-25.070783615112 -71.884544372559 -189.016311645508 2.206717491150
-114.388969421387 -68.194747924805 -193.508468627930 2.026875495911
-129.533340454102 -71.992225646973 -196.723068237305 1.914291024208
-106.272903442383 -68.688247680664 -201.992904663086 4.256823539734
-109.353149414063 -65.947204589844 -198.582046508789 0.367750823498
-15.900227546692 -66.907867431641 -199.081329345703 2.647309064865
19.097953796387 -73.592102050781 -196.968917846680 1.836160659790
-22.444278717041 -62.006744384766 -199.412750244141 5.916973114014
-125.388748168945 -68.165100097656 -201.431915283203 3.891766309738
-26.711601257324 -69.183868408203 -206.466491699219 5.004561424255
-128.460388183594 -76.012786865234 -202.308502197266 4.143756866455
-10.208306312561 -66.080833435059 -199.648635864258 4.681367397308
-143.696090698242 -71.281600952148 -202.149017333984 2.268856048584
90.722686767578 -70.587875366211 -208.874267578125 0.617678761482
-164.548828125000 -71.295455932617 -203.501937866211 1.255903124809
1.337954878807 -72.774337768555 -212.329696655273 5.051809787750
14.769288063049 -63.247425079346 -211.685317993164 5.634458541870
9.110252380371 -65.662223815918 -215.187896728516 2.994105100632
83.884216308594 -70.692031860352 -217.282211303711 0.884625673294
3.205431699753 -65.930206298828 -216.413177490234 6.898416519165
16.191967010498 -71.857650756836 -212.207916259766 2.459311008453
-13.293270111084 -77.115135192871 -209.732727050781 2.947452545166
-87.499565124512 -71.731727600098 -212.739013671875 1.766887545586
-102.106781005859 -73.475646972656 -217.071426391602 2.576940059662
-2.159899950027 -70.288955688477 -219.943023681641 1.138202190399
-169.054306030273 -71.774200439453 -232.168670654297 3.646185874939
12.075881958008 -68.015449523926 -217.324401855469 2.542409420013
-141.662734985352 -73.298210144043 -222.130584716797 3.223520994186
12.875450134277 -67.378082275391 -224.946594238281 2.283717393875
-133.964736938477 -72.325851440430 -219.786178588867 5.212001800537
-114.705139160156 -70.126159667969 -228.495468139648 1.842513442039
21.392097473145 -64.029937744141 -224.346069335938 8.835895538330
74.478614807129 -70.161834716797 -229.554718017578 2.219543695450
3.231146574020 -68.007675170898 -225.214706420898 1.201445221901
-115.466407775879 -74.024917602539 -217.821975708008 7.836040496826
73.869583129883 -69.920570373535 -224.989639282227 2.825037717819
79.166992187500 -73.453292846680 -230.502426147461 1.156917214394
-121.246711730957 -72.054878234863 -229.071609497070 2.106890201569
-120.893608093262 -74.230445861816 -231.952362060547 2.916666030884
-10.433326721191 -70.505004882813 -230.411575317383 1.102679967880
69.389335632324 -74.546516418457 -226.752410888672 4.220717906952
68.531280517578 -68.559982299805 -234.900833129883 1.682525873184
72.432739257813 -69.622642517090 -232.867004394531 1.078359484673
-133.096481323242 -74.862892150879 -238.143798828125 5.283369541168
68.864334106445 -77.671867370605 -232.194168090820 3.973439931870
64.728736877441 -75.644767761230 -233.869491577148 3.734843492508
-167.242874145508 -74.976440429688 -226.183593750000 3.480968236923
-0.354023903608 -73.551269531250 -241.440780639648 1.067595958710
15.398751258850 -69.950691223145 -245.365051269531 1.002305030823
-2.022864818573 -74.495101928711 -242.553100585938 2.415481805801
15.505055427551 -76.090141296387 -243.675155639648 3.313398122787
70.864006042480 -73.178298950195 -239.576904296875 1.762456059456
10.499026298523 -76.735687255859 -238.279266357422 1.117686748505
-6.208461284637 -68.354972839355 -243.929885864258 3.243494033813
-5.402400970459 -73.534095764160 -246.434814453125 1.012432575226
67.305664062500 -70.259269714355 -244.621414184570 2.697294235229
7.079383373260 -74.693511962891 -245.786254882813 2.646646022797
-9.803764343262 -71.376998901367 -237.833511352539 1.918094635010
15.990228652954 -74.399040222168 -246.386047363281 1.210033535957
-164.356445312500 -65.053405761719 -240.348327636719 3.193017721176
62.497509002686 -69.269111633301 -249.249786376953 3.511911630630
53.502285003662 -70.725204467773 -251.595367431641 1.726839542389
57.717166900635 -76.079666137695 -240.064651489258 3.625246524811
-14.237315177917 -70.286384582520 -252.787780761719 1.722226738930
53.822212219238 -75.586990356445 -243.732925415039 3.591770887375
-73.635665893555 -74.512542724609 -247.988830566406 1.414643406868
52.359870910645 -73.646499633789 -250.558319091797 2.266948938370
-87.604263305664 -74.505020141602 -255.099487304688 1.422423601151
-128.183059692383 -74.773216247559 -252.865844726563 3.600280284882
-134.821273803711 -65.312133789063 -250.676605224609 4.820354938507
53.973827362061 -69.243331909180 -257.266235351563 6.525840282440
-137.857818603516 -67.768768310547 -256.598205566406 2.651613235474
-104.053802490234 -80.949974060059 -250.240447998047 9.918649673462
-110.431442260742 -70.813232421875 -257.537872314453 1.104205489159
-84.499595642090 -72.478454589844 -249.168853759766 1.624791860580
-112.133285522461 -73.813644409180 -263.209777832031 2.713109731674
-124.602958679199 -67.240692138672 -266.316802978516 2.252269029617
-143.599746704102 -71.725502014160 -265.054382324219 1.745817422867
-10.837294578552 -73.868972778320 -258.814666748047 3.634130954742
-173.285964965820 -70.197998046875 -267.527038574219 5.982082366943
-7.309824466705 -76.100677490234 -269.976135253906 3.718079566956
-157.090194702148 -64.878295898438 -264.380493164063 2.795988559723
-154.530059814453 -66.993270874023 -270.663360595703 5.185379981995
-168.730224609375 -63.807308197021 -271.977386474609 6.588265419006
-11.664289474487 -68.257675170898 -275.721679687500 2.378259897232
-132.791992187500 -71.728996276855 -282.369201660156 1.738836169243
-155.856307983398 -67.089149475098 -288.304016113281 2.553531408310
-141.817031860352 -70.726211547852 -281.233062744141 3.739456415176
-136.170730590820 -74.095794677734 -283.679321289063 1.613697528839
-8.702778816223 -72.649589538574 -279.111846923828 2.373201608658
-122.994041442871 -76.846412658691 -281.455841064453 4.611826419830
-141.233489990234 -72.320213317871 -285.181091308594 0.494974285364
-112.740730285645 -69.150161743164 -284.323150634766 3.450945615768
-78.037658691406 -68.348815917969 -290.350494384766 2.237068176270
-60.934535980225 -72.479789733887 -280.985260009766 5.556214332581
-4.545464515686 -72.784225463867 -287.317108154297 1.359281659126
-48.234874725342 -73.762329101563 -289.435333251953 3.091571569443
-62.558216094971 -74.495925903320 -285.961669921875 2.403091907501
-68.998260498047 -69.272171020508 -290.521270751953 1.133412837982
-86.446052551270 -72.928855895996 -296.605377197266 5.282012462616
-106.077507019043 -64.590301513672 -287.077026367188 3.901207923889
-158.040969848633 -71.400192260742 -289.719573974609 1.574989676476
