# This PCD file was generated using the MATLAB® pcwrite function
# from Computer Vision Toolbox®.
# .PCD v.7 - Point Cloud Data file format
VERSION .7
FIELDS x y z
SIZE 8 8 8
TYPE F F F
COUNT 1 1 1
WIDTH 785
HEIGHT 1
VIEWPOINT 0 0 0 1 0 0 0
POINTS 785
DATA ascii
31.473107621250964 -75.933605697832505 -164.919806390358275
-45.499936404508247 -79.969940525356776 -165.720545145677050
-38.803257844565564 -74.188173307751740 -165.991037794490694
25.957848184861010 -77.778616943871327 -164.395361732896191
-31.558734739964734 -80.051278024276385 -167.168672528428601
26.967878479675051 -76.844629083750220 -160.167756249238266
-33.337320318595971 -79.657539150484396 -169.947197214220012
-38.415750091004853 -81.315822527426761 -167.089891511852272
-61.805007390207166 -79.252901525596300 -173.661531275615317
-6.428051210400739 -79.193820235852016 -176.713853487035777
22.100499516239626 -76.864318731613267 -176.520914761359450
-30.865607622417713 -82.898183298387394 -169.603052977151549
-59.311878013508064 -75.126430752886463 -170.598076795359987
25.793952380004015 -72.044911507493808 -181.912811502388621
-4.055782063982122 -77.683547191044170 -172.615038316440831
-54.913065531822440 -77.931568026405529 -171.825124961650829
-30.552569686710541 -75.388681723293729 -174.187314763793694
-33.613021140889572 -74.311958501968633 -176.343694104039656
-60.395660899258900 -83.216491644578355 -175.598499519229023
-28.822946571034990 -76.076375920506919 -182.286008543578816
-26.153070361306860 -80.526292158904198 -181.100751524534644
-53.141111042990246 -81.386751501204927 -180.129899955108698
-30.930346115265081 -76.777156360749359 -179.723157117404696
-25.063114952751349 -80.586454171932417 -184.604374678132189
-20.709786863908576 -78.060437203807766 -181.487949880942011
-19.874592292562539 -79.918492923979088 -182.504160600412433
-29.085419186935184 -78.425561701870166 -182.433835484577116
-29.204627056510702 -78.085031612554801 -189.232815173711003
-32.933610595099026 -76.972536277761449 -192.467041910563353
-22.493375168787921 -81.297194931635374 -190.230753757326625
-151.433005871657599 -75.672146645448038 -188.262218499736406
-140.590605428698950 -77.258852001134329 -193.439482849328755
-25.720048529807158 -82.248975821075533 -192.563981031040953
-25.628641268987963 -75.226766049274630 -196.209135174387143
-150.712077371970850 -76.227304433531614 -190.398845329428241
-22.854224624407038 -74.329821803298842 -195.913010834296585
-32.436025692268288 -75.749626141581217 -200.017439895059141
-20.982681500703748 -78.820351719846784 -201.047525967904619
-44.734640530937867 -83.658110064635352 -199.672236149372310
-35.374738416085989 -76.364111611117167 -195.456858984260947
-18.840541946991735 -81.206877871966867 -197.518388426085437
-36.753268698632553 -77.457170103763374 -194.954643499799403
-20.616586831364359 -79.728347438392788 -199.067655128399139
-150.257340584246094 -76.307558248037523 -196.057500387084474
-37.152331298272784 -78.421694236814560 -201.316284603293553
-42.215854647041297 -80.493453418751585 -201.815779925035230
-145.716556387533046 -75.901384821027193 -201.222305561707685
-134.446972253146100 -82.070106368927554 -199.523815789353449
-143.781178430849366 -80.734209121950158 -198.225383592031278
-33.572649539914636 -73.998415232628503 -202.329691112245854
-133.144196061032233 -76.653803191004513 -199.399198704423185
-21.834733014480051 -81.230305289541391 -201.443180616713335
-44.234210410646483 -77.028032529479574 -197.453977892835724
-42.868705336931058 -76.886350833103876 -203.435441516909435
-17.750885823940550 -78.135451891960969 -207.837022040631496
-134.469436672334155 -71.559776917219480 -205.713057153820728
-13.082832413748605 -83.387233775099801 -208.940508869859627
-52.953017012182443 -79.388196526047366 -206.276215448040233
-47.117675410451980 -76.380643967818543 -204.543467091195510
-12.198314436246591 -70.966119002231380 -204.703219701922052
-37.743721397878147 -73.592891020819508 -212.668095883958244
-53.501074124304338 -76.085666209059852 -208.580448053205544
-34.017614259022068 -80.832039650879750 -214.841009947940591
14.303639550751576 -78.677385430224106 -209.335885249426980
-63.357650572387954 -77.884687546544640 -213.031353359648790
-57.043183942922170 -79.141633649985337 -211.776544876077281
-27.486086580271134 -79.188901889617497 -212.403588143838988
-33.116453559769738 -76.728195836208869 -210.870639083062343
-63.618273087605289 -74.773214754087036 -214.700949707030674
-9.081182694686134 -74.255371321100441 -214.037240024691755
-150.201557677357130 -77.813120308981780 -213.961867156887649
-10.277887173994330 -77.487423207754404 -216.536581180514872
10.595233443664696 -81.109458217273627 -214.065295091564025
-77.131988650861629 -81.948329861440556 -216.813539312424126
-24.381540291273936 -79.638500485921341 -215.609183463894482
-27.523083464387454 -79.068457828487084 -218.450708644067333
-77.071025024593482 -80.067875288019266 -213.915637389671389
-74.377304211935083 -80.489503748101228 -218.448690368248123
21.220618311498470 -78.982935555469638 -221.039470833527389
12.312626022210758 -73.674291642834547 -224.321597414151739
15.830314997824054 -74.825408368417470 -218.840910513333966
-9.534925113384901 -78.697037335937026 -222.274631859800593
-10.990487124789894 -82.594960109482145 -225.151710718572531
-5.281485271370464 -77.185826754517876 -224.656437968198020
10.749627620682169 -82.572749910634556 -223.724361727705684
1.798191915988781 -77.408189984693479 -227.217449928221669
-4.935084724369041 -77.528186860633014 -228.271382048750610
3.724323423423897 -80.710536475501868 -230.757651110428839
-2.785322523420255 -80.096317589190022 -237.369558440528976
22.194368319354322 -75.900272300769231 -233.998688362120731
-1.637966759871070 -77.950830521508635 -229.677246417128913
-134.424544301348192 -76.766039524750411 -235.564980682485526
-155.822602347729571 -76.687203074712841 -234.646016294362255
-144.903229760099578 -78.651540848618694 -235.583358981313239
-147.382253662265555 -79.536493786785158 -231.874265881818587
11.634403339950907 -81.321763869638687 -235.920974347090151
-142.938072828420786 -76.205369146391945 -235.600575748371597
20.823685461937345 -77.635020687243426 -238.322443462268865
-27.252340214314643 -76.871999718363099 -242.507834134014530
-33.870638898445151 -77.310020680575988 -244.592034206509481
-32.916633514246158 -76.368181633492824 -245.750728430864370
-41.705517856356579 -75.370627841842534 -242.765506173461574
-31.923695388729371 -80.546469015088846 -242.401660795286915
-36.709772909728798 -74.876577023007087 -247.356653976756263
-33.911617214802277 -76.060259278036185 -244.930538053544666
-47.641193173401632 -74.580382518293106 -247.548720509749245
-38.468611450346231 -74.906534782937726 -244.895283027008190
12.537766199212335 -78.596429144392246 -250.406870811227009
-4.844176523837632 -77.125648049614384 -255.957520226569301
-2.878056461327105 -77.096109191670763 -254.631533272132089
19.879902798055234 -78.202599436272962 -259.433621196975992
-10.276355426233053 -81.011157678110806 -254.227371550462522
16.135425046359110 -80.027232617429206 -262.041576430912187
-149.483868513065659 -79.230851728127377 -259.352973251097694
18.711491458743993 -77.569789317101211 -265.782060858242176
-151.076262884446237 -77.362977994134255 -263.450054115030298
22.497011317010067 -85.597784696991866 -278.536845960777498
-148.982489188909426 -80.152570212578823 -270.621390710614548
-4.832573653938638 -81.971993646130301 -279.465409405600269
-148.694968915374432 -76.090087301827026 -272.128861772487994
-148.932969278019982 -80.731898117740329 -285.962468237470944
-149.503484848053972 -74.691650620705445 -277.620832025809307
5.137462030499989 -77.504407130512405 -281.728741896289080
3.853716168355533 -76.639468419615369 -286.084673226929340
-147.491003472580303 -83.220704781779432 -284.853628370606145
-142.209469134959420 -78.612843878148439 -282.035464221342011
-156.848000185244359 -77.173286915899908 -290.143630458813732
-140.613631859148200 -77.905818634678326 -288.527437055854307
-143.417655640731653 -76.127446647980562 -287.634239111405179
-155.422901486361411 -83.204957270929825 -291.168558456490189
-144.054216104958186 -79.207678732614966 -291.622898169156031
-138.994682349703680 -73.286817534044886 -292.534998455882658
-140.083479072066609 -77.242620677806727 -295.683507086458008
-153.909962635977024 -84.568191279666166 -293.242191680588121
-140.653014937940497 -84.517707069231278 -291.860356116811602
-149.225430309946375 -81.161896746258208 -300.414402241987375
-155.612621411566124 -79.888450287295385 -302.010666188267919
-150.968833204086934 -80.973816991898588 -296.876047952208637
-147.810546824600863 -74.167549431742131 -300.229901164578393
-146.834524082944313 -76.377081777012947 -302.547419188270396
-51.450069101536798 -77.070365702236288 -68.512335215589090
-44.806525947827140 -76.245153876540385 -68.437308525798755
-68.439306166809104 -74.569034511908015 -67.884026001411996
-45.633258320179607 -83.629220672375780 -69.852571316507081
-64.709179379033458 -78.780879294668978 -67.476697802944955
-45.677689260700276 -75.544413108150223 -69.126001352796138
-74.497619353005476 -78.197029608248215 -76.848165147293656
-25.844429808351876 -78.569262438976565 -76.183320288766453
-32.802913341318401 -79.716553324397012 -75.349194080915353
-28.838942538677614 -76.053904807973879 -74.056285149344362
-83.447174990923131 -75.646460848676952 -81.731547502540522
-25.560986720957999 -75.246925678054595 -83.174070043481862
-84.979756101691535 -77.529655835057639 -83.436554842647027
-86.280540422602385 -76.392581492564560 -96.318797497435952
-70.825582665972519 -79.011760481507963 -103.575314821178210
-73.236000577166962 -76.917567602519284 -101.778837119430094
46.430934827969295 -83.930491961645075 -113.650074367675728
48.506820736446535 -78.710109949323225 -110.952777267352829
-75.639938656692053 -74.336576637587100 -107.588170800304397
44.212054761836406 -79.326945976183239 -109.096879990914687
-79.037547370757878 -74.026925384077003 -116.250351569355573
-86.308116840857039 -73.864028644470466 -111.814414811422679
49.556133380690632 -75.345731780699040 -117.195678781980575
-82.850608030948607 -75.511213328056783 -115.644761911382005
39.636167888390041 -75.633491749737630 -118.675064302573276
46.279644771209341 -75.259858016651478 -122.891935931421258
40.607271888794664 -76.125286038185308 -119.239598259872920
40.367299623709812 -77.641363865245367 -123.627386838948809
36.062717031588463 -79.642905373988157 -123.348566460945136
40.396270444159398 -81.807665748332028 -125.194620042800992
38.695012970978922 -77.429086673323454 -129.832917217797473
33.781086328106220 -78.785177762255117 -134.653881475655766
37.619128097391012 -78.969579220308660 -133.911275901252196
34.580009965693918 -79.424893796862293 -132.736641251607523
27.363605285694824 -73.384458704061885 -141.954528402960307
42.287224635734134 -72.567809409441907 -139.684961376362622
33.673887575091513 -78.724132610203313 -144.806218774511535
36.070460480570688 -79.727734958062115 -147.151466940664761
30.650172762127575 -77.282188606088170 -147.018530343181993
-44.829648446741984 -71.217983357455807 -149.475017955991575
25.545364523211607 -77.737392196685178 -147.570959724584867
34.896993739032837 -79.429923387727058 -155.136043319713394
-52.208225501720406 -76.670852935449886 -152.867222146846615
31.243783173677805 -73.379948077864270 -155.672177307413762
-40.201246961364944 -76.431627338048727 -156.231853867044066
-46.605005515112992 -71.875949678468572 -158.448188526146225
23.206590769159043 -79.329701870596949 -155.360944358715415
-40.332383053235333 -79.679506938876514 -156.873425956203448
28.667114554152583 -76.632098224719172 -165.591012705257128
-64.366378918340601 -77.485995937624821 -164.558523031056012
-42.789358209779792 -78.092518156941367 -161.668030412495142
32.994306370263402 -78.609158316859833 -165.690786389386204
-65.367119123318673 -75.453788783546173 -168.989226376335807
-57.132654058996394 -79.105947109710357 -169.229133082927945
-35.926871325280615 -76.659635714479862 -171.994355605704527
-1.600765414269937 -79.330724602650207 -170.013141419889564
-59.015895268067155 -78.509890132175784 -173.260326058885795
2.119928392093570 -77.397751962324634 -170.676375857723656
-28.915672057889736 -75.495256400232194 -173.611135106879942
-40.522943671495042 -77.069122711686092 -170.669403632597437
-64.357856536076227 -75.003861222401596 -167.398804468860561
30.683141134846647 -73.008081556842711 -173.889093235258628
-10.614615545243055 -75.196230605653625 -178.905547504662110
21.015736630756322 -76.242680450058060 -173.036688076601592
-12.894552980080448 -71.828190714185851 -174.650438282655813
-5.834081251780169 -77.791017042630187 -179.445475151958135
-34.752549623119265 -76.348813102982362 -179.065630808875568
-22.967265824380917 -78.232878104358136 -176.310286305792232
23.690836565606627 -73.463886145879798 -183.220724774505101
-3.016499260932292 -77.672669877471918 -175.843342575609142
-19.387038841413087 -77.625478029815028 -180.498031064812864
17.208226754538124 -77.029121149858128 -182.117438160177414
21.254512834552472 -80.674653304345298 -180.651384681957296
-32.290512654205315 -76.909514731902533 -180.036870654445181
-56.584701352695717 -74.966660855865968 -187.356494693237210
22.678894460540697 -76.951413837859775 -186.765689046419482
-48.947520648320790 -74.442096321193830 -189.777781375773429
-52.872901525508283 -75.734801941815036 -186.454989976838817
-45.032416782976455 -79.031840182525372 -185.863923625116087
-12.751540168794605 -76.114074173166273 -189.746714727539569
-54.262896544354561 -74.355090717406839 -185.200633393376819
-142.070302333813345 -78.693009130044061 -190.210384137676158
-46.582871942894712 -75.432523927183524 -190.062258857818364
18.044668214041344 -73.242221350674882 -188.950130988240232
-30.308429196883949 -77.401377238168806 -196.428748824008778
-30.413643634397303 -83.281056793320744 -189.514242464577450
-20.091717293059446 -76.999229258264037 -190.944303604153816
20.793832144509601 -75.238819651487020 -197.020965857769255
-23.968810167402268 -74.156693248004288 -195.306999984267918
-37.871636687685140 -80.256066537513192 -194.274495961612160
-43.102220908301220 -79.952663843236351 -193.675143120846712
-19.523391730976812 -79.548867288360910 -195.359682626727420
-141.138504216969068 -78.382888187974942 -196.791399912492750
17.200510429492539 -78.177908576031029 -201.495490501242386
-14.599977698623491 -80.819342668431858 -197.657637891232554
-40.825856211098397 -80.313442014544705 -205.420587326756447
-26.008230846746400 -73.179493666316148 -199.443949203820182
19.967777570931126 -79.492553054043142 -205.201566852132800
18.571242517740629 -72.403698523057002 -199.883283620198824
-39.324453422064991 -78.026920392646289 -202.908196118536210
-50.753870130151967 -73.705535163372531 -206.277092276385133
16.505206768166069 -73.561395521898589 -205.892125664626462
-144.444115519652996 -78.788677935624648 -202.545326915523418
-148.672828951661643 -74.902003413213265 -205.267086592543592
-17.886755660156439 -74.992417746020493 -211.498183507953115
-55.799721163516665 -78.031259990547355 -207.868738544977901
-147.646544939984608 -77.504576029769382 -205.946805722653068
-142.802497698537309 -73.224251020155336 -207.383992244862185
16.153606634869718 -77.988973795145554 -208.374731961506029
-60.401048900557427 -81.360700116663523 -212.026887073133366
-56.459127590170169 -79.400731324954364 -208.640656120496772
-70.146769296654796 -77.759829359270569 -212.844209757332408
-60.646049051944416 -78.005446271938567 -211.939618942393025
6.458913176480635 -78.764147218735388 -210.249048180899763
-62.138190078783779 -75.905150964453085 -211.976497209482091
-73.113619440225534 -81.485067268959227 -214.459006047709806
-12.557802573172111 -78.654040929191410 -211.481091373756840
-57.374180092376974 -75.418747618503588 -213.201040605075860
-16.994432387239343 -77.171883162327205 -216.127180676314310
-80.305385310499517 -76.916275285448862 -213.378495862897523
-7.395844097521071 -73.216680857795566 -220.817617672982095
-66.370951645155742 -77.366234940204734 -216.603893698121027
-81.721509181861265 -71.348407416938556 -217.622829006621430
-25.769314617236944 -75.072966434883071 -215.783598149063636
2.222966124937862 -75.794616205026827 -212.372144638944349
-25.413040527415419 -79.659138258116002 -215.625482368358973
-82.826222721551673 -80.257790645671164 -220.268414231651661
-4.476439404704330 -72.797694901025082 -223.238627328510034
18.322053253836685 -77.809689741242011 -223.811684667956570
-19.544106808884862 -80.787224749708614 -223.603289638852601
-28.064445786670376 -78.817027055751637 -222.866518988475747
9.176486679076064 -73.211998377764004 -217.541211329278241
-11.733455264797271 -77.980596748676732 -220.446790827189972
13.196679046214200 -74.335603985185529 -220.809407780214912
-1.050994474954763 -79.073744608360300 -223.316411625853306
15.092370309192845 -75.822693399238958 -229.217134738093563
-5.191201725057034 -77.513872945564458 -226.324015262318483
10.595671436537785 -80.588272239400922 -227.389407608656597
16.654070003036118 -76.196543778734792 -232.079623660352183
-143.977327851600592 -75.366737834190332 -228.363030028862198
5.593266337892850 -74.251497693323586 -230.632788113109399
-147.615881794798611 -79.331952585699455 -235.288628219318440
-152.547731279378979 -75.466528186040449 -230.723205905144368
12.673032957718306 -75.756319361790730 -231.195696378557955
-142.495588482678954 -78.881442507082653 -231.133749340305712
-148.390766796467631 -79.250005754791701 -229.135082830478382
20.295979694906734 -78.638844844079657 -236.501782095003790
-147.488976769612407 -76.657867728305703 -235.976573153873289
-0.493273175413236 -75.212260716927588 -239.260112428757765
-2.671381504451055 -78.706597505372500 -237.712794894562307
1.909839473332049 -77.191729121465443 -240.735553289992993
3.688927000648562 -79.597616247541367 -235.651491445057417
8.341345900301356 -76.271761445440390 -241.858387090553464
19.471803223823350 -74.361235417042280 -236.546962081396174
9.818028147173209 -76.948623954343347 -239.793138614986219
-31.484501091157398 -71.388897677719484 -243.265813418643035
-32.529428333760436 -78.954311765208757 -246.827080517908996
-21.163217201378345 -73.244028359430118 -241.258388099755877
-42.595885445324612 -81.444100804648173 -244.862586192582683
17.530938811078315 -79.523462124865105 -250.314360619628161
-27.101074876491140 -79.633468696773292 -245.814710008721079
16.602938701635345 -80.780425958536782 -246.488494639683154
26.858295725032171 -80.932470147869850 -249.118717867670398
-48.745989492219280 -83.378602791094380 -250.424424118104724
-26.819996510027394 -75.808823296756799 -249.606734733694282
-53.865087724769595 -74.915695995877883 -243.898800289287749
-48.736278184850960 -74.069166803237678 -246.842592416240791
-54.879580409988833 -76.563662940371003 -249.430293201278289
-45.974038309377278 -75.310208348439403 -247.646079465459849
-46.351725847210858 -74.710458349780751 -249.860033447584925
6.799728007381439 -76.785940957944163 -251.418236278263834
-149.600567657825650 -81.068438466774310 -250.501673836044716
-144.782908525037158 -74.413465723471816 -250.041508211012655
9.721205947644641 -75.101645807240260 -255.178117937463611
-2.718355486540069 -79.675862105299714 -251.456006914020435
20.947230671458364 -76.181093976580158 -250.123560791622879
23.392258471139563 -74.731417245693791 -247.604707562698621
-147.379847481343916 -80.376519561054295 -246.455175991818578
-146.165473338116385 -78.149946691449884 -255.556810287261897
-156.878031434422383 -78.702521301063740 -258.807882646489929
-138.081641326996930 -76.186316546477897 -260.230791039455482
-4.334667929946434 -77.063356519301990 -259.182075980682271
-155.802422601197236 -78.344289680030343 -265.038981599045655
-146.657351695104580 -75.329497384577351 -263.489503652863846
-132.921587830384965 -79.479281399038342 -261.376552842016906
-138.512063226354940 -76.407494406014706 -263.615427407424363
-134.739618822112618 -80.498480352903513 -263.501876496374564
-11.672060920598568 -75.935712892318662 -266.125087801723168
-139.931977411704622 -78.931522427734706 -268.110651648634985
24.339615003797189 -76.757913279358220 -266.095615988289524
22.630403064501085 -76.590832246843661 -266.251608904400655
-150.042125669394522 -74.332439614205768 -267.315594965993228
-143.458213482724148 -72.538250050465621 -264.945545504975087
-153.308467872858330 -76.414476340236234 -265.559998710644038
18.322835168260504 -78.861202670271979 -270.127912755149509
-157.034997548733031 -79.660626260817693 -272.746956417166132
-143.561467170766832 -77.646692993481352 -273.695652405198473
-151.129105958973184 -78.360759331673663 -277.174838472544707
19.350543206173725 -80.059370760191101 -277.862009760794422
12.937528071395903 -75.370945175173119 -276.687828145331935
-9.120251192645654 -82.246841708246961 -281.861679153810769
-144.992330240740785 -84.234865483482793 -279.929272770202431
-2.737833365033012 -75.020738961845765 -282.488940463949746
14.759175536414695 -79.120420114516179 -282.345101173847979
4.127271993915890 -76.772824858525510 -283.505032877460224
-149.279210337771758 -80.632487020951359 -289.588302269794667
7.192925511375201 -76.224312388278733 -287.069266244321057
-144.416090516114821 -71.335224793961288 -290.245134003994508
-140.838547998612285 -79.813735732139762 -290.535782155792390
-138.412465177620334 -76.955792108797795 -289.339275240383586
-137.588336465792906 -75.570212518086024 -291.909689582241072
-142.459021167395974 -78.759893168603966 -296.105450758317374
-144.082986017893120 -74.295413980945199 -297.003470008862450
-145.821123887941269 -77.387361225210412 -300.014277072293339
-149.232230026319314 -76.083257326016920 -299.121738163716941
-147.809300343164807 -79.211258769794753 -300.657774738637727
-146.005144886825576 -74.373163706363940 -302.047110456347070
-147.470837098811614 -76.844852279968137 -306.654991275822283
-52.799146353153830 -75.202360165879568 -69.062955119488223
-50.714236189409235 -77.610320728356172 -62.883636880855775
-57.166324982573798 -74.826864484063421 -65.651226623230130
-68.133995472986939 -74.037288456623799 -60.365366909383120
-61.890708504776342 -73.959519975501976 -71.022766965403818
-49.730815729149668 -74.667812458451905 -65.769460212086528
-41.654587849741588 -78.262236898006847 -69.420086383242477
-41.266651317684008 -74.782577418922699 -68.491274573287185
-38.802725323747822 -73.151660663480570 -66.075117878579391
-74.447367992199915 -74.824679856246405 -67.550556537330039
-74.252100919430973 -77.148174678955002 -66.006447959639189
-26.575999638310392 -79.095276006844088 -73.859602367596494
-70.503422194240699 -74.061912457555607 -73.416030150954711
-26.462290354977597 -75.212941331731571 -72.017900482798211
-23.730010918820042 -77.970968510170735 -72.708523454889871
-22.190025405810260 -74.761320118028195 -76.458774852120470
-84.524993137041989 -77.044622636933909 -74.113775853604835
-37.577929613876279 -80.403140616951433 -90.425465160810376
86.081282183736121 -77.814495530043189 -88.565638159236073
-41.924324501047536 -74.229168875345621 -85.694577355066272
-42.097701652389247 -74.768652790152345 -85.588028511699690
81.513452007276030 -75.303502787952183 -88.848343113692181
-48.770022120253117 -80.278617285947831 -93.933512535651545
-62.654746776077303 -73.455410522216468 -101.239077509398399
50.336135986825255 -77.239914287745776 -104.865887262987187
-71.941862341361173 -74.500933604822421 -105.490886768125932
-85.057855906350213 -77.462463466985511 -105.503412781596808
53.141467360363627 -77.370562322042346 -108.927085811499794
50.930179053161751 -74.646974730840071 -105.797018897314800
42.834870711425410 -69.708651280169420 -113.852721453725465
39.378159536957028 -73.418372017193079 -115.666860560392848
49.531390346773257 -75.311899443379829 -121.325107496807178
47.333421552090741 -76.239894753277568 -121.426180864318297
42.410846444091518 -76.625002608810519 -119.557665731591939
37.128051885565384 -75.787214524614654 -122.610157865018436
46.955191039710115 -77.338392107105719 -119.839166187399996
37.143366677570484 -80.883862431673819 -129.905431247967556
43.534813381160866 -72.695535424496484 -133.018863618097356
40.656217332458247 -73.891223342079428 -137.157011813537991
31.842125965480065 -78.384047418990946 -139.213758701787839
27.666819268488819 -77.701124883391117 -146.337207919776489
-40.922734035186110 -74.137079608352806 -148.877238582398377
34.375843981571933 -77.437899612860491 -153.088458724709625
34.110430015503468 -75.683796639807369 -145.687765918832213
36.103488184499660 -77.238425489707652 -150.767507896685089
33.111739440934606 -73.614971944462937 -159.622510775360581
36.499996047003762 -70.127883683435684 -159.800931831011923
-46.954439182627979 -69.389461180086002 -156.165575773543281
28.621114744925343 -77.834808574628454 -156.182694142390147
-42.570262239977836 -72.700391466092157 -158.494588283961122
-66.126209958375696 -76.588459199483950 -156.325429119631849
-57.739617479058083 -75.055582824985947 -160.202429484626890
-36.215974082184317 -74.205696049324700 -161.617277681489469
-64.126826027444480 -75.558709384630433 -161.289634325682698
-45.874108381555246 -77.716042084709059 -160.291793481676422
27.780342416255152 -74.510998286161424 -166.718682067049969
-62.578735931422329 -74.514344142574117 -163.850325650452049
27.109149652223945 -76.207728188678871 -164.244680505725398
28.468205308228995 -77.400892294795753 -162.231572186848723
-69.898673493589385 -73.766208617356213 -169.709514502963458
-33.715643425070056 -73.500856121884922 -164.670276678343015
4.242145380399656 -73.741606924207019 -174.037510661013812
5.682790681848260 -74.144111633038648 -169.935407775911955
28.004584913862196 -75.572943405609053 -172.237611669247002
-36.545745165454619 -67.237718990487949 -173.563293712684839
-6.123036492217906 -75.586019780237976 -170.564821892368911
22.910862611454952 -76.002047570481665 -174.772459559736149
-34.168211064104014 -75.934482409224046 -171.677708778828560
22.464049552255819 -76.263774964566764 -169.797128373615294
-28.115637954459785 -73.463259210943818 -169.835025357935990
-28.746279887292161 -79.831508611944372 -172.561327238948451
-33.764669365981632 -81.392370702981125 -174.275866542157786
-59.696560036768545 -75.063375285449979 -176.347957372394234
-59.750472370136606 -76.560545653256170 -173.753473050674415
27.213017233513078 -75.236473288499354 -179.670420604236057
25.447996521161443 -77.344621379704094 -177.660225858956380
-53.273883109199829 -72.822973091534664 -174.636525727397128
-30.127823459808482 -78.488220414460727 -178.065401984791549
-18.353765032841181 -76.231507815481692 -179.368585765502274
-26.048168718132786 -77.229165402011105 -182.143377475543730
-50.976463096175877 -77.511768058082069 -183.709035321773115
-12.433186729813485 -75.302708101986042 -177.423549697019098
-56.996304098068791 -77.502990963973630 -183.803554028547126
-33.449490752345184 -80.757659363703581 -180.959259099103150
-25.735730316373619 -78.023539628479298 -182.902071693158945
20.243749379527415 -73.964428263440013 -185.402341027533566
-21.583328769699776 -78.889969447791543 -179.035296708431332
-53.390046308818114 -76.557056451527586 -187.824239900910101
16.882896765297779 -73.697772722055461 -185.173916274792958
-49.272817342679886 -78.672299912271157 -184.283546833462395
-45.135307276967595 -78.066320663749394 -190.623149321616438
-21.127304182886789 -72.765535855387569 -184.040821952643427
-54.828222793765207 -75.500506383038555 -192.191505745725834
-33.292793650863743 -78.165785009982173 -188.299285117981839
-25.149433347330415 -80.981093734141950 -189.772978099313775
-14.655526876560302 -78.351408212160095 -186.433629120771599
19.743336930106068 -73.078535455097750 -192.066760424608816
-51.253626241648703 -74.766792105406438 -195.289643247546309
-24.228691206024479 -76.238707677808307 -191.030606832403521
27.939902688735099 -79.081050173334845 -187.048716773234759
-44.015403424598858 -80.084658870759242 -194.174662239688644
-28.410405438222583 -76.232646588297627 -197.277508301407067
-50.762256195541724 -76.098067323523821 -191.695702348236665
17.365032239109340 -80.082218060266328 -192.834673080176145
-45.752447716368806 -73.357751168699252 -196.081843427050387
-19.459836292958244 -73.252092911697446 -197.381624869033828
-23.852641615427828 -71.778658924902174 -193.731179039416929
26.128861128962040 -75.717020675335618 -198.175031481480403
-41.247608865931838 -77.529106841837191 -197.808270397397564
-148.109454620076349 -78.406360475446903 -194.482682938893589
-50.389943817348339 -76.573312379627794 -196.548853527693439
-19.395009732474421 -72.114574317555295 -199.264285368872549
-45.932627875537193 -75.118646241023853 -201.771119500517784
-23.451828346066151 -73.123262222738376 -196.995522657909987
-21.424059594012647 -74.066301033777620 -203.171264322531954
-34.955802709025889 -74.590826141858585 -201.347780570776962
-37.450153590223977 -77.259696051664775 -199.979257011721103
-17.705549048555937 -77.106607122709974 -198.870818596646870
-16.876638574921927 -76.827237961021638 -206.320086529186113
-145.082356360143137 -72.176710929211112 -202.646632650003369
-38.976890131284435 -76.450455543465907 -204.034500753456882
17.740579668518677 -78.755670719432885 -202.150926080756989
-33.685007082973414 -77.370112514653457 -209.226114739877630
22.828058238241653 -77.233839158231405 -208.717384076411633
-13.529755260180536 -76.636162772324582 -204.740231797443812
-26.498610608487454 -76.165771020914960 -207.114814304168760
-14.745895508040860 -76.145272262305554 -210.805785415848874
-61.016076409992507 -75.622019674034789 -208.706437643856560
-31.189453226706519 -80.155340114663971 -210.960448291228658
-9.867090389558967 -79.737769808554532 -211.554513219336258
-67.604964016491451 -75.500536243550116 -209.228817947754038
-62.096952247216706 -77.493864154023186 -209.572949325372861
-35.907040794372620 -76.489309021763646 -208.666921631385293
13.392108020579343 -77.258878309507054 -215.587560284319409
14.200786479945492 -76.885211267696249 -216.631622892898378
-62.833563773795134 -77.480237146292225 -214.093064577592543
-12.292227797269788 -72.981083287603084 -213.432959960971829
-65.885811902439670 -77.896882141713590 -210.649167599060746
-3.221542500687420 -75.987501895532645 -216.505625077958115
-144.972819691051370 -80.041035610172244 -214.145027537540074
-32.856685264327083 -76.739466789536138 -214.629831250219183
-12.850400455063806 -77.397964263301688 -215.405753464651980
11.355083916140529 -76.208699695731781 -213.546969133973846
-88.486516378655480 -75.811798972588534 -213.044728025740568
13.028149067835415 -76.711867434447626 -213.809852126899330
-69.693693291784825 -73.723420760181938 -219.050825337030915
-86.486914581989240 -71.956895782631321 -219.710576187867247
-4.317734560823311 -80.705922264977346 -221.589537072179724
-12.005788401542233 -75.613736487577526 -209.951223758578578
-144.564601178761222 -74.116152579627112 -218.516893280285672
11.668640109710793 -80.740176009222893 -219.729821726456152
-20.895752415648587 -79.249293797897451 -227.294367754739625
-22.439649400753297 -76.084465206841585 -225.505937744095860
9.705451145207014 -74.471338898988662 -222.985932177672822
-23.877321020698972 -77.507180714558956 -224.489326414158313
-5.940991737243991 -78.787283436601257 -223.565702497423842
-17.152174459523948 -74.982577759634339 -227.212191146251257
-145.503973632954171 -75.802998523370647 -222.681760561053068
-146.535658975891181 -78.656967015326629 -230.499181524784348
-18.693135466136738 -73.890155989238750 -225.309919832480460
-2.342241897944071 -78.713412878313747 -227.447347200962724
0.784636287478293 -77.376989040231621 -229.127564980133030
-152.711030889280096 -72.198477444359767 -229.459536433817590
-139.974043944824189 -73.546391275953923 -223.007518161990248
16.755449901011481 -78.232172329506781 -227.879803364377437
-139.272703378503024 -76.351591755960285 -231.210828590072310
-143.558960168724525 -79.333018773492569 -230.444917055169270
-1.464020119196832 -73.483609420842072 -236.554716410100752
8.869461224486592 -73.537032742964854 -235.640177474758758
15.229415391739686 -72.911644119922755 -231.503258093216573
-137.642165745756813 -74.059256283640451 -233.949720878186668
-149.735112513916022 -74.414535041572449 -229.367613830338428
12.878422960269837 -78.056895706195050 -234.358785032671335
-134.125590032646130 -80.537489777334798 -229.067509794324678
-158.024422282141359 -78.463722871514165 -233.807932537318550
-140.703617514899690 -75.975284553306750 -236.997745825657859
3.989014867580948 -75.863293261026840 -235.056866359999333
-141.349852818490319 -75.148349797791823 -236.583726946189586
3.114554077368339 -77.613913099189276 -238.040777974673745
-151.279590712408208 -75.542794364708683 -236.885602846513478
-138.211047223117646 -75.215468828478407 -237.451475619485393
15.689129920338146 -71.810021122506754 -239.755108824475911
20.738761429998021 -79.478965520450245 -243.880127895318424
-1.646523387751856 -82.309659779505793 -242.598930705634302
-139.357535441705465 -78.912876470646367 -239.573575247202285
-23.088616383798751 -73.436663155245995 -237.599858341541903
5.020546795457754 -73.082383824318285 -243.533979053249794
-22.740679648418691 -78.509944476756900 -240.636184641966111
-15.258223732334372 -74.518539508613543 -240.902156658183912
-144.587847390156185 -74.074610480937906 -245.052318891439626
-141.916789948936071 -74.156642944993123 -245.977149873667855
3.595728027984109 -79.417913259780107 -243.778727759683392
-148.870114945782063 -75.331810964386605 -242.430701644253503
-21.824706193772599 -76.242165291125502 -246.178884014773104
-53.688451695441955 -75.169786120310562 -246.317237321978183
-25.701267524937137 -72.512541590915276 -246.126300748177385
-39.727203716795515 -75.733690048099220 -250.503340308154435
-54.571908623405449 -75.981494437270285 -249.198262743708739
11.278966773082097 -74.727641892578561 -250.788821733368337
-59.103076969225398 -76.566030954422246 -255.166097607805227
2.570722871455835 -82.349875736601177 -250.819998640317237
10.167392596268932 -77.342273233206896 -250.671169908489162
9.820544502753208 -76.636569037260756 -248.752355157186315
-58.942030626952658 -75.169421310850538 -250.248064699132840
-152.320295775275838 -74.972255017681562 -249.208396876648919
-48.970723418195618 -78.072435915518270 -252.120572186327507
-59.511201266032558 -77.701702333655803 -250.716998115520198
-56.067445912926630 -74.322776861424913 -252.079981002266123
17.159438376590828 -80.094368308302478 -252.491203671196104
-6.415898601946843 -80.412794552221825 -257.481633528085069
-6.490111627450446 -75.805326775450766 -255.750263594904254
-150.628876760966023 -75.502876975422296 -254.348804318156425
-145.839758643974278 -77.285188425466458 -251.062643397713600
-136.302642118264032 -76.484547288906441 -255.773232680325236
-133.503426031331799 -76.490651282702459 -261.342247921124113
-9.391948417774522 -75.644233532139495 -262.009214387551083
-135.061512290891869 -73.743907987943246 -263.440232748837900
-137.366669662365098 -79.043490489533767 -265.950419747210560
-9.203984921485073 -81.362786569400669 -269.419623010917235
-5.766964344075397 -76.140707121669891 -278.694602052496805
-149.083664284233294 -76.700724677592319 -273.649437967904703
-149.192400788330872 -76.243838487074612 -277.832945210384480
-148.915584881414304 -76.109600720138914 -277.508119550181959
-145.625618798322876 -73.860780263129925 -280.374528703890235
-144.829443969522742 -82.150656109618637 -278.517952487451737
-151.465195132915426 -76.403511440119289 -277.654983702784136
-3.346124990444302 -73.804322345755835 -279.673698189509537
11.215109339915408 -74.979328800308011 -282.457823153463721
11.386058121698959 -72.068255159804096 -283.878592293794327
-150.065088660574190 -72.514751780130382 -283.420618887220144
-150.268103587557164 -80.003346651003554 -286.834944233153522
3.302726183171224 -78.338191063313303 -286.092497661500317
-137.589370452459661 -76.374335861467557 -296.165554422082266
-138.942845168843348 -76.249072146315314 -289.733743238119530
-12.840668207902539 -77.909294696866937 -294.278451817442715
-39.760264241195060 -81.115546939052393 -292.498092806625095
-21.510288029794708 -79.076730264594929 -291.668189081022774
-30.243399980673033 -74.010110184781126 -298.206539148555805
-24.221346761269885 -75.147572286790137 -296.554926794755147
-14.585677153750979 -78.685091464185859 -293.713307509540982
-10.385347972484809 -77.489789790128015 -291.558676966555709
-140.934791059594772 -73.328359055057675 -290.998272502970281
14.051155915689442 -73.910083022439892 -297.222646264672790
17.327272606559646 -73.100240507115089 -293.464448329989750
-145.577805846448314 -76.459303017563954 -292.876399325522982
21.615502626965068 -79.953474553544609 -296.598019059734952
-148.811042496779123 -72.738234579297085 -296.769245504538162
-151.242140534093721 -76.678325694321430 -305.683049436376109
-152.015733451517463 -78.131496099698737 -309.709566516829057
-151.598250719305895 -76.840273198224111 -312.481572374968493
-152.388922836049233 -77.193182386425988 -314.790024278139185
-142.637150804169039 -77.027454415684218 -315.961838724615859
-147.490419695713854 -70.723667546307126 -316.045703496893282
-53.591339668197421 -77.758234249241951 -61.110117447681382
-49.214202058512384 -77.372426847966935 -56.978781469237248
-43.858636676569759 -75.072229885134405 -63.688936866625305
-67.810644138491710 -80.585704925683146 -64.020796908761611
-45.425854718969489 -76.073588054855335 -62.226562185199455
-39.611065570903449 -76.036532064553484 -61.786386283859272
-39.570441640779379 -77.831616139033017 -66.950646937734561
-34.832047224104542 -72.377093881282718 -64.187219832701928
-77.586510793767289 -73.650184247721270 -67.149014623884099
-26.610199011112513 -73.032283212017290 -74.644399653519798
-22.668694983674271 -73.495865465884094 -71.495517414932948
-27.487601716432110 -79.251759726410512 -86.449230804227952
-28.950542931461953 -73.372516192536906 -85.489996751090743
85.121582904919705 -78.611386794984924 -83.148956995244461
80.556505317213492 -74.935297824861578 -91.563136016127729
91.450966534515146 -66.941603313023350 -86.056334359851377
87.382192152380867 -72.768141734848982 -84.515062813383665
78.793636926729420 -76.458644698642885 -89.399844110374303
85.256885912640570 -77.507270725804148 -95.184404751359040
88.604300092957303 -75.563898787427448 -94.916325655903165
79.009829277008905 -72.868167258860595 -93.626036897836372
93.372186827373085 -76.283470647204282 -92.305338974201334
-47.834326647824696 -68.987442338341779 -92.906074670592048
87.232075004133975 -81.622199620661377 -95.865023444795199
81.199557573753694 -76.948937762551978 -98.336850945157281
93.410882103871756 -79.103218137965300 -94.150833815382981
-50.982992056405052 -78.832641206882641 -92.806775283865903
86.862967537904552 -78.681607395669587 -100.108913905411299
-52.289615966763691 -76.759148770684220 -95.671492206451390
88.271035512053729 -75.908649811451951 -97.883325095822968
-62.038823988048989 -72.546895490646733 -101.858904342645758
54.896902760649667 -73.279102872831885 -105.690072168200061
45.659744039534758 -76.766771347577105 -110.290555873977198
-90.920952881083352 -72.040016927587160 -107.590333856137647
43.911868203699434 -73.533921629433621 -117.622561467087479
-82.192457849622926 -74.614132731143187 -115.333393230251687
51.272717461375507 -74.368202058514854 -115.952937496780208
-86.912514241395812 -75.253967864547931 -115.620604704293186
46.206584887280172 -75.116450561278583 -121.079619958416231
35.517068540847561 -76.383044482639463 -123.719376847387764
40.031576176767153 -74.218212996051136 -126.650032279977609
44.087450996606890 -78.750945894023047 -132.033434288643349
29.555849134096029 -73.715531032034804 -133.511863599834697
34.579116808919139 -76.914109987438408 -130.518691268161092
43.047841763423534 -73.300639624411957 -134.304159258983077
41.504107993425485 -74.587498182130858 -139.982490312336097
-43.847873362009068 -71.996263588661819 -142.826073548717261
24.495577478090166 -75.355515164061273 -143.346221125517729
-53.842679401488368 -71.566307877224119 -150.119948090020983
-40.601724175090268 -78.983291000119280 -145.309859420072854
-50.680978228745801 -76.789988822240076 -146.905469283692241
36.589968711964190 -74.990435778519810 -148.768624857156453
-45.642481375203914 -76.105565564796464 -146.321073345976060
-45.849269877169590 -75.845378181074722 -149.201020023455101
-42.507455668939500 -75.367815057617406 -149.820813959330252
113.387336184665827 -77.890815477611895 -155.268814490600704
-44.995911845321118 -77.828404444649763 -154.783558208370181
-45.155132634659125 -76.720442475872062 -154.996493418179824
-40.342044714784421 -74.132280039705819 -159.683681875537729
25.208126825064440 -75.763722710400373 -158.936864549131201
-48.517942193060790 -72.724972353111241 -151.159822871163840
-71.171897862159724 -78.253890861234623 -157.039051604111677
-62.965077834896533 -78.884276279018010 -162.398771121029824
113.377907557413380 -80.008904908582792 -161.657169109233450
116.055985846474243 -72.944197952613422 -159.066337301666323
-42.305162352860179 -78.335963508476439 -165.000427795898503
26.002970921927293 -76.724444683048347 -165.208439750656737
109.794236519264587 -75.320964550954031 -168.072348376697505
-35.129425970592877 -76.328412940759634 -169.188726822254978
3.103906328541129 -70.914866613270220 -167.357262912014306
32.262598668515167 -78.050034392320541 -160.956346475762871
115.317955334718505 -75.180646208132487 -164.787587437291847
-62.084260739427606 -76.636464303432035 -167.913012627561869
-40.153834179715844 -71.746304557113930 -173.691797659057016
-58.647306778741523 -77.454940387903363 -171.972120182982025
108.963241938373912 -75.491447012890802 -172.106096191350730
-1.047183068885829 -74.313826599404720 -172.435969333069437
17.144228004848038 -71.959035837021986 -173.998139079674758
-61.896157670948440 -75.551282691557887 -171.261843999737721
-11.026394318532439 -78.810915789518447 -174.480927634689124
-58.339843292808681 -76.486809998483594 -176.538986812556345
113.975546668352081 -76.674025707174422 -176.943947972179444
-60.420553878841503 -74.315580843394827 -175.896099721751000
-50.881438051832177 -74.813560148585751 -173.570780179465316
-14.319369795601631 -75.738103871497160 -176.971512460891262
1.071472325857869 -77.320387482579804 -179.970053140992178
-51.084219192119576 -75.217330836658149 -179.525877385574120
114.598930658845006 -74.717478831421673 -171.101573160940802
119.716262614161550 -75.593442583281984 -176.883842785647829
-27.715771834003831 -72.205791362813244 -178.326126421863108
26.650486114046910 -74.382791486885210 -182.651564599313986
111.049423927042483 -72.690282040800312 -181.348064898986422
-33.392167923046941 -76.873634163224949 -180.487036693702635
-14.196185486702632 -72.143540890970726 -180.938046839732067
-10.807415189215689 -71.790283236217064 -181.867913568474023
-25.616377252183909 -73.652373008326421 -180.142651225012202
24.443127207367958 -73.936130218390460 -178.770290624964247
-49.950376231434205 -79.366592611954573 -181.046637376457937
22.958163798544049 -74.855445657043830 -177.984761772956318
-51.630606192768838 -75.953070507914163 -185.103436907137166
-9.284171867673948 -73.046547741716395 -175.339295411688482
114.665156906237286 -77.456915255992158 -185.945567348882065
-13.178456937668315 -72.113424269346808 -183.722324507491550
107.652993587541530 -79.100096693659168 -183.776893836342595
-20.023749541239411 -74.580040619658334 -187.061771038452946
27.269389117885829 -75.013130985009255 -192.478211615321385
107.053874074294896 -76.218136803972172 -188.203960224681623
-50.133499704891221 -74.215850587769182 -188.998224100636861
105.368033506898769 -73.488083559651542 -191.061237684191667
-54.807269796893792 -74.525644538568613 -183.937245496500140
19.340128334369844 -73.700826494873084 -187.244837163595605
-49.923748998428536 -80.387537122989386 -184.751168254664378
-30.228805402772394 -75.693744415143144 -187.290993272416159
-20.417241309524641 -71.817269366457523 -186.127290067980141
-30.931836650546771 -77.842503397854173 -186.345088897089397
20.015810338346995 -72.544798630289620 -187.026112360802301
-19.252082868218068 -76.134195686884240 -191.991422803444920
-147.386093517846007 -78.442599198416488 -188.958078482079969
-48.934361800949816 -76.848459224711291 -193.190225857868199
-47.484143885141165 -75.072122102418049 -191.399584314657318
108.230598262128865 -76.512332431107936 -190.080160239700490
-52.816233601339519 -72.757649486368791 -196.123272879910644
-49.575564748034168 -77.707459914508291 -192.110053172358221
106.718026392964617 -74.820868987971195 -191.512120075689552
-27.627846226296427 -74.112850354101766 -188.990671084419915
20.077534666035319 -74.406665881374764 -190.547255880343613
-145.066342309629988 -70.103793519521091 -193.033654898785073
104.827869953452762 -76.857481321054493 -195.585535271538845
-46.903126064805946 -76.899167000993543 -195.627523760010121
19.434209317964481 -74.088700738320327 -191.817950869218265
-45.850963546877267 -77.102932406071034 -201.975640610013642
-44.486858993974806 -73.454984517926690 -201.820483075907646
-142.423728227301410 -72.166808922507926 -197.544974710582778
102.862636339341776 -80.307827095831414 -202.475126458831255
-46.125935486738157 -72.649584646033318 -199.499842148970316
14.356793909718625 -71.387020878601305 -194.897052712996896
-140.796817149507490 -75.215445095051663 -199.186710230646639
-155.657863370672146 -70.586874090298849 -197.887046808039258
-46.026151746646832 -76.901463563181636 -200.046498577772837
102.988460001831243 -81.928782284471467 -205.944009140532131
-135.724619556551090 -74.131805275169128 -199.302066033573766
-38.206085620672965 -74.843827222395788 -199.157118976795175
-134.401984308758642 -79.415756011319644 -197.081695492955077
-44.585537761392075 -70.048253533527003 -199.090372122451100
-18.240933969052108 -74.886657591577190 -199.601357392666301
-12.536398930956963 -75.905922165602476 -198.799512016497800
21.097008639759544 -76.358373416845680 -200.899825236907475
-133.622425134961418 -75.936810954737155 -200.888224659559768
-44.879381553661972 -74.472508699424623 -201.153011229766435
-36.055628419965615 -74.296086369753596 -204.759496225811972
20.073587104057971 -69.395447572772682 -199.601962070893194
-28.166668820363427 -75.911354813825895 -204.254968084194843
110.198040777575386 -75.779714329292631 -203.786084467412735
14.859288962799447 -78.004763086442011 -205.563827191188778
98.530925323911816 -70.890377392415303 -204.756001960375244
-17.299911217521441 -78.589825065661103 -205.179226189563849
-143.762842027306476 -75.641440671019836 -200.704993853348441
96.542659984288576 -77.222375823220830 -205.342358250589427
-139.813298783271989 -77.269110550628426 -201.431613577049376
-41.358481271024999 -74.720416313546878 -202.323939717614223
17.339004489681315 -75.636461899305090 -204.944716149801053
-137.225339117773899 -70.926791460236799 -202.832535912729185
12.665620549874149 -78.103177062162487 -207.644183458709222
-14.957160932653977 -78.505777770869386 -207.634039567405921
-147.889107574931870 -70.259089003546634 -204.279950964778862
-37.925012865298456 -73.910212920330537 -207.443109998645269
-35.002059027391837 -74.803745319606094 -204.444243168821743
-139.181203553244870 -78.230574075652186 -210.815560203719002
-142.120722969945234 -75.747513458872959 -211.235068046769044
13.000965128732069 -76.636060511513435 -208.207677688891380
-150.505916359189825 -74.365634819959652 -209.015573070984289
102.610536244894391 -75.527037641127194 -207.610177643461896
-144.689071231536445 -76.200103610932786 -208.764509525873223
14.288756550615403 -76.063259321703839 -204.892987392392115
