# This PCD file was generated using the MATLAB® pcwrite function
# from Computer Vision Toolbox®.
# .PCD v.7 - Point Cloud Data file format
VERSION .7
FIELDS x y z
SIZE 4 4 4
TYPE F F F
COUNT 1 1 1
WIDTH 1420
HEIGHT 1
VIEWPOINT 0 0 0 1 0 0 0
POINTS 1420
DATA ascii
-0.216239 -77.139793 -221.145676
-159.330566 -72.129700 -254.724640
24.677050 -76.990707 -264.220032
-4.782224 -80.449875 -218.320755
4.511906 -85.464844 -273.280182
15.145340 -81.528458 -289.188721
14.345929 -86.428368 -259.550659
-58.641960 -74.271744 -247.032730
0.584522 -73.700256 -236.473740
96.370010 -78.868317 -204.170609
-35.394127 -81.723274 -210.417892
106.090302 -62.388863 -75.257751
-138.035065 -64.901108 -206.244415
-113.519142 -70.102219 -294.038910
-12.191867 -78.497108 -220.849686
50.485409 -66.200569 -97.808853
-146.761795 -64.905350 -281.361816
-57.131546 -69.482231 -147.193253
-42.312824 -78.299469 -286.567505
-16.662086 -81.549461 -176.709198
-17.004524 -74.170921 -226.182663
36.006477 -73.875977 -131.863754
103.401184 -77.354912 -177.691559
9.537900 -75.925003 -194.369797
115.266312 -74.995529 -137.706451
100.461227 -72.526566 -103.659660
-86.582451 -82.612892 -108.821342
73.209488 -71.629562 -67.845444
94.406265 -72.710106 -74.714142
98.211266 -76.215607 -91.958076
69.616692 -69.631706 -69.892525
-28.042044 -69.340790 -185.290009
-58.731026 -60.441032 -121.020981
-0.692927 -79.072929 -246.375992
-143.495956 -60.555897 -230.592300
-154.073029 -72.284142 -224.174057
24.684101 -80.792969 -139.143341
54.596054 -74.671799 -88.762642
36.880596 -66.920959 -114.646347
-4.760581 -70.290230 -286.200409
-32.226585 -76.713562 -210.297867
-19.269112 -81.014877 -178.924438
95.796341 -73.465080 -70.759346
17.802069 -68.705887 -181.809006
9.810522 -78.071472 -214.489136
94.545975 -76.243301 -207.358459
-48.777565 -62.794655 -50.008324
-22.136150 -78.953606 -245.194916
79.413033 -77.522614 -74.768471
92.303406 -72.614487 -94.497498
93.641396 -73.542496 -92.294922
-43.715523 -71.569069 -164.148575
69.016006 -64.399719 -68.186920
-16.201698 -68.826706 -250.895859
41.441334 -59.252960 -16.082436
-54.539230 -73.083420 -56.566051
-16.072815 -61.603153 -66.027100
71.575485 -72.298592 -77.435410
13.216818 -76.154930 -198.591293
23.913671 -70.090897 -274.754822
5.492908 -76.948174 -205.979706
-9.594682 -70.442406 -270.887787
3.775042 -74.155464 -159.716446
-97.771652 -62.314243 -103.872993
-142.133057 -62.123966 -189.152008
-63.219631 -62.992249 -125.492531
-146.900986 -78.645050 -230.979065
44.778103 -74.417839 -114.032822
-68.449677 -57.919796 -116.101067
38.036087 -64.157333 -12.152122
-39.930233 -73.087479 -169.625244
-158.359787 -66.459694 -211.913467
5.687649 -74.541664 -224.303360
-106.018829 -66.689598 -221.965820
-54.514832 -81.758255 -206.809525
-58.047085 -76.458290 -67.824486
-159.787018 -70.917786 -257.058197
-14.953686 -75.432083 -236.566437
-2.475218 -80.126526 -290.260040
20.187189 -70.466751 -187.054077
-89.317963 -64.990868 -143.514984
-143.987900 -74.896324 -307.442413
-149.356735 -77.174667 -190.737518
-10.501887 -76.031586 -204.361038
-67.101547 -72.226677 -165.801086
-32.882103 -77.301559 -209.997726
-71.670929 -57.381680 -104.182991
39.382675 -80.682526 -124.604393
-87.501526 -70.740150 -258.008514
17.021027 -65.003952 -238.401367
-14.704184 -75.046341 -260.383514
-147.786407 -70.955536 -185.078384
-3.524746 -72.189522 -166.477188
-152.404816 -66.006180 -276.999390
-2.341846 -68.778900 -224.166885
-83.780197 -76.231598 -291.229889
-83.410858 -60.033432 -119.794525
-99.488281 -66.910484 -94.416908
-66.990318 -77.102150 -211.564606
19.803043 -68.285301 -157.117813
14.990471 -81.059875 -246.890182
-86.053131 -75.762192 -291.827728
-42.055908 -56.340919 -48.880810
14.974233 -69.010162 -183.970596
-10.670477 -71.067032 -240.664185
-61.525490 -54.367767 -45.281532
-16.449413 -73.444733 -199.056732
-94.651978 -61.516735 -71.519890
-111.089149 -70.058037 -288.780212
74.541977 -78.890312 -231.542709
-38.696175 -75.744896 -81.654953
-67.285965 -72.896004 -254.417480
11.632732 -64.815742 -149.827545
44.637428 -67.333717 -98.446579
-78.379150 -71.743927 -212.704483
16.361435 -81.782150 -212.857147
49.354198 -67.652710 -94.917511
-33.075111 -76.211441 -165.760742
-6.908592 -79.487770 -288.647766
-147.118698 -66.702530 -305.833710
-24.724611 -60.331184 -66.953377
-148.155472 -60.903858 -199.301910
63.059467 -63.904289 -82.411926
-100.267059 -55.177685 -78.793274
-141.785446 -76.743988 -194.237030
-17.981358 -74.617226 -203.723206
-110.016243 -64.340492 -199.071274
-151.576614 -63.334423 -188.826675
90.285706 -76.611015 -97.301903
-147.906998 -76.998863 -193.577438
94.905197 -72.814583 -90.428490
11.933664 -81.320015 -229.136063
-115.823135 -61.641285 -204.665527
-161.770142 -66.901604 -250.006607
-65.519867 -64.922653 -122.079712
-30.320133 -78.928619 -292.854279
-141.593155 -78.851868 -201.347321
0.381095 -78.270638 -165.003677
44.791851 -81.097176 -104.876205
-156.605988 -66.019562 -208.930862
-141.205048 -63.827969 -205.713058
-150.134003 -76.448509 -219.934143
118.950829 -73.337563 -142.497131
34.145969 -73.355103 -260.103271
63.329197 -70.286446 -85.358841
-3.440030 -66.048637 -291.924072
-143.453552 -59.931904 -189.461258
-141.869247 -67.446388 -194.101593
56.347191 -68.668442 -85.339722
-67.756485 -62.074158 -122.725060
36.522430 -81.485764 -123.483650
-151.654419 -59.849648 -183.422012
-53.223545 -70.662956 -147.500793
-47.587952 -75.402336 -182.066772
-45.235928 -74.285126 -147.928436
-140.037094 -66.220871 -186.656494
6.966475 -74.326668 -242.523209
41.520206 -72.101868 -121.403709
-146.399811 -64.733948 -278.296600
103.209244 -61.595325 -87.905098
-75.765869 -63.684418 -144.920578
-150.376938 -70.523453 -282.406067
-120.570885 -63.318233 -201.026627
-125.832184 -67.766975 -206.722519
-158.184250 -67.151024 -219.091537
-148.330368 -80.247803 -261.670715
-31.124262 -72.156593 -163.210709
-147.913254 -69.499260 -198.455170
87.214745 -74.724533 -67.668091
53.491615 -66.688690 -89.644409
64.180077 -66.941772 -70.286194
-62.726563 -66.826759 -135.365982
-69.126923 -59.855484 -108.757896
-74.287430 -82.923683 -209.703827
-58.853687 -75.543869 -288.753845
-146.022705 -64.857986 -176.951920
-150.233261 -61.273331 -264.144958
-80.059189 -64.334328 -111.437660
-15.047461 -65.076851 -66.298729
75.347336 -75.555939 -88.869606
-143.682343 -76.955811 -224.676514
12.375166 -79.108932 -192.236862
2.585121 -70.327621 -265.807709
67.044586 -69.334335 -75.995956
20.391603 -65.468330 -245.846878
85.202133 -69.788330 -105.963058
-144.386490 -82.958290 -222.721497
-64.293732 -82.294655 -205.168777
-95.846687 -67.722412 -88.928017
-71.280296 -68.023880 -47.043743
-73.402214 -66.509872 -140.490173
-164.049133 -64.430420 -204.949814
-93.858200 -63.595547 -70.074165
-151.819977 -70.035294 -280.038666
-63.965240 -67.942711 -132.920715
-11.857371 -75.101440 -208.240875
-66.674103 -72.858643 -149.125580
-151.177582 -63.256359 -190.016235
-164.437897 -67.167320 -249.783035
-151.912140 -83.069809 -287.405701
77.247421 -62.104584 -59.906521
82.958344 -64.625053 -63.294086
-23.267822 -78.359070 -238.951279
32.820160 -61.180424 -40.083607
57.746361 -67.493622 -96.628891
29.431738 -75.710823 -131.228790
-148.264633 -67.190063 -261.845062
-56.934013 -67.839165 -89.287827
-10.795913 -79.441490 -239.535858
-153.136230 -71.407028 -243.585373
-109.013893 -58.919117 -178.498047
-85.971764 -68.979370 -114.564529
-33.884678 -61.478058 -48.069317
93.611603 -76.290489 -80.662666
-149.562317 -81.105705 -268.053284
-84.424477 -74.893898 -111.269531
-57.382145 -81.042191 -247.899918
-47.043617 -71.870728 -165.669281
-100.803291 -66.412544 -221.990875
-152.454620 -66.509850 -197.619537
2.655526 -76.221230 -227.428482
18.024298 -77.430237 -174.568970
-148.757065 -61.353481 -178.351242
-148.849747 -84.869728 -258.719910
-43.679203 -87.050804 -197.562241
-132.903442 -63.808418 -260.843201
-5.655833 -71.822060 -233.727631
-141.713577 -68.574226 -198.573257
-28.361044 -79.147560 -185.607254
-70.800293 -76.693855 -209.255890
-132.982300 -60.946003 -205.366119
-15.767095 -74.787941 -215.296707
-22.928545 -72.368698 -222.241714
-26.339127 -74.181168 -199.615707
22.805033 -78.669746 -186.030289
-155.594986 -74.026443 -261.122070
-13.294099 -73.257797 -290.145416
26.552246 -80.149399 -146.980469
-136.596786 -75.434036 -230.428528
-124.553940 -63.554108 -207.572510
104.431190 -72.670654 -97.601959
-17.524858 -74.212143 -211.558197
-156.527039 -69.898872 -261.167419
-43.460445 -67.772102 -148.839539
39.882660 -76.884811 -127.854820
-90.315300 -63.657333 -113.471664
-156.218582 -62.370686 -198.530624
4.252841 -70.008850 -235.839951
-38.843464 -55.924793 -46.060585
27.705482 -73.481888 -173.432404
85.569923 -76.204910 -92.084587
-4.828441 -79.527290 -166.841156
-148.207291 -66.081177 -287.914459
13.782495 -76.687912 -202.812393
-148.153564 -75.000526 -315.401398
14.000569 -66.916252 -153.480011
-100.417336 -71.676247 -292.869598
21.505358 -74.658325 -192.049393
8.870515 -71.970566 -161.671829
18.568037 -62.155663 -29.208256
-43.442898 -70.455894 -139.795364
-4.466941 -68.825798 -219.101669
-167.311523 -69.893585 -280.313995
-99.247734 -59.652431 -154.352341
-34.844700 -77.359871 -242.159027
-66.102440 -76.214256 -100.758995
98.940483 -75.469398 -86.292328
102.891739 -66.152618 -82.841225
-145.577728 -68.627602 -313.690582
5.232150 -87.934319 -273.225006
-12.743660 -78.548409 -261.528442
-146.277115 -73.304970 -189.405258
-27.960943 -77.293900 -194.732620
-63.373112 -76.674889 -177.175476
-51.056164 -68.922234 -157.242554
20.587894 -73.105095 -210.441299
20.475904 -75.291542 -169.685257
94.282921 -78.799942 -203.152832
21.699114 -75.985016 -241.896271
-57.582024 -74.609138 -292.895447
-152.506897 -71.853722 -208.700439
-14.050063 -65.151451 -207.341476
-132.706543 -69.994560 -256.661469
89.931000 -80.723061 -205.678421
57.385525 -70.676346 -240.742462
-93.722931 -55.292660 -56.794308
-83.075035 -71.743790 -65.605904
-36.370819 -71.254982 -171.621796
-3.554390 -79.689827 -287.340759
-167.647491 -64.903603 -208.509735
-65.668846 -74.533478 -254.180191
-85.932373 -62.339493 -59.951054
24.947491 -67.166130 -158.615555
15.901411 -76.572952 -210.236847
13.915678 -85.244118 -216.334625
-1.632386 -69.173584 -280.240448
6.675848 -66.130142 -235.024948
-163.134781 -65.691925 -259.148804
-119.835800 -67.743988 -234.347488
-26.291895 -70.821564 -180.255936
-60.877552 -64.423607 -120.273651
-20.276758 -80.582314 -224.212540
-79.412148 -58.157711 -46.565464
-17.033215 -82.878792 -192.954651
33.530899 -62.644981 -38.093033
-34.675755 -70.096703 -181.485794
-12.027257 -75.164253 -249.106232
-144.957825 -63.746769 -264.845001
-128.515747 -72.351227 -232.422272
-39.387928 -68.505699 -167.870071
3.314300 -90.460968 -267.564575
69.184578 -59.898994 -61.203934
102.835289 -78.624908 -182.093018
97.005310 -73.224457 -206.825256
-148.141708 -77.716537 -191.459610
88.507790 -75.883095 -76.251228
-62.116673 -68.981697 -130.034882
12.394443 -85.600792 -255.558350
-152.368134 -64.019562 -183.862686
108.738586 -74.456963 -178.351135
39.762005 -64.264412 -29.904247
-147.422134 -75.566338 -279.870911
-19.430466 -74.517159 -222.930405
-45.981777 -79.991684 -81.144783
35.701832 -61.224533 -122.483963
19.834520 -76.262726 -157.594696
111.470238 -72.492676 -130.605453
100.877251 -63.649162 -102.097054
-75.568565 -79.451553 -84.581596
-89.197891 -61.370010 -118.205055
-145.083908 -66.280602 -268.457550
-5.624003 -70.942429 -236.543152
105.700668 -72.257645 -163.847321
-25.373169 -72.475937 -193.090393
103.530167 -69.131821 -87.342415
-67.444077 -76.898575 -251.831573
14.156798 -82.344521 -229.770279
-163.128616 -62.686283 -215.501938
-78.831429 -68.236496 -135.467300
86.646713 -75.976906 -222.360703
-51.066437 -76.307121 -194.442383
116.481224 -78.825058 -123.019775
-73.136757 -67.404175 -156.312332
-63.395649 -76.833138 -181.051590
24.629400 -66.723602 -164.235550
-15.278130 -69.377602 -214.615784
72.466728 -79.311050 -232.969986
-139.013718 -62.221302 -226.113312
-12.974461 -76.227112 -204.002640
17.839352 -73.958168 -176.789536
-154.045059 -72.701431 -205.421234
15.767762 -84.366425 -246.201843
34.867100 -61.139278 -121.989685
-91.435539 -70.309578 -253.688293
101.795891 -69.724396 -92.096870
31.824951 -58.281406 -39.297447
-123.410545 -63.060787 -203.118286
6.880424 -69.716484 -290.914520
19.225594 -71.009148 -185.563065
-158.074768 -64.505226 -201.266830
-93.286285 -65.727463 -67.203110
-23.458313 -83.216812 -182.298248
101.759537 -79.813354 -206.033264
-143.452591 -70.885643 -269.415955
13.438247 -91.338852 -257.110352
-98.444756 -60.974590 -117.162804
-64.744278 -74.692741 -157.855911
23.896292 -74.758888 -141.039063
-158.814575 -73.555069 -264.548676
18.226288 -73.084007 -233.799408
22.241184 -64.106979 -251.963730
-67.040833 -60.996754 -94.201454
31.362671 -81.469017 -140.090988
-45.958179 -69.200493 -160.654251
43.711018 -76.553490 -123.298637
-63.329296 -69.613457 -140.595123
-143.680115 -73.592384 -264.930634
18.145378 -76.531898 -191.682343
75.927483 -77.376389 -94.787491
-32.754116 -71.495575 -164.032303
-155.158829 -71.819061 -294.979126
-12.603325 -81.099457 -263.289032
-19.010872 -68.696823 -206.562759
-119.262222 -75.482796 -291.846344
-86.474190 -58.915333 -123.360870
-19.743385 -70.742012 -202.854355
-49.307354 -67.138435 -138.906387
14.673139 -69.146744 -287.854065
-43.740685 -73.192566 -83.652412
61.687550 -75.727394 -238.669449
-149.518295 -57.546223 -200.938171
-47.952381 -81.138931 -192.484146
11.830874 -69.800507 -150.670456
-130.810120 -63.390354 -230.027847
-15.184577 -73.139061 -213.306061
-125.815430 -73.205406 -266.092346
115.174156 -74.277916 -118.558708
24.309271 -75.503868 -186.382919
86.428490 -81.684830 -90.423759
-43.919537 -76.993652 -246.033737
7.334654 -70.515244 -158.226318
-80.419701 -69.592941 -126.673363
100.290901 -64.912491 -71.157700
-4.669620 -73.332176 -286.198853
-69.978622 -74.497040 -71.516068
16.547905 -84.387672 -238.806641
31.092421 -70.775757 -167.437607
25.104362 -70.397453 -31.042213
38.018101 -77.565041 -107.379669
97.822136 -73.530624 -79.533951
-140.166946 -71.172592 -201.613831
-66.031189 -56.943939 -86.941208
40.889000 -67.880554 -13.039757
-21.758570 -80.488380 -194.674713
-16.679935 -81.591805 -256.321045
-154.745621 -70.681465 -305.850586
8.279277 -76.750839 -245.940399
17.138103 -81.409691 -212.519974
-71.485023 -66.034676 -139.159073
48.121964 -71.305962 -96.082794
-21.836645 -71.417557 -239.435837
-56.820396 -62.754269 -47.349926
-61.297779 -66.074448 -128.225372
-69.164536 -77.943916 -71.900986
43.929386 -68.298058 -25.158260
-68.387741 -59.424526 -113.776428
-145.881180 -60.394241 -203.647247
-109.462570 -68.531624 -184.504410
-143.419373 -61.428558 -191.647842
-3.668674 -64.420410 -241.522263
-126.862610 -62.871716 -204.213669
-87.523933 -67.181664 -120.016968
29.634260 -68.230034 -151.295578
-11.863029 -78.817192 -294.079712
-147.863266 -82.578972 -225.096954
109.735123 -79.200134 -118.497665
-145.502762 -79.914703 -224.289429
21.509754 -69.608505 -281.959442
-16.140217 -67.999214 -206.228287
-86.879829 -70.963631 -68.957603
101.365967 -72.176941 -100.219933
-64.345833 -82.396736 -213.789749
-16.246723 -74.754341 -223.948303
-165.675568 -69.457726 -229.236908
6.402384 -73.323547 -216.264130
-64.975792 -78.309792 -171.117004
-36.464272 -60.929523 -52.001675
-68.693382 -70.868614 -146.491241
26.406664 -68.827965 -154.068192
-19.962568 -74.127487 -213.210251
12.801926 -68.858002 -211.710114
-109.509552 -62.369339 -179.717758
-132.136993 -71.175179 -198.957489
-60.949863 -83.001846 -84.524040
-58.156509 -73.491127 -134.301666
92.599548 -74.359222 -208.746994
6.265805 -82.944115 -223.161652
-78.384850 -81.379623 -89.390915
-21.832455 -78.302406 -180.041122
84.184738 -76.493561 -75.609230
-79.987831 -68.161629 -99.879318
-114.973557 -68.761147 -197.316681
1.969449 -68.330307 -235.339951
100.852318 -65.042694 -102.178902
25.828667 -69.991577 -154.481232
-59.580082 -68.236526 -48.405537
-14.728067 -78.751968 -287.495270
-146.695114 -78.127075 -304.931793
-152.198410 -63.394390 -267.179718
26.183828 -72.506973 -147.021179
-57.899368 -59.560776 -118.909622
94.119949 -81.114899 -208.728470
-62.369198 -63.163494 -92.873070
-67.393990 -67.062637 -49.969696
-53.495335 -81.356667 -86.346779
107.837776 -70.838303 -118.683678
93.096962 -63.018085 -65.072876
-50.338909 -71.996773 -142.772415
-77.668488 -73.816383 -211.488846
-167.293594 -71.239120 -284.511078
27.116262 -61.725941 -36.308926
-38.686256 -74.034645 -182.313461
-78.395309 -70.097893 -139.759323
-111.120598 -71.037186 -293.771057
-50.705677 -72.824081 -156.636597
-59.650120 -77.424217 -170.797058
-126.699501 -68.931534 -286.205200
-15.973001 -72.076797 -230.112045
24.471987 -65.903038 -11.300284
-149.428650 -67.906189 -292.356964
-144.488785 -72.816605 -286.450623
-61.178066 -58.524689 -121.776115
20.764999 -78.086105 -189.003250
-73.129417 -66.331444 -48.869370
-43.541782 -72.669800 -57.794819
53.133526 -60.806568 -90.493286
-57.558552 -64.833733 -146.382156
28.525795 -65.770584 -37.730976
-88.351051 -71.467201 -217.321548
98.943535 -74.542290 -76.986473
-47.345291 -62.684063 -85.071678
-3.168553 -82.209167 -273.223907
21.297598 -73.321678 -165.715897
35.611153 -61.974899 -16.873640
114.259727 -80.479233 -168.424988
76.032272 -78.886459 -92.858330
11.023146 -83.934654 -216.028259
-73.658020 -61.814587 -48.102295
-128.527328 -74.063400 -232.560760
-24.947927 -70.077332 -198.580017
114.520462 -72.825958 -145.203384
-151.703506 -77.621666 -199.977905
-15.498584 -77.158081 -219.996643
-37.600552 -74.240768 -214.486679
-138.907883 -73.842545 -290.744598
62.482067 -65.075729 -67.742104
-141.965866 -81.959679 -256.713745
18.534540 -76.270241 -173.868011
-24.354935 -66.938469 -185.848083
-59.279854 -66.569321 -90.803062
-43.317642 -77.450958 -67.895447
19.564442 -75.199806 -218.512360
-83.808975 -70.363724 -104.765686
15.457552 -82.437698 -272.663177
-126.400002 -67.881035 -224.855530
-102.443977 -71.988556 -259.012665
20.545155 -71.801910 -164.722076
27.387772 -68.947166 -254.340988
23.809292 -72.679855 -153.456955
10.859368 -80.516373 -227.522339
-37.492603 -77.389565 -82.929276
-141.685425 -73.574066 -293.545563
52.218452 -65.609787 -89.487190
11.504499 -72.136520 -209.372269
-43.224430 -78.007690 -155.371857
91.908424 -77.271194 -94.695236
3.181579 -71.136307 -226.203918
30.154963 -76.635674 -127.022354
-61.010399 -72.240227 -57.063705
0.960538 -73.752960 -236.902878
25.524937 -71.355553 -163.882080
-154.733093 -70.216560 -274.045990
-151.427002 -83.246490 -282.773834
-12.902430 -59.312065 -62.770046
110.715965 -72.980156 -108.493805
-26.990515 -78.327591 -239.769608
-147.738190 -82.261902 -233.222549
111.210098 -76.319817 -140.257858
6.243625 -78.399422 -228.161591
23.152561 -69.975662 -163.809952
-101.385170 -72.783348 -261.651367
27.275805 -63.713104 -35.113110
88.155464 -77.746643 -213.554047
-131.165390 -74.878845 -232.997528
-86.340042 -61.315773 -48.296238
27.264277 -60.673176 -36.002525
12.893758 -83.449928 -279.143921
-112.196869 -61.851334 -200.793259
-1.358405 -81.758247 -234.524612
-47.636871 -71.344078 -289.999390
-84.034607 -72.649315 -250.266266
110.426689 -77.623909 -130.355988
-151.758636 -73.063362 -297.989868
-153.162964 -71.013191 -289.818420
66.997704 -75.778587 -234.724426
7.047263 -82.332077 -238.295792
39.313400 -76.709671 -128.118347
40.969906 -77.037437 -252.316040
31.640608 -67.249359 -11.044223
37.306789 -72.895515 -112.768021
18.709431 -77.445236 -207.214020
8.070550 -74.175385 -160.085556
66.421677 -67.507935 -69.274567
90.054543 -77.080193 -93.411476
3.644439 -78.455284 -158.111984
21.793997 -77.804108 -192.839920
22.410776 -76.641373 -254.144470
-51.285660 -79.044357 -87.704918
-43.114056 -73.610100 -83.938545
33.099289 -75.318909 -154.771011
-30.100903 -81.811737 -174.170807
-145.168335 -77.919212 -271.965759
-136.418533 -83.977699 -228.061615
-79.979469 -84.802155 -102.670731
-18.808098 -74.193611 -214.571045
-13.417666 -80.856766 -215.835739
-102.764320 -75.220093 -294.469391
-82.382568 -62.167431 -127.671394
-149.837234 -58.669018 -222.657776
-147.035355 -66.078674 -192.668640
-31.073338 -79.088356 -192.015121
74.047440 -74.897385 -236.298828
56.530777 -70.218674 -249.330429
-13.877413 -77.319839 -226.867508
-95.707817 -73.637177 -262.002228
69.839928 -75.298958 -234.499344
-2.269043 -69.366554 -229.771591
89.927765 -64.632339 -59.391586
17.855623 -67.508354 -177.292953
4.611456 -61.913322 -241.755493
-138.657959 -82.622139 -287.482239
-144.852692 -77.690201 -259.964508
19.144978 -71.065392 -187.943069
35.447411 -69.802444 -132.957855
-15.202585 -73.647339 -290.566223
-77.936432 -62.166050 -130.281662
-158.579880 -66.728790 -223.536301
-2.234129 -80.581360 -219.663452
-145.985046 -86.424690 -290.669495
-170.266678 -65.121124 -262.921936
70.917473 -67.361183 -103.472008
86.525566 -72.435524 -208.500763
23.223810 -63.565552 -135.814178
-153.109161 -62.890816 -205.057281
22.397898 -69.258736 -161.733673
-47.964188 -81.596458 -190.496979
-48.126926 -71.102654 -137.912720
-13.857286 -68.551117 -210.224854
-73.166222 -73.109192 -258.620697
-157.444168 -69.430283 -205.539154
-148.350403 -68.474571 -308.518066
-104.118324 -70.973747 -292.441620
7.826258 -75.775131 -243.447891
-154.291733 -64.953682 -224.391815
-63.872868 -63.525848 -90.881393
-25.833527 -79.028847 -199.827728
86.582840 -62.101692 -110.459396
-123.220863 -71.120644 -207.770508
-141.798889 -74.480049 -201.684280
-27.912838 -77.395332 -175.784378
-64.520248 -82.417976 -94.051315
-158.294739 -69.480095 -219.497162
8.852367 -71.149628 -242.551910
-79.796753 -61.098991 -127.102028
-71.929337 -64.068863 -108.325287
-51.092983 -75.976074 -293.678192
-147.862015 -63.504658 -229.294205
-145.967926 -58.734409 -201.318970
97.711952 -75.264854 -202.967499
19.617073 -67.722672 -179.763351
114.683708 -71.320496 -130.324265
19.201786 -67.062164 -22.914583
94.576546 -70.852806 -102.445000
-140.187515 -57.253231 -206.735443
-22.644093 -71.998856 -214.593475
-30.667528 -82.109077 -192.063278
-75.353844 -60.793716 -135.392685
51.672531 -77.958099 -99.865387
-6.556372 -82.725151 -273.727722
-63.707741 -69.692467 -57.772568
-44.629902 -69.531830 -147.913361
-154.136841 -63.300220 -293.777527
-3.840714 -81.612648 -224.011597
-56.362869 -87.104485 -205.587418
-48.027370 -71.445549 -145.507126
101.289772 -66.442688 -97.143097
23.769506 -72.134987 -192.497894
105.738472 -74.136002 -118.947021
-144.821457 -59.962238 -218.907043
-74.728828 -68.433723 -101.187035
-9.920538 -75.971123 -234.561295
-133.148407 -63.697315 -266.333862
-55.933952 -62.716141 -139.677139
-29.327881 -70.788658 -188.266571
100.795021 -64.654808 -99.004845
-147.420898 -79.281418 -207.242599
60.351879 -72.138496 -238.909576
19.231676 -71.505531 -178.413239
-146.529541 -65.792137 -260.747620
12.940462 -61.935246 -242.387756
-79.509125 -66.631401 -120.262825
-131.973846 -69.159348 -295.289673
-141.496094 -77.360756 -293.630005
-92.532623 -69.001495 -68.268120
51.748135 -74.266632 -93.531006
-23.059671 -80.105896 -222.934555
-45.483093 -79.278481 -248.241226
-34.986481 -64.422264 -81.251846
4.330593 -66.548561 -274.642609
50.104454 -70.203453 -107.547760
-29.333431 -82.135468 -180.317444
-36.584213 -71.235237 -58.846199
22.477566 -71.612892 -178.182465
-28.329718 -74.143341 -181.409027
15.534262 -85.138306 -240.123260
18.194227 -58.286709 -32.604332
-153.059402 -77.502136 -233.393997
42.197811 -71.048920 -23.293411
20.561466 -72.525597 -189.007828
-38.385372 -72.835785 -155.773819
23.233036 -75.629219 -141.800079
-133.021500 -69.264412 -284.608154
34.062851 -68.259270 -120.306992
97.546013 -71.282478 -95.862144
-33.394115 -78.429466 -180.300171
-139.843796 -75.595123 -202.286453
-73.611565 -66.098907 -134.618301
54.057156 -77.553764 -244.261459
4.349181 -81.514618 -236.980988
-147.376266 -74.946152 -219.569504
-117.199249 -72.220192 -295.662903
38.195427 -60.452160 -119.571785
-62.753902 -75.750755 -72.322571
-47.203854 -67.369247 -155.869949
-124.960640 -72.477585 -202.586380
-13.187736 -78.709686 -226.027969
-59.542782 -75.999496 -175.751694
-43.231670 -79.445381 -164.422577
-112.040466 -72.177917 -295.457031
-102.221176 -72.161682 -289.774963
-25.911209 -79.108673 -193.152069
-1.663972 -70.982040 -279.616333
-90.934456 -67.467369 -290.730255
6.290594 -77.003510 -157.819489
-112.306503 -72.692184 -295.955566
-54.961285 -61.143257 -79.226997
-78.057251 -64.875572 -135.613113
43.815125 -70.052406 -110.974205
-87.111336 -59.091454 -118.424805
39.450096 -58.410950 -40.773712
-93.232361 -68.837234 -120.324127
-20.328358 -73.812248 -191.783768
44.750168 -76.709702 -103.568779
-59.303757 -65.288704 -128.595978
-147.245911 -72.923042 -213.086746
54.379719 -68.855972 -102.706841
-150.682709 -76.130974 -249.959320
30.613968 -79.358742 -158.074402
-40.938774 -64.050644 -81.892868
-147.976746 -74.468430 -239.598618
48.919044 -63.380844 -20.869482
-154.219391 -74.012688 -303.604828
29.090572 -71.435028 -256.919189
-130.019592 -68.725609 -288.793945
-39.700726 -67.705833 -168.648224
111.323181 -74.179634 -125.904968
-45.453743 -77.702255 -63.990566
-149.649261 -78.530701 -255.870224
29.761236 -72.183067 -40.965122
-146.942169 -72.342369 -224.411194
28.201614 -78.972275 -161.575455
-25.123121 -75.307030 -221.455276
-21.463312 -79.452301 -241.142715
-1.990183 -75.717125 -232.331696
21.453215 -70.717400 -24.795658
-135.301468 -71.799950 -235.605118
20.502626 -63.299896 -30.852848
-81.212685 -57.453693 -125.411766
10.516521 -67.496269 -244.514023
24.185799 -77.068504 -182.888931
-78.993332 -60.091072 -122.864464
44.974915 -79.524681 -115.623283
-163.930191 -70.361252 -217.878647
107.593887 -77.713951 -114.655571
107.453384 -70.625977 -114.528091
-11.677430 -81.037399 -211.537415
-83.174461 -77.650742 -92.846077
5.733416 -65.409538 -258.786530
-146.952927 -67.934052 -202.560303
-51.265915 -74.665413 -150.652634
-23.703768 -79.935318 -190.413376
1.505774 -66.183037 -232.334488
-29.994562 -76.782883 -193.089264
-22.136162 -68.519501 -204.911957
27.083168 -76.911407 -259.633636
-144.495239 -75.367683 -248.286850
-70.347710 -73.544495 -251.085129
-24.234032 -79.092583 -181.488541
-94.988319 -69.017113 -222.348984
-143.652222 -76.074867 -286.395111
63.974522 -67.111000 -97.079597
-98.942726 -56.589237 -77.059326
-148.410522 -73.616714 -259.957550
51.577881 -73.926422 -101.078484
-35.451942 -74.442856 -66.266426
-141.057632 -62.023476 -180.329514
54.504074 -69.571640 -101.707939
101.268715 -77.526901 -202.166809
107.838760 -76.175240 -174.235962
-102.938660 -63.621216 -157.898468
-76.248024 -70.492287 -139.743790
-85.787857 -60.554150 -118.455498
-97.257401 -68.799400 -155.042862
36.891357 -71.354858 -38.330135
20.707060 -71.318222 -196.331284
108.540237 -75.615646 -157.114166
-59.237762 -77.178574 -69.022598
-120.197166 -67.394516 -202.908035
28.266012 -70.938599 -164.403610
-55.600231 -83.930992 -88.866730
-32.913303 -81.204346 -242.449875
-28.824604 -85.445084 -190.579865
73.429962 -65.271637 -63.164291
-85.099686 -79.623413 -98.137268
-48.209690 -72.920738 -288.111816
41.189163 -73.052635 -102.416191
-77.575119 -57.865208 -108.343834
-162.675034 -75.519150 -290.820099
-6.691138 -76.426552 -213.026962
25.409624 -66.467758 -17.114801
-60.492500 -80.894539 -180.392654
-74.079506 -76.993912 -211.558456
16.660757 -83.844650 -247.654907
-10.829631 -77.485748 -232.825394
-144.426285 -72.239700 -300.906860
-85.758278 -59.680847 -109.104721
-17.176178 -75.871292 -227.845978
27.040070 -78.915627 -151.806244
42.741539 -77.392021 -133.926056
31.835506 -67.237999 -13.860243
-79.353470 -70.600060 -58.336922
-149.274902 -63.705021 -288.060303
-71.013130 -82.262558 -214.084595
-14.535430 -71.036064 -231.658478
-31.282608 -70.845139 -58.649399
96.710175 -75.573898 -199.902542
-149.562714 -64.393379 -272.088104
-84.358383 -59.500591 -51.039993
-80.333611 -78.035118 -215.978043
-152.813431 -61.745319 -258.294098
-39.562725 -73.016045 -171.133255
14.942880 -85.838089 -272.531982
-76.921265 -64.575005 -126.780670
51.613602 -64.852707 -247.058197
-45.535553 -80.600601 -157.515320
-47.045334 -73.559258 -150.594818
-9.244602 -78.209984 -252.445419
58.662609 -75.722473 -241.686478
19.998230 -79.278023 -209.476425
-149.517441 -84.364304 -267.337250
9.833605 -82.744797 -247.003281
17.764618 -85.059677 -261.926025
-29.795931 -70.148323 -176.997192
7.563669 -71.070099 -147.325806
-137.022202 -72.423889 -203.654877
-40.668938 -80.651581 -204.116577
-48.574627 -69.372192 -134.140900
42.356575 -76.588104 -122.654633
32.233303 -76.957909 -124.508514
8.172716 -64.891701 -241.952896
-51.778976 -78.378830 -242.386520
-159.021301 -65.842857 -208.034149
-12.099654 -79.940460 -174.352234
107.996307 -82.017883 -181.231140
104.262932 -77.006485 -175.379959
-7.092133 -74.385246 -206.176422
18.812622 -78.246353 -169.560959
-46.373192 -74.998917 -59.874779
103.978989 -77.812286 -177.405563
-65.647377 -79.025314 -287.756805
-125.645203 -74.017143 -287.206970
-77.856667 -61.220024 -106.844780
2.639132 -79.999191 -222.701706
-103.134720 -60.541492 -81.695313
-80.624596 -80.515717 -84.845169
29.024551 -66.732361 -262.037445
22.665146 -66.867271 -143.034424
21.486292 -70.213730 -36.546898
-158.472107 -69.873657 -264.056549
68.613991 -69.683830 -76.539352
-31.077120 -72.218376 -77.993843
-21.960569 -82.457199 -190.789734
40.675400 -82.652786 -123.074997
-11.530238 -57.377666 -56.852024
-51.746941 -75.001343 -88.317909
27.786650 -69.439514 -266.377960
23.083212 -72.940536 -152.110580
26.312716 -74.275246 -137.904816
-101.331070 -71.760628 -225.247635
17.319761 -83.178612 -237.092133
98.570435 -71.580292 -70.464783
8.827509 -72.611961 -235.436844
-6.938673 -68.114143 -211.367569
100.605858 -74.606918 -197.811676
-61.162292 -67.012337 -90.969421
101.040848 -65.863350 -100.859299
-156.442749 -69.969971 -231.206161
17.676275 -69.562172 -27.710180
13.989148 -69.166084 -287.755066
-144.000427 -73.965530 -299.426147
-143.428589 -72.012718 -230.109009
-86.913979 -60.510109 -53.300533
60.914852 -65.634682 -92.060951
-110.033615 -73.824120 -289.459015
-144.941254 -77.289757 -214.150360
-70.912544 -82.484138 -211.681076
23.742025 -77.229927 -140.536575
37.758919 -68.002350 -22.660055
-7.960265 -77.326530 -211.681839
-29.639101 -81.277374 -181.298157
-83.395988 -72.557991 -110.683556
-157.308640 -69.261482 -288.860382
-148.285233 -65.324936 -261.214447
58.256035 -79.665024 -247.866608
-39.562050 -77.100021 -246.678528
-22.298979 -79.642632 -222.141022
-56.767494 -74.651749 -142.741257
-153.757904 -73.391991 -199.037735
-146.897629 -68.198997 -297.927216
-6.737016 -80.695145 -219.649490
-49.115017 -83.639809 -202.586548
-42.950123 -79.534996 -163.448395
16.067499 -83.669800 -235.574600
-151.075348 -62.977730 -218.124573
36.642525 -80.272430 -133.776901
62.631493 -75.181091 -239.258987
-22.604111 -76.443359 -182.095215
-165.245941 -71.487427 -243.230179
9.245024 -77.021263 -243.956146
-50.196514 -75.729599 -143.237061
-153.797729 -66.912270 -180.947769
-42.054596 -77.908730 -166.319672
101.574905 -75.020760 -100.550591
37.068672 -80.902367 -126.059967
23.853363 -78.208099 -144.642670
-34.742321 -69.593262 -178.736176
61.221455 -72.593826 -235.450226
67.571632 -77.046539 -78.594734
-149.108932 -80.062279 -288.631439
69.080368 -73.085335 -240.135681
111.760292 -74.555237 -142.465820
-51.475464 -79.224342 -198.387741
61.246067 -77.316650 -243.651764
27.625277 -59.821777 -14.203510
-97.944344 -69.989159 -226.020874
-60.552723 -61.016415 -138.030899
-94.338806 -72.491951 -287.541443
-61.585331 -80.501427 -77.921249
-144.853653 -85.536720 -291.205139
-60.762611 -74.351707 -56.318275
26.424658 -75.958702 -182.657272
-73.531136 -68.128166 -137.824966
-55.743587 -81.483559 -207.453384
16.921726 -71.757645 -239.023972
-49.432652 -74.157776 -57.662579
-64.443489 -80.287331 -85.780273
47.676468 -64.846252 -27.189739
8.825365 -77.920082 -209.822693
-148.316391 -66.711037 -248.427109
72.451210 -75.444878 -98.470718
-150.216675 -78.341187 -191.591690
-22.420500 -80.326462 -238.082245
22.776707 -70.653694 -175.994553
39.858795 -80.002167 -128.643280
-102.010307 -69.949158 -293.461884
4.918037 -78.329163 -241.670044
-38.803768 -78.129585 -200.438187
-78.292076 -58.958729 -125.834091
-7.714083 -81.750870 -274.359619
79.067459 -79.271393 -225.577332
95.061653 -82.339272 -201.822281
26.998753 -79.784218 -159.334412
-36.625717 -84.323608 -195.269089
-152.437958 -59.483212 -181.913971
40.508286 -64.249565 -37.239365
-150.300262 -68.212364 -192.460587
44.341549 -63.054802 -35.316639
3.823847 -88.655754 -263.407135
-39.380188 -76.871803 -163.043381
-65.957062 -81.134567 -211.287354
21.910118 -71.275330 -20.287598
-50.396683 -68.152954 -145.121490
-37.336349 -76.225533 -208.250977
-30.060505 -79.654793 -216.468750
67.045364 -73.988052 -73.227676
-151.662003 -72.022514 -272.158386
59.654049 -67.477646 -85.750214
-158.749496 -72.204300 -296.966766
-46.818165 -69.210289 -55.833107
-71.648323 -73.924103 -155.263931
21.692595 -68.790627 -185.539841
-54.761395 -63.129253 -144.054886
-20.663960 -80.445717 -204.895767
17.267639 -79.205383 -201.574600
6.947217 -68.969467 -242.249817
88.216103 -78.090683 -85.969429
-34.579880 -77.446007 -286.982208
-89.459244 -65.458328 -62.386044
-150.195236 -65.890350 -248.448227
-153.865143 -72.390251 -298.560364
-127.510780 -73.831726 -256.999878
27.793558 -67.098595 -36.008194
-57.264282 -73.013641 -93.257309
-55.571972 -61.073311 -79.922073
16.907537 -84.136650 -191.730728
-144.704208 -72.775887 -193.072220
-78.322266 -78.497177 -81.544594
75.755753 -80.446754 -232.077362
-31.003736 -76.938202 -176.815140
-96.229340 -59.195805 -82.791862
-48.155468 -77.905731 -157.926315
-151.639008 -78.985382 -196.022308
-139.406616 -85.505959 -292.935608
-149.878815 -80.620575 -234.982971
-79.734703 -66.123657 -117.754631
15.075453 -85.081268 -244.807190
-45.060078 -79.590881 -161.451752
48.057217 -63.691216 -95.405540
20.280258 -71.127983 -184.492111
-153.810822 -81.536407 -260.038208
0.997991 -70.247330 -266.855560
-149.891495 -80.838425 -287.820862
28.871454 -60.362576 -18.216064
31.117329 -76.410194 -162.405930
-45.684021 -73.194145 -150.249405
86.557648 -68.242508 -59.121994
-144.005676 -77.774292 -297.158142
-147.660126 -72.903564 -262.475220
-76.156601 -61.892170 -102.013931
27.556870 -80.143723 -135.164459
76.922325 -64.513771 -62.410763
17.457220 -79.833946 -224.361420
-31.307787 -75.509941 -170.721375
-148.688782 -69.584221 -301.216339
75.831657 -70.275253 -104.672882
-145.214539 -81.104668 -295.930359
-2.334808 -63.415161 -246.744583
-44.023087 -78.616943 -155.821167
-86.534966 -63.254505 -131.324158
38.170238 -67.306877 -13.584103
-130.511032 -69.669350 -296.607208
31.739857 -69.041168 -17.912386
23.955469 -62.875996 -23.614378
-46.995583 -73.615875 -166.207855
-78.730278 -56.044067 -110.673279
-41.171093 -60.519779 -47.417633
-27.246412 -81.997345 -211.322052
-14.179444 -75.750656 -259.728821
-67.712822 -54.673935 -45.137104
-128.473877 -64.339905 -262.461365
23.449816 -73.854889 -175.312286
103.424232 -61.730442 -71.693405
11.000560 -76.419121 -192.015930
13.477502 -75.990105 -158.393967
-97.624069 -66.145447 -67.332085
-27.698961 -68.261940 -181.224487
5.614257 -67.533401 -264.439423
-59.088135 -63.220844 -43.026817
17.718485 -77.917961 -190.330124
111.158913 -76.975769 -140.696854
-54.590378 -75.140862 -176.225555
-139.670715 -77.029495 -262.959900
89.893814 -79.557358 -211.740509
39.808563 -75.392242 -257.205627
-149.035583 -65.519218 -230.046387
19.149464 -82.912712 -226.785675
26.596794 -68.050926 -145.916611
-5.825972 -76.568901 -210.658051
57.036297 -58.602654 -83.706459
31.167248 -75.178207 -158.629501
-24.899694 -60.008545 -51.999424
102.259796 -66.917686 -93.277138
20.346849 -67.638489 -183.875015
-85.394249 -73.432281 -73.475761
26.448639 -78.902367 -185.418655
-100.057442 -60.912472 -101.316658
-17.987597 -68.483482 -206.595047
-6.030663 -73.215706 -233.660873
-54.788761 -56.635635 -45.666248
-28.040821 -77.526756 -216.074966
-161.854019 -65.890366 -234.525024
-79.812767 -62.165455 -108.315926
-147.377975 -66.929436 -300.471161
4.074061 -82.491478 -246.468445
-161.290146 -66.154114 -215.918243
2.406596 -78.667404 -220.869843
-13.589116 -73.491341 -202.895615
-98.178596 -62.696087 -117.095642
-33.777882 -80.833122 -243.681610
-72.924423 -70.378769 -251.749252
-76.010643 -76.842033 -68.394051
-80.360237 -68.562523 -57.798939
-19.452818 -81.402161 -196.395370
-53.933731 -63.227177 -143.779556
21.604990 -70.211342 -165.812103
58.270859 -74.978409 -246.995789
-49.778812 -75.307266 -156.773590
-95.452888 -66.012962 -119.511162
-4.844285 -76.688179 -235.176956
-3.078457 -70.917969 -238.605713
38.863506 -64.860641 -16.204454
-118.833878 -64.620064 -291.475800
-153.777435 -62.931595 -207.911346
-11.126162 -63.195675 -63.769806
91.773285 -76.723465 -207.335220
-142.893951 -71.641602 -267.949402
-147.673660 -71.436775 -210.883408
-19.234509 -69.192841 -72.673897
-161.610687 -72.582687 -222.877182
8.899389 -74.531898 -221.649033
-75.780563 -60.548893 -47.824261
-17.122240 -80.037506 -181.010345
-13.103649 -63.540897 -66.717125
-26.538136 -72.651764 -217.217438
12.056204 -75.699562 -241.234390
-142.672211 -81.485657 -265.139435
-100.741631 -62.456635 -173.307373
-150.011383 -83.255203 -259.991364
-144.152084 -76.450478 -265.325653
44.560608 -71.295280 -24.008255
-72.070824 -67.271912 -142.588181
-76.237740 -74.599678 -100.658745
-14.794092 -80.025711 -208.417084
-69.102608 -85.040863 -96.640434
-78.418060 -63.565022 -125.476303
-52.254017 -69.001549 -87.207870
42.084450 -73.007980 -125.227585
-84.879059 -66.630486 -130.459442
-98.480751 -63.383450 -151.911499
-149.516602 -76.944923 -185.702087
-84.067230 -78.651672 -87.876236
94.351463 -76.497940 -85.857361
-25.579062 -67.178329 -53.568020
90.362312 -62.891769 -59.567032
10.573891 -80.791534 -207.642593
-143.985291 -71.341881 -300.141907
109.287331 -78.002396 -183.850235
13.795046 -78.247910 -184.898148
23.473701 -71.819244 -163.526733
-16.219772 -75.899857 -263.536194
32.133877 -66.205002 -258.204346
-60.963264 -78.787949 -94.769714
-11.861989 -67.689209 -247.159836
-59.420998 -62.757507 -117.979980
103.593987 -71.648186 -190.541473
-166.410629 -66.707664 -255.257065
-71.121078 -83.387123 -91.152267
-26.048452 -68.742439 -186.916702
-1.401212 -77.286446 -222.754730
-80.380577 -82.625290 -104.171120
-153.836838 -71.079178 -306.644623
-141.713684 -68.995567 -241.654480
12.874339 -72.581795 -217.900421
71.062439 -73.162735 -88.213989
-53.206100 -79.001968 -289.834320
22.028860 -71.290237 -181.467651
17.468363 -76.985008 -216.183701
-68.077499 -73.004723 -99.147606
-72.372681 -65.136589 -102.513657
-148.799866 -79.153236 -240.767471
19.598347 -73.905457 -196.597900
-71.296219 -77.148399 -100.093681
-8.388956 -85.192558 -216.861221
-150.356949 -56.697010 -225.907104
50.259617 -62.095291 -92.729294
-147.949844 -70.187393 -204.054428
23.920084 -77.278275 -254.832428
-148.852417 -72.791100 -242.393311
-74.538216 -79.120560 -86.147812
110.751816 -75.235489 -143.775543
16.856382 -76.556618 -236.911041
43.167118 -78.643532 -113.788628
33.635490 -70.141800 -145.516205
15.995901 -76.162643 -177.102951
-54.648907 -79.905228 -81.598900
45.064465 -75.914307 -119.262856
-54.404072 -59.207722 -83.672218
44.942989 -73.141571 -100.030693
-151.519928 -61.755711 -247.952667
-77.869888 -83.902451 -95.760216
-12.498280 -59.273243 -54.554279
-40.477398 -75.877808 -172.279510
40.259495 -78.029907 -119.581474
-131.028030 -70.862854 -202.067505
105.399055 -77.143036 -180.406021
-85.615662 -65.405869 -131.755371
-152.566757 -69.744965 -303.228424
12.565960 -83.166557 -222.409149
-91.827713 -66.132896 -137.882095
-47.700745 -70.096848 -133.283661
-121.611610 -65.816673 -203.684601
-157.318863 -75.101257 -270.739960
32.622730 -72.626869 -261.166260
20.315950 -78.392944 -184.670319
-152.603439 -69.267548 -279.056793
-28.644547 -64.205345 -49.804024
-9.341724 -72.802216 -222.556107
12.367457 -80.558784 -215.936172
-108.472954 -66.717735 -176.332260
-142.418900 -67.315041 -193.225021
-152.828735 -65.890266 -288.214630
-10.635174 -69.427856 -234.334686
-63.496151 -56.470192 -42.686726
-153.674622 -81.720497 -284.639557
-12.750456 -76.992035 -178.436432
9.251502 -69.578621 -158.136139
-145.390854 -69.134544 -242.169907
60.998325 -78.553040 -244.814896
-45.327679 -77.882317 -156.504181
-62.944416 -78.773354 -164.688736
-156.652664 -63.189060 -204.011490
-45.802383 -77.036102 -198.064774
36.883766 -62.145798 -34.948032
7.420632 -88.806221 -269.220917
112.686401 -81.276558 -151.978241
54.687626 -73.924156 -87.291588
-145.930649 -66.888641 -239.156906
8.729642 -77.868286 -210.779312
-141.783508 -75.483673 -195.777527
11.272641 -74.578667 -290.062225
9.031894 -64.419640 -273.067963
-53.546970 -82.457664 -80.902969
-40.051720 -77.816261 -245.819366
80.704773 -74.157310 -230.122986
-163.659668 -73.199509 -267.877594
-82.705597 -67.767052 -103.046898
23.998598 -58.757511 -27.253468
-149.033112 -62.016296 -293.539825
-57.074188 -74.417648 -146.187042
-75.900673 -71.028236 -103.128654
91.324203 -73.075966 -206.722733
-62.511044 -57.051582 -112.053810
-74.776939 -65.805016 -50.442337
2.918901 -73.647690 -159.788528
72.836258 -74.960098 -98.775871
-154.931717 -68.285286 -219.420349
-143.287338 -67.537849 -238.639465
-90.106247 -78.329857 -103.781738
8.168271 -77.486839 -193.501495
-96.511444 -64.437889 -157.763596
-99.968521 -64.439545 -111.352821
46.219017 -73.954788 -101.804184
57.070087 -67.550003 -84.898842
79.906860 -75.737198 -78.066795
85.332855 -81.312202 -218.279037
-37.306717 -78.632469 -244.311966
-4.389108 -81.961372 -273.248962
44.174011 -69.231819 -37.236000
-22.897219 -58.699337 -50.192707
-44.706596 -71.203896 -168.796326
42.827450 -73.566948 -117.975243
21.020899 -64.142952 -35.012753
-146.210434 -79.652328 -306.828033
-36.234947 -78.733704 -168.583069
-142.742737 -68.336006 -255.344009
-46.827667 -73.592606 -197.908432
70.763870 -72.417885 -102.994896
2.381718 -78.699455 -242.535217
-26.902523 -78.062195 -289.961182
-8.394545 -82.475716 -265.051758
-74.700516 -75.395676 -156.916855
-127.600914 -74.813972 -267.224121
40.927727 -59.465607 -21.552036
-50.058372 -81.431465 -79.518471
84.449394 -75.970299 -221.799210
-30.894478 -74.499786 -287.212341
-107.670654 -72.389877 -230.506943
76.975266 -70.336212 -63.657963
-28.330425 -78.526001 -290.992218
-1.952754 -79.769196 -287.878815
-46.848423 -74.532341 -165.309509
-146.159180 -79.002251 -310.799377
-126.030937 -61.468552 -230.290924
-70.126656 -79.585472 -74.951027
-84.150543 -64.296768 -131.268021
-54.988647 -62.813046 -139.909561
-61.418545 -61.369251 -136.055435
-6.759392 -63.520992 -249.151230
9.192616 -81.078079 -211.207825
60.382767 -61.689392 -89.360786
23.952234 -81.207718 -156.126160
20.360071 -81.693413 -172.185287
-59.236958 -75.697929 -292.758728
-138.460190 -79.277573 -232.975342
26.361712 -77.281921 -132.235855
-35.540859 -80.080559 -167.747787
-155.025253 -61.179321 -229.948273
-66.953789 -79.108421 -210.195236
-55.225956 -71.895340 -287.699310
-71.183197 -71.541534 -145.976227
18.694452 -74.090630 -169.801086
14.105540 -72.869713 -151.178986
-23.419191 -72.130966 -218.356873
25.565414 -81.160271 -143.035095
-48.430756 -58.847801 -46.417042
53.855503 -67.971130 -86.081596
-42.732784 -65.185516 -48.727039
-140.994507 -78.414284 -199.942169
30.043991 -60.471203 -12.172955
-5.221608 -66.847321 -238.974274
-84.675797 -78.202835 -109.759735
42.095566 -75.957359 -104.131294
-17.843002 -67.946098 -71.198265
-110.248215 -72.679802 -290.780731
25.117819 -72.082520 -162.882401
16.505159 -79.591026 -192.946167
-88.037903 -76.730545 -221.195053
-63.632153 -75.602516 -66.096420
39.753143 -68.529755 -112.253937
-101.989632 -65.188210 -170.645233
95.371567 -76.028961 -197.846512
-150.166718 -75.576767 -221.778091
-19.753777 -79.729378 -217.393799
-151.382492 -78.879837 -198.660309
-94.242500 -64.477791 -141.032684
51.037632 -70.226936 -246.275055
-44.463722 -71.051109 -159.284225
95.716125 -68.704811 -68.953522
-15.239680 -72.392456 -200.621384
31.539726 -70.242241 -131.750595
52.223492 -78.521919 -244.568893
-60.952991 -71.318062 -163.498291
47.511528 -63.446800 -32.090546
111.651459 -74.450790 -125.841011
-22.653103 -64.072990 -60.098328
-99.842827 -64.176926 -78.937592
-50.206573 -78.900421 -247.586075
114.622688 -75.450325 -142.417557
-71.286957 -74.646301 -213.093002
-80.560066 -76.836990 -85.408661
49.674156 -64.459610 -23.594278
-133.903488 -68.142159 -236.239594
-63.751358 -63.129272 -128.025925
-145.698975 -69.638992 -274.685272
93.735474 -68.483894 -107.135918
17.171238 -72.359116 -182.883255
-154.097260 -72.899536 -238.626282
-146.768097 -78.073723 -189.777435
5.737368 -76.418640 -226.329041
-114.716400 -67.362762 -259.501251
109.482002 -79.040672 -142.969421
-87.098511 -69.131187 -62.208687
-162.669785 -65.754318 -251.709412
-57.667694 -80.944786 -183.805374
-102.107933 -62.140549 -157.765976
-118.103012 -64.296547 -234.428558
65.685593 -74.182831 -91.160973
-111.717278 -67.330261 -194.564972
-99.362656 -63.922089 -120.570343
-165.613831 -72.646683 -274.879425
-4.605183 -82.344345 -232.826050
22.559261 -75.272087 -279.134186
-42.279812 -68.988335 -165.305557
-39.045647 -77.665787 -83.262756
53.973488 -61.363365 -90.141556
105.052299 -74.250694 -195.057053
100.188065 -71.621643 -95.393806
-62.071690 -60.719078 -122.387337
112.245560 -76.584724 -129.348328
-47.220810 -76.045242 -189.790253
-92.883621 -62.446640 -62.165192
-30.950567 -72.334160 -62.111679
-33.605984 -72.145180 -57.191978
-127.008240 -73.206528 -234.147308
47.818047 -70.881668 -255.632065
1.065852 -72.655464 -226.147385
-150.014664 -75.909439 -241.631729
-46.651722 -79.793213 -186.023895
22.590179 -80.650856 -183.802490
21.332405 -70.647629 -153.550385
-34.187309 -76.082230 -243.386917
68.744286 -67.764381 -98.727898
-149.432495 -65.555115 -254.054565
-143.524750 -64.602699 -288.947510
44.345535 -62.087677 -115.354477
-101.925438 -61.389580 -91.544746
43.888958 -69.439438 -27.882256
52.123489 -72.281662 -109.164131
29.649878 -75.796600 -123.176079
109.874786 -70.238808 -129.199600
-162.537140 -63.830807 -208.664749
-18.198477 -76.173828 -203.401764
-5.238281 -70.001488 -227.243759
-47.580009 -57.609856 -47.618927
-32.455776 -76.190735 -187.437439
18.492170 -74.481422 -239.412704
22.298077 -76.366348 -244.401642
109.911201 -73.636917 -110.791733
41.192661 -76.719849 -97.332771
61.135815 -71.511665 -92.797188
8.558438 -73.100250 -211.651413
39.668823 -68.881813 -18.469131
-131.642929 -70.374191 -205.167709
23.428434 -69.593147 -153.026245
93.120697 -78.660896 -90.357376
-81.313469 -82.867889 -105.806435
2.847512 -85.761299 -250.546448
-148.610886 -73.438591 -194.855377
-142.378571 -82.031311 -261.899750
115.092117 -78.807991 -169.678024
-34.423851 -74.915245 -291.673920
-160.021378 -71.324249 -294.923340
-146.451736 -67.261559 -299.637482
14.465177 -78.494705 -242.302612
-15.244480 -71.417892 -202.363861
-74.562820 -77.907272 -215.200256
-14.257266 -72.037231 -263.508636
-32.619549 -78.603119 -74.073280
-150.554932 -66.810585 -228.005463
-20.840530 -70.486954 -196.572067
-148.064987 -75.473495 -218.291031
84.024139 -75.353172 -79.694153
-72.887405 -71.734589 -140.414917
-151.643951 -78.689568 -257.976532
-140.429764 -68.796165 -229.013641
-149.639771 -61.320744 -210.879669
-23.764170 -76.563530 -179.037613
91.315430 -76.015434 -221.765381
-130.421082 -61.076378 -206.055756
-6.614396 -74.315331 -242.870987
-139.100616 -66.021477 -203.268494
-149.388718 -75.044487 -206.664703
93.931564 -73.996391 -214.209534
104.947105 -72.536522 -100.197769
-14.833239 -73.069077 -220.218597
-42.347092 -71.685654 -287.024780
103.822868 -75.472076 -192.086700
-81.026855 -63.055996 -138.707748
13.695452 -75.838310 -196.742966
-149.945953 -69.065041 -179.733185
79.826080 -64.109329 -60.506138
-23.143431 -75.459862 -215.630569
-87.922226 -75.385765 -117.261139
-25.888048 -71.239197 -173.534027
-61.103535 -64.105469 -127.378708
11.521906 -67.200935 -156.094696
-60.607750 -78.584297 -173.580307
16.840206 -77.295815 -290.352661
-151.040802 -80.186043 -202.734604
-103.268791 -65.090500 -227.531296
