# This PCD file was generated using the MATLAB® pcwrite function
# from Computer Vision Toolbox®.
# .PCD v.7 - Point Cloud Data file format
VERSION .7
FIELDS x y z
SIZE 8 8 8
TYPE F F F
COUNT 1 1 1
WIDTH 813
HEIGHT 1
VIEWPOINT 0 0 0 1 0 0 0
POINTS 813
DATA ascii
270.558323727253764 -51.120201110839844 6.833848878512265
270.508229960933818 -50.985500335693359 27.802489450906787
270.969731962226490 -51.088100433349609 2.069197895685845
270.956070016999490 -51.087299346923828 7.787921801456758
270.895296373600047 -51.893699645996094 33.227028866791009
271.374278777437439 -51.753101348876953 0.163879348228560
271.308245988538602 -50.954601287841797 27.804400677140109
271.570846871568449 -51.893699645996094 32.570741012785930
271.294583901487044 -51.074199676513672 33.523183948967812
271.291797636744832 -51.893699645996094 34.689480440746607
271.286584409954912 -51.893699645996094 36.871673691744789
271.762886499441947 -51.591499328613281 4.930471121107746
271.696853592071193 -51.185001373291016 32.571042040942231
271.688749462452051 -51.893699645996094 35.963332012733886
272.160602248344048 -51.488998413085938 5.884553746280262
272.094569411600787 -51.076801300048828 33.525095102295303
272.496839102184936 -50.940601348876953 32.572953194269729
272.956064309774945 -51.245601654052734 7.792699757681321
272.911246650950432 -51.893699645996094 26.552825981473852
272.899139310260182 -51.417198181152344 31.620811359149975
272.883854389640589 -51.893699645996094 38.018893000745514
273.371996016213586 -51.828601837158203 1.121804380065386
273.287100216331453 -51.893699645996094 36.658152405189874
273.751495818401054 -51.081798553466797 9.700860478086277
273.699124820373925 -50.963600158691406 31.622722512477470
274.160596541119503 -51.733200073242188 5.889331702504825
274.110502726955076 -51.343299865722656 26.857992302002842
274.100655359795951 -51.893699645996094 30.979980280014342
274.094563704376242 -51.507701873779297 33.529873058519868
274.087732660850463 -51.729400634765625 36.389264694433720
274.569697275229430 -51.657299041748047 2.077798158565398
274.501387502958892 -51.197200775146484 30.671436999269762
274.946950611536181 -50.948501586914063 11.609971841284933
275.369713302834214 -51.744098663330078 2.079709384798718
275.296849422565174 -51.166801452636719 32.579642376727612
276.156036867721014 -51.610198974609375 7.800344443897126
276.102438998489788 -51.893699645996094 30.235759824279665
276.101389040677475 -51.014801025390625 30.675259378830578
276.092231608691179 -51.893699645996094 34.508448895074594
276.511917906511712 -51.893699645996094 26.265927285959524
276.496827687735845 -51.411800384521484 32.582509106718859
276.962883867654512 -51.191398620605469 4.942893836453941
276.956052895325797 -51.642501831054688 7.802255670130448
276.903682003809536 -51.037899017333984 29.724073120374577
276.899127895811034 -51.165298461914063 31.630367271599102
276.896407565275354 -51.893699645996094 32.769064507418904
276.889735388101428 -51.893699645996094 35.561956623014140
277.344660664605271 -51.125598907470703 12.568827654324037
277.308228866864908 -50.947601318359375 27.818734545813797
277.305771325379737 -51.893699645996094 28.847431485181126
277.296694404208608 -51.893699645996094 32.646920154601403
277.363829608172693 -51.893699645996094 32.584580361240640
277.296843715340628 -51.827999114990234 32.584420332952178
277.294566779813351 -50.957099914550781 33.537517817641501
277.286606702993481 -51.893699645996094 36.869509041825154
277.710498557449114 -51.254501342773438 26.866592637788219
277.699113405924777 -51.159999847412109 31.632278424926596
278.153754153772070 -51.570999145507813 8.758249687048357
278.272508672435549 -51.893699645996094 26.867935271483159
278.165221050240802 -51.893699645996094 27.820781887224598
278.542361923051487 -51.169101715087891 13.524821671241947
278.494824793752286 -51.893699645996094 33.423285119827170
278.965155166584736 -51.747699737548828 3.994544744169735
278.899122188586489 -51.488399505615234 31.635145227823664
278.888134560636047 -51.893699645996094 36.234432487725087
279.654148561787281 -51.893699645996094 3.996190739007411
279.349208946907197 -51.433399200439453 10.667361050247013
279.301392116114584 -51.159999847412109 30.682904137952210
279.291833574499094 -51.893699645996094 34.683993260523700
279.764921727971796 -51.893699645996094 4.088105168283114
279.742370705713199 -51.272399902343750 13.527688474139016
280.110485605281383 -50.952301025390625 26.872326170676530
280.096093206899127 -51.893699645996094 32.896808872278115
280.562849180657452 -51.615100860595703 4.951494099333493
280.551464206841104 -51.631198883056641 9.717105500087461
280.540079233024812 -51.207500457763672 14.482716900841430
280.958318463678836 -51.272201538085938 6.858694309204654
280.910501632886223 -51.082801818847656 26.874237396909852
280.900750063982684 -51.893699645996094 30.956125391695235
281.337818277257838 -51.280601501464844 15.437745638867568
281.328710298204783 -51.064300537109375 19.250234759470743
281.305940279944593 -51.042999267578125 28.781487124798126
281.303663344417316 -51.155799865722656 29.734584609487449
281.751472989502815 -51.807098388671875 9.719972302984530
281.733257020005112 -51.135299682617188 17.344955312548855
282.156019746047320 -51.126300811767578 7.814678312570816
282.146911755033159 -51.587398529052734 11.627172439949865
282.142357753545525 -51.427200317382813 13.533422007027326
282.121864812637170 -50.987098693847656 22.111517521608597
282.115033769111392 -51.006401062011719 24.970909157522446
282.105925790058336 -51.156600952148438 28.783398278125620
282.549727971648167 -51.893699645996094 10.446261390638099
282.535519536273682 -51.293399810791016 16.393739417367581
282.503641609587930 -51.589298248291016 29.737451339478692
282.491884970982937 -51.893699645996094 34.658637094866492
282.960589739826048 -51.737499237060547 5.910354753636399
282.926434829768539 -51.090000152587891 20.207184187540328
282.917326732243509 -50.940601348876953 24.019722899066444
282.908218990134344 -51.066200256347656 27.832112837823740
282.896505352296970 -51.893699645996094 32.735298995527700
283.340089553404994 -51.443698883056641 14.489406083299315
283.319596659771605 -51.042499542236328 23.067481809194987
283.312765616245827 -51.162799835205078 25.926873445108839
283.305934572719991 -51.231899261474609 28.786265081022691
283.708204500248087 -51.158901214599609 27.834023991151234
283.693433688731659 -51.893699645996094 34.016905822651012
284.158291021624905 -51.647499084472656 6.866338995420460
284.144629053045321 -51.551601409912109 12.585072676325222
284.142352046320923 -51.470901489257813 13.538199963251889
284.128690101093980 -51.187000274658203 19.256923869022803
284.117304997414124 -51.001598358154297 24.022589629057684
284.105920082833791 -51.681900024414063 28.788176234350185
284.542344801377794 -51.562599182128906 13.539155539915637
284.524128795996774 -51.183799743652344 21.164153569807581
284.517297752470995 -51.142398834228516 24.023545205721433
285.344637835706976 -51.652698516845703 12.587939479222289
285.340083846180448 -51.529598236083984 14.494184039523876
285.326421877600865 -51.205398559570313 20.212917720428639
285.315036844548501 -51.100601196289063 24.978553916644074
285.310482973493947 -51.171501159667969 26.884748886022724
285.756015576541301 -51.692100524902344 7.823278648356195
286.510461238664618 -51.607799530029297 26.887615616013967
286.940085383899032 -51.589599609375000 14.498006419084692
286.928700421474218 -51.338798522949219 19.263613051480686
286.912761446739808 -51.307899475097656 25.935473780894217
287.337801155584145 -51.590099334716797 15.452079507541260
287.321862180849735 -51.256099700927734 22.123940236954788
287.315031137323956 -51.273498535156250 24.983331872868639
287.299401007617405 -51.893699645996094 31.525913834536990
287.751455867829122 -51.467098236083984 9.734306171658218
288.140063649069646 -51.669498443603516 14.500873149075936
288.467907147097151 -51.893699645996094 28.798596955709463
288.540056404126517 -51.770801544189453 14.501828725739681
288.528671441701704 -51.424598693847656 19.267435358135675
288.515009402494570 -51.697498321533203 24.986198602859879
288.930971697621374 -51.529598236083984 18.315273495912429
288.919586783041041 -51.225799560546875 23.080860101204930
289.350595842085966 -51.893699645996094 10.098768524744470
289.349180410784413 -51.455299377441406 10.691250831369828
289.317275369966239 -51.893699645996094 24.046312399132908
289.737788203416471 -51.659400939941406 15.457813040429569
289.719572293154783 -51.454700469970703 23.082771254532425
290.124118919266209 -51.364200592041016 21.177531861817521
290.546881681191792 -51.525100708007813 11.647239841511864
290.537773713530214 -51.450099945068359 15.459724193757065
290.528665734477158 -51.372200012207031 19.272213314360236
291.335512734980227 -51.624900817871094 16.414762468499156
291.328681762081942 -51.664299011230469 19.274124540593562
291.742336462365813 -51.344200134277344 13.556356211486394
291.721843521457515 -51.506801605224609 22.134451726067663
292.528660027252613 -51.600498199462891 19.276991270584801
293.349168996335266 -51.787899017333984 10.700806743818955
293.346892001572030 -51.791301727294922 11.653929023969749
294.040386269066573 -51.893699645996094 20.233735250036212
294.094296790538465 -51.893699645996094 24.046424512093388
294.148280510763982 -51.893699645996094 11.068561847950081
294.542316265255010 -50.975200653076172 13.563045321038452
294.650557977852714 -51.893699645996094 23.094551305020836
294.944616544527321 -51.365299224853516 12.610873683681358
295.344693606628482 -51.893699645996094 12.576539358226213
295.600672745269378 -51.893699645996094 19.284330262671432
295.882045950922077 -51.893699645996094 14.519368628119658
295.817231722265376 -51.893699645996094 17.378601715860270
12.054116697083947 -50.940601348876953 45.294496034878733
12.224047513243013 -50.940601348876953 42.435495949217788
12.159162334354789 -50.940601348876953 47.201055832951141
12.461161518340116 -50.132999420166016 47.201777304450410
12.879919689740980 -50.940601348876953 39.350153298060647
12.877099022562042 -50.138000488281250 40.530850230923782
12.856145058814002 -50.940601348876953 49.301924292183863
13.256605564243269 -50.168899536132813 49.109879642088160
13.383650497867329 -50.940601348876953 51.016491996148019
13.652049924217986 -50.086101531982422 51.017133198332658
14.083926451018772 -50.332500457763672 37.674325368289004
14.048787214340644 -50.940601348876953 52.383181939106990
14.487127828200222 -50.940601348876953 36.334985179273076
14.447726895122557 -50.940601348876953 52.827735966785070
14.845666065129484 -50.940601348876953 53.690692423711397
15.289623890631704 -50.940601348876953 35.291199272998952
15.688476137762329 -50.206901550292969 35.771952764801334
15.878935625522832 -50.940601348876953 54.834964074140707
16.490750264406447 -50.222900390625000 34.820667278933314
16.893591383343679 -50.940601348876953 33.632526001551710
16.888473476364865 -50.056598663330078 35.774819540358720
17.246133630723889 -50.940601348876953 42.447493637267193
16.872534690729939 -50.154098510742188 42.446601115029864
17.031178588095610 -50.940601348876953 44.353285143829730
16.867980582731434 -50.482101440429688 44.352895266254393
17.239424852459873 -50.940601348876953 46.260087671936830
17.274810103343672 -50.225799560546875 41.494459220674131
17.657269296914869 -50.940601348876953 48.167291744525485
17.239369856735699 -50.940601348876953 56.329314882622128
17.693024538536271 -50.169498443603516 33.870436569801370
17.690747603008983 -50.012798309326172 34.823534054490693
17.676038902699830 -50.940601348876953 40.980416890967867
17.656592626880588 -49.996498107910156 49.120391144870879
18.096355878126875 -50.940601348876953 32.476296501315851
18.481636341184874 -50.087799072265625 38.638033537606930
18.455961752531334 -50.940601348876953 49.385103699626129
18.437070431304367 -50.940601348876953 57.292780719078408
19.057434640091689 -50.940601348876953 38.639409111065461
18.854023242966619 -50.940601348876953 50.197656709970680
19.297814076334731 -50.940601348876953 31.867665235479581
19.295297289752540 -50.119899749755859 32.921161451003016
19.236160284753179 -50.940601348876953 57.675191611957487
19.683910852258631 -50.456699371337891 37.687703646629103
20.095294243925437 -50.082298278808594 32.923072631670195
20.051082619907255 -50.940601348876953 51.429520065434431
20.034618980673038 -50.940601348876953 58.320998965443309
20.497569656539174 -50.242698669433594 31.970930737314465
20.449850054778960 -50.940601348876953 51.945774936031896
21.156783719437158 -50.940601348876953 36.738119393457907
21.288460539002187 -50.053199768066406 35.785331043141433
21.248874457022321 -50.940601348876953 52.355582906491833
21.247474756291940 -50.035800933837891 52.941480587589588
21.233818401460944 -50.940601348876953 58.657864421684295
21.700626797987134 -50.940601348876953 30.693001302055421
21.697566995141710 -50.114898681640625 31.973797512871851
22.032071821548946 -50.940601348876953 52.943354978154233
21.633076055107889 -50.940601348876953 58.968919682531052
22.899841269271533 -50.311000823974609 31.023566803739907
22.888456354691176 -50.811798095703125 35.789153409032409
23.290732004248845 -50.067501068115234 34.836912332830792
23.246608532487738 -50.940601348876953 53.306460305241693
23.232120814294351 -50.940601348876953 59.370842719034449
24.097559765003595 -50.062900543212891 31.979531059430002
24.093005893949027 -50.003200531005859 33.885726028808648
24.045587065174722 -50.940601348876953 53.734670318241939
24.502019417943238 -50.940601348876953 30.113092762898685
24.845079468142792 -50.940601348876953 53.948578884345523
24.831571230610912 -50.940601348876953 59.602962620706776
25.299834039133419 -50.163200378417969 31.029300350298058
25.293003232551563 -50.027999877929688 33.888592804366027
25.689901293690792 -50.940601348876953 35.187344755368329
25.690724774110727 -50.547698974609375 34.842645879388947
26.031217625227420 -50.940601348876953 59.751931880059935
26.444804372216439 -50.940601348876953 54.065003158243485
26.902566429687457 -50.940601348876953 29.887625801896959
26.890722112713267 -50.715198516845703 34.845512654946333
27.692996002413448 -50.041999816894531 33.894326350924189
28.489742272618141 -50.940601348876953 35.256934255979203
28.770175724363046 -50.940601348876953 53.912656220851581
28.431632291992184 -50.940601348876953 59.581064520657932
29.245905540141024 -50.940601348876953 53.607891285557400
29.701770029429422 -50.940601348876953 30.224014467922093
29.697544166243453 -50.100498199462891 31.992909337770101
29.690713359661601 -50.289699554443359 34.852201791838070
30.092988772275334 -50.005599975585938 33.900059897482336
30.432115609709953 -50.940601348876953 59.381142591047563
30.901238686876798 -50.940601348876953 30.448180737096788
30.899818440373277 -50.370700836181641 31.042678628638157
30.890710698264137 -50.124099731445313 34.855068567395456
30.888280154717705 -50.940601348876953 35.872464498362163
31.287262834927983 -50.940601348876953 36.298620291351398
31.247191077117172 -50.940601348876953 53.072170143292091
31.632889368021626 -50.940601348876953 59.059009531091668
32.097538843448532 -50.147399902343750 31.998642888884870
32.088430864395455 -50.257900238037109 35.811132009488048
32.490704606609931 -50.013698577880859 34.858890928729821
32.449029121114179 -50.940601348876953 52.303741660442768
32.885146796663228 -50.940601348876953 37.186439005501938
32.834230506812325 -50.940601348876953 58.499377911805951
33.299030017072539 -50.940601348876953 31.374611725019481
33.297532367364688 -50.348499298095703 32.001509655329023
33.695255816267043 -50.158000946044922 32.955562734908554
33.686147837213966 -50.127101898193359 36.768051855511729
34.051941874247440 -50.940601348876953 51.087367927905937
34.036000705503319 -50.940601348876953 57.760147043065444
34.497232040592159 -50.940601348876953 32.128975532114978
34.495252770439940 -50.185501098632813 32.957473915575733
34.488421726914154 -50.003799438476563 35.816865551489585
34.880370774656008 -50.940601348876953 39.188012639972342
34.854100376807850 -50.940601348876953 50.184481275483634
34.851990190574881 -49.997699737548828 51.067779536135674
34.836792706823942 -50.940601348876953 57.429261169258702
35.281587637561259 -50.148700714111328 38.678168368070615
35.481225074567554 -50.940601348876953 56.787995682018348
35.692973173515192 -50.121200561523438 33.913438175822435
35.678010050099125 -50.940601348876953 40.176819426655271
36.088419449946329 -50.058998107910156 35.820687921937164
36.059408175789372 -50.940601348876953 47.964454003711872
36.038969993421873 -50.940601348876953 56.519628259925469
36.493403725976073 -50.940601348876953 33.733850393217594
36.490693192160805 -50.133899688720703 34.868446841178944
36.477031105109226 -50.032199859619141 40.587230113006640
36.473101718022036 -50.940601348876953 42.232023698198667
36.458815147003079 -50.010398864746094 48.212208354212990
36.671097798719522 -50.940601348876953 55.837737253124480
36.888416404119226 -49.992000579833984 35.822599102604350
36.874754554011581 -50.095600128173828 41.541283192586171
36.865476244165485 -50.940601348876953 45.425070708973955
36.863369402487294 -50.323398590087891 46.306968979724552
37.292235818197945 -50.940601348876953 34.223358601657388
37.279304994809415 -50.004299163818359 39.636043808984496
37.270949545137562 -50.940601348876953 43.133533294419443
37.241611456944909 -50.940601348876953 55.414099751809012
37.688413358292124 -50.249500274658203 35.824510283271529
37.683859487237555 -49.989498138427734 37.730705252650175
37.672474572657194 -50.133899688720703 42.496291857942673
37.666978967932629 -50.940601348876953 44.796685073767044
37.665643533688019 -50.264801025390625 45.355681586513334
38.043700430930564 -50.940601348876953 54.541913704485836
38.045150782983683 -50.159999847412109 53.934813996488280
38.488410312465021 -50.702301025390625 35.826421463938708
39.064832744836508 -50.940601348876953 36.780901452696668
38.883856825840091 -50.163898468017578 37.733572028207561
38.872471911259737 -50.066600799560547 42.499158633500059
38.939725065833876 -50.940601348876953 52.983747106948350
39.683853780012988 -50.575801849365234 37.735483208874740
39.681576607541771 -50.080898284912109 38.688679875409939
39.650130246894093 -50.940601348876953 51.851743509311760
40.070782874310119 -50.940601348876953 43.207921679609534
40.065638210893098 -50.050598144531250 45.361415137628100
40.478233053211994 -50.940601348876953 40.088887236769018
40.472465819605532 -50.292499542236328 42.502980994834417
40.453943356292896 -50.940601348876953 50.256258583057900
40.874743139562455 -50.366798400878906 41.550839105035294
40.867401089987737 -50.940601348876953 44.624131650332529
40.865635165065996 -50.089199066162109 45.363326318295279
40.858804116983592 -50.236900329589844 48.222719861552321
41.393454436769893 -50.940601348876953 46.317791284600887
43.232175409273331 -50.940601348876953 -60.428116847978444
43.149420476542851 -50.940601348876953 -58.522112514465775
43.158790410629358 -50.940601348876953 -55.662684082014636
43.929757795440231 -50.940601348876953 -65.192165227618659
43.506987354019167 -50.198200225830078 -55.661852244764376
44.271124798039445 -50.940601348876953 -49.941310003990687
44.580271415383564 -50.940601348876953 -48.034262611752787
44.737864611452878 -50.940601348876953 -68.584943456476125
45.317916007028437 -50.940601348876953 -70.907569481215390
45.266935101545236 -50.940601348876953 -45.173216134735085
45.946507195829724 -50.940601348876953 -72.200871285893172
46.537744835783045 -50.940601348876953 -73.764061376346703
48.358512688689530 -50.940601348876953 -77.222718907989616
48.720945579306459 -50.940601348876953 -77.571356622100183
48.256882942109385 -50.310100555419922 -34.681744570140317
49.562841976768006 -50.940601348876953 -79.034750221792578
50.122395887208647 -50.940601348876953 -79.474317424063202
49.845491694374275 -50.293899536132813 -29.912234514324389
49.838660892349033 -50.535900115966797 -27.052943967599610
50.222751711910135 -50.940601348876953 -23.239515500992241
50.364991626627500 -50.940601348876953 -79.932334451033512
51.015888160290302 -50.674598693847656 -17.518802892268155
51.406776750980491 -50.367000579833984 -13.705358185888006
51.788561177303983 -50.562999725341797 -6.079424349791452
51.936152885366823 -50.940601348876953 -2.266560875997300
52.179453582680551 -50.360900878906250 -2.265979634298075
52.915019673476017 -50.940601348876953 -82.326952753331867
54.108092910387533 -50.940601348876953 -83.277199721540825
54.792538180936795 -50.940601348876953 1.552753837636793
55.369381912711745 -50.940601348876953 1.952443706562047
56.569115484870082 -50.940601348876953 2.065719903686150
57.097842845537656 -50.163799285888672 -51.816869201679850
57.407752098037328 -50.940601348876953 85.434259011549088
57.192921706458499 -50.940601348876953 88.293052650389086
57.770328145368595 -50.476299285888672 1.559867732985090
57.815804648762665 -50.940601348876953 83.528932626731475
57.985175062749107 -50.940601348876953 98.779380767809471
58.780047231696344 -50.940601348876953 -86.225351747378781
58.700055405759322 -50.940601348876953 -52.741747498291794
58.378185506005082 -50.940601348876953 81.989073017659152
58.598718412694808 -50.940601348876953 100.687147729837861
59.102391255424827 -50.592201232910156 -53.718389211366194
59.095560207342423 -50.848098754882813 -50.858995668109152
58.745393360159532 -50.940601348876953 95.716582459753042
59.126683753021410 -50.011901855468750 103.547715896487077
60.116466803278101 -50.940601348876953 -8.918937063930439
59.790815283933014 -50.050998687744141 -7.013410009582525
59.783984477351154 -50.651798248291016 -4.154117555514553
59.779430369352653 -50.444999694824219 -2.247823404290028
60.695674045772286 -50.940601348876953 -50.905374579535042
60.322156829448033 -50.940601348876953 105.444383725374621
61.409272168993894 -50.940601348876953 -14.737964871126469
61.118833342446912 -50.940601348876953 106.836191147325039
62.155931859129645 -50.940601348876953 -18.445391602423371
61.814591612133398 -50.940601348876953 -16.963502480164898
62.305283581795813 -50.940601348876953 -54.924940080892995
62.295369801985650 -50.940601348876953 -50.775152575887546
62.689888616143975 -50.940601348876953 108.321943232653737
63.402859987540154 -50.940601348876953 -21.301721482678360
63.495404171390931 -50.940601348876953 -50.789383233798361
64.706129452748002 -50.940601348876953 -55.275505867039058
64.313011395696392 -50.849800109863281 109.278925680120906
66.386594169195604 -50.940601348876953 -88.955783856235911
66.304648403324350 -50.533000946044922 -54.654284144481252
66.697415199265549 -50.940601348876953 -51.625436494244887
67.105333874762721 -50.940601348876953 -54.942174697212721
67.102364611840187 -50.313899993896484 -53.699277395581170
67.034054641356946 -50.750000000000000 -25.105555585448037
66.794136740922099 -50.940601348876953 75.321155973264354
68.041986907633316 -50.940601348876953 -52.743828638057089
67.507406606461686 -50.940601348876953 111.627567140442267
68.387877090675232 -50.940601348876953 -89.490410183510178
68.236332971673690 -50.486301422119141 -26.055887374655825
67.994495515514885 -50.940601348876953 75.174326835012650
67.992694468211383 -50.111999511718750 75.928223304283762
69.992688760986823 -50.528900146484375 75.933001260508320
69.904491521011607 -50.940601348876953 112.851291905813824
70.790404723445505 -50.276798248291016 76.888111005940672
71.165358347743762 -50.262599945068359 87.373335388762001
71.988490477482415 -50.940601348876953 -89.743504980989130
71.592682669332618 -50.612998962402344 75.936823621842692
71.576743651310366 -50.321601867675781 82.608702471016528
71.985852014793082 -50.296398162841797 78.797168945303554
72.379021360253546 -50.446998596191406 81.657514268764416
72.650030044452109 -50.940601348876953 86.423777415462666
72.367636441116574 -50.719200134277344 86.423102781400104
72.658999436468719 -50.940601348876953 89.283204891024837
72.356251521979601 -50.592201232910156 91.188691294035792
72.301800985506176 -50.940601348876953 113.981022798783229
73.185845538709245 -50.483798980712891 78.800035711747711
73.149185955828244 -50.940601348876953 94.145290689304517
73.142582583527769 -50.433700561523438 96.909381922731072
73.500826976203101 -50.940601348876953 114.388887188814778
73.990400169509854 -50.561401367187500 76.895755746835846
73.988123247652425 -50.505699157714844 77.848847509495599
75.062739902003429 -50.940601348876953 78.804519584095914
74.700844376777326 -50.940601348876953 114.381759476943444
75.588867612959874 -50.040401458740234 -89.897707848754052
75.443140175941394 -50.464099884033203 -28.897977286262758
75.408593754359615 -50.940601348876953 76.899143789937199
75.135879856469003 -50.940601348876953 99.717450829622621
75.131191957166237 -50.337898254394531 101.679748391591318
75.843275299451051 -50.940601348876953 -28.953421829500229
75.501514074818260 -50.940601348876953 114.103665057062159
75.931192726025515 -50.607299804687500 101.681659581371719
76.788868766248783 -50.589500427246094 -89.894841064083437
76.303867970349799 -50.062599182128906 113.120586076673618
77.199496211311697 -50.119201660156250 73.090808352369123
77.128060266832534 -50.940601348876953 102.993024811123561
77.124355210972496 -50.432598114013672 104.543916076386537
77.503861494265962 -50.298099517822266 113.123452843117775
78.389531585549790 -50.940601348876953 -90.171016683038005
78.317525307065779 -50.207199096679688 107.406180219000575
78.719795239150500 -50.395999908447266 106.453937221785921
79.589723395086693 -50.940601348876953 -90.251149862848976
79.656417638291600 -50.940601348876953 -33.653626723349191
79.201767444171026 -49.987499237060547 72.142486916561182
79.122679850969661 -50.940601348876953 105.247590353655980
79.106134493417528 -50.247100830078125 112.173275546433942
79.858315402175620 -50.940601348876953 -35.244247718426351
79.510688265900640 -50.192199707031250 110.268238350323628
81.062254808122148 -50.940601348876953 -36.893079119521943
80.718703508512689 -50.940601348876953 106.913311353910089
80.706128401763323 -50.456001281738281 112.177097907768299
81.599485181292195 -50.269401550292969 73.101319859708468
82.001762505805743 -50.206901550292969 72.149176062566141
81.915236586329570 -50.589801788330078 108.367872299219258
81.908406258192201 -50.293701171875000 111.226964482252285
81.906129555052246 -50.419799804687500 112.179964692438915
83.516233624164244 -50.940601348876953 107.951796871966110
83.503844372592269 -50.447898864746094 113.137786711791463
83.999479858497281 -50.335300445556641 73.107053410823227
84.712947078507625 -50.334400177001953 109.327660819030285
85.101434976830944 -50.940601348876953 114.147602906502826
85.516265190043313 -50.940601348876953 107.940972760896642
85.503838665367709 -50.038700103759766 113.142564668016021
86.691448271390982 -50.940601348876953 -49.103863332087514
86.302069207861493 -50.940601348876953 113.885471057730513
87.884078977468107 -50.940601348876953 -50.790220330624173
87.102337074727515 -50.940601348876953 113.772384693674240
88.697527293532673 -50.940601348876953 -51.646078992719701
88.401745768561682 -50.302700042724609 72.164465526130044
88.397191651449958 -49.995899200439453 74.070763492040953
88.702507779701804 -50.940601348876953 113.702202139237414
89.500025039771785 -50.746101379394531 -52.692565708342379
89.199461967964311 -50.388801574707031 73.119476089716500
90.790362535542201 -50.940601348876953 -90.503391829512921
90.399463121253220 -50.389801025390625 73.122342874387115
90.397185944225384 -50.134700775146484 74.075541448265511
90.303070728734866 -50.940601348876953 113.471024579047295
92.306851149488907 -50.564098358154297 -55.545270105594454
92.312931494552501 -50.488899230957031 109.345817067264790
92.304259510566439 -50.940601348876953 112.975803962078018
93.506094927275214 -50.355899810791016 112.207676834896077
93.997174145346619 -50.378799438476563 74.084141765824441
94.399451706804101 -50.412700653076172 73.131898786836246
94.310649084187972 -50.422599792480469 110.303595233675978
94.308372399274461 -50.247798919677734 111.256587814489862
95.190279372720241 -50.940601348876953 -90.465879990202708
94.705808948480254 -50.940601348876953 112.327540032613541
95.514190807918993 -50.940601348876953 -58.615016808738233
96.315887749050816 -50.940601348876953 -59.323102677368382
96.397168822551691 -50.376300811767578 74.089875316939199
96.794884646637911 -50.309299468994141 75.043926470949089
98.719466841200060 -50.940601348876953 -60.817761573218689
98.797155870384017 -50.104400634765625 74.095608849827514
99.194879323842983 -50.210998535156250 75.049660022063847
99.192602383759080 -50.101001739501953 76.002759414096360
100.388799895124379 -49.987499237060547 -89.838461184278884
100.794873232188777 -50.216598510742188 75.053482383398205
100.792596292104875 -50.427398681640625 76.006581775430718
100.790319115077040 -50.196300506591797 76.959780349309113
101.592597060964152 -50.214099884033203 76.008492965211133
101.990320268365963 -50.324401855468750 76.962647133979729
103.588012485939743 -50.940601348876953 -89.506316350012668
103.588037254854314 -50.163101196289063 77.919561257973839
104.727725624385243 -50.940601348876953 -64.267620699912499
105.187140382429249 -50.940601348876953 -89.139991971363656
104.788030778770477 -50.103000640869141 77.922428024417997
106.630529727491520 -50.940601348876953 -54.557946221728272
106.702257712292024 -50.448501586914063 -53.604673847753659
106.699980535264203 -50.695800781250000 -52.651475273875263
107.130595441490556 -50.940601348876953 -65.468579280223551
107.579359421127521 -50.940601348876953 -57.415085529709316
107.506804722833124 -50.064800262451172 -55.508957645578349
107.985711374561177 -50.940601348876953 -88.537204672880918
107.913636146231937 -50.645599365234375 -58.367391779258810
107.902251236208187 -50.225799560546875 -53.601807081309502
109.133159810450508 -50.940601348876953 -66.539603918129231
109.115906610231988 -50.436298370361328 -59.317624404847166
109.584216946918417 -50.219299316406250 -87.910382990717338
109.934697634616697 -50.940601348876953 -67.181085362565312
109.904522459954293 -50.178100585937500 -54.550124702431077
109.902245528983627 -50.370601654052734 -53.597029125084937
110.735611476043061 -50.940601348876953 -67.561375230565645
110.715908147950543 -50.378398895263672 -59.313802025286350
110.713631207866641 -50.187000274658203 -58.360702633253837
111.109070100982180 -50.099601745605469 -56.453555901897829
111.915901671866706 -50.558101654052734 -59.310935258842193
112.302240206188699 -50.476898193359375 -53.591295573970172
112.781935471125323 -50.055599212646484 -86.949646487162411
113.104510276645883 -50.328201293945313 -54.542479979762348
113.911342084474342 -50.602401733398438 -57.399958518552609
114.306788370018708 -50.451698303222656 -55.492712587124259
114.302234498964140 -50.573101043701172 -53.586517617745606
114.781396767632017 -50.940601348876953 -86.721762783319605
114.709065931476175 -50.598899841308594 -56.444955566112441
115.580688024503445 -50.940601348876953 -86.426052096154066
115.579645726359445 -50.001899719238281 -85.989758785505501
115.547767909032430 -50.622898101806641 -72.646092639630950
115.904505338280600 -50.761001586914063 -54.535790833757389
115.902183725151716 -50.940601348876953 -53.563991849090314
118.378346436182611 -50.940601348876953 -85.441269732955092
118.356870949720218 -50.543498992919922 -76.451892614229152
119.576478236921432 -50.940601348876953 -84.659108315322072
119.860083280561952 -50.940601348876953 -84.073323221480649
119.560322050669441 -50.940601348876953 -77.896325489713831
120.372804023573963 -50.384601593017578 -83.118894325332548
120.671250700792697 -50.940601348876953 -81.211979306918593
235.910773163888223 -50.940601348876953 12.469842721513469
236.264881379144697 -50.940601348876953 8.658177801275265
236.139284372923612 -50.940601348876953 14.764955134748160
236.131104057855254 -50.031799316406250 18.189135407840467
236.556159026014711 -50.775299072265625 7.705740932522525
236.547051035000521 -50.538799285888672 11.518235059901574
236.542497033512859 -50.324798583984375 13.424484626979035
236.533389055029375 -50.651798248291016 17.236973509164311
236.524281028131867 -50.733398437500000 21.049482656870978
236.703717110555431 -50.940601348876953 22.956117175475672
236.915253480226568 -50.940601348876953 24.826227210147920
237.360713761047862 -50.888301849365234 5.801417337135195
237.351605793386341 -50.797599792480469 9.613901689380395
237.342497802372151 -50.252300262451172 13.426395816759443
237.329935074234669 -50.940601348876953 18.685000834424173
237.756010214405507 -50.940601348876953 7.768187616609954
237.747044558916684 -50.737499237060547 11.521101826345729
237.733382578945537 -50.484798431396484 17.239840275608465
237.731105595573808 -50.834701538085938 18.192957787401284
237.728828612202079 -50.052501678466797 19.146075299194102
237.735065469175055 -50.940601348876953 28.677396961509270
238.481764972761312 -50.940601348876953 12.475984782198781
238.140500149846076 -50.940601348876953 14.258434701467731
238.142483312485922 -50.618900299072266 13.428306970086938
238.419663370517839 -50.940601348876953 16.288347301834794
238.132035928668586 -50.940601348876953 17.801454614608570
238.317883638583481 -50.940601348876953 25.819381350158750
238.537937360114427 -50.239799499511719 15.335497368371337
238.533383347804801 -50.183700561523438 17.241751465388873
238.940207098543027 -50.405498504638672 14.383335433242266
238.931099119489971 -50.609100341796875 18.195824553845441
239.340215112345419 -50.553199768066406 14.384291046358927
240.101852508747555 -50.940601348876953 30.438255621124185
240.510607763575081 -50.563598632812500 26.777722659301929
241.144872336315331 -50.940601348876953 8.669836026128131
240.992308515246435 -50.940601348876953 10.575726993172742
241.344763394647401 -50.940601348876953 12.482824442281903
241.602690791797755 -50.940601348876953 5.811551356333020
241.327631721606195 -50.940601348876953 19.653934159015630
241.319716511487428 -50.523601531982422 22.967144728479163
241.312885467961650 -50.609100341796875 25.826536364393014
241.308331596907067 -50.016399383544922 27.732731333771664
241.298508357019813 -50.940601348876953 31.844619929592223
242.090312584108034 -50.940601348876953 10.578350108345802
241.712878223018521 -50.017898559570313 25.827491941056763
241.710601287491244 -50.450000762939453 26.780589425746083
241.693775474895631 -50.940601348876953 33.823669684524063
242.172072841920397 -49.998199462890625 1.047268233799873
242.301032418056110 -50.940601348876953 11.531981234710422
242.472194700255130 -50.940601348876953 14.391773298394002
242.581188953247818 -50.425800323486328 -2.764314864609581
242.791923023588424 -50.940601348876953 15.345660076011765
242.526540960457424 -50.731399536132813 20.110669449932409
242.502975961120399 -50.940601348876953 29.974691213257451
243.197792780182198 -50.940601348876953 2.002851151516444
242.928064166009023 -50.940601348876953 19.470997086333547
242.895773590068757 -50.940601348876953 32.987438961400755
242.892734574497041 -50.940601348876953 34.259533872584498
243.304934497469787 -50.940601348876953 29.157104772090616
243.306048717211297 -50.378501892089844 28.690705956531428
243.302470745319511 -50.940601348876953 30.188401420225890
243.800366608849430 -50.940601348876953 17.254334209023536
243.708318644739393 -49.996299743652344 27.738464866659974
243.691539182022780 -50.940601348876953 34.762143630509485
244.177119943606783 -50.940601348876953 -1.062998090298938
244.164032719045935 -50.940601348876953 28.692755667381579
244.101480356270486 -50.257400512695313 30.598812079237568
244.675867204296082 -50.940601348876953 25.834570477079360
244.981235726899939 -50.940601348876953 -2.783581832583920
244.890096210549416 -50.654701232910156 35.366309874310474
245.287827051880583 -50.537799835205078 36.320462153962339
245.715926850637061 -50.940601348876953 24.556151507171982
245.692373914935956 -50.445499420166016 34.415123579401559
245.685542871410178 -50.630298614501953 37.274515215315411
245.683265935882901 -50.035198211669922 38.227612700004734
246.177419069311327 -50.940601348876953 -1.185819486140781
246.098335770718762 -50.940601348876953 31.917486279997458
246.576623430800197 -50.047100067138672 -0.848464800935929
246.480989532270939 -50.055599212646484 39.182720556320348
246.916618194946807 -50.940601348876953 24.266919154458400
246.899198245433979 -50.208499908447266 31.558697891777744
246.890090503324842 -50.528800964355469 35.371087830535046
247.780547061748564 -50.940601348876953 -2.490692979907815
248.116661171796181 -50.940601348876953 24.249085525261712
248.085529919242504 -50.398799896240234 37.280248748203718
248.477608677163062 -50.940601348876953 40.600294316167023
248.883326375890590 -50.940601348876953 38.204858186911565
249.778470829060495 -50.940601348876953 -1.619218278156787
249.776611247491786 -50.024898529052734 -0.840820078267210
250.181158110547159 -50.455398559570313 -2.746158652827990
250.556885840838760 -50.940601348876953 -1.792058938276803
250.090631369943992 -50.940601348876953 35.147232588206435
250.075769298559635 -50.940601348876953 41.368314689115110
250.658890554638816 -50.940601348876953 -1.791815250552794
250.576612016351049 -50.005001068115234 -0.838908888486802
250.514083379916713 -50.940601348876953 25.334816890079537
250.480618815127343 -50.940601348876953 39.342676201328885
250.981158879406451 -50.266899108886719 -2.744247463047582
250.978795942343964 -50.940601348876953 -1.755150782990594
251.156890232169587 -50.940601348876953 -1.790625536828269
250.976604771407949 -50.150199890136719 -0.837953311823055
250.928787892770828 -50.065601348876953 19.177609802985636
250.878693937351414 -50.039299011230469 40.146329530122543
251.779607052626318 -50.940601348876953 -2.092438645101270
252.181152403322614 -50.044700622558594 -2.741380696603427
252.178875230851389 -50.798400878906250 -1.788184030068225
252.135612389585276 -49.995399475097656 16.321114497335387
252.128781416686991 -50.107601165771484 19.180476569429793
252.121950421005664 -50.064998626708984 22.039848178240149
252.075109489375791 -50.940601348876953 41.646891760261163
252.582176929389590 -50.940601348876953 -3.165924739023234
252.581160417125005 -50.024200439453125 -2.740425083486766
252.486302218359867 -50.940601348876953 36.966061798480240
252.480156813119777 -50.940601348876953 39.538453597254758
252.979512185063129 -50.940601348876953 -2.052572281786306
252.933336152289741 -50.011100769042969 17.276152735624564
252.921951189864927 -50.077598571777344 22.041759368020557
253.378965476660596 -50.940601348876953 -1.819416708721599
253.381161185984269 -50.160800933837891 -2.738513893706358
253.511879239463923 -50.940601348876953 -1.784999503580663
253.376607077985767 -50.460201263427734 -0.832219742481831
253.372053088459239 -50.076900482177734 1.074024817819756
253.309931656125485 -50.940601348876953 27.077299918542025
254.182704550070184 -50.940601348876953 -3.388701442586004
254.128775709462445 -50.124698638916016 19.185254525654358
254.121944713781090 -50.131900787353516 22.044626134464714
254.115113670255312 -50.011501312255859 24.904017770378562
254.109285277773893 -50.940601348876953 27.343711888739861
254.085977216794788 -50.940601348876953 37.100182384268365
254.535614696163094 -50.003700256347656 16.326848066676611
254.982782004467055 -50.940601348876953 -3.418889885021347
254.931053461693438 -50.148799896240234 18.234048203641947
254.880959458429572 -50.426399230957031 39.202787957882343
254.877228589350466 -50.940601348876953 40.764484322316548
255.372047381234665 -50.309398651123047 1.078802774044320
255.335615465022386 -50.004199981689453 16.328759256457019
255.321953496442774 -50.147499084472656 22.047492937361781
255.310568581862412 -50.059398651123047 26.813079542654279
255.728777247181000 -50.187500000000000 19.189076905215174
255.717392143501144 -50.118698120117188 23.954742665250055
255.710561336919284 -50.141201019287109 26.814035119318024
255.708072737552158 -50.940601348876953 27.855732509868254
255.708284401392007 -50.525199890136719 27.767132604007351
255.678220786313517 -50.940601348876953 40.351395780821328
256.174309945347659 -50.615200042724609 0.127566851759552
256.581133743930366 -50.485900878906250 -2.730869207490553
256.533316724038229 -50.086601257324219 17.284753034957028
256.521931761613416 -50.225799560546875 22.050359667353021
256.486740679779643 -50.940601348876953 36.780917988986587
257.140233974466753 -50.940601348876953 38.254983223986883
257.382576470204299 -50.940601348876953 -3.326156670755612
257.369764667855293 -50.388801574707031 2.036707778777651
257.307629449485489 -50.940601348876953 28.045753546321201
257.778865354120796 -50.318199157714844 -1.774805738058282
257.715109500749293 -50.205898284912109 24.912618106163940
258.172027184123863 -50.584201812744141 1.085491883596378
258.108271449224333 -50.452999114990234 27.772866136895662
258.565188966282506 -50.171100616455078 3.945809532354530
258.533311016813627 -50.178100585937500 17.289530991181593
258.521926054388871 -50.305198669433594 22.055137623577586
258.510541139808481 -50.288799285888672 26.820724228870084
258.483217202649257 -50.456199645996094 38.258191590679608
258.479716633961800 -50.940601348876953 39.723487015605897
258.981151309253733 -50.815200805664063 -2.725135601696417
259.376589956312102 -50.064800262451172 -0.817885873808143
259.372035966785575 -50.769298553466797 1.088358686493445
259.326496071520182 -50.256198883056641 20.150804289509317
259.288971315199888 -50.940601348876953 35.858210333233828
259.769751715687619 -50.645099639892578 2.042441311665962
259.737873811784937 -50.063098907470703 15.386143697061122
259.731042816103582 -50.247398376464844 18.245515305871479
259.715103793524747 -50.330600738525391 24.917396062388505
260.079464700905817 -50.940601348876953 39.833409174795676
260.078664632369339 -50.022800445556641 40.168308121464953
260.560629246748306 -50.041698455810547 5.856841585596631
260.533305309589082 -50.167499542236328 17.294308947406154
260.524197282691546 -50.323501586914063 21.106818095112825
260.508258497056659 -50.329898834228516 27.778599669783972
260.978868429557906 -50.728801727294922 -1.767160978936651
260.967483514977573 -50.620498657226563 2.998425626355848
260.912835640659125 -50.331298828125000 25.873360349974895
261.767469025091316 -50.633201599121094 3.000336779683344
261.762915035564788 -50.337001800537109 4.906581339984931
261.735591098405564 -50.138301849365234 16.344048701794456
261.707295203554793 -50.940601348876953 28.188365717428834
262.135583853462435 -50.192199707031250 16.345004278458202
262.124198820410129 -50.362800598144531 21.110640474673637
262.115090841357073 -50.329200744628906 24.923129595276812
262.108260034775185 -50.407199859619141 27.782422049344788
262.088856996667516 -50.940601348876953 35.904297523718085
262.574285578730894 -50.282001495361328 0.142856297096987
262.483294181957774 -50.940601348876953 38.230746952586330
262.479310083604616 -50.940601348876953 39.898442007460432
262.958369828699915 -50.212200164794922 6.815692703183586
262.935599881067219 -50.180900573730469 16.346915504691523
262.921937912487635 -50.317699432373047 22.065649185596286
262.910552997907303 -50.305198669433594 26.831235790888783
263.372024552336427 -50.168098449707031 1.097914598942571
263.362916573283371 -50.535900115966797 4.910403719545746
263.351531599467023 -50.034400939941406 9.676015120299715
263.342423608452805 -50.053501129150391 13.488509247678763
263.335592636124147 -50.232398986816406 16.347871081355272
263.321930667544507 -50.378501892089844 22.066604762260035
263.283332186112546 -50.940601348876953 38.223459062614381
264.176564051976698 -50.803398132324219 -0.806418808031522
264.165179089551884 -50.780200958251953 3.959187824364472
264.160625077242287 -50.408401489257813 5.865441921382009
264.151517109580766 -50.027198791503906 9.677926273627209
264.144686125290946 -49.987499237060547 12.537293114079590
264.137855152392660 -50.157398223876953 15.396655186173996
264.079602119144226 -50.940601348876953 39.780665536630522
264.528739928396476 -50.354999542236328 19.210099883440918
264.515077889189342 -50.379600524902344 24.928863128165126
264.479652210076779 -50.940601348876953 39.757621013934759
264.480922908504340 -50.025600433349609 39.225722125888495
264.951533137185550 -50.197799682617188 9.679837499860531
264.907116242257132 -50.940601348876953 28.272208836990124
264.882960564473024 -50.940601348876953 38.383481405375335
265.360633859903999 -50.538600921630859 5.868308724279078
265.349248897479185 -50.096599578857422 10.633915356675072
265.328755956001316 -50.246898651123047 19.212011109674240
265.324201895847239 -50.337398529052734 21.118285233795270
265.310540045739572 -50.317699432373047 26.836969323777094
265.308263110212295 -50.396999359130859 27.790066808466420
265.774288654168004 -50.754501342773438 0.150501056218619
265.769734594013926 -50.230098724365234 2.056775180339651
265.735579683956416 -50.224098205566406 16.353604614243579
266.544673173123272 -50.169998168945313 12.543026646967901
266.519626289963298 -50.357200622558594 23.027346933165163
266.483194373751019 -50.833198547363281 38.277303415577862
266.961866198336736 -50.940601348876953 5.356932912765092
266.880940473827707 -50.291698455810547 39.231455731682637
267.356074186505509 -50.526500701904297 7.779321465671380
267.349243190254583 -50.323898315429688 10.638693312899635
267.337858227829827 -50.271499633789063 15.404299945295627
267.772005892944151 -50.690200805664063 1.108426088055445
267.721912008152287 -50.307300567626953 22.077116251372907
267.690034199938452 -50.281799316406250 35.420778582561084
268.128735758890514 -50.276000976562500 19.218700219226299
268.569714396903123 -50.612400054931641 2.063464289891709
268.558329434478310 -50.790699005126953 6.829070922287702
268.540113476372198 -50.282199859619141 14.454049163494052
268.521897518266030 -50.361499786376953 22.079027404700401
268.510512603685640 -50.365200042724609 26.844614009992899
268.507561740370988 -50.940601348876953 28.079809459823309
268.480911494055249 -50.392601013183594 39.235278038337626
268.908258940706276 -50.602100372314453 27.798667144251798
268.883211939074386 -50.509399414062500 38.283037021371996
269.369730424507907 -50.635398864746094 2.065375516125029
269.356068479280964 -50.680698394775391 7.784099421895943
269.346960488266802 -50.321701049804688 11.596593549274992
269.328744541552169 -50.266300201416016 19.221567022123367
269.280927521660033 -50.869998931884766 39.237189264570944
269.753784227613437 -50.635898590087891 8.738182285486358
269.742399241835983 -50.351799011230469 13.503798693016201
269.715075257401907 -50.393501281738281 24.941285843511320
269.683197449188128 -50.413600921630859 38.284948174699494
270.565154722935119 -50.382400512695313 3.974477269701909
270.551492742963944 -50.559398651123047 9.693215718964646
270.540107769147596 -50.323200225830078 14.458827119718615
270.528722806722783 -50.288799285888672 19.224433752114606
270.519614875514151 -50.311199188232422 23.036902845614289
270.510506896461095 -50.358501434326172 26.849391966217460
270.962900989328205 -50.312599182128906 4.928559967780251
270.946962025985329 -50.505599975585938 11.600415928835806
270.908253233481730 -50.776298522949219 27.803445100476363
270.881707388309053 -50.940601348876953 38.915212631821881
271.315076795120490 -50.353199005126953 24.945108223072133
271.310522924065879 -50.458000183105469 26.851303192450782
271.290030030432490 -50.791698455810547 35.429378918346458
271.283198986906655 -50.181098937988281 38.288770554260310
271.767440488968532 -50.728801727294922 3.024226560806158
271.751501525625599 -50.683700561523438 9.696082521861715
