# This PCD file was generated using the MATLAB® pcwrite function
# from Computer Vision Toolbox®.
# .PCD v.7 - Point Cloud Data file format
VERSION .7
FIELDS x y z
SIZE 8 8 8
TYPE F F F
COUNT 1 1 1
WIDTH 800
HEIGHT 1
VIEWPOINT 0 0 0 1 0 0 0
POINTS 800
DATA ascii
69.434049318562018 -78.190101623535156 -25.099822034333272
69.837964527140073 -78.581298828125000 -26.737564155799923
70.738792349433254 -77.666900634765625 -68.940629727522108
70.635872069484194 -78.581298828125000 -25.859453836720576
70.629496609909594 -78.209197998046875 -23.190764094970397
71.136507927462290 -78.248001098632813 -67.986475576979970
71.022658316884076 -77.864997863769531 -20.330414975049607
71.933662471093939 -78.581298828125000 -66.793169166383819
71.830732157480568 -78.581298828125000 -23.707793305877956
72.335385547290400 -78.581298828125000 -67.513311367269850
72.220382534645708 -78.096199035644531 -19.374450705689672
73.141056337349468 -78.160499572753906 -69.887995586666321
73.538020813818207 -78.581298828125000 -68.616245888647924
73.423812128376213 -78.581298828125000 -20.809880921317649
74.343334430722280 -78.119499206542969 -70.838228194028218
74.620809379361916 -78.581298828125000 -19.549617212085270
74.615823103852279 -78.067298889160156 -17.462423003350374
75.945605516095910 -78.214698791503906 -71.787604406572257
76.342975148467190 -78.581298828125000 -70.685448035634053
76.219484571680383 -78.581298828125000 -18.993796380168657
77.550153286383050 -77.643203735351563 -73.689973199930165
77.418087708585446 -77.959999084472656 -18.408930542107065
78.750154439671959 -78.079597473144531 -73.687106415259549
79.323114087207188 -78.581298828125000 -21.263688235560153
79.547625292743035 -78.581298828125000 -72.629396864951843
79.825646606757303 -78.581298828125000 -21.569487775546531
81.152418427588174 -78.218299865722656 -74.634472274403748
81.431429488315601 -78.581298828125000 -23.988859106636966
81.950732574838142 -78.581298828125000 -73.926561817538996
83.037005002921177 -78.581298828125000 -26.321429156494638
83.554690026650690 -78.262298583984375 -75.581830485948743
84.354690795509981 -78.310401916503906 -75.579919296168327
84.756968356967448 -77.932701110839844 -76.532162275156523
84.742990376760801 -78.581298828125000 -29.828864915894279
85.153555322901497 -78.581298828125000 -35.546699992773142
85.218596590162889 -78.581298828125000 -33.640338761657887
85.147247323651314 -78.581298828125000 -31.734204183060413
87.159232344883662 -77.628097534179688 -77.479528134300722
87.956681920167412 -78.581298828125000 -76.409718380569345
88.759233882602217 -78.097000122070313 -77.475705754739906
89.869670108355763 -78.581298828125000 -39.985244547645316
90.358444199128229 -78.581298828125000 -77.143881399711233
91.961498639377709 -77.796699523925781 -78.421160424103704
91.875319113708187 -78.581298828125000 -42.347460416752810
92.361499023807355 -78.010498046875000 -78.420204829213503
94.661007524656327 -78.581298828125000 -48.867824501948547
94.761493701012427 -78.398101806640625 -78.414471278098731
95.074510169904826 -78.581298828125000 -52.679248347376664
96.700595325361789 -78.581298828125000 -52.920763829820778
98.703649430095879 -78.581298828125000 -54.196785899099027
99.991502338995943 -78.581298828125000 -56.480115603734106
101.529960531581864 -78.581298828125000 -65.208864156065843
101.773316474911525 -78.581298828125000 -64.100880635471952
101.521322703975372 -78.581298828125000 -61.593174705804699
101.720758344394397 -78.581298828125000 -62.194697350425614
103.536013991118239 -78.581298828125000 -67.740379621402255
104.337550630564749 -78.581298828125000 -68.381365156608936
104.033577525436101 -77.677398681640625 58.858075064534553
105.540965406186075 -77.907096862792969 -69.810592692183107
105.233571049352250 -77.841400146484375 58.860941830978710
105.640402481864299 -78.123497009277344 56.002503882611869
106.341229201039752 -78.581298828125000 -69.918780980701044
106.035848995239363 -78.112701416015625 57.909654446880722
107.368241716051216 -78.581298828125000 -70.759332188224832
106.847227053862852 -77.818801879882813 53.145977105798984
107.233565342127690 -77.883201599121094 58.865719787203268
107.640396774639726 -78.460098266601563 56.007281838836434
107.635842903585157 -78.188796997070313 57.913476808215080
108.761453750440481 -78.476303100585938 -78.381025584526796
108.746126065997203 -78.581298828125000 -71.965043527093300
108.849498277608959 -78.149902343750000 52.197659484677416
109.561446889926998 -78.388702392578125 -78.379114412972839
109.635837196360598 -78.127098083496094 57.918254764439645
110.521615941932438 -78.581298828125000 -75.517406906341691
110.454053923326029 -77.862899780273438 50.295187713013704
111.159163858188890 -78.219596862792969 -77.422192659605969
111.154609741077167 -78.221298217773438 -75.515894693695060
111.635831489136038 -77.686698913574219 57.923032720664203
112.056324771755712 -78.049697875976563 49.345910682315548
112.840444818313316 -78.581298828125000 55.992105261770718
114.460873310902130 -77.797203063964844 47.445453078738048
116.063144159331827 -77.720901489257813 46.496176048039892
116.040374330171119 -78.012100219726563 56.027349258624888
116.449482693653820 -77.727798461914063 52.215815732911921
117.251752764111018 -77.829101562500000 51.264631327119737
118.065415629135103 -77.972900390625000 45.547755430386061
119.658578489398494 -77.633399963378906 48.410971334977461
119.651747441316090 -77.757102966308594 51.270364878234503
120.858572013314657 -77.779296875000000 48.413838101421618
120.844909926263071 -78.001998901367188 54.132621373249322
121.656295851203254 -77.821296691894531 49.368844868548159
122.069958076627316 -78.127700805664063 43.651120188142919
122.060850097574246 -77.727996826171875 47.463609308746094
122.847181396066347 -78.138099670410156 53.184200755595491
123.258566690519729 -77.886901855468750 48.419571652536384
124.063121330433574 -77.682197570800781 46.515287872938146
124.460844774779318 -77.866401672363281 47.469342859860866
125.665392415807204 -77.675102233886719 45.565911660394107
127.265386324152999 -77.897399902343750 45.569734021728472
127.260832207041275 -77.909896850585938 47.476031987639381
128.051717367474708 -77.681098937988281 51.290432279796505
129.669934863299403 -77.769996643066406 43.669276418150972
129.667657932328751 -78.017402648925781 44.622371995497105
129.663103824330250 -78.037300109863281 46.528666146721633
129.660826884246347 -77.757797241210938 47.481765538754146
130.053988837277984 -77.637199401855469 50.342011662142674
130.867651456244914 -78.088401794433594 44.625238761941254
132.079029894741410 -78.118301391601563 39.862518923092914
132.072199088159579 -77.792602539062500 42.721811377160883
132.463098885964968 -77.662696838378906 46.535355292726599
133.658538538826548 -78.065002441406250 48.444417028549402
134.072193380935005 -77.938903808593750 42.726589333385448
134.067639272936503 -78.012496948242188 44.632883484609977
134.481309136846534 -78.007896423339844 38.915155007744815
134.474478330264674 -77.710998535156250 41.774447461812784
134.869916972766447 -78.061401367187500 43.681699097044252
135.672194918653560 -78.008399963378906 42.730411712946264
136.060802517629526 -78.027801513671875 47.497054984091584
136.467641579514321 -77.765098571777344 44.638617053951201
137.269919279344293 -77.953903198242188 43.687432666385476
138.476743851342832 -77.788803100585938 40.830905889572591
138.472189980288277 -78.002403259277344 42.737100858951237
139.283575663727902 -78.412300109863281 37.973425443439140
140.065345220292130 -78.379898071289063 45.600312930629798
140.885838878228242 -78.025802612304688 37.024150301857723
140.874453963647881 -77.948898315429688 41.789736907150221
140.872177028120575 -77.808502197265625 42.742834391839544
142.085832402144376 -78.290199279785156 37.027017068301880
142.076724423091321 -77.892097473144531 40.839506188905055
142.879002127477889 -77.690299987792969 39.888319893996140
142.867617212897528 -78.415199279785156 44.653906499288638
143.274456270225699 -77.749900817871094 41.795470476491445
144.479003665196444 -77.765701293945313 39.892142273556956
144.476726729669139 -77.817802429199219 40.845239758246279
145.269989150204026 -78.581298828125000 43.667741501426796
145.688105168165663 -78.149597167968750 36.082519919397939
147.061150289533600 -77.760902404785156 -36.351904698275042
147.465712420447744 -77.853996276855469 -38.257247051069292
147.463435243419895 -77.969497680664063 -37.304048477190896
147.278998726831162 -77.734001159667969 39.898831419561930
148.267974861532167 -77.637001037597656 -39.208431475087927
148.256589951508431 -77.856300354003906 -34.442846777138620
149.054313780283792 -77.958503723144531 -33.487836195325698
148.888092984857252 -78.489196777343750 36.090164642066654
149.463429536195349 -78.208801269531250 -37.299270520966331
149.456598734170086 -78.246902465820313 -34.439979974241552
149.278993019606588 -77.674598693847656 39.903609375786488
149.867976399250722 -77.767601013183594 -39.204609095527111
149.852037372115234 -77.839897155761719 -32.532726431666894
149.690370926187768 -77.967498779296875 35.138879165311863
149.681262710190737 -77.679199218750000 38.951467467760907
150.672861458698605 -78.581298828125000 -35.390175357822223
150.654315318002347 -78.343002319335938 -33.484013815764882
151.065692992196205 -78.163902282714844 -38.248646751736821
150.872148491997763 -78.203796386718750 42.766724172962363
151.449761978863137 -78.055198669433594 -31.575808474759945
152.265686516112368 -78.083702087402344 -38.245779985292671
152.647478571808620 -78.013198852539063 -30.619846130969655
152.474426965243623 -78.514503479003906 41.817449067833849
153.465695298774051 -77.930496215820313 -38.242913182395597
153.845194918696933 -77.890098571777344 -29.663780790647110
154.492637216125189 -77.943496704101563 34.197248782852071
155.042911502529194 -77.765403747558594 -28.707814632170439
155.861128229494625 -78.306297302246094 -36.330881683596381
155.842912271388485 -78.113998413085938 -28.705903442390031
156.076684472519361 -78.452102661132813 40.872951882476997
156.074407536992084 -77.810798645019531 41.826049367166320
156.492631508900615 -78.093299865722656 34.202026739076629
157.040628864333968 -78.018302917480469 -27.749941098599741
157.861122522270051 -77.859001159667969 -36.326103727371816
158.876679534154079 -77.997703552246094 40.879641028481970
159.294903506062639 -77.677902221679688 33.255618400392279
159.292626570535333 -78.322998046875000 34.208715885081602
159.836070054914103 -78.061897277832031 -25.837056983216129
161.106650243340255 -77.658897399902344 -55.380908422405355
160.894889785035673 -77.995201110839844 33.259440743500178
161.504381317058744 -78.018798828125000 -54.426853417256183
161.456564490822700 -77.970703125000000 -34.411312236894176
162.254273060852569 -78.301200866699219 -33.456301691534165
162.233779925718579 -78.385200500488281 -24.878124876449419
162.078944286372945 -78.104698181152344 39.934188266461362
162.704374840974907 -78.143699645996094 -54.423986650812026
162.699820732976406 -78.123596191406250 -52.517692499587497
162.631511008550319 -77.990303039550781 -23.924073685986627
163.504375609834199 -78.176200866699219 -54.422075461031611
163.454281843514252 -77.883201599121094 -33.453434888637098
163.294892091613491 -78.240798950195313 33.265174312841403
163.902091433920390 -78.333801269531250 -53.468024307021736
163.897537316808666 -78.218200683593750 -51.561726341110827
164.295253140894857 -77.913398742675781 -50.607675187100945
164.497162551056931 -77.811401367187500 32.314943594596237
164.494885615529654 -78.326499938964844 33.268041079285560
165.097530840724829 -78.456100463867188 -51.558859574666670
165.029221125411965 -78.330902099609375 -22.965244575752180
165.349534258707365 -77.981300354003906 10.395017545446917
165.895254678613441 -78.415802001953125 -50.603852807540129
165.849714783348048 -78.266700744628906 -31.541407204524255
165.826944717243407 -77.836601257324219 -22.010134812093376
165.756358010015163 -78.306396484375000 7.536601274882409
165.754081003290793 -78.380203247070313 8.489728561809077
166.304355412723368 -77.816001892089844 -54.415386351479555
166.299801304724866 -78.572601318359375 -52.509092200255033
166.081209807451103 -77.914100646972656 38.990646694221162
166.702086495555108 -78.329696655273438 -53.461335161016763
166.690701576418149 -77.680603027343750 -48.695746648381075
166.560912745048341 -78.181396484375000 5.632277679495079
167.354500755598423 -78.581298828125000 8.318491407125139
167.351805546246084 -78.290802001953125 9.446673221520687
167.283495762584010 -78.240097045898438 38.040316830583023
167.824662074491556 -78.080902099609375 -21.052259371179492
168.247424900209694 -77.966697692871094 -30.582578094289815
168.097143122805420 -78.190597534179688 32.323543893928701
168.702080788330534 -77.978401184082031 -53.456557204792205
168.551799070162247 -77.829902648925781 9.449539987964842
169.045148492041164 -78.225601196289063 -29.627468330631011
169.022378662880442 -77.809303283691406 -20.096295120046015
169.683482810416336 -77.708198547363281 38.046050363471338
170.173770098741699 -78.581298828125000 0.250813861733587
170.620103265071720 -77.628097534179688 -19.139375255795876
170.497145429383238 -78.319000244140625 32.329277463269925
171.099790659135039 -78.000801086425781 -52.497625098025495
171.042865844732688 -78.074897766113281 -28.669590982373933
171.420104033930983 -78.092102050781250 -19.137464066015468
171.299423133769807 -78.055000305175781 31.378091168361006
171.285761283662168 -77.961097717285156 37.096775258342831
171.844113020691537 -78.581298828125000 -1.980102566304730
171.690308146717541 -78.504997253417969 35.191436683782051
172.297507242967299 -78.359199523925781 -51.541658939548832
172.283859017135910 -78.581298828125000 -45.828677805705048
172.160562349341973 -78.581298828125000 5.781805906639190
172.088023729303217 -78.247100830078125 36.145588926981006
172.640590451480563 -77.983901977539063 -27.712673025466984
172.581824696617957 -78.581298828125000 -3.114043650916051
172.485754807578331 -77.654098510742188 37.099642024786988
173.134170145627081 -78.581298828125000 4.694848604120749
174.238299799482945 -77.926002502441406 -26.755755105012952
174.186819945317353 -78.581298828125000 -5.206915039300736
174.165579372818456 -78.581298828125000 3.684129954937430
174.501688122932620 -77.886901855468750 30.432539224494523
174.499410950461396 -78.262100219726563 31.385735891029725
175.015530497680942 -78.180198669433594 -17.222569615458475
174.888018790937934 -77.906097412109375 36.152278072985972
175.520480762934881 -78.581298828125000 -6.736933582854999
175.368326498311461 -78.581298828125000 2.540759794384709
175.294857848266105 -78.540496826171875 33.293842050188786
176.213247086069828 -77.979598999023438 -16.266605364324995
176.490297501127714 -78.147598266601563 35.202903786011589
177.091625928630066 -78.581298828125000 -49.072801388841370
177.082037263777039 -78.581298828125000 -8.639508078827799
177.433748757808331 -77.987297058105469 -24.841812379980411
177.410978933204206 -77.772300720214844 -15.310641076738605
177.301683184567338 -78.155097961425781 30.439228370499492
177.292575205514254 -78.332199096679688 34.251717491102667
177.775134865854994 -78.581298828125000 -0.308828038273417
177.694844896098431 -78.450302124023438 33.299575583077093
178.689746386674443 -78.581298828125000 -48.281581964220656
178.681559117073732 -77.642501831054688 -44.854490608584641
178.599336937875762 -78.581298828125000 -10.437287644239483
178.499399536012277 -78.359001159667969 31.395291803478852
178.492568729430417 -78.207702636718750 34.254584257546824
179.079274932046729 -77.658897399902344 -43.900435639888379
179.031458105810685 -77.955101013183594 -23.884894459526372
178.890284548960011 -77.644599914550781 35.208637318899896
179.471709415719658 -78.581298828125000 -40.729292540080358
179.379994152946580 -78.581298828125000 -2.338400391759354
179.808688808565307 -77.976501464843750 -14.351710877315092
179.703947167926941 -77.856597900390625 29.491864418698480
179.694839188873857 -78.238098144531250 33.304353539301658
180.183393990990311 -78.581298828125000 -3.765685332473010
180.679276469765284 -77.667297363281250 -43.896613260327563
180.949917122639476 -78.581298828125000 -4.817756892707918
181.086684139213531 -78.581298828125000 -46.999450553912013
181.029175467615460 -77.855400085449219 -22.927020925955681
181.114406797743555 -78.581298828125000 -13.395488612462756
180.901663756315799 -78.199996948242188 30.447828669831960
180.892555777262743 -77.766403198242188 34.260317790435138
181.474723376683215 -77.678298950195313 -41.988510915854889
181.408326263701156 -78.581298828125000 -14.195487962188572
181.299394597646994 -78.272003173828125 31.401980949483821
181.294840726592412 -78.049896240234375 33.308175918862474
181.867915184650684 -78.581298828125000 -39.140761705047105
182.286093796820722 -77.628097534179688 -46.752184460476705
182.276985817767638 -77.779197692871094 -42.939695339873531
182.274708886796986 -77.899002075195313 -41.986599762527398
182.266475750318392 -78.581298828125000 -38.540309090341054
182.591426131593835 -78.581298828125000 -7.121142504210834
182.903934984618530 -77.858001708984375 29.499509141367199
182.897103941092752 -77.992202758789063 32.358900777281050
183.483237954646881 -78.581298828125000 -45.550220584962773
183.424623661638179 -78.268898010253906 -21.014991298046738
183.399576896950180 -77.638999938964844 -10.530720602772416
183.797292479535827 -78.096603393554688 -9.576568359573464
184.274703179572413 -77.673500061035156 -41.981821806302833
184.681312651897343 -78.581298828125000 -44.744156342472927
184.670157076263081 -77.962600708007813 -40.074568227275265
184.599570420866314 -78.374603271484375 -10.527853836328259
184.501659586809808 -78.060897827148438 30.456429005617338
185.420862001173674 -78.581298828125000 -19.438017053127130
185.402052621538701 -78.581298828125000 -11.564639786260244
186.389127191960938 -78.581298828125000 -136.336143900763687
185.860734922086777 -78.581298828125000 -36.130413269295033
185.706206981780525 -77.750099182128906 28.553100802682845
186.270143355236115 -77.948097229003906 -40.070745884167366
186.222326529000071 -77.998802185058594 -20.055204703805355
187.077914518181984 -78.581298828125000 -43.321427036258171
187.021736027052413 -78.581298828125000 -19.805794754350082
186.903923570169411 -77.981101989746094 29.509065053816325
186.899369462170910 -77.668502807617188 31.415359205040851
187.465598275956467 -78.041801452636719 -38.161687926578026
187.457647995856973 -78.581298828125000 -34.833797490252820
187.863313853985488 -77.761901855468750 -37.207533776035888
187.823774832716424 -78.581298828125000 -20.656980953151585
188.265583786070209 -78.064598083496094 -38.159776773250535
188.199550992614803 -78.362197875976563 -10.519253536995794
188.106194029612851 -77.901397705078125 28.558834335571156
188.101640158558268 -77.859802246093750 30.465029304949802
188.846696358425220 -78.581298828125000 -41.970899383500694
188.620051900050640 -77.653900146484375 -19.096373649774808
188.597281833945971 -77.902496337890625 -9.565101257343930
189.026268420440886 -78.581298828125000 -21.700610452723652
189.020044655107512 -78.112503051757813 -19.095418073111063
189.006382568055926 -77.660797119140625 -13.376634801283359
188.903917862944837 -77.953903198242188 29.513843010040887
189.706718354668425 -78.581298828125000 -139.089227691238250
189.461038451620169 -77.843101501464844 -36.250612004442559
189.454615931334757 -78.581298828125000 -33.562223222226280
189.696593678855493 -78.581298828125000 -21.000007656197212
189.417775733382626 -78.088302612304688 -18.141364975305073
189.553498655392758 -78.581298828125000 -17.187838628623883
190.235421918674746 -78.581298828125000 -41.014476907457961
190.261023961733912 -78.106903076171875 -36.248700851115061
190.252719641829287 -78.581298828125000 -32.772613663614862
191.004099925304075 -77.692497253417969 -12.418759360369471
191.804100694163367 -77.634803771972656 -12.416848170589063
192.261018254509338 -77.918098449707031 -36.243922894890495
192.258741323538686 -78.119796752929688 -35.290827317544363
192.194985470167154 -78.259597778320313 -8.603403473322143
192.108459787634928 -78.076400756835938 27.615193581485080
192.106182615163732 -78.089302062988281 28.568390248020282
192.103905679636426 -77.955398559570313 29.521487732709605
192.668741955689029 -78.581298828125000 -39.472660061306165
193.054188221343395 -77.702102661132813 -33.382721158385309
193.047929101240925 -78.581298828125000 -30.762729702961671
192.910737492021497 -77.957199096679688 26.664007286576162
193.570365943811993 -78.581298828125000 -30.522081969765566
193.392717317301560 -77.974700927734375 -7.647439185735749
193.313022441351194 -77.776397705078125 25.711865415003501
193.854188990202658 -78.062103271484375 -33.380809968604900
194.251904568231708 -77.640602111816406 -32.426655818062763
194.908097995917529 -78.581298828125000 -139.661794798084287
194.951272874077347 -78.581298828125000 -133.456672116176378
194.665280831266500 -78.581298828125000 -38.021486543824814
194.656466699145852 -77.970199584960938 -34.331998170857005
194.608649626852639 -78.387001037597656 -14.316353993962743
194.508462094212774 -78.158699035644531 27.620927150826304
195.044128026064129 -78.581298828125000 -29.169256939448751
195.690998448075788 -78.450202941894531 -132.501899273732022
195.463517333811581 -78.581298828125000 -37.281074959002808
195.390434437605762 -77.992897033691406 -6.689464562975985
195.808643150768802 -77.866401672363281 -14.313487227518586
195.713009489183491 -78.121498107910156 25.717598947891808
196.511765691036459 -78.581298828125000 -141.198968423769742
196.717710544264122 -78.581298828125000 -131.546456083643733
196.241661142384800 -78.581298828125000 -28.136493514770770
196.654184051837376 -77.630897521972656 -33.374120822599934
196.651906874809555 -77.925399780273438 -32.420922248721538
196.606366984100788 -78.132003784179688 -13.358478553048851
196.506179214516976 -78.032798767089844 28.578901773586072
197.313754091434873 -77.734001159667969 -142.029055592203719
197.460023483786330 -78.581298828125000 -35.816202902731035
197.388151794853940 -78.109901428222656 -5.731589122062095
197.847346536784357 -77.963699340820313 -30.511864327585116
198.238502695612908 -78.581298828125000 -26.812017176026963
198.117550408070372 -77.861503601074219 23.817137511401473
198.115273472543095 -78.199096679687500 24.770234996090796
198.604084341348937 -77.989097595214844 -12.400603112134966
198.506173507292431 -77.949798583984375 28.583679729810633
199.296989704210773 -78.581298828125000 -135.009298264419130
199.057158279199029 -78.581298828125000 -34.618784264766163
199.047340060700520 -77.905502319335938 -30.508997561140959
199.385869152102089 -78.171997070312500 -4.773713681148209
199.801800929737823 -78.126899719238281 -11.444638861001490
199.708444203679790 -78.203796386718750 27.633349829719585
200.497728580840885 -78.581298828125000 -135.318427067618984
200.254694977018403 -78.581298828125000 -33.587520011835508
200.112990829791244 -78.413902282714844 25.728110437004684
200.110713894263966 -78.345298767089844 26.681207921694007
200.869809434678245 -78.581298828125000 -123.627502371830644
200.642787481307352 -77.855796813964844 -28.598877215669233
200.634101636101093 -78.581298828125000 -24.963088182872099
200.583585740490946 -78.001899719238281 -3.817749430014729
201.451378071772865 -78.581298828125000 -40.987682157238076
200.917545469705090 -78.279998779296875 23.823826657406443
201.688401262119385 -78.581298828125000 -131.407581914655623
201.686425550682799 -77.628097534179688 -130.580573166226259
201.679595477715822 -78.270896911621094 -127.721587794411874
201.431403340142879 -77.658897399902344 -23.831381327939518
201.319830655978706 -78.051696777343750 22.871585603987903
202.112324406844266 -78.581298828125000 -141.423596044378172
202.258209642657391 -78.581298828125000 -43.845061514182447
201.831773319057646 -78.581298828125000 -23.988327064601378
201.783579264407109 -78.361297607421875 -3.814882663570573
201.781302328879832 -77.663803100585938 -2.861785178881251
202.488690169828800 -77.639297485351563 -131.532669300289712
202.250874791401941 -78.581298828125000 -31.986047850983809
202.681490630378988 -78.281097412109375 -44.797155133889888
202.676936759324406 -78.218399047851563 -42.890960164511242
202.597241883374039 -77.998199462890625 -9.531655563771988
203.309847699104864 -78.581298828125000 -140.386720387782589
203.079206445351957 -78.118499755859375 -43.843100165193626
203.692428121952503 -78.581298828125000 -133.090787422816987
203.486045507236753 -78.222000122070313 -46.701538095334008
203.394965716706025 -78.171997070312500 -8.576646889302257
203.381303866598387 -78.321296691894531 -2.857962799320436
203.322101884281437 -77.999099731445313 21.923266075523138
203.308440034173799 -78.047302246093750 27.641950165504966
204.423908103828012 -78.581298828125000 -139.153067852665799
203.883761331322972 -77.963500976562500 -45.747486941324127
203.835944495973706 -77.701202392578125 -25.731941946275739
203.827867122792753 -78.581298828125000 -22.350851893695634
203.712986660285253 -78.564598083496094 25.736710772790062
204.494415589600266 -78.581298828125000 -133.926871314693159
204.292862065432928 -78.247703552246094 -49.559020485263552
204.290585125349025 -77.995002746582031 -48.605921093231039
204.279199969268120 -78.176597595214844 -43.840233398749469
204.179012204240934 -77.969497680664063 -1.902854979457738
204.522095408197600 -78.210899353027344 21.926132841967295
204.510710493617239 -78.322601318359375 26.691719447259793
205.306901189569658 -78.288002014160156 -139.150958395491102
205.294120142087792 -78.581298828125000 -133.800967558818598
205.099693636317426 -78.375999450683594 -52.416399842207923
205.092862834292191 -77.743698120117188 -49.557109295483144
205.611250081703417 -78.581298828125000 -54.321482772489205
205.488316730982859 -77.785301208496094 -47.649855716455576
205.483762869041527 -78.000297546386719 -45.743664561763310
205.392683073954174 -78.014099121093750 -7.618771448388372
205.379020986902589 -78.306800842285156 -1.899988176560671
205.883755624098399 -78.383003234863281 -45.742708985099561
205.724365867641040 -78.006896972656250 20.975902123722125
206.286025310125950 -78.022201538085938 -46.694848985781945
206.242033232890094 -78.581298828125000 -28.280301161597286
206.223495482137025 -78.581298828125000 -20.520624436971428
206.176729561489083 -78.084503173828125 -0.944979538543851
207.088634235403759 -78.581298828125000 -59.083569035046835
206.690587431926843 -77.753898620605469 -48.600187523889815
206.524366636500304 -78.082298278808594 20.977813313502534
207.306885895228930 -78.581298828125000 -139.142167389194810
207.237913911599264 -78.581298828125000 -60.036309610341874
207.490588200786135 -77.932998657226563 -48.598276334109407
207.921687128792513 -78.581298828125000 -61.617985963470019
207.708421374781551 -77.636703491210938 27.652461654617838
208.238202776665361 -78.296401977539063 -26.674529849195380
208.110691065365700 -78.236602783203125 26.700319746592260
208.695135595756852 -77.942497253417969 -50.501604537043896
208.526637983275009 -77.830299377441406 20.029444194114834
209.130219328391547 -78.581298828125000 -65.189304859473054
208.972170633597244 -77.794502258300781 0.967954167762707
209.324361698135021 -78.530296325683594 20.984502459507503
209.899682990727598 -78.109100341796875 -52.404932739978392
209.788110306563425 -77.890602111816406 -5.701965808050970
210.301418267936015 -78.581298828125000 -53.133375716653660
210.185826126093019 -78.188499450683594 -4.747912746697899
210.906891312839093 -77.666297912597656 -139.137580103481156
210.702176181953263 -78.581298828125000 -53.446319201684609
211.140662538854542 -78.113098144531250 -69.558316607171463
210.969887920217872 -77.981796264648438 1.925859172496040
211.704930732709528 -78.581298828125000 -138.314672111006161
211.507990042183678 -78.581298828125000 -55.877697271833554
211.413158845913927 -78.241600036621094 -16.182513305610357
211.326633044909727 -78.329101562500000 20.036133340119804
211.945217424825557 -78.320800781250000 -71.462703383301971
211.908919290804306 -78.581298828125000 -56.268746496947060
211.769888689077163 -78.204002380371094 1.927770362276448
212.229083383163157 -78.152603149414063 -22.852484816143075
212.167604460762306 -77.856300354003906 2.881843450733014
212.110679650916580 -78.305198669433594 26.709875659041387
212.747495115542279 -77.978500366210938 -72.413883956181309
213.116911112419700 -78.581298828125000 -59.613869749364099
212.983544252200460 -78.020599365234375 -3.788126116003603
213.549772824485444 -78.220199584960938 -73.365072158433421
213.545882842997315 -78.581298828125000 -71.736773277148330
213.521027442433194 -78.581298828125000 -61.332605273823560
213.410876203162076 -78.407600402832031 -15.224637864696469
213.328904343839952 -78.059196472167969 19.087784247835600
214.260994440178450 -78.581298828125000 -63.832149268056426
213.924718582467023 -77.747299194335938 -62.879748611992653
214.165321770166003 -78.037399291992188 3.839738918750395
214.749766348401607 -78.159500122070313 -73.362205391989264
214.622254641658571 -78.216697692871094 -19.987357703544813
214.581268854391709 -78.197799682617188 -2.831206251753464
215.149759103458479 -77.923301696777344 -73.361249815325507
215.145205241517147 -78.174400329589844 -71.455058660633242
215.138374184321520 -78.514099121093750 -68.595661302689820
215.006308374136609 -78.038902282714844 -13.314521370364037
215.945206010376438 -77.952598571777344 -71.453147470852841
215.810863250994373 -78.570198059082031 -15.218904331808158
215.781262378307872 -77.738403320312500 -2.828339485309309
215.763046301729759 -78.222000122070313 4.796688346819979
216.217687049577052 -78.144401550292969 -18.077340391058261
216.204024962525466 -77.920898437500000 -12.358557119230561
216.160762050631831 -77.774803161621094 5.750770971992496
216.910669005326724 -78.348503112792969 26.721342761270918
217.404033745187149 -78.178901672363281 -12.355690316333490
217.360770833293515 -78.343002319335938 5.753637774889564
217.810857543769828 -78.269302368164063 -15.214126375583596
217.719777753239072 -77.755500793457031 22.910764830448155
218.128878439504575 -78.513198852539063 19.099251313612221
218.610858312629091 -77.888603210449219 -15.212215185803188
218.601750333576035 -78.016098022460938 -11.399726065200014
218.576703331944088 -78.060401916503906 -0.915356188079812
218.522055457625640 -77.706398010253906 21.959578535539237
218.517501349627139 -77.741096496582031 23.865872686763765
219.004020024160184 -78.145896911621094 -12.351867973225588
219.408581909017158 -77.635902404785156 -14.257107329487578
219.406304973489881 -78.007400512695313 -13.304009844798252
219.774419920332946 -78.188499450683594 0.040608063053668
219.756203914951953 -78.246803283691406 7.665606092945612
220.517495642402565 -77.844902038574219 23.870650642988327
220.919765569930689 -77.953796386718750 22.918409553116874
222.151636961296617 -78.006698608398438 9.577589192911384
222.569860921813614 -78.110900878906250 1.953571333179671
223.324321747563090 -77.844703674316406 21.017948153079445
224.214467664577853 -78.581298828125000 -134.339768434028457
223.767577462358048 -78.203399658203125 2.909555611416645
223.709724297061427 -78.581298828125000 27.126186106564962
224.167570217414919 -77.945800781250000 2.910511188080392
224.515207292426169 -77.950996398925781 24.833304040126777
226.090991623639098 -78.581298828125000 -132.465284993126630
225.765294771761745 -77.885002136230469 3.867451079434026
225.730613212799000 -78.581298828125000 18.384729331892544
225.724308795395388 -77.998199462890625 21.023681685967759
225.719754924340833 -78.413101196289063 22.929876655346405
226.488621683134028 -77.653503417968750 -131.475333825594959
226.147071557320942 -78.000099182128906 11.493389665662098
226.109208463287814 -78.581298828125000 27.342419755928930
227.133291991295124 -78.581298828125000 -137.191797095455797
226.522032628727402 -78.327903747558594 21.978690360437490
227.315875889218603 -78.581298828125000 -142.881379583788714
227.483562050652637 -78.581298828125000 -138.144973037710798
226.963011289523109 -78.010597229003906 4.823444894386951
226.930779507575068 -78.581298828125000 18.315276320273860
226.915194340258495 -78.083702087402344 24.839037573015087
227.317479289588164 -78.428199768066406 23.886895701442427
227.724303088170842 -78.067199707031250 21.028459642192320
228.906801708712180 -78.581298828125000 -139.078572073409759
228.560735821086865 -77.975303649902344 5.780394322456535
228.544796869135496 -77.914100646972656 12.452245515154116
229.423730241378451 -78.581298828125000 -135.280329233434713
228.930763336086130 -78.581298828125000 18.324434490134209
228.908015009587530 -78.581298828125000 27.846606948205693
229.706408312222209 -78.581298828125000 -138.911668068323422
229.315196646836313 -78.318496704101563 24.844771142356311
229.758452361631271 -78.071403503417969 6.736378600693509
230.130924399869144 -78.581298828125000 18.257171108497619
230.981553167346561 -78.581298828125000 -138.136616389649419
230.556176147688404 -78.205802917480469 7.691407063848836
230.944783916967822 -78.131202697753906 12.457979048042425
231.356176916547668 -78.029998779296875 7.693318253629244
231.351622915060034 -78.469100952148438 9.599567820706705
232.149331430410513 -78.427001953125000 10.554601254184995
232.113805653876909 -78.581298828125000 25.425258701480494
232.542508447962007 -77.760101318359375 13.414928714529909
233.292012000859529 -78.581298828125000 -132.885079570951234
232.906122273963661 -78.581298828125000 28.643660994903787
233.692294760267913 -78.581298828125000 -132.999129122817550
234.490094340856785 -78.581298828125000 -140.034230577220967
234.130701082357916 -78.581298828125000 18.355427062325123
234.123559637720547 -78.581298828125000 21.344748823683535
234.105095945617052 -78.581298828125000 29.073425499442664
234.949326492045230 -78.004798889160156 10.561290400189964
235.344780516321094 -78.011596679687500 12.468490573608213
235.742496264653596 -77.736396789550781 13.422573437198627
235.724280259272575 -78.454200744628906 21.047571467090570
235.818619809954299 -78.581298828125000 26.766513570791247
236.108334228694531 -77.665298461914063 27.720308618425470
236.944766795294129 -77.666603088378906 12.472312916716115
236.930223795118906 -78.581298828125000 18.559835694925496
236.924273783188738 -78.318603515625000 21.050438233534727
237.729954155129718 -78.581298828125000 18.674936735807819
238.502413779868817 -78.581298828125000 30.205235476249264
239.295781389080190 -78.581298828125000 -134.455732634404598
239.022178910020699 -78.027397155761719 -19.929066652186307
239.017625038966116 -78.229896545410156 -18.022871682807658
239.426740794877674 -78.418899536132813 -21.834306008448294
239.413078944770007 -78.501602172851563 -16.115621918466474
239.833564588903727 -78.141899108886719 -24.692740160355207
239.806240656301100 -78.194900512695313 -13.255274705888873
239.729596504142478 -78.581298828125000 18.827034065339980
240.213426623688548 -78.581298828125000 -16.265310216564892
240.896224918369967 -78.581298828125000 -134.636922544271755
240.647227453927798 -77.939102172851563 -30.409616057088883
241.049497139955349 -78.023803710937500 -31.361756057771267
241.006234180217263 -78.098899841308594 -13.252407939444719
241.456336201840145 -77.858901977539063 -34.220193987911649
242.105272653292388 -78.581298828125000 -138.424038248789003
242.342248224496018 -78.581298828125000 -137.155463128220958
242.099780402235808 -78.581298828125000 -136.125048837552470
241.858605887867697 -78.163902282714844 -35.172333988594033
241.854655950450763 -78.581298828125000 -33.518938285615206
241.706047179492742 -78.464401245117188 28.686883576970612
242.218696974406242 -78.581298828125000 -18.469025866585127
242.215335683186510 -78.446403503417969 -17.062030293603737
242.210781812131927 -78.210296630859375 -15.155835324225091
242.122711656124977 -78.581298828125000 21.709259519511896
242.663160527781542 -78.118698120117188 -37.076617768192271
242.623165927117896 -78.581298828125000 -20.335364958487496
242.499857865510307 -78.581298828125000 31.279888065503282
243.067707390836944 -78.289398193359375 -38.981956342753058
243.017613624516997 -77.718597412109375 -18.013315770358531
243.464691198063548 -78.581298828125000 -37.715104683820080
243.825835873166938 -78.581298828125000 -25.636406698442549
243.777275543089218 -78.581298828125000 -23.730217677419375
243.422175509373972 -78.187400817871094 -19.918555126620522
243.328186803718324 -78.581298828125000 19.423972527834692
243.322598123315089 -78.581298828125000 21.763326089329169
243.826722135485426 -78.222297668457031 -21.823794519335419
243.704589210993731 -78.581298828125000 29.299560417989337
244.272255022751580 -78.144897460937500 -40.885383727533430
244.676816907608554 -78.287696838378906 -42.790623083795417
244.672263036554000 -78.446899414062500 -40.884428114416771
244.665052386061120 -78.581298828125000 -37.866137624688953
244.898868534345894 -78.581298828125000 -36.118171863849732
244.638108060425594 -78.249702453613281 -26.587571024036585
244.522270330750501 -78.581298828125000 21.900692021829478
245.051762656476882 -78.436897277832031 -32.305295722668276
245.044931617507729 -78.452903747558594 -29.445905994097615
245.465432766444110 -78.480003356933594 -38.023127196065701
245.456324787391026 -78.373100280761719 -34.210638075462526
245.449493739308622 -77.706398010253906 -31.351244532205484
246.267782837917395 -78.581298828125000 -139.053103466533400
246.284952365760859 -78.581298828125000 -136.193053677082418
245.876810431524717 -78.150596618652344 -42.787756317351260
245.860871404389229 -78.498397827148438 -36.115873653491043
245.854040602363995 -78.069198608398438 -33.256583106766264
245.727328440146863 -78.581298828125000 19.783584979475755
245.697445239648459 -78.581298828125000 32.292328810025708
246.508070601135870 -78.581298828125000 -139.592524249757020
246.498302058844700 -78.581298828125000 -135.503531401588958
246.260864159446129 -78.134803771972656 -36.114918076827294
246.131075521732413 -77.871101379394531 18.213025188963286
246.126521532205885 -78.231796264648438 20.119269749264873
246.102758962636528 -78.581298828125000 30.065992005964219
246.679088131354661 -77.666603088378906 -43.738940704916985
247.515673853096445 -78.581298828125000 -135.237107852800619
247.076803955440880 -77.810302734375000 -42.784889550907103
246.944738259171316 -78.308403015136719 12.496202697838932
246.933353273963434 -78.364501953125000 17.261818866950875
246.928799307219975 -78.422996520996094 19.168053890536513
246.902669670017417 -78.581298828125000 30.105601833894561
247.709887849268881 -78.581298828125000 -140.346659070844339
247.696963468932722 -78.581298828125000 -134.936670846787848
247.522356109774478 -78.581298828125000 17.263225985849068
247.377471984396351 -78.581298828125000 30.606638373866389
247.296006937422703 -78.581298828125000 32.898850656844800
247.990198550101979 -78.581298828125000 31.561304275063694
247.771918812995949 -78.581298828125000 32.513885732315316
248.510308133277050 -78.581298828125000 -140.526738975331881
248.153839762140535 -77.835601806640625 8.686580343679910
249.296555582556522 -78.581298828125000 -134.767855688374027
248.953840530999827 -78.473297119140625 8.688491533460319
249.360679517700504 -78.450599670410156 5.830085074482573
250.096804778018509 -78.581298828125000 -134.869932849311255
250.510235534956962 -78.581298828125000 -140.493961221078422
250.562950047771466 -78.459297180175781 4.879824792417960
251.297001381113489 -78.581298828125000 -134.952072554158065
250.963102578224721 -78.581298828125000 4.813900333796688
250.912848918036417 -77.945800781250000 25.849470532399167
252.510325407270528 -78.581298828125000 -140.529191695606841
252.896967085618485 -78.581298828125000 -134.933250827751266
253.296505929001569 -78.581298828125000 -134.742293351874565
252.969768068502049 -78.354103088378906 2.026196253211864
252.910313282954490 -78.581298828125000 26.913245481907072
253.711155984404911 -78.581298828125000 -140.870318051708892
254.094098618422095 -78.581298828125000 -133.732389433054067
254.514844417883296 -78.581298828125000 -142.418405527031439
255.316345479286639 -78.581298828125000 -143.044498526610766
255.291077231255315 -78.581298828125000 -132.467517600901147
256.117531150085881 -78.581298828125000 -143.538572859952524
256.090086590237263 -78.581298828125000 -132.050614309217877
255.772040136291565 -78.446296691894531 1.079758350708067
256.518135512118590 -77.688598632812500 -143.793628515620497
256.585551178780634 -78.581298828125000 -131.403432714605088
256.676417297427406 -78.581298828125000 -127.590201215913197
257.298214456978144 -78.581298828125000 -137.119733550285190
257.319128623605877 -78.581298828125000 -144.200712704300770
256.972989410945900 -78.581298828125000 0.688946658178681
257.706703475101108 -78.581298828125000 -139.001773913833091
257.672966304036095 -78.581298828125000 -124.879804935228464
257.303731831112088 -78.133499145507813 29.677249134792692
258.519723234631044 -78.581298828125000 -144.455840843558860
258.507398504715241 -78.581298828125000 -139.296858983303622
258.176581173650391 -77.805603027343750 -0.820752676705210
258.871585240077593 -78.581298828125000 -124.307939584802682
258.503710096282703 -77.915199279785156 29.680115864783936
259.719638843646862 -78.581298828125000 -144.413972687113073
259.707395330821441 -78.581298828125000 -139.288987311876042
259.671813897524430 -78.581298828125000 -124.395032621186544
260.103994248879815 -78.581298828125000 29.565639097672683
260.873184955598447 -78.581298828125000 -124.975172040017043
261.318469805420250 -78.581298828125000 -143.920161471419448
261.538433452375671 -78.581298828125000 -127.578585932591949
261.464135470382075 -78.581298828125000 -126.625757780155084
260.976591494030629 -77.858398437500000 -0.814063494247327
260.973960511863254 -78.581298828125000 0.287233602631773
261.689259694365603 -78.581298828125000 -131.695241753871926
261.301443481135664 -77.680603027343750 30.639902531931142
262.490415780424541 -78.581298828125000 -132.183319436677294
262.101428991249406 -77.667198181152344 30.641813685258636
262.504837270347480 -78.581298828125000 29.213072490293865
263.714667901013058 -78.581298828125000 -142.328418670454255
263.304979671088745 -78.581298828125000 29.162085460496311
264.112976458579340 -78.581298828125000 -141.622478533283214
264.094017517198608 -78.581298828125000 -133.686496540891653
264.867299624269208 -78.581298828125000 -140.914665540794118
264.897244857779299 -78.581298828125000 -135.041576144133870
264.576556807033569 -77.947799682617188 -0.805463231367774
264.573924391811090 -78.581298828125000 0.296433724944572
265.710536453084956 -78.581298828125000 -140.596655896295090
267.697833321361145 -78.581298828125000 -135.276890665620499
267.373035213777769 -78.581298828125000 0.679641989820265
268.107013547720783 -78.581298828125000 28.311353295988432
269.297763192652553 -78.581298828125000 -135.243069592367704
268.972014675605863 -78.511001586914063 1.111292890952514
268.905981768235108 -78.396102905273438 28.751863810787000
269.710682697484970 -78.581298828125000 -140.653094058219210
270.510417375103714 -78.581298828125000 -140.546187476969777
270.898152291340296 -78.581298828125000 -135.414249838079655
270.969731962226490 -78.398498535156250 2.069197895685845
272.504429671935213 -77.628097534179688 -138.037418863449716
272.108231498652401 -78.205802917480469 27.806311830467603
272.510934072136081 -78.581298828125000 26.672970412050830
273.367442026687058 -77.928703308105469 3.028048940366975
273.713239857653718 -78.581298828125000 25.714339790849905
274.565143308485972 -77.968498229980469 3.984033182151035
274.510495482011947 -77.707603454589844 26.858947878666587
275.951410802356349 -78.581298828125000 -138.029184077476799
275.363212845081478 -78.581298828125000 4.800721841772199
276.508821149687890 -78.581298828125000 -139.870860011122460
277.310502273456791 -78.581298828125000 -140.565937762744028
276.960606861499741 -78.331802368164063 5.896020884962709
277.319291031909415 -78.581298828125000 23.188246966010702
278.098612189996970 -78.581298828125000 -135.593047752711158
277.756038405439597 -78.363098144531250 7.804166823457942
278.732469153421960 -78.581298828125000 9.712759948317975
278.517314874144688 -77.951400756835938 24.009211337047745
279.310854934820838 -78.581298828125000 -140.711168533724958
279.308981947693326 -77.654197692871094 -139.927158930170464
279.298652030540609 -78.581298828125000 -135.603181400996988
279.324161945275307 -78.457603454589844 21.151730927367211
279.751478696727361 -78.237998962402344 9.715194346759967
280.899053049330917 -78.581298828125000 -135.779351256493925
280.669370013534035 -78.581298828125000 13.529903061515073
280.526417264445172 -78.060501098632813 20.201450581746194
280.949210484625780 -78.170898437500000 10.671183429807829
281.742364998488597 -78.148399353027344 13.532466430363579
282.630249423834073 -78.581298828125000 -140.872230121419165
282.135526781216811 -78.542198181152344 16.392783840703835
282.899838115150033 -77.651100158691406 -136.105581266831081
282.940096798348122 -78.059097290039063 14.488450506635566
283.337812570033293 -77.933898925781250 15.442523595092133
285.719426092204856 -78.581298828125000 -144.293860764472896
287.232677536336837 -78.581298828125000 -138.955238950459574
286.888443221453997 -78.218200683593750 -131.331039562194320
286.881610742594717 -78.351799011230469 -128.471047113175615
287.321171573738582 -78.581298828125000 -145.020032029326359
287.279357312002674 -78.313796997070313 -127.517091253419409
287.675811983767971 -78.581298828125000 -126.035137095346272
288.102112150049606 -77.653900146484375 -137.046143502926014
288.077066118976461 -77.670303344726563 -126.562179889905281
289.274798198498218 -78.141296386718750 -125.606312876821562
290.077060411751916 -77.687103271484375 -126.557401933680723
290.875089348208462 -78.581298828125000 -125.736492873321737
290.877045921865658 -77.885902404785156 -126.555490780353210
291.320278654945128 -78.581298828125000 -144.641489132716657
291.380434797546343 -78.581298828125000 -131.320308262015516
291.281622600693538 -77.807296752929688 -128.460535551156909
291.475329225010285 -78.581298828125000 -127.507067139754554
292.491715783735515 -78.581298828125000 -132.691650269263164
294.497085277263579 -78.581298828125000 -134.936865892410992
294.899768038589059 -78.581298828125000 -136.061914182637707
295.708929044953720 -77.953903198242188 -139.887979703710215
296.104368430183570 -77.870300292968750 -137.981038965418691
296.102089321151368 -78.180297851562500 -137.027031678027754
296.511666677099981 -78.581298828125000 -141.038073319639011
297.708923337729175 -77.954002380371094 -139.883201747485657
297.701469737683794 -78.581298828125000 -136.763215533554529
298.111503374745553 -78.581298828125000 -140.965250892837503
298.104362722959024 -77.860702514648438 -137.976261009194133
298.902069124040565 -78.447196960449219 -137.020342568475712
300.104357015734479 -78.045997619628906 -137.971483052969575
300.508903140618372 -78.061897277832031 -139.876512637933587
301.306642501536089 -77.802299499511719 -138.921616460259145
301.304365798396134 -77.687698364257813 -137.968616250072500
309.304342969497895 -77.858200073242188 -137.949504425174240
309.706612427694722 -77.724899291992188 -138.901549058697157
310.904313989725381 -77.748298645019531 -137.945682118519272
59.891003290460752 -76.992698669433594 -48.950889518063327
59.881895074463742 -76.983200073242188 -45.138301215614270
59.875064272438507 -76.926803588867188 -42.279010668889491
60.268233608785742 -76.872398376464844 -39.418661530742249
