# This PCD file was generated using the MATLAB® pcwrite function
# from Computer Vision Toolbox®.
# .PCD v.7 - Point Cloud Data file format
VERSION .7
FIELDS x y z
SIZE 8 8 8
TYPE F F F
COUNT 1 1 1
WIDTH 786
HEIGHT 1
VIEWPOINT 0 0 0 1 0 0 0
POINTS 786
DATA ascii
-36.804269099678692 -74.583933306485690 -178.990476508512018
21.267067309510608 -70.856609030923806 -180.035039118796902
-38.490493788141762 -82.703260226455583 -178.973442360440259
-52.119341669776674 -79.971451796935284 -183.735278048382611
-18.830541254028503 -71.530096409769399 -190.693838850305639
-139.677159347414914 -82.979053517735593 -190.977096979873437
-31.107293705631221 -76.202943582242042 -197.172303522260108
-28.344897944127041 -68.859417006031507 -191.262108352438105
-27.623968447027096 -71.377280427421923 -191.942916791272580
23.015001520438350 -73.498165164632084 -181.963030950911843
-29.396516306346783 -77.638078315549222 -191.078072489709456
-40.081825567351643 -80.686065524034106 -192.313775886382643
-21.984316803997800 -76.494443876347745 -192.751229056854072
17.515820658876876 -72.311486896763157 -197.886073134819583
-43.357391434772154 -74.590340969673335 -204.626538353741040
-30.311339303351517 -76.557193024166978 -203.959298224940056
-20.059733670811291 -67.811686796339700 -203.242083651225613
-54.209435830040263 -78.749600144449133 -202.640719870776735
17.940000125065740 -72.128078501700159 -208.546066834755351
-68.118179776643387 -78.994142999605728 -213.800577194911369
-60.963332007214291 -72.807226364823038 -214.253493542413054
8.084550215804171 -70.718862168327846 -208.895362191879087
-73.956534049980533 -84.200663681526578 -210.014009478871856
-15.320496989807332 -68.119432841003857 -210.639167569282563
-58.085886201523365 -72.561287361155593 -216.295820466571428
-13.982492891625249 -71.545377695366085 -208.695881793397348
-72.490413289435253 -82.574547322198057 -221.685537696555400
-82.969919797736580 -74.349688246268443 -218.388786806767939
-29.207932286281377 -78.460417360792789 -218.865189463981380
-18.893387088741143 -79.020081508172183 -220.430403103423345
-18.518959319753279 -74.087619007932958 -223.809478337362634
8.516615856000151 -74.115840923927578 -224.376103665010930
-2.389885429199325 -68.310376922360746 -221.234846157598895
-1.482079482384066 -68.839884848142205 -218.619727423183747
11.844690939321559 -72.057475807769947 -233.172623246973103
19.176070178783320 -65.622776961659255 -220.696051137720559
11.600998919026694 -68.739820910441992 -230.557841095115663
3.074375836582234 -71.113772440749841 -237.082395419189055
2.642233946879855 -73.690829720526224 -243.712242669668939
16.322375407240116 -70.925754687298834 -235.694728963798781
15.373684654803604 -77.160844976870678 -247.956766594659655
7.883498983343777 -68.383728023839964 -239.550772152782997
-24.403654794749372 -69.405431215177046 -241.506092491175423
24.242232382454912 -71.125805934197317 -240.628196618104056
-25.332152011250528 -72.958563319170167 -244.189414242218334
23.942266447361877 -73.063007853835103 -246.076546380898321
-49.859663927979980 -79.732665716191434 -249.976418261763826
-54.393495422179356 -71.301958857274855 -253.652292145940692
10.299310113358420 -68.509264339558214 -242.178884238983471
-0.703926553033234 -69.673862797685331 -251.733982707835651
30.899186416482586 -74.907083303324669 -245.600890127979739
-137.970946260294909 -77.312555901293450 -253.192602983305051
-145.982281269096518 -78.576442459714855 -252.867981541264868
-143.637851787654711 -85.248251337923108 -259.870042374860191
-148.393537969860944 -72.618881558821130 -266.642096493424560
-135.355991407836768 -68.615607204116230 -271.468301838250568
-148.550624414476374 -76.239071181482061 -268.499191912084086
-141.369790954660431 -77.399593713256948 -265.548714681830859
-150.681596240905833 -78.250959110097554 -283.641698095052789
-147.600599444168182 -81.636424965827445 -276.851373429796354
18.656829669775053 -66.625148470893663 -269.112667912609936
22.898595478348074 -73.830958805798474 -277.736714552352794
0.087284955753205 -70.289059994484873 -276.644836569343681
-140.288250720225591 -81.569528213116229 -283.661313239733261
-142.593830467863796 -81.929554967979584 -293.922554718081756
15.190315656060594 -68.117249892657227 -284.559472785739842
-130.432574226570239 -78.209727951545190 -292.503288824719277
-128.652384445611403 -78.067418074877907 -294.007082575863535
-134.088389990495926 -79.013315370035912 -297.240584770274438
-147.171744296010928 -70.104885749640346 -300.368618866977499
-140.642954561235427 -73.362851024439237 -302.752293309600816
-139.760367046952439 -78.376917576324232 -303.577483315629024
-61.704636607056742 -73.923671790955865 -67.365531397194445
-68.519803006003173 -82.594736459620577 -62.305987608282976
-52.457770788759376 -83.736008134064406 -64.681034497749252
-44.815627832605330 -81.007282505340115 -65.982892971470719
-52.772215405798235 -77.204859598109920 -64.877681206546441
-33.915281981517495 -79.446211928284484 -73.072923414402766
-88.278180432600578 -81.259334893105759 -68.360470304319492
-34.515782569484244 -73.954461981395866 -75.367274412826745
-89.129377213521764 -83.172466067370109 -83.958107847167739
-43.570970679326962 -82.014295584264957 -85.433978161510794
84.190301070696080 -65.485235647918941 -87.259032875407200
50.826195239994689 -68.888560223947934 -95.165313554945669
-74.523460307257125 -84.042665089613394 -103.879906018202476
-94.813019997390910 -78.718305796992169 -108.794980968262507
43.116589328754571 -71.283939057180064 -105.234216309108930
40.684147221512980 -68.738733615672075 -117.490173146833641
46.069346867653330 -73.839350414015172 -117.082800830451774
43.057428583048917 -74.262515491251179 -121.068975193726160
34.892420215012102 -62.973109501819401 -121.998092232282218
44.038504069753238 -67.593193435091180 -118.978428852338183
40.734976558639502 -72.475030303769600 -139.708921712274702
30.693276892784382 -73.578819697728505 -144.688962891073373
30.414439295474416 -74.973868669124997 -144.943216242030246
29.239000966037292 -72.721235193671092 -143.160134952747569
30.817987959752529 -76.695752321722750 -155.743460838134382
-46.018421240484074 -81.223559245555293 -156.497474664956030
-43.790076961185378 -73.703092388816955 -156.752667391192603
-66.856411554202964 -82.957876487454968 -155.516594118282399
-60.932168882624168 -81.714324800328228 -156.123547983811847
-37.429633537032927 -73.562322855905279 -164.354253621278787
-42.047837604889551 -78.093534987558428 -164.966798212418070
20.692487932858317 -69.474708769083264 -162.530598005623403
28.346699403496608 -70.606026025853950 -168.928407701019978
-67.259471677571540 -83.995693301397196 -169.050421101732951
3.068060775236290 -71.495332994007939 -153.857492418242515
-37.102525128116653 -71.994892974770323 -172.209315157992080
19.427285518393600 -67.767417079378617 -175.955651856130146
-37.302797355204675 -68.769808783423215 -180.698004023544598
28.458669680594411 -73.246541607974763 -172.411981005754143
22.464068075091806 -72.414577543231914 -168.059977167785121
-55.973122433771493 -78.751797963556953 -173.729132606310316
-20.471185592474221 -78.397664145845795 -176.537763565460125
-29.759703331842815 -74.332811755634069 -179.962375390821848
-9.764840966731754 -77.734992952395544 -185.397779991067551
-55.828545939714871 -77.271538994141068 -187.557292903701153
24.544468493499295 -73.719149040800815 -178.593483889228992
-17.042758497192978 -73.880427661572398 -180.865659595106877
-59.400149578820972 -72.629741298622335 -190.513841965020902
13.440544314704987 -82.427215650685724 -181.401562955335010
-57.697760980821656 -74.100767371959762 -185.006931227065792
-51.688507467996828 -73.214394239148419 -188.390500735684412
-28.114050275241738 -75.989309455946938 -183.172878581383685
-45.922213281411416 -70.300706194907065 -183.809061681291809
-28.130650066808812 -80.269414046589787 -183.279684961392718
25.665412079783586 -72.580980143373793 -185.058289903727768
-42.254143895178814 -77.701744000886023 -190.302403503410886
-26.181942553519690 -70.602819249500968 -191.390336551052542
14.523221468506627 -73.987777712234490 -190.821425536241577
-17.063633941211172 -80.594072673487133 -193.441970788175922
26.572596197519481 -73.928838736309217 -188.741211309161031
-44.436213650353466 -71.238813405034563 -201.932951340743017
-56.103734078470069 -72.493829454159197 -203.703039697245856
-47.865958872524374 -72.066035957498215 -201.697893972608341
-20.066215599603652 -76.176518705735745 -198.846041823787289
-36.990084595301596 -73.150258887027633 -204.396271137914312
13.709402649671873 -74.291595581751011 -203.044075863153552
-31.284257332446074 -73.339625140958319 -208.164346194645987
18.315619518094316 -61.312699353821486 -203.236066024579117
-8.314816646535888 -74.763629239285791 -202.668141624832373
-31.037766075622159 -68.580733273461377 -204.514807776542710
-15.196986959083169 -68.916354804160832 -208.285091328839201
-63.776980117836359 -78.765216327886051 -204.278361148962489
11.769499076243338 -76.738914317859454 -206.870251915879919
20.780890433389580 -66.706922060811706 -213.921830312049281
-14.490405335177549 -74.502545058230311 -224.621611525167367
-30.807651988421625 -71.295197970001823 -215.880245253443547
10.565480060994343 -68.354691032300281 -215.984418038008329
-5.266126238336746 -71.724119625283663 -215.471387977303380
-140.491825371047980 -79.446238603633049 -229.432831516374620
9.491070913056802 -70.975441817214588 -215.467173605468446
-21.745028356588016 -73.828544533976299 -228.819986458954503
3.099803124573626 -69.787214096710443 -223.095793564038104
-138.900207545237947 -72.127068802794412 -232.188522910411450
-152.693710544332077 -73.982119088414635 -233.726512837132390
-17.559756532471198 -69.620981070945106 -220.323226252060010
-0.442965241138296 -70.464871946520432 -223.460638539976884
18.564032614804589 -69.714899586172805 -223.838423637626192
-135.103825709635686 -76.878770425748215 -232.715785253792831
4.311525316901054 -72.954005310625760 -228.013640238887035
19.116527756220599 -69.742095131181799 -231.478818657986352
-135.935865297843634 -82.495578078768986 -237.485726549838574
-146.452637946440177 -81.017251467360239 -230.166096911669825
-3.486197111084124 -72.219367236829868 -227.846115790400319
-133.818416389595143 -74.081882897905601 -237.949864912224967
12.230412061358873 -73.653035422346903 -229.694194162947014
-154.126835987846590 -82.664995114676017 -240.538864794209729
22.792909528162998 -66.587647198102687 -235.222737601668285
-1.549479924501924 -71.301195301381753 -237.595916208022402
7.332015491364700 -67.369358989202226 -239.413829572273016
-21.081738539794657 -71.362452082814158 -238.289923293681909
-147.596864133842473 -77.929260502798897 -247.785469138304393
-140.932145186075331 -75.117028744925292 -245.780561016514696
-35.020198858145932 -74.277454086183809 -245.189189845442058
15.944826044007893 -66.052857293473082 -242.820842383799317
-57.301308347818619 -75.229951086260883 -251.601856298724812
13.702923523553139 -67.693542448519850 -242.603217318355405
12.458316787933921 -65.220578470998802 -249.617115624911207
-148.795714121790979 -74.684755849619606 -245.767804220355032
-50.609827782476088 -73.075455527607417 -254.258947042485147
-56.354963682885838 -74.663250702475565 -255.528587370154384
-2.534079689796734 -70.190811118082237 -250.432180567813248
-147.953007271798640 -76.767919033636758 -255.789867671185362
-133.978140776921066 -76.308753299100530 -267.180325559894413
-133.404519007133672 -72.919055833681384 -260.147901873977105
-7.797421263234703 -65.950580398693575 -267.252357368359128
-7.698467645054883 -75.535777232967163 -267.281669854992174
-146.693621220622560 -76.123128885723759 -282.348266712267048
-146.879702551056170 -82.827088421612345 -279.202528632995609
-150.923300641592022 -73.175690996615586 -286.218085771626875
22.026861377843620 -71.614709432022508 -282.971848668969585
21.507710091056143 -64.994591595079285 -279.028372421727283
-137.570356664392307 -69.348106200763183 -288.430798180091415
10.751709852414503 -65.074552443310537 -284.285998447663417
-138.437862415094060 -79.021673638441086 -300.876483131599969
-129.047600196247799 -67.969039155534134 -301.205687555421491
-36.648215632529912 -66.182312871299274 -292.670530691948443
-24.520933913958643 -69.829423379952402 -293.796218663369132
-15.982673859323619 -71.132504810150920 -297.672040421301460
-4.130060361420227 -70.263304426210667 -294.610235241325597
-140.207432168621864 -75.339277465053939 -292.409771344219507
20.515019789023803 -61.745480994245582 -292.811635851048379
17.140969785483389 -65.783157810969513 -293.343360056325196
-143.954192724357284 -77.542344998175537 -308.491546510364742
-148.447752300441152 -77.387838902848955 -321.064730714268308
-139.348907629335287 -66.008042511977536 -322.732411031246784
-58.813260074745642 -84.205934478499316 -66.707929698358328
-51.908046576183651 -81.664515714155812 -63.524566752805036
-65.926271702773931 -76.646589177083513 -61.361128488378895
-44.613801671589982 -80.307490708785082 -63.692367022463806
-81.080940811506110 -76.870240258740623 -63.751351081800173
-32.288613122324151 -82.126467854655473 -77.377275666982598
87.315576597077282 -75.145790578538978 -85.351847870699643
83.344844355190560 -76.736734634397394 -82.747424869661032
-44.186550484048837 -84.610188614469763 -95.714463395667138
84.316986855698872 -71.314773955047087 -87.378960453744099
82.931862478946201 -74.693217907594345 -86.434574378974048
-57.439361039687597 -69.845516879025851 -101.703114815915825
80.565421339509356 -79.070566879833507 -91.029132575463890
-56.220645924902442 -76.970332625318676 -91.555066329255411
87.562700797195035 -69.717264606953464 -85.391795431987191
39.834474672699457 -70.601394257895251 -107.056821344611109
40.848227097882017 -73.754090556966617 -110.117160364793406
22.404983625478668 -73.619328200396524 -118.299078057225813
42.460400195172639 -73.597124891582951 -128.518829101228022
26.516219936196180 -75.457236314956162 -124.566805620134502
31.849649788921727 -71.752191816981025 -128.444312865029900
-53.118234774571818 -78.522307216815435 -149.428406742539011
21.945283139925849 -73.882497647938266 -143.958796923424757
-40.781038907760660 -74.629056643635437 -144.812794132987051
-55.544349792562642 -73.166760517469186 -150.495891108031230
-46.377976368846987 -76.110228365813768 -149.927670696761794
-44.417124771218724 -78.200632698584258 -146.190071628769459
23.778822373856649 -70.763018393505405 -156.124116934578694
-63.234200035885721 -76.682831645112600 -163.373489616105843
116.859914388297710 -68.768931131751415 -153.165064252422042
-41.997270790612603 -78.446093220971193 -158.134282475411169
23.504683039520433 -75.939661699952424 -161.628270311114846
110.446731622637472 -69.791290539423528 -162.788317518448650
-34.771793263977941 -77.642517516612045 -162.490005975390289
-2.435782116192890 -74.272660153431858 -163.620385635116151
25.958081318939318 -67.339826493967479 -168.248570333263586
0.597170247185637 -76.484540594194002 -167.394415735177660
-59.247990470156253 -75.092884395544885 -178.155560417590920
-61.937583200654856 -74.541131421843119 -180.365011419895154
-54.839220705165403 -77.558187709421858 -177.129771640502696
0.693525374152472 -77.558897695329534 -181.687999344902607
114.158980857432425 -61.186749708129582 -167.918574425951306
24.005263633970973 -67.584033308823763 -179.633952379930605
-11.489658878736762 -70.448270075055419 -170.408270951839455
-10.241853450190092 -74.677366423867326 -184.108810652659400
102.522275931812857 -62.451330931109979 -178.939098714041762
109.684326221006387 -65.245381134806905 -180.532185330782937
-48.138673738071276 -78.900176232941391 -185.697270440881681
27.231664416552807 -73.107118807607947 -185.269874902222625
-20.764353200104033 -69.514676072751513 -195.043780049375528
-22.342991920394581 -80.787796261076465 -188.701191734032619
-48.959738623051010 -75.338734516891051 -196.641801381662333
18.978816878683791 -66.634307264281674 -187.367128235360298
-140.334837133044232 -81.445399381020067 -194.845987077223100
108.030081620612791 -71.472180402086209 -193.167506533624419
23.214118152795624 -72.185683488855020 -182.329732126557417
-40.364879484070840 -71.800663657000811 -197.551606346101948
-135.815300247214537 -77.505913003143036 -202.471286160413399
-149.483825700911581 -80.718737877326461 -202.645970717162129
-38.339806141663956 -74.382822122848594 -200.246170608541178
95.993529611874976 -58.646775341602769 -192.809739531670090
-31.462060415544713 -71.182315040709412 -194.457978301544472
-21.986999931537220 -75.925972380240637 -203.085698093726052
-17.245893295166752 -73.506767850398532 -197.915718644474111
19.831230744768476 -68.938659031373660 -194.714823462670950
-31.848208257485950 -81.021421381428610 -197.455559923775240
-16.411326498423534 -73.298783012679209 -202.061191474927256
101.088008551635994 -68.098567447293249 -195.197696541927570
15.995713614643382 -69.633971829635243 -204.476249271612517
101.116597723522602 -67.540220760019878 -196.104444564053267
-149.127676653942387 -70.491289226674624 -207.073779387761476
-47.250424637647427 -71.820715606162764 -203.505670655054644
-135.892069943770366 -77.617365604830212 -216.971741651846912
24.468275369363354 -66.070951073648217 -206.206569023617959
-152.101619940628268 -76.026795417359480 -209.545443240127213
-40.350129917972964 -72.261752357161029 -205.654117051844310
-29.640082523651884 -74.559420439935678 -205.552349430350603
-135.532499552314334 -85.390892729220553 -212.976957354164455
-143.091590014121209 -73.739963567472003 -211.091842832773665
18.108429260883497 -75.100118992028499 -201.895603264909141
-147.871198213191178 -85.785566495614518 -211.906158500557581
17.127613505067401 -71.331649545299726 -206.246846564775183
93.689917310097627 -74.488730637482007 -209.027095157142753
103.036775222996681 -71.979784549954800 -210.389468482483238
-69.487446918298076 -81.179712507828384 -210.140996984438004
-138.035992913944284 -77.378102211209978 -221.078655484987650
-31.686819989161194 -75.674184931015517 -209.907733541806834
-11.313986586846553 -72.038354514981037 -207.024644305158205
-2.485114814450739 -69.928189380291528 -212.043757040626048
-34.140942183167425 -75.352388525869316 -217.032361877754568
-147.937139780243399 -82.318229854836730 -219.188362912686841
-70.001322638923114 -65.630850500030220 -213.355468834053880
7.570066488649317 -68.354386258265123 -215.157097460974626
-26.641300846667605 -66.946299759240546 -212.618594789608323
-18.183989570649736 -70.886569989649402 -220.064389638721707
-10.764678840030520 -71.866142355645849 -214.932169991097737
-81.808021046534520 -76.162707153321222 -214.857400086647772
-73.644878404475065 -83.619647728457920 -214.958711107365502
16.435499077276980 -71.386116354798304 -215.338004801699782
-20.672449054453722 -69.640770314014063 -221.055489303647477
87.503220787651017 -70.562781714429320 -212.603896481532274
-152.123615519207391 -78.837566527115257 -222.099052043797968
-85.927156749920499 -73.667265794076101 -228.084983401598294
-87.839816333797870 -75.007894347011629 -222.482761263782692
-138.165956833866005 -81.439525692829946 -222.707293341554021
4.977717957365172 -68.530587493937247 -220.205322122450525
12.218805171772409 -75.337500319611678 -219.481495813203225
11.081527571330138 -66.576240450731959 -231.569089686487871
-147.571819309178920 -75.397495440648001 -235.495131297468760
-8.807265250848793 -71.683879605522634 -233.189771202694203
-132.676287771825258 -86.055270882093083 -239.105183937538357
10.762010819662688 -68.315173970137351 -231.572146128175405
-2.972591476580078 -64.813467752059196 -235.877366892363824
10.626978496081389 -72.276596778118019 -231.957765419798307
-144.171602038556898 -72.046191151975592 -239.038791098498024
-148.394972470146200 -76.457376996880285 -240.181888564105662
2.193593112624839 -76.196712967062368 -234.160717922093369
-21.033428688805891 -67.458625856868807 -237.071060141587196
-28.506649339444763 -68.148903853552042 -244.955128678105041
5.928904469772888 -70.020202139361828 -233.334858552897629
10.579100650112309 -75.692657725834451 -229.923974362728330
-30.655742887931936 -74.886053332425746 -241.094923242990717
-148.689575483073753 -73.403586994300241 -249.232114842568819
-13.026953072168268 -75.277991269201323 -245.778624250472603
-53.894329135552923 -74.980772064538314 -248.001096554056204
-152.838207802769233 -74.610499336065701 -256.906752026558820
-40.905676445216002 -75.304405518345050 -245.378546411978562
-60.112297063507754 -67.902360567377116 -251.975444454211384
20.149207908919333 -68.740900403125039 -245.182201120568010
-137.352112943385805 -68.074269201771486 -261.399607629226239
-149.916676549431372 -76.852338907025114 -258.391026457069643
-5.428138143456820 -66.476548795415056 -258.425772579286502
-138.668256397670461 -75.193106613641177 -268.056447383458931
-146.407614755802626 -74.147357774201609 -280.094171806288841
-138.970952505039463 -74.955052525233000 -276.862817968870786
3.272959640583757 -67.148488899924914 -280.448747264153383
-20.819452323814012 -66.055065838806229 -288.205022225795460
-42.307160413426530 -70.655616205020991 -289.557911861158573
-5.485020063420009 -68.488718373322129 -280.965717768774994
-130.680659162100142 -72.603388880701843 -292.281772621204595
-4.216085185616393 -67.732973714449201 -287.441229893065952
-124.068152438685445 -71.711788443332068 -297.026694838992000
-46.316093172450039 -69.016718519363778 -286.738593186403250
21.565188705399560 -63.662275216450219 -291.284626015274966
-114.767328767378245 -71.837462594686102 -297.167096709403609
18.312877052172279 -66.751846981799730 -291.340181190498981
-128.168246604685010 -73.408690793634847 -294.357152882841376
-36.884604743668476 -67.715707483906669 -293.347853722987907
-28.704304828518261 -66.337286565657621 -300.145671555453816
-6.906788766304366 -71.947847158362549 -291.693958243737256
4.477291470043106 -68.435197995263749 -293.278457083868432
14.740924603506009 -66.740084392250367 -294.148547561086616
-148.236650403419816 -76.210801318097907 -305.630053085422958
-147.843044828942539 -73.474598686902510 -312.574283712636884
-145.169012785783423 -78.883067220854855 -322.843034274887259
-33.567693279578322 -83.690690265188579 -62.644555995394775
-75.681436058500267 -75.304821726196920 -61.362302301513679
-31.616212873584772 -82.717865614831268 -71.748832499085751
-86.080489556025654 -80.535552818234976 -76.275469365432130
-23.111100637311210 -79.746386066817664 -78.058966322424965
89.019362869146335 -74.540268133110217 -79.173870620041086
82.590783593682673 -65.819663076409739 -80.070669477864172
-35.785376085938367 -81.214956050458667 -83.167208725454159
90.410248855173620 -70.563525480621024 -85.097503647944905
-91.838703564288352 -78.191794015380808 -83.626184603750758
75.033793813477388 -72.448150683947176 -81.395310830621526
86.011448585070639 -66.718812604654161 -83.491701305501238
-51.478318432136049 -77.773626816175721 -87.397155152020034
87.573461375209661 -63.629919284239968 -89.226902394882387
77.549464731457093 -70.897244409965509 -88.198418335222740
75.992829243282529 -73.218755559893751 -99.322441664415464
77.458347279136930 -70.594866190257079 -96.870128054155700
-62.911759450753223 -81.621340838054792 -95.530611141577239
49.171259791974677 -74.942013918743442 -96.907122254650915
41.929588402176798 -69.806877388262947 -103.355391943117681
-81.348893448233966 -81.983009081786605 -107.369884173730895
51.351558041211973 -78.614155019767310 -99.425508482554008
50.041419256230441 -76.686898210893204 -105.517322833949677
54.683236578458406 -70.319808628141956 -108.472955006814487
39.971308573714595 -68.127137148171357 -109.848422372140121
-92.613402041284871 -80.695679788492825 -120.747306231271708
109.294475053645797 -69.437287052722937 -127.882908254803525
24.758943535579878 -69.189187445077735 -135.384669453213178
41.136117983908470 -70.582800709501711 -128.833773050987759
111.172390414091211 -71.295155557413608 -131.839182315720336
-52.853507614811647 -77.284697426788298 -142.074626997179280
35.956689782023602 -77.451193305871882 -147.496946519664874
29.512476962513528 -73.754348073192034 -153.569343469784314
120.099047056502641 -62.972180321544720 -150.195842345028467
-52.941798699781259 -74.176207854520399 -151.433235321682076
115.673318438513760 -73.973954593444333 -147.761637188191287
33.984837843427350 -75.221746590023315 -150.360554810575110
119.686611627122772 -70.351838675293564 -143.936700436189597
-50.910248984778633 -75.213818101554011 -158.852951745235657
-38.370635307383324 -79.772388903625014 -151.974098892607401
-69.810385693139750 -72.959121862596447 -162.271476022794133
109.586383945611857 -65.371450063501214 -149.093171594358438
-35.695096874339740 -76.153256949757179 -160.330865039710147
22.098990969959097 -74.848429494733310 -163.524396347692033
-68.664990586892102 -78.703454113311324 -170.826779663613877
29.945126820972263 -73.554066511809751 -165.385482082173240
-43.434911586915362 -76.005750139113317 -167.681261334240105
-62.033983245178163 -75.912735890503185 -167.015171923452613
-53.279217750146117 -70.514009904810734 -170.120550527151437
28.483487003674696 -67.110920852878465 -166.279782024289972
-28.974977165260100 -72.375517026857793 -177.276300717720034
-23.199848090731891 -75.139359990858964 -173.208959494818799
-3.698067499064464 -65.275644007584575 -175.155479825298613
18.637547080130958 -69.640773955563503 -176.645664426153758
25.548581000606063 -66.947867013419042 -177.894190530013987
-40.490679986674508 -69.589685885146807 -181.576951684976194
-34.485290582223513 -71.235999134410847 -186.144228900567640
-61.450264517216624 -78.971488814402022 -186.019887488962581
-33.858602313829024 -73.704758771741524 -190.947667855919036
-19.093932859948190 -71.764335754628263 -192.525753471322389
-46.830063061469460 -73.689351909785543 -194.258087022791159
-42.706899619956445 -73.263011335369356 -198.625043238673925
-142.316419234138635 -76.554457768060033 -193.379310805819784
-47.339556178591337 -78.524086279686216 -195.754740017932875
-24.263437163989167 -77.761392848356266 -202.765964406934273
-13.405945602145692 -69.719803158230008 -195.365202393999510
-142.486986041080172 -79.524320955876618 -210.231954952414981
-38.238755338168204 -64.787194925919266 -201.476800413114574
-151.551032608228951 -84.196457961143253 -205.535357170099502
-39.776969950168990 -77.591728122766483 -201.651290079588023
15.286525198755971 -70.190704343194582 -204.875831828595381
-129.527039109980450 -82.999628358570050 -203.316985932768404
-12.930789593229235 -69.465925754106195 -203.571867680671062
-31.256950064528922 -74.619312603497050 -205.383180752909055
-13.238415472689134 -71.524946201819034 -212.711757571674610
23.197164142958712 -74.001665684856391 -206.769611764802562
-29.232496904808528 -66.384559338271657 -209.864264299950349
-2.514690245465637 -68.969248760854782 -204.240949435261939
-35.169628230645898 -83.271290601246903 -206.379465871476356
16.754101873242991 -69.444387267647954 -209.498863841422434
100.201229518486514 -66.523920159335290 -206.805836336138128
-79.051354815131248 -72.424712431711768 -218.501445542756784
-137.025719115334851 -81.612267454849317 -215.385354058759503
-33.192659608085506 -67.670479891180378 -214.305652388034162
89.269972909996184 -64.458434440610361 -203.250015108862982
-75.713884569318864 -71.846731985130177 -219.303419351868939
-13.759335632503607 -76.455702874012701 -222.897900387049646
-7.804257993564526 -68.839086516929910 -217.537443685180023
-146.224214214136055 -70.715830135593023 -218.668082611282387
-10.993488014289774 -65.493270700010711 -225.686785061049818
10.984866735725959 -69.626186326031686 -212.920729734059705
93.828071595632125 -64.083573516264650 -217.225447148597709
-21.226357271213040 -71.613984881607891 -221.504619268658217
85.988856776382619 -61.470159080886617 -225.414002270629936
-12.633251919269384 -65.084423814909812 -222.324508259528358
13.270759072656741 -64.987096197464936 -226.481095536396822
-12.439214091655245 -72.485155347844653 -221.798886424392862
-0.690864624809343 -66.730725580577385 -214.203007817529397
83.144841663947886 -61.316556376447728 -221.322927997133235
8.346228614577662 -72.596099120285487 -226.308610850763358
-4.350955174691528 -65.113153693564598 -226.347923625962153
-139.272693024986324 -79.079007973654754 -232.745523484006128
78.776078480698203 -59.316509221838551 -225.981961010896754
-0.490824211668453 -69.691167537510992 -229.459025033512177
-130.259135563604872 -77.119070464592284 -231.605140421196751
21.848721078871876 -73.692431285042588 -236.646989475643949
18.493959045166431 -75.491578900448800 -233.603221498577824
-129.571202309582162 -73.620198445913161 -241.263921387442878
8.009386950521893 -69.137421469166554 -231.607427197201559
-142.046519381465629 -81.554971556511276 -245.177823595767364
14.161181700833048 -63.382189296288637 -243.181404644795464
-149.055077428368520 -74.817128024779137 -241.374027812018767
-141.012770713429518 -80.747162237949254 -253.730860118797466
24.566518393148108 -68.254286776568492 -240.707911351752927
12.596136254875251 -74.029644755049858 -239.800483020916914
9.941940043313025 -68.635334812012673 -249.511395883761622
-32.324992614801047 -69.650751198377890 -246.375672090736117
22.857527340030050 -56.639234306156361 -243.660638609053620
0.636392617010245 -64.620718493068921 -245.404536062859336
-73.155045496577841 -72.065382377528493 -252.378362274131348
-63.617813603573651 -68.548201692604621 -248.671405127013628
-70.388877490674247 -69.586407322795054 -252.102978952893352
-62.879312510938064 -73.233819915942078 -254.074186886765318
-150.072182094070911 -80.316466028922122 -256.270746883133256
-141.274933913449388 -84.660429139245835 -255.218257460530907
-120.710128739642499 -72.842451028022452 -266.621805020478348
-135.404591975570639 -74.855606893851387 -272.157453234611296
-122.173238375461125 -68.687375532681784 -266.448051259146837
-138.571724693455963 -80.495697838179481 -272.945378773042080
-142.165800671022311 -79.624128256978636 -273.156818816096688
26.509660816653479 -68.517078525911330 -265.251559305585431
-138.559004266533833 -79.585282045813059 -280.539023163008380
8.484163728851236 -69.523138807344623 -281.617093649892411
-124.951338788133711 -82.058471034859735 -286.913162132462389
-118.223671919848954 -69.488563313212367 -293.146169191644617
14.235647061201970 -66.817342081912543 -289.683896918113021
-52.280773508878980 -70.612369413578307 -286.650066748386564
-2.910647963144072 -70.008642261407246 -292.203805188440185
-63.436895810061827 -70.538854024358187 -291.859850869304296
5.498598200049706 -63.873673492743599 -289.521451140638476
-114.638423435358987 -76.062020375131837 -293.161422801155652
-67.279497056229701 -69.738348291862692 -293.144588946856913
-53.783400003797709 -65.201677258991836 -294.196473737496603
-60.446871360856960 -72.022861806431081 -292.470848537494760
-134.761664114613012 -76.347765055459064 -298.770967881743786
-114.197620368842820 -75.341025728488844 -298.889188080792906
-53.735725756021822 -72.252651315688382 -294.611378120537211
-144.654770509213563 -75.086517481755934 -298.330675728201584
-143.927265389383734 -73.460863544035035 -307.460996400053261
-59.310421734076357 -83.529473332775055 -50.811110075929314
-70.625579024791065 -76.860734974741504 -60.912325191336436
-38.744761013689327 -76.751027109763342 -63.167424410230346
-25.727677821942777 -81.924631688661520 -74.286684601744994
79.965024994337981 -67.339790026377315 -71.024680987706049
77.280963847328252 -68.182482658391578 -82.385233283657016
68.943475487180507 -69.602965070562661 -78.921468363957942
-40.041143077774706 -74.881747101172166 -80.073230679607548
71.397674225685620 -73.698740844195271 -88.876122475996596
-91.581744392881888 -80.413409828639445 -97.709978112213676
58.413812247066652 -72.157899837213265 -91.179484796918530
78.050053692221283 -66.870526695679317 -91.409590897867929
90.817452792706561 -67.791306876938819 -91.326738665034128
77.426035516448735 -71.660713527770838 -95.325274368791867
50.030854607499485 -71.935820426679498 -98.767608402469548
84.851508019068106 -67.320389614636611 -101.251877151104665
47.375274035366566 -80.211966784670949 -108.525206453443602
-77.454811729638578 -75.887117099744344 -118.270040097658665
35.726080639520738 -70.697289963004465 -106.868121862799129
44.046807968083876 -68.537391520944155 -111.057311312910002
31.413167402787430 -63.426678329881476 -116.961423572061591
104.558428347430038 -66.902703015329763 -115.024730235303267
22.894336336821709 -74.252374291138565 -125.246816495978905
114.587768013343407 -64.773215256248491 -117.084775144637206
107.134953054697377 -64.895835435714503 -122.085173243148930
29.840245662829449 -73.215593884383040 -128.771395015463753
114.978595039431283 -59.265300569069524 -134.371073673123362
-55.431173001356214 -82.355387510922881 -136.196977877885928
110.409951619673180 -69.888366209591879 -136.500706168495043
28.457800672723366 -73.118857868486529 -146.229329152642180
-56.944209640690360 -75.189128250182662 -143.369341562963115
-54.659350122618221 -71.753937352556321 -146.640037555404206
33.555984631750277 -63.702561998651070 -145.244833600394799
-70.939221800325470 -71.367857994156509 -154.073441100464862
-73.329517046448416 -75.026788786243657 -145.460768304144381
-51.141002189803672 -63.931598724900830 -148.259734575023998
-46.039390049789688 -78.051547122205648 -150.563672706527001
-40.123762563406771 -73.400772232225592 -154.566021383198120
117.237782453761014 -64.244487727674198 -147.517138091367798
28.239248660719145 -68.487991595243614 -153.703516070155132
-61.243542591391801 -73.347011640826025 -153.659518566229622
-66.209138096893966 -77.689725158866580 -155.740618705860612
20.608665411372026 -74.613092650556723 -153.710799723428750
31.016509294324479 -76.318549860199667 -156.980599890049120
8.516008807788396 -69.760633470918435 -159.305265130496025
109.677561739339907 -64.873317971167012 -165.795405690682628
33.828670797171384 -66.075976456049318 -164.935754114476765
7.761929350379376 -72.914924647525496 -165.731169365875786
-63.250923137204367 -77.576248995115023 -163.817333629173817
1.927545816830460 -69.603149343033664 -161.598423218622742
29.575131453088272 -73.292841528172843 -168.260748202582363
-31.347291532700126 -68.030229194560221 -176.243464534084069
-33.106360966524406 -74.943667582181860 -170.160398113314159
-3.485856498013845 -71.118800356882460 -169.251045101707916
112.454459596747398 -66.995517696510191 -161.905075356517813
8.736846425268070 -73.425262641118181 -181.876426659008217
-6.059472804044681 -71.647153314291486 -177.807652106013933
-54.479718884698372 -77.630729104747473 -172.245110639228528
19.905052540949345 -71.448096380818953 -168.734081495478620
102.282290213749349 -67.222322018757339 -170.740794917486767
108.072215920597600 -66.363155522216275 -175.250859534927457
-56.759206548186114 -75.691029376765428 -176.139746813198116
108.467781424837554 -64.455142092800301 -176.549726539690624
-52.999428048759555 -71.465382402966682 -186.867140500514409
28.230730245672476 -70.631596489694928 -184.351143639670028
109.200840302026194 -66.490169645329644 -171.130577072544270
100.262378083991564 -66.047738222557470 -182.355178264271103
-13.078993702787898 -73.377746427349578 -183.203855453346677
-151.323698250992891 -76.390357597605998 -197.459134772644859
-147.052960284332158 -78.058344889836931 -193.511042724672990
106.330419178395800 -64.354435120346324 -185.226999744839048
118.595968138636735 -66.311465093271266 -185.908322763102575
-29.096344563202280 -64.586093728497360 -193.481229841563163
-46.510554065449938 -69.115271216865651 -188.315261494042744
23.282046406621312 -66.523968072248735 -190.542688981961845
103.114809997941109 -64.259203370845626 -192.471668034509122
17.678956525217846 -68.019465818541519 -190.253093914954945
-15.725498667274898 -71.180376421561434 -195.746978395403175
108.112936440513110 -62.353546986111191 -191.824456806415782
-144.218044638840240 -80.579065404745322 -199.530429655382022
99.456429796472889 -69.994391898576509 -190.313038099041535
18.254295903352642 -65.019079931157478 -193.625339813695092
-134.482000315275911 -83.021200851344872 -197.352732846675849
101.835774346150401 -59.306585744335045 -201.073463202778925
-144.654098720240114 -77.707782121982262 -208.473435997800294
-42.817021176368101 -72.460619458115815 -208.766205438929092
-11.185937991476976 -66.506218195439104 -203.446174725217475
-130.313546352304286 -78.475085316215953 -209.800059252344681
101.989052829083150 -61.412254870854497 -206.169767512686605
93.027467813501673 -61.384822797720041 -201.475271413805302
-142.593520626388909 -76.840000923895246 -211.906500606154680
-18.676724676483012 -73.728558683408835 -210.525137026504865
-139.521571270085019 -75.815256167002588 -215.505321060337479
96.691294465264008 -61.521217604231097 -205.830703527897981
-6.591376844466915 -72.398347988256674 -215.144065094608067
99.090600087257272 -70.108340992091968 -208.127925514172972
13.655543341281703 -69.411729400363285 -210.072418108981736
4.178171043171645 -68.512751116338080 -214.833782292775993
-37.005428146812619 -72.331574843913401 -208.028312281827141
-80.430615617596587 -69.834442040424491 -215.548359185638304
-28.189134486017963 -69.836804064422381 -208.983430133122681
-139.096376403852844 -83.245746144632477 -214.366932139277054
-85.419073151660669 -77.468601854512897 -216.741716673338516
-146.021641101318323 -76.554218121121309 -221.742741681062142
-31.171471947638324 -67.084737112284628 -212.681062358465510
-14.099903243454484 -73.971974821510045 -216.016713947579859
2.276758869779187 -68.548743540068301 -220.989771034937519
-89.742808440606609 -73.882317395730198 -222.220271405059520
-145.449908687746216 -74.168209642533569 -232.692596329884566
-97.790566490164480 -71.820015098774462 -224.911578735702506
10.204920718768655 -65.410909493818139 -223.207112072050165
-19.819166125099422 -68.201979663020168 -214.066254446711781
-13.291116919005276 -72.913581234789646 -224.748319592379914
-145.286694778425954 -82.696317668114816 -224.471004826489605
-146.578781463654849 -78.499324309539347 -226.340841981363468
-19.803237263798401 -66.388591778614568 -227.518549821080597
-5.240609551469468 -63.688749423716423 -227.071585635809981
9.479688450201241 -63.157060217022838 -225.647731141309151
-26.497975465495514 -68.395932040536707 -224.474511229226636
72.776866113934659 -64.150310733350068 -224.736592994257279
81.696434362472232 -67.194733228397880 -230.410338605897550
-15.688061522066917 -68.603066001353966 -228.662123979625193
7.829562955085798 -68.649582991716244 -227.422783962835325
-10.039195051016414 -59.707925249486266 -236.882832163255387
6.775709208307021 -72.692470453985464 -237.879915996466735
-13.661954532081779 -71.445876680981897 -236.910059578102107
-32.964770266249218 -76.993643023987829 -242.931798897995975
1.873977677366824 -70.551556033393297 -243.956289445232130
-40.937176188986868 -65.649009065981488 -243.363784570590298
-43.460338512632987 -74.140793954908375 -240.383218840422472
-21.933635441787949 -61.551731342944272 -244.895097788860511
13.186833537747962 -68.009701911249365 -242.126974348095331
-25.671564894338729 -73.944637948538727 -244.571712751310031
-62.900244585720742 -74.737745450084972 -252.451890568045798
-25.062692324481318 -73.153704610414110 -248.523070590267793
3.728366966941621 -73.483709160439219 -243.344880494799241
-34.781029761351789 -71.717645994630161 -245.140746368066402
13.929513675384428 -65.199561271381413 -242.520000276271958
7.825883819458120 -65.661501142246991 -250.894772532153809
-37.199603701164222 -70.626550053384378 -250.267982188299413
-148.519658254881961 -83.693342190632521 -255.804004619629978
-143.666130503919163 -75.335990929717070 -253.316830333814323
-69.976964323552934 -69.820504646702830 -257.151629919376774
-47.972685340076922 -66.528190093698058 -257.142433955050933
19.775948192923941 -64.531121191727777 -244.844161272854166
-75.153763718783381 -78.973665512553538 -255.547289276002715
-63.720666055561523 -73.430803869921135 -251.056621292627227
0.366554074809819 -64.623019595829206 -244.858802060349063
-79.589086718918409 -80.424202107214924 -259.495640355430510
-124.370970523930055 -74.893685216623879 -262.359576905406868
19.272247334561708 -68.463183100396819 -250.477003213593719
-128.470344505203684 -77.265358426140310 -270.613184940841109
-135.914477360539877 -76.310467380097577 -263.603192693710810
22.703941394740124 -69.994902337581493 -281.921460947812761
-156.725856989501239 -77.958070092116969 -284.591683903350031
-145.765575340500135 -79.204180285728924 -291.039910360401961
-142.035729800428641 -74.202585570904475 -287.490159852963188
-26.786095347179270 -67.443854441965428 -291.337356747846627
-145.980134125470499 -76.416728352966658 -292.064396801230203
-64.383814584825615 -68.436401469396003 -290.708124750778211
-20.872032154559669 -69.497637219062909 -288.855601880848894
-63.597641428053024 -63.595206282254075 -281.892303447455618
-162.512839781619618 -68.192574520819036 -289.178001700829668
-139.436145269095960 -75.072077041224787 -293.870230792464554
-147.773506841043655 -76.096698682233423 -292.626157982734526
4.155023339658868 -67.303554961675374 -291.092271201801907
-113.078679957188541 -71.641207908445082 -294.828317206633869
-131.714595335963281 -75.561087279831042 -297.457535430682867
-83.232707960994105 -66.388431896444047 -291.569563344289065
-68.116624360536875 -74.202665563465814 -292.119571675680106
-134.930152734142013 -77.138506049781142 -296.818455368735897
-68.709803882811883 -68.303203957405373 -294.897125255620040
-51.495024087100234 -70.062920228640081 -294.473114915313317
-30.919187327039495 -66.912806889914748 -293.879869316753513
-23.783281881263562 -68.055168182484920 -288.138833379417122
0.012695103181187 -70.354376376270139 -284.361530966473595
15.021160931638001 -64.088645668658074 -296.460120959563142
-129.984394555135196 -73.028926396728792 -297.024609467387620
-125.196141625744616 -70.114115746684391 -291.694387548744203
14.406320061531208 -67.996368387404075 -298.596073701261219
-155.729072893531992 -71.557494086564759 -306.754152827531243
-151.066722618488740 -68.368224104872510 -316.400991800362704
-57.537596603628558 -80.296983714479552 -56.476932381212322
-77.956603521542974 -72.998133414843309 -56.245121605453186
-23.825317896022455 -74.041196964905510 -69.735297474285929
-23.237782388621127 -70.619605057623716 -71.183450199467174
82.457607842731278 -70.806303481807021 -69.477191878262886
-93.166684394710245 -71.000728224952979 -77.112723348523772
-25.230216423589482 -73.782822841494166 -75.600221372376893
81.710435808281474 -68.026890088656728 -81.585650380946262
72.451338389512358 -74.757624309665630 -83.067959734792325
-45.285658885284363 -72.156760519848902 -93.748209330060661
89.306645262729106 -63.481654353742108 -91.982842056875711
-97.354045834491274 -80.858162412615897 -98.785712957296838
65.847225035859736 -72.430164547708728 -89.853273478025926
49.978843382348217 -69.059012038529659 -102.280849514503785
-63.470065198861263 -70.737024988888564 -107.127799226046179
74.721073536300352 -66.145850021657125 -97.261248760327021
-77.785656278778418 -79.448855612971713 -105.001186022722877
100.900599973531797 -63.439404734958110 -99.676148053256625
48.325716329149174 -69.670167779196291 -101.575610828283530
34.281466318586126 -72.646065608339242 -111.957979470131235
102.982924562886978 -60.521073837638284 -111.703113770153863
-90.198664237087058 -76.408363521419389 -118.571767161624805
116.987454252995562 -65.080456227482941 -109.397996746573597
48.314780311964718 -71.895139824141054 -118.301572722509306
42.328921448410959 -64.177503027695266 -118.183715818036973
38.913138157641789 -71.646103062675124 -126.828540349809458
44.689139591598263 -76.106634124365726 -130.012289630018387
108.169329584135909 -68.165532158215584 -129.226642433667820
47.512305178955955 -75.082995283407982 -129.266672816661526
-48.022324709440738 -74.526772481126997 -136.253241326233450
-60.460411950075013 -67.737929603977946 -144.909722388424967
114.457583990725880 -66.502288374904850 -134.134861824540081
-74.930919432125279 -72.349481867999828 -149.521985436159810
-40.798193623774750 -68.016079877878667 -144.144235651109909
-71.305738466525327 -73.749629702166274 -155.646984978183156
31.906614057183745 -70.282912023820870 -148.961492362732884
104.685234377131309 -66.514547489888670 -139.514547112525037
-59.537665476855068 -74.520095917106389 -159.555239866891412
-68.154590802959703 -65.690828751313376 -158.110919011980371
-66.174255313159875 -77.125042740568134 -157.472967263241884
-53.397325014867462 -81.054299243659017 -161.827626286143698
112.971533161689237 -63.604556307373464 -158.378548961209276
112.243686332569069 -60.907215413707362 -152.054896699300144
21.040955550495283 -71.163198776476008 -160.577697544325048
113.097922636966160 -68.577720006995904 -150.569752704360127
-60.731106143235436 -71.606402115534792 -160.554386294762679
-59.996478280736937 -71.091435361349937 -171.269411297630938
-63.535123190842498 -80.717649710249020 -166.079911563955562
-71.228394519790626 -72.608264582591843 -164.197679071853315
-47.123868628120903 -75.565214331772722 -167.771242804827239
5.003709736263616 -63.406391266720142 -168.468822672056433
22.328595043582961 -66.513482589854448 -169.745581680491824
119.784324917474152 -63.524086979498769 -171.813074341574264
26.849988373041604 -70.200016951121214 -175.228611701814486
-51.938220303454713 -73.357904146429291 -173.432414296178592
14.641143001194671 -74.557118539690194 -178.512565128746388
-60.369670083527438 -74.182819883896499 -184.115256724559856
-52.213047337332426 -71.634820411186055 -183.432178897152113
14.564157363387409 -63.866519153019944 -183.856935696727277
10.333112953239919 -71.228274379550484 -183.417998632392312
-21.834256405298177 -67.623841308636599 -178.911044564690627
-26.621789645223600 -73.644537576613232 -186.385482169938598
29.205587000002950 -65.212557368435441 -181.471533116610175
21.127509705561256 -63.506744228843637 -193.259169262270518
-52.530277318826776 -73.025813931032317 -194.555355993086124
-142.629815877459464 -75.319823313481251 -191.163043312931308
-147.964694790430769 -78.492173756244526 -191.287029980899518
-24.225204723284790 -72.405495809755863 -194.428355320013168
-40.131871091316953 -69.783313115917039 -190.611169943941036
-141.324781323810043 -66.428218284855589 -201.482603563722961
20.718398810719975 -65.532688807628830 -195.257107912515266
20.066856821950807 -66.092174627001796 -194.493886600932768
-41.148785476046740 -69.823297496794041 -200.106712971361588
16.370088500082367 -69.351221772069152 -202.256329872459020
-131.824430153869173 -81.686594748316892 -198.487939696708537
93.066511945478979 -63.891076743656050 -189.770463284452347
-43.252282036968325 -65.710165759855158 -201.804922549943171
-135.059327696759794 -78.107270655767167 -215.519167439807489
-35.384726352736678 -69.117309241581765 -202.689360555682953
24.830005761918926 -67.779823041395559 -203.026552551547610
20.136885156145517 -62.442112589365308 -208.933668857716469
-7.597987623509887 -70.309514558344901 -215.843786275619919
-28.821118568080152 -65.056046869652391 -215.052126199823732
-14.443440200009739 -68.920095494961970 -215.358903248866056
-67.077861921806644 -67.595168100455695 -217.142025536749031
98.381206437397395 -65.553634611255774 -213.012590725401907
-87.756747485484112 -74.991925100447574 -218.634153017083861
19.121764388725918 -71.484893415800954 -217.299313566130451
89.105348518858435 -65.983955576933454 -220.690959567722274
93.679851900927162 -62.283475791209668 -219.537996859111331
-136.991586441305515 -75.729215785765760 -227.836814299666059
90.066199036004079 -65.820533695957650 -211.019995989942004
-8.089677689855620 -63.808590092523566 -219.053113980908648
