-59.778144836426 -70.192131042480 -139.139099121094 1.471795082092
25.624879837036 -67.817398071289 -141.654708862305 2.130677461624
28.726192474365 -67.530830383301 -139.672561645508 2.732508420944
110.677238464355 -67.098632812500 -139.092712402344 2.529946327209
29.399343490601 -67.679290771484 -140.552917480469 1.631603837013
-81.113227844238 -69.067680358887 -136.545745849609 2.843513727188
-94.070083618164 -69.743843078613 -139.417648315430 1.790705323219
-57.298549652100 -68.186386108398 -141.181350708008 1.973033070564
-59.677307128906 -68.935348510742 -142.355453491211 1.026322364807
15.591697692871 -68.423339843750 -143.156631469727 2.277478456497
28.248025894165 -67.592887878418 -146.378799438477 1.646137595177
-45.143768310547 -69.472373962402 -146.829101562500 1.666596889496
-74.607627868652 -69.886680603027 -149.663238525391 1.325399041176
17.863265991211 -67.903121948242 -145.910934448242 1.495149970055
24.250318527222 -67.394104003906 -148.361846923828 1.615938305855
-45.380363464355 -68.272865295410 -152.974578857422 2.023341178894
28.165483474731 -67.766456604004 -148.482589721680 0.542712807655
-43.172691345215 -68.748619079590 -153.715042114258 1.635203003883
-99.458244323730 -69.175704956055 -156.773315429688 1.196977376938
-103.475120544434 -69.682937622070 -161.012283325195 1.980835914612
18.730716705322 -69.021965026855 -159.346176147461 2.232970952988
-45.637516021729 -68.778442382813 -159.642242431641 1.580963015556
-105.434967041016 -69.366729736328 -163.606536865234 2.490877628326
-103.401672363281 -69.728973388672 -165.776290893555 0.979292035103
-102.183387756348 -68.750648498535 -165.723403930664 0.837289273739
-37.101627349854 -69.095764160156 -162.995086669922 0.648021578789
-104.045829772949 -69.884811401367 -164.660049438477 1.207843542099
-34.321720123291 -68.755546569824 -169.421096801758 3.108759880066
-106.425720214844 -69.984779357910 -174.385772705078 1.898245692253
-37.157077789307 -68.790847778320 -171.817016601563 2.478430747986
-32.473766326904 -69.525001525879 -169.428085327148 2.334945917130
-110.352935791016 -69.511322021484 -175.440551757813 3.142799854279
16.238260269165 -68.609741210938 -171.475112915039 2.658766031265
-35.958431243896 -68.812370300293 -173.622741699219 0.468509882689
23.330461502075 -67.411911010742 -175.468200683594 0.567032933235
-34.226531982422 -68.561798095703 -171.900924682617 1.935465455055
-30.654338836670 -68.943969726563 -174.170715332031 2.194483280182
-32.116039276123 -68.529472351074 -175.853256225586 2.590680837631
-108.095718383789 -69.927940368652 -180.649932861328 1.807493448257
-29.089733123779 -68.598770141602 -178.910644531250 1.415566444397
-30.902048110962 -68.606964111328 -180.677536010742 1.223360657692
-142.691436767578 -68.726585388184 -182.072326660156 1.863374590874
-113.603332519531 -69.611114501953 -187.156494140625 2.053086280823
-108.276969909668 -69.507995605469 -188.340454101563 1.053271412849
-108.901657104492 -70.299415588379 -189.549057006836 0.733781278133
12.483402252197 -68.451431274414 -186.146331787109 2.466068506241
-27.317247390747 -68.564605712891 -189.822235107422 0.618081808090
16.303443908691 -68.347908020020 -189.293090820313 0.743406832218
-154.343292236328 -69.825546264648 -193.572494506836 1.180150270462
20.816997528076 -68.697891235352 -190.802963256836 1.309414148331
15.496871948242 -68.664688110352 -194.528244018555 0.937030673027
-121.495208740234 -70.701599121094 -195.576278686523 1.238196969032
-109.597015380859 -70.581398010254 -194.996170043945 1.831746459007
-20.806978225708 -69.369354248047 -195.442962646484 0.830906867981
-166.613647460938 -71.103706359863 -201.571411132813 1.771138429642
-167.537338256836 -71.101402282715 -208.421463012695 1.596738696098
-115.138244628906 -69.691986083984 -203.113967895508 1.703457236290
-11.207118034363 -69.188064575195 -204.997100830078 1.316589951515
-142.290176391602 -70.989166259766 -204.637100219727 1.189750194550
-8.542154312134 -69.159072875977 -209.172256469727 2.024507045746
14.897645950317 -67.740600585938 -204.853729248047 2.057429790497
-158.998870849609 -70.270195007324 -210.385131835938 2.903240442276
9.621402740479 -68.340843200684 -212.843429565430 1.517094731331
-158.560882568359 -70.551567077637 -218.457122802734 3.306141376495
-8.525258064270 -68.785247802734 -209.977844238281 1.284140348434
10.280825614929 -68.406044006348 -217.264663696289 2.384267807007
12.183239936829 -68.575736999512 -217.745651245117 2.957533359528
-3.734469890594 -69.673789978027 -216.739044189453 1.082273721695
-144.942108154297 -71.330169677734 -218.564575195313 1.195994019508
-156.871597290039 -70.539337158203 -220.425109863281 2.309517383575
-156.087600708008 -70.564308166504 -222.939666748047 2.473229408264
84.934547424316 -68.526039123535 -214.482269287109 3.326577901840
-6.232748985291 -69.231468200684 -219.245849609375 0.571303188801
-153.760894775391 -70.509292602539 -223.942977905273 2.452483654022
-134.004394531250 -69.515625000000 -224.707077026367 0.456709325314
79.168586730957 -67.755073547363 -223.374832153320 2.643687009811
74.931823730469 -68.024536132813 -224.323455810547 2.662236928940
77.003379821777 -67.557472229004 -224.074493408203 2.620465040207
-12.877441406250 -69.411880493164 -226.531799316406 1.559694409370
-157.083984375000 -70.978836059570 -231.657135009766 3.117884159088
-11.932440757751 -69.285026550293 -226.399993896484 1.824775218964
77.896850585938 -68.353843688965 -227.345672607422 1.819488048553
-111.764083862305 -69.852134704590 -231.085693359375 0.631979703903
-1.383872032166 -70.384620666504 -229.692001342773 1.773175716400
-166.884765625000 -70.600021362305 -228.117874145508 0.542042911053
-10.196789741516 -68.931716918945 -232.872741699219 1.705006957054
2.013278007507 -68.920066833496 -235.375534057617 0.821353137493
-159.682876586914 -70.068832397461 -237.673187255859 2.761050224304
68.224334716797 -68.119323730469 -236.848724365234 1.304807543755
5.886310100555 -68.763648986816 -238.154144287109 2.175004243851
7.792039871216 -69.714096069336 -239.990417480469 1.348573327065
-157.752044677734 -70.942062377930 -238.768203735352 2.457361459732
-12.358731269836 -69.799201965332 -240.135375976563 2.026831626892
-160.205673217773 -70.540153503418 -242.836166381836 2.509212732315
-162.546890258789 -70.784461975098 -243.781356811523 2.057450294495
-165.108459472656 -70.575630187988 -244.852508544922 2.364939928055
47.971813201904 -69.348510742188 -243.101791381836 3.532979726791
51.636581420898 -68.146926879883 -243.562042236328 0.664476871490
-159.205215454102 -70.674293518066 -247.103576660156 2.726144552231
-165.157623291016 -70.652549743652 -248.978347778320 2.539936542511
-166.472198486328 -71.087104797363 -247.890502929688 0.943148553371
45.394138336182 -69.200599670410 -244.612823486328 3.343467950821
43.786766052246 -68.152580261230 -248.090988159180 0.937505185604
-160.664352416992 -70.732437133789 -251.764114379883 2.724564313889
37.246059417725 -68.384048461914 -249.149291992188 2.785305976868
-96.400680541992 -70.053306579590 -253.364288330078 0.492223680019
-84.260383605957 -70.474830627441 -253.391067504883 1.684413552284
-160.494262695313 -70.942527770996 -255.739135742188 3.569902420044
-135.326522827148 -69.340293884277 -256.382385253906 1.025271892548
-105.899452209473 -69.659980773926 -255.664840698242 0.284357011318
37.922214508057 -68.110610961914 -253.958038330078 2.151907205582
-137.029449462891 -69.567970275879 -256.541168212891 2.128374576569
29.029947280884 -69.349990844727 -254.886825561523 2.072545766830
44.149585723877 -68.717536926270 -252.887237548828 1.101353406906
-96.925865173340 -69.601333618164 -257.267608642578 1.975926041603
-102.359199523926 -69.611289978027 -258.992156982422 1.129226207733
-161.021850585938 -70.948097229004 -261.331085205078 3.129924535751
-111.976615905762 -70.598060607910 -261.647766113281 1.348054409027
-138.176300048828 -70.037437438965 -262.406707763672 2.275233030319
-164.372024536133 -70.936355590820 -262.724060058594 2.333215236664
27.903347015381 -68.498939514160 -260.709625244141 1.712405085564
-124.280876159668 -70.366188049316 -263.500366210938 0.764193236828
-10.351911544800 -68.961952209473 -262.523010253906 1.584802389145
-152.220809936523 -71.645675659180 -272.843261718750 2.591874837875
-11.975934982300 -69.452865600586 -264.874603271484 2.070768356323
-9.387199401855 -68.915313720703 -270.326477050781 1.649439811707
-11.142297744751 -69.371772766113 -270.035614013672 0.821095407009
-10.512916564941 -69.842826843262 -274.974426269531 2.071913719177
-152.360565185547 -71.664932250977 -283.315002441406 2.150843858719
-128.151199340820 -70.392211914063 -284.628265380859 1.964134931564
-6.976593017578 -69.181312561035 -284.197540283203 2.105316877365
-6.581339836121 -69.543556213379 -284.979309082031 2.049082279205
-111.995933532715 -70.872917175293 -287.216491699219 2.024675846100
-95.863914489746 -70.230545043945 -288.541900634766 1.815219044685
-106.009346008301 -70.004882812500 -289.412506103516 2.021651268005
-155.950576782227 -69.936248779297 -290.470306396484 0.783981382847
-101.765174865723 -70.580192565918 -290.276916503906 2.422852039337
-138.831466674805 -71.085441589355 -292.051116943359 3.017170906067
-117.637496948242 -70.605506896973 -291.908020019531 1.284780144691
4.590177059174 -69.682716369629 -290.130554199219 2.005268096924
-152.519485473633 -72.013702392578 -297.747253417969 1.799080371857
-154.328720092773 -71.766464233398 -309.230834960938 2.378937959671
-145.326904296875 -72.212097167969 -312.454833984375 0.767376065254
31.180484771729 -62.411449432373 -9.644525527954 3.690656185150
26.664400100708 -66.011093139648 -15.754131317139 2.024698019028
38.760719299316 -63.564971923828 -19.037527084351 1.908842563629
21.936632156372 -66.450019836426 -25.048517227173 4.044867992401
17.705595016479 -65.450309753418 -30.802646636963 5.317366123199
35.397087097168 -68.414482116699 -32.773853302002 3.933449268341
-54.418346405029 -66.396560668945 -44.508083343506 2.357936620712
-44.193466186523 -68.641914367676 -47.446079254150 1.775941967964
-38.583599090576 -68.276008605957 -48.601020812988 2.199882745743
-85.770500183105 -66.631164550781 -50.451438903809 2.154734849930
-22.451545715332 -68.030014038086 -55.784759521484 1.596451163292
-19.849634170532 -68.305938720703 -58.091445922852 2.149348735809
86.604782104492 -65.603248596191 -60.699882507324 1.597801685333
-17.211086273193 -67.781822204590 -66.301635742188 3.542099475861
-98.245895385742 -68.397987365723 -71.183753967285 3.197001934052
97.096687316895 -66.370620727539 -72.517601013184 2.933650255203
-29.984375000000 -70.203491210938 -75.553436279297 2.592540264130
-47.875774383545 -66.224678039551 -80.246162414551 3.078930616379
100.428230285645 -63.945751190186 -81.018653869629 4.159619808197
99.631660461426 -66.755943298340 -84.011917114258 3.148397445679
60.717441558838 -66.415046691895 -86.008712768555 1.348809480667
100.480194091797 -64.402496337891 -89.614784240723 3.743942975998
64.992370605469 -65.489067077637 -94.162689208984 1.827890038490
-68.750396728516 -71.196914672852 -96.366424560547 3.489750623703
105.579681396484 -66.577323913574 -95.574661254883 1.854053974152
42.229618072510 -66.037445068359 -98.138076782227 3.617492437363
68.586891174316 -66.502868652344 -98.498245239258 1.252425074577
-74.361686706543 -67.204864501953 -104.766670227051 0.807474553585
71.867141723633 -65.880691528320 -101.844062805176 1.979889392853
82.815162658691 -65.148826599121 -102.447982788086 3.035079002380
39.675609588623 -66.778968811035 -103.823822021484 3.000365972519
-76.033828735352 -67.665245056152 -109.096725463867 1.815801382065
103.172790527344 -65.645797729492 -105.542137145996 2.371451854706
110.090873718262 -67.656173706055 -109.581443786621 1.795483231544
42.512565612793 -66.728370666504 -108.804634094238 1.917521595955
-90.420974731445 -69.820648193359 -112.392433166504 2.993417978287
107.159057617188 -65.824935913086 -116.552810668945 2.172929286957
-79.843032836914 -66.490524291992 -115.970954895020 2.848341703415
-94.766632080078 -70.012695312500 -119.779617309570 1.818986773491
-81.653503417969 -68.826423645020 -120.809356689453 2.275724172592
-65.953956604004 -66.396690368652 -119.779022216797 2.144244909286
-56.379608154297 -68.547729492188 -125.800407409668 1.647450804710
-76.294776916504 -69.661193847656 -128.880523681641 1.746299266815
-80.112228393555 -68.196235656738 -130.557693481445 1.002188444138
-63.012825012207 -66.971626281738 -130.362564086914 1.891175031662
-79.263145446777 -67.712249755859 -131.940139770508 1.856372833252
-78.307144165039 -67.806266784668 -133.402954101563 0.937169313431
-48.742027282715 -69.125106811523 -137.147796630859 1.715387821198
-53.158584594727 -67.135719299316 -137.378479003906 2.425883293152
19.737041473389 -66.366645812988 -138.761703491211 2.136872053146
-96.315330505371 -68.777374267578 -140.683822631836 2.678066968918
18.523881912231 -67.381706237793 -141.564697265625 2.477883338928
-71.820999145508 -69.313430786133 -144.625167846680 1.190447807312
27.141414642334 -67.396026611328 -143.604431152344 1.612256050110
-99.917594909668 -68.609786987305 -149.545303344727 2.152587890625
17.796247482300 -67.112236022949 -146.838348388672 2.646038532257
-95.551528930664 -68.536445617676 -149.555862426758 1.299982905388
-45.704544067383 -68.444252014160 -149.305099487305 1.581651806831
8.416679382324 -67.338600158691 -150.128524780273 2.885545253754
9.513449668884 -66.241256713867 -149.649536132813 3.754439592361
7.096515178680 -67.880493164063 -154.210540771484 2.221510171890
26.417438507080 -67.313606262207 -151.021957397461 0.734158158302
25.769990921021 -67.448532104492 -158.440383911133 2.004081487656
23.955680847168 -67.009727478027 -155.977783203125 2.397507429123
20.911966323853 -67.130630493164 -160.265853881836 1.658095359802
21.572126388550 -66.892791748047 -161.887268066406 2.174372911453
-108.242027282715 -68.257164001465 -167.596054077148 1.977435946465
26.318252563477 -68.836723327637 -166.355865478516 1.062024831772
-105.137817382813 -69.331886291504 -173.160430908203 1.841350674629
-112.265846252441 -69.070816040039 -179.910797119141 1.890527129173
-106.657646179199 -69.122650146484 -178.971206665039 1.456120729446
15.946014404297 -66.997657775879 -179.295654296875 2.227489233017
20.530473709106 -66.921920776367 -184.302856445313 1.675322532654
-25.822179794312 -67.808380126953 -188.476531982422 2.223874568939
20.545297622681 -67.195899963379 -185.594573974609 0.806717991829
-25.720703125000 -68.472702026367 -193.368988037109 2.438155651093
-114.889465332031 -69.126197814941 -193.378234863281 2.728495359421
-25.792213439941 -68.584831237793 -193.695678710938 2.126466274261
-162.221572875977 -69.068786621094 -197.403900146484 1.241098880768
-117.761108398438 -68.988151550293 -196.667877197266 1.776763439178
-18.853790283203 -67.881858825684 -194.131286621094 0.941295742989
10.925791740417 -67.788879394531 -198.555526733398 1.619652032852
17.588104248047 -68.259078979492 -199.736618041992 1.060330271721
-156.898971557617 -69.716163635254 -201.826843261719 1.942134022713
-13.853946685791 -67.977134704590 -202.719467163086 1.863344311714
-156.190505981445 -69.972244262695 -204.580276489258 2.802550315857
-159.478897094727 -69.974769592285 -205.329055786133 2.207993030548
10.382521629333 -67.882728576660 -201.294723510742 2.313813924789
15.253886222839 -67.831153869629 -204.494186401367 1.734735608101
-154.319900512695 -69.968803405762 -208.662582397461 2.850028991699
-144.839981079102 -70.297500610352 -208.711334228516 2.414783477783
13.478945732117 -67.592475891113 -206.670288085938 2.113677978516
-15.208601951599 -67.472595214844 -210.911575317383 2.595690488815
-11.454504013062 -67.638923645020 -217.043426513672 1.833786964417
-161.044174194336 -69.338386535645 -212.903808593750 2.254255771637
-9.541479110718 -67.111549377441 -213.888168334961 0.645498871803
-159.128768920898 -70.380455017090 -213.507247924805 2.391171932220
-151.962112426758 -69.266265869141 -212.927108764648 2.100668191910
-6.386147975922 -69.207069396973 -212.727264404297 2.231148958206
-145.468688964844 -69.507919311523 -220.363769531250 2.206392765045
-11.893119812012 -69.076065063477 -219.599319458008 1.173064589500
-158.658218383789 -70.197143554688 -222.403411865234 2.330456495285
-165.450668334961 -69.620223999023 -224.875076293945 1.846643209457
0.859803974628 -68.068840026855 -223.482910156250 1.632649660110
-159.497528076172 -69.501800537109 -223.872039794922 2.585905075073
-108.367660522461 -70.356781005859 -222.621994018555 2.024057388306
-134.277542114258 -67.615814208984 -225.904861450195 0.746274054050
-139.888351440430 -69.722496032715 -226.076171875000 0.567595422268
-122.737800598145 -69.136375427246 -226.507522583008 0.809938192368
-155.446426391602 -67.646575927734 -227.663909912109 0.573534071445
-148.494232177734 -66.100250244141 -231.495239257813 1.120886325836
-163.823333740234 -69.813743591309 -231.008758544922 2.449515342712
-113.949615478516 -68.465576171875 -231.751953125000 1.642799854279
-158.716186523438 -70.471580505371 -233.935287475586 2.962046146393
-143.385330200195 -70.993400573730 -234.790176391602 1.241061568260
-162.120651245117 -69.985450744629 -234.227706909180 3.422732353210
-118.201400756836 -69.372047424316 -233.932601928711 2.107360839844
-160.988128662109 -70.033554077148 -234.837127685547 3.200362205505
73.897254943848 -67.264274597168 -229.705474853516 2.804932355881
-2.521817922592 -67.765586853027 -232.712570190430 1.270471930504
-144.225067138672 -70.013549804688 -235.080535888672 1.322670340538
2.307776927948 -68.220268249512 -231.754959106445 1.226259946823
-0.521975994110 -68.870986938477 -235.144760131836 0.802448630333
-13.529548645020 -69.237915039063 -236.019851684570 1.712261438370
-1.016525030136 -66.570129394531 -237.463027954102 1.911576032639
-164.394134521484 -70.463394165039 -243.274627685547 2.572243690491
60.059894561768 -67.927444458008 -235.469223022461 3.386019706726
-151.344726562500 -68.878448486328 -240.621353149414 3.386548519135
49.846591949463 -66.942512512207 -242.005432128906 2.821518659592
48.121543884277 -66.965118408203 -242.929077148438 3.212781906128
47.007175445557 -67.104080200195 -246.599716186523 0.902518153191
-146.351730346680 -69.712333679199 -251.315261840820 1.568675279617
48.628154754639 -67.202400207520 -247.030822753906 1.303570985794
47.303382873535 -67.329978942871 -248.350189208984 1.005093097687
-153.579513549805 -67.442031860352 -254.437255859375 2.287015914917
45.227142333984 -66.893676757813 -252.388610839844 2.428483724594
-128.758911132813 -68.532020568848 -255.283432006836 2.438681602478
41.658386230469 -67.592926025391 -251.924087524414 1.148761630058
33.736110687256 -67.260627746582 -253.588684082031 1.480989694595
-136.410598754883 -68.919837951660 -257.202850341797 2.193104743958
-120.263763427734 -70.132537841797 -256.594207763672 3.776271820068
46.053150177002 -67.822540283203 -252.120101928711 1.624675989151
34.169807434082 -68.097724914551 -255.532318115234 1.505896091461
-8.149299621582 -68.082473754883 -260.007263183594 1.639743208885
34.532745361328 -66.558395385742 -258.374603271484 0.904280245304
-110.151535034180 -69.859214782715 -260.929351806641 1.259770870209
31.308641433716 -65.611785888672 -260.003997802734 0.872722268105
-117.021247863770 -68.607711791992 -263.099212646484 1.058484554291
-151.521484375000 -67.600608825684 -265.950836181641 0.975326716900
25.141916275024 -67.366470336914 -264.574829101563 1.616222023964
-7.124501228333 -68.103797912598 -266.197509765625 2.071763038635
-8.297286987305 -68.510154724121 -271.428375244141 2.782029628754
-147.033416748047 -69.001426696777 -276.568389892578 0.669509589672
20.585918426514 -65.967536926270 -277.615386962891 1.572856307030
-128.719039916992 -69.907058715820 -284.914215087891 2.645829677582
-155.927856445313 -69.817329406738 -288.189544677734 1.791723251343
-123.563591003418 -69.649581909180 -287.433746337891 2.131329298019
-111.530921936035 -69.735755920410 -288.388153076172 2.880196094513
-141.535156250000 -70.136383056641 -290.655700683594 2.179642200470
-134.973510742188 -69.521820068359 -291.484405517578 1.639721274376
-131.263916015625 -70.299278259277 -293.271484375000 2.778214931488
-152.607437133789 -70.396171569824 -300.905944824219 2.409081935883
-146.677429199219 -69.642578125000 -305.335479736328 2.167188167572
-146.659805297852 -69.736381530762 -306.242187500000 2.320979833603
33.274806976318 -62.309913635254 -9.763395309448 3.025966644287
22.814350128174 -66.747673034668 -11.949252128601 5.324880123138
38.620830535889 -64.497085571289 -18.730907440186 2.709910154343
46.263412475586 -65.732742309570 -25.118228912354 2.108100891113
16.514724731445 -66.278701782227 -27.880874633789 5.840789318085
-69.260612487793 -65.755897521973 -44.183940887451 1.552909493446
-63.234088897705 -66.269943237305 -44.084114074707 0.945054173470
-74.147460937500 -66.643981933594 -45.444801330566 2.184620857239
-83.435424804688 -65.816169738770 -48.214454650879 2.714065313339
-24.812421798706 -66.625061035156 -52.724933624268 1.865725636482
-90.131805419922 -67.447006225586 -55.548896789551 2.564429759979
-95.437461853027 -64.815109252930 -58.974987030029 3.397262811661
73.500083923340 -65.478126525879 -60.657413482666 2.723216056824
-16.253391265869 -66.211540222168 -65.244705200195 3.150855302811
-99.540786743164 -67.115936279297 -73.436264038086 3.462318658829
98.915733337402 -65.051353454590 -73.337516784668 3.280932188034
100.378807067871 -63.413627624512 -75.292366027832 3.345207691193
-98.808830261230 -69.675529479980 -82.990837097168 2.887647628784
-49.937278747559 -69.065132141113 -82.944442749023 2.275920629501
-55.042205810547 -66.384178161621 -84.828590393066 2.670483350754
-100.557456970215 -66.747955322266 -90.214355468750 3.788694858551
-99.315635681152 -69.502975463867 -96.511436462402 2.797547578812
59.819755554199 -65.419746398926 -90.549804687500 2.733540058136
47.138702392578 -65.427528381348 -93.375755310059 1.961054444313
-70.041755676270 -65.875473022461 -96.647811889648 2.591583013535
50.606842041016 -64.773117065430 -95.148841857910 1.138687968254
52.059326171875 -64.731056213379 -97.646240234375 1.732894182205
99.111984252930 -65.180870056152 -94.902809143066 4.303933620453
-74.057250976563 -66.963821411133 -100.166496276855 0.960897743702
68.482612609863 -64.751106262207 -100.098609924316 0.505134761333
-83.960456848145 -66.871772766113 -102.523437500000 2.662662982941
104.608589172363 -64.569175720215 -100.014350891113 2.122281074524
-74.063209533691 -66.493743896484 -105.346466064453 1.770502448082
84.791786193848 -63.763259887695 -104.341560363770 2.327236175537
104.353271484375 -64.745689392090 -104.195327758789 1.928475618362
-83.137741088867 -67.609664916992 -110.377593994141 3.146254777908
-84.019485473633 -66.139678955078 -112.511825561523 2.264004468918
-86.270729064941 -67.736145019531 -116.072517395020 2.347758054733
-87.431564331055 -68.327713012695 -118.222778320313 2.924490928650
-78.968338012695 -66.540527343750 -119.897026062012 1.708397030830
-97.591796875000 -66.539169311523 -121.265670776367 1.840697050095
-64.244705200195 -66.014953613281 -123.366020202637 2.273948431015
-79.805877685547 -67.205108642578 -125.586624145508 1.767104029655
-80.872421264648 -67.200149536133 -127.556159973145 1.341597318649
-91.972030639648 -67.677566528320 -129.162521362305 2.466682195663
-55.863132476807 -66.139411926270 -128.828659057617 1.654967308044
-53.609912872314 -68.012481689453 -132.518356323242 1.574839711189
-74.961128234863 -67.033470153809 -135.077239990234 1.341083884239
-61.911624908447 -65.150161743164 -133.850860595703 0.969499289989
-74.806137084961 -67.221054077148 -135.595062255859 1.562835693359
-59.099456787109 -67.458793640137 -138.685348510742 1.392102479935
-50.126651763916 -66.722610473633 -141.029418945313 1.461767911911
-75.086013793945 -67.368263244629 -141.478775024414 1.333981990814
19.869749069214 -66.841682434082 -142.796798706055 2.225295782089
-52.108482360840 -67.132911682129 -146.706863403320 1.760344505310
-95.958862304688 -68.137634277344 -151.292053222656 1.070673823357
-96.889617919922 -67.461822509766 -154.192077636719 2.118813991547
-108.000938415527 -68.030120849609 -166.799194335938 1.874067544937
-110.466957092285 -66.999397277832 -172.758773803711 1.942215561867
-148.580795288086 -68.804466247559 -176.343887329102 2.127361774445
18.951858520508 -66.254531860352 -175.714904785156 2.947392463684
-112.963043212891 -69.335922241211 -182.590454101563 3.155042171478
-142.494903564453 -68.952056884766 -184.555328369141 3.171284437180
16.229898452759 -66.320663452148 -190.366073608398 0.544935226440
-152.092910766602 -67.808769226074 -191.932479858398 1.566197395325
14.193738937378 -66.515937805176 -191.367080688477 2.247196197510
15.780079841614 -66.372795104980 -186.163208007813 1.930751800537
-154.828384399414 -68.223861694336 -194.437011718750 1.670963525772
-127.479385375977 -69.299781799316 -194.473754882813 0.790617704391
-141.229919433594 -67.830451965332 -196.760559082031 1.095909237862
-158.447738647461 -68.335731506348 -198.991867065430 2.170328617096
-21.785737991333 -67.031089782715 -195.958007812500 1.993410944939
-159.829391479492 -69.048988342285 -201.512832641602 2.261194944382
15.314063072205 -66.476341247559 -194.561325073242 1.564715504646
12.928274154663 -66.856224060059 -199.776870727539 1.043696761131
-162.477233886719 -68.519622802734 -204.094726562500 2.688218355179
-113.463211059570 -70.480606079102 -202.419403076172 1.079789161682
-135.154098510742 -69.343391418457 -203.698257446289 1.849925398827
-121.651496887207 -67.699645996094 -204.309066772461 0.803995430470
-162.269607543945 -68.924514770508 -212.512649536133 2.752750396729
-13.774752616882 -67.000251770020 -209.231246948242 1.234081864357
-164.496795654297 -68.772804260254 -210.328491210938 2.047611713409
-17.912181854248 -67.148399353027 -206.693344116211 1.393892168999
-12.872792243958 -67.107772827148 -207.659774780273 1.742421746254
-165.432052612305 -69.308914184570 -216.082519531250 2.016651630402
-6.373973846436 -66.933006286621 -219.596206665039 2.082783699036
-105.656082153320 -68.545547485352 -222.650680541992 0.896675169468
-106.049568176270 -67.994590759277 -224.329925537109 1.739233970642
-109.028015136719 -68.424308776855 -224.147064208984 1.704866051674
-125.163902282715 -67.681686401367 -226.081451416016 1.767341613770
-141.050033569336 -68.744079589844 -226.750305175781 1.495558500290
-2.596986055374 -66.948356628418 -226.754669189453 1.217430472374
-1.507874965668 -66.835350036621 -225.266159057617 2.125687599182
4.381710052490 -66.621765136719 -228.835968017578 1.526944160461
0.484488993883 -66.264495849609 -229.591094970703 0.954268634319
-4.761908054352 -68.600463867188 -230.655044555664 2.039872646332
-8.025531768799 -67.558761596680 -233.487579345703 0.971314966679
-5.939146995544 -66.610847473145 -234.993911743164 0.858346760273
62.041107177734 -66.481086730957 -235.604583740234 2.330567121506
-8.823534965515 -65.198699951172 -238.749649047852 1.769213080406
8.458451271057 -67.019149780273 -240.241241455078 1.215686202049
11.684855461121 -68.228843688965 -241.892562866211 1.967307925224
51.010932922363 -65.550148010254 -242.396820068359 2.448592185974
59.506629943848 -66.395584106445 -242.629623413086 2.108490228653
40.110481262207 -66.415641784668 -251.164382934570 0.900609135628
44.463672637939 -66.991271972656 -249.841995239258 1.280157208443
-8.655728340149 -66.647026062012 -251.428359985352 2.120633363724
-133.941406250000 -68.741584777832 -255.702285766602 1.450328588486
32.257179260254 -67.320457458496 -251.793472290039 2.457702875137
-99.908882141113 -68.979278564453 -255.404663085938 1.511768460274
-137.933151245117 -68.567596435547 -258.005218505859 3.297364711761
-112.742546081543 -69.176376342773 -257.413269042969 0.978374242783
-109.035781860352 -68.412086486816 -259.281402587891 2.171900510788
-110.388603210449 -68.407684326172 -259.369049072266 1.863724589348
-117.523223876953 -68.276123046875 -259.504028320313 2.622650861740
-119.214843750000 -68.320228576660 -260.125549316406 3.763206481934
-140.595214843750 -69.277481079102 -261.492980957031 1.747713088989
-115.934669494629 -68.517539978027 -260.978393554688 1.814597845078
-132.189010620117 -68.355949401855 -262.774444580078 1.983562111855
28.032543182373 -67.355796813965 -261.051391601563 1.142050504684
-145.086791992188 -68.411872863770 -264.807708740234 0.691645920277
-4.969778060913 -67.299064636230 -264.672973632813 0.779607832432
-151.354492187500 -68.666458129883 -269.439483642578 3.266155242920
-6.302343845367 -67.725944519043 -276.264556884766 3.188072204590
20.073986053467 -64.969924926758 -278.744079589844 1.057723402977
-4.861771106720 -66.924140930176 -285.449981689453 1.033126115799
-134.047012329102 -68.502937316895 -288.634582519531 2.136448383331
-148.493362426758 -67.950790405273 -290.902893066406 1.769452691078
-129.563583374023 -70.536170959473 -293.652709960938 3.199138641357
-147.888473510742 -68.068748474121 -295.787506103516 0.392025768757
-150.605392456055 -69.070205688477 -302.451080322266 2.982210397720
-149.631759643555 -69.052665710449 -309.645294189453 2.442430019379
27.177762985229 -61.533668518066 -10.118284225464 5.036757946014
19.223251342773 -58.367263793945 -14.942225456238 4.774815082550
37.296966552734 -62.894718170166 -17.100931167603 2.053287029266
39.942970275879 -58.247219085693 -26.243558883667 4.155332088470
38.572353363037 -64.150238037109 -30.111602783203 4.509782791138
33.771045684814 -65.175140380859 -33.465248107910 3.642769575119
29.782852172852 -62.425304412842 -37.964664459229 2.650636196136
36.074604034424 -61.431205749512 -37.985076904297 1.522448658943
-49.195514678955 -66.619918823242 -45.375415802002 1.937557578087
-81.524665832520 -65.663146972656 -47.077148437500 2.456494092941
73.337310791016 -64.042343139648 -59.327667236328 2.805083751678
76.290191650391 -65.112075805664 -60.103328704834 1.464763641357
89.567802429199 -64.418037414551 -60.739856719971 1.402749538422
-97.766502380371 -65.843643188477 -64.929641723633 3.584956407547
92.706504821777 -65.113182067871 -63.550056457520 2.719571113586
-23.647216796875 -64.657821655273 -67.307182312012 1.358614802361
-98.637634277344 -67.928016662598 -71.448844909668 2.975963115692
-30.540958404541 -64.817733764648 -70.336654663086 3.139097929001
-41.380146026611 -62.639255523682 -77.738197326660 1.687212586403
-45.218025207520 -65.790023803711 -77.484069824219 3.142900466919
-100.363739013672 -66.618499755859 -80.175407409668 4.575424671173
-99.792366027832 -68.236343383789 -85.626632690430 3.548205852509
58.921447753906 -63.330307006836 -80.771499633789 3.286534309387
48.941646575928 -63.665573120117 -86.279525756836 4.594779014587
-67.039558410645 -68.035026550293 -92.418884277344 3.052646636963
45.704479217529 -65.315147399902 -90.657066345215 4.310828685760
48.973739624023 -63.868270874023 -92.139419555664 1.902077794075
65.075431823730 -63.856643676758 -95.904258728027 1.733328104019
44.986438751221 -64.241539001465 -99.305236816406 2.496828079224
43.181961059570 -65.227073669434 -101.308876037598 2.794362783432
-80.758514404297 -67.667770385742 -106.876243591309 2.735094547272
-88.672233581543 -66.074462890625 -109.368125915527 2.846922159195
-87.701095581055 -64.869087219238 -108.984107971191 3.044877767563
-65.552276611328 -64.990638732910 -115.523254394531 1.961987137794
-93.677993774414 -68.135269165039 -119.344718933105 2.145771265030
-59.336929321289 -67.749717712402 -122.370460510254 0.731280028820
-77.906402587891 -64.984443664551 -122.674392700195 1.320114612579
-56.688117980957 -67.107078552246 -124.098617553711 1.569481372833
-85.126800537109 -66.807586669922 -127.101409912109 2.709019660950
-82.757400512695 -67.007011413574 -131.796371459961 1.574269533157
-50.658802032471 -67.307525634766 -133.768615722656 1.735395312309
-76.590950012207 -66.045845031738 -135.693801879883 1.722036719322
-77.476341247559 -66.009597778320 -136.953964233398 0.647945940495
-57.549221038818 -67.403259277344 -139.809005737305 2.088645935059
22.674737930298 -65.400299072266 -138.862960815430 2.256494522095
-51.844703674316 -66.116416931152 -142.427688598633 1.223856449127
-99.886405944824 -65.745193481445 -146.816070556641 1.928350210190
-94.906433105469 -66.304374694824 -150.350936889648 1.808702468872
11.996183395386 -65.402961730957 -149.333602905273 1.696858286858
-106.927963256836 -66.854301452637 -163.636642456055 3.181199312210
-109.314849853516 -67.471130371094 -170.202438354492 2.831172466278
-142.820266723633 -69.111938476563 -177.928833007813 2.335489988327
-154.425125122070 -67.709167480469 -179.207687377930 2.041388511658
-114.199134826660 -67.489509582520 -188.558242797852 1.934228062630
-153.999298095703 -68.003585815430 -186.616226196289 1.279841423035
-145.204513549805 -68.124023437500 -192.775970458984 2.290038585663
-155.872817993164 -68.246505737305 -197.298873901367 2.583492040634
-137.721420288086 -67.123100280762 -196.921051025391 3.132337808609
-147.348632812500 -65.816345214844 -199.614212036133 1.350458025932
-138.061492919922 -67.585334777832 -203.090866088867 2.537190437317
-126.024024963379 -67.670646667480 -204.959243774414 1.664675354958
-151.251449584961 -67.775283813477 -214.781890869141 0.526736915112
-144.437377929688 -66.504486083984 -225.117996215820 1.447622895241
-112.544204711914 -68.056983947754 -226.928787231445 1.283840060234
-108.352882385254 -68.126571655273 -228.037857055664 1.986481904984
-139.717742919922 -67.173736572266 -230.006011962891 2.339419364929
-139.358230590820 -67.718048095703 -231.394332885742 2.243693828583
0.058954000473 -66.567596435547 -227.649337768555 1.080539345741
4.719542026520 -65.318717956543 -232.830993652344 1.755908846855
-124.667060852051 -67.453575134277 -234.151855468750 0.821948707104
-152.630828857422 -67.666412353516 -235.036941528320 1.237032294273
1.474594950676 -65.886360168457 -230.462783813477 0.478092104197
-8.209362983704 -65.823799133301 -239.549148559570 1.736060142517
17.323505401611 -64.337409973145 -239.701873779297 1.917316555977
61.485481262207 -66.041725158691 -240.030944824219 1.323739886284
55.577953338623 -65.184478759766 -243.347579956055 1.611802339554
51.544090270996 -65.468940734863 -247.616241455078 1.211332678795
-147.339477539063 -65.729171752930 -252.824050903320 1.537624716759
37.288070678711 -66.164550781250 -252.702728271484 1.646352648735
-124.623321533203 -67.908386230469 -258.862060546875 1.411758184433
30.180057525635 -65.657745361328 -256.169891357422 1.864927649498
-150.372848510742 -68.171142578125 -260.731414794922 0.981083333492
-142.899307250977 -67.090744018555 -262.122955322266 1.297300100327
-124.833045959473 -67.753677368164 -262.722564697266 0.975987672806
-1.512034058571 -65.841659545898 -260.344451904297 1.898976206779
-1.373548984528 -65.782783508301 -274.286895751953 1.797651410103
-151.302673339844 -67.233673095703 -276.097717285156 0.763445258141
-2.253657102585 -66.152084350586 -274.196258544922 2.365729331970
-151.265136718750 -67.819824218750 -281.565368652344 0.949147701263
-129.513442993164 -68.380302429199 -286.696655273438 3.095191478729
-127.942588806152 -67.882095336914 -287.344482421875 2.458969593048
13.860870361328 -62.858657836914 -286.197113037109 2.893203973770
-123.188316345215 -67.902931213379 -288.777252197266 1.311356902122
-126.577651977539 -67.616462707520 -288.945831298828 2.392594814301
-131.425827026367 -67.923995971680 -289.495269775391 2.814304590225
10.325413703918 -69.350471496582 -287.927734375000 1.942921400070
-1.124632954597 -67.174171447754 -289.754089355469 2.378989458084
-144.490203857422 -69.057334899902 -293.999053955078 1.199007034302
30.408578872681 -66.323188781738 -14.612433433533 2.203633546829
44.047492980957 -65.411964416504 -16.468038558960 2.131057739258
39.863784790039 -58.613903045654 -26.906156539917 4.307864189148
-56.949382781982 -64.633163452148 -43.251937866211 1.676331400871
-54.781150817871 -61.575824737549 -42.335178375244 1.879003763199
-53.538478851318 -64.963111877441 -43.682991027832 2.029212474823
-38.648117065430 -64.653572082520 -46.136119842529 2.391738891602
-86.182357788086 -65.527687072754 -49.855278015137 2.272803544998
-19.762058258057 -63.614048004150 -52.947540283203 1.862234711647
-17.593849182129 -63.684494018555 -54.543949127197 1.457917332649
-95.785079956055 -63.619445800781 -58.056484222412 2.877344369888
-95.779472351074 -66.557624816895 -61.687442779541 3.888347148895
89.523185729980 -63.371173858643 -59.993541717529 2.149958372116
-18.052661895752 -64.005577087402 -65.760383605957 3.048586845398
66.530288696289 -64.134620666504 -64.283340454102 2.746103048325
-32.294979095459 -64.274902343750 -71.168014526367 3.914175033569
-101.413948059082 -63.438556671143 -75.214149475098 3.615463733673
-40.650341033936 -60.856128692627 -77.920562744141 2.298379659653
-101.633453369141 -63.040702819824 -76.196220397949 3.249243497849
-59.325073242188 -64.857002258301 -85.528549194336 2.692429304123
101.416343688965 -62.476787567139 -83.163825988770 3.285541534424
60.978923797607 -63.363960266113 -87.294395446777 3.099555730820
-101.535476684570 -64.072128295898 -94.892280578613 3.136663198471
-68.837715148926 -65.872001647949 -95.379310607910 3.277762889862
45.123558044434 -63.786289215088 -95.820892333984 3.183914661407
43.955730438232 -64.532539367676 -97.265106201172 3.526697158813
98.726394653320 -63.053726196289 -96.746032714844 4.064240455627
95.356422424316 -64.206428527832 -100.401985168457 4.428470134735
-84.224609375000 -65.603652954102 -103.719474792480 3.155606746674
91.522506713867 -64.063835144043 -103.096664428711 4.537146568298
83.969192504883 -62.937637329102 -104.343475341797 2.451596975327
-84.255073547363 -65.208786010742 -112.256996154785 1.506581902504
-64.803810119629 -64.858406066895 -115.301109313965 2.193152904510
-67.988082885742 -64.759254455566 -117.780456542969 2.708994626999
-87.359169006348 -66.035026550293 -121.276290893555 2.252342700958
-58.960746765137 -64.993904113770 -123.320396423340 0.894958376884
-87.958648681641 -65.480537414551 -123.227699279785 2.779331207275
-63.993934631348 -66.377159118652 -125.005584716797 0.895323872566
-88.800910949707 -65.145439147949 -126.497238159180 1.475386619568
-89.074974060059 -64.567428588867 -130.492507934570 0.270949065685
-54.950401306152 -65.601142883301 -132.040512084961 2.150438308716
-76.620971679688 -65.745338439941 -134.145721435547 1.540129899979
-57.843719482422 -63.823085784912 -134.768951416016 1.206664323807
24.283155441284 -63.801929473877 -138.161773681641 1.890163064003
-96.286010742188 -65.854019165039 -138.311645507813 2.343619823456
13.874776840210 -64.809585571289 -142.741149902344 3.605355978012
17.731706619263 -63.901355743408 -148.500015258789 0.905639767647
-99.653900146484 -65.626907348633 -161.024002075195 2.196718215942
-112.588783264160 -66.679962158203 -179.906906127930 2.297204732895
-153.506103515625 -66.613006591797 -185.765686035156 1.468274235725
-113.171989440918 -65.821678161621 -190.825164794922 1.177080750465
-149.894866943359 -65.429725646973 -193.345397949219 0.750071048737
-153.519012451172 -66.832115173340 -195.066696166992 1.061831831932
-142.623428344727 -65.067771911621 -196.944992065430 1.849239706993
-141.639389038086 -65.639823913574 -198.259124755859 1.442512273788
-121.358840942383 -67.156845092773 -197.201934814453 1.364599227905
-119.477470397949 -65.990524291992 -198.520233154297 3.163568496704
-140.327880859375 -66.142593383789 -201.145278930664 1.551388978958
-124.282135009766 -65.648887634277 -203.311447143555 1.862416386604
-126.532524108887 -66.134490966797 -204.569503784180 1.351015448570
-150.750091552734 -66.197166442871 -209.239883422852 2.246438503265
-146.929275512695 -64.788055419922 -217.854614257813 1.545090675354
-133.471832275391 -66.295074462891 -226.733459472656 1.300141096115
-122.184700012207 -66.616149902344 -228.684265136719 1.895859241486
-123.739433288574 -66.833808898926 -229.403884887695 1.745900869370
-118.403388977051 -66.769676208496 -230.572860717773 3.135810613632
-126.595848083496 -66.766197204590 -233.465393066406 1.421205997467
-151.166305541992 -67.219200134277 -236.036209106445 1.235275745392
3.364356994629 -63.905162811279 -236.455184936523 1.916091442108
16.575428009033 -64.295295715332 -238.805358886719 1.696836590767
-4.307723999023 -64.715469360352 -242.702041625977 1.108674883842
-8.447678565979 -64.248466491699 -244.747665405273 1.419935584068
-10.705660820007 -65.276748657227 -245.903045654297 1.475166320801
52.400272369385 -64.884513854980 -245.792053222656 0.697289049625
45.117801666260 -64.176437377930 -247.843017578125 1.270740270615
21.299163818359 -68.591186523438 -248.150070190430 1.351912975311
-5.615261077881 -65.684837341309 -252.382751464844 1.067274093628
38.497562408447 -64.398452758789 -249.591827392578 2.306582689285
-3.617074012756 -64.291824340820 -251.200210571289 2.779577493668
30.075605392456 -64.828865051270 -253.421432495117 2.982834577560
40.640560150146 -65.265457153320 -254.508224487305 1.418137907982
-1.232826948166 -65.229904174805 -257.519592285156 1.902179718018
-131.993560791016 -67.249801635742 -256.993316650391 2.724387884140
-126.791183471680 -66.555801391602 -258.650115966797 2.348840951920
-127.464607238770 -66.417625427246 -260.438751220703 2.139424324036
29.057456970215 -65.563468933105 -257.200042724609 1.430885791779
0.460916012526 -64.977890014648 -260.540588378906 2.221356868744
27.838003158569 -64.135635375977 -260.717132568359 1.914298176765
2.687556982040 -64.244903564453 -264.266143798828 1.018315315247
0.052717000246 -65.428062438965 -268.884704589844 1.964113473892
-147.057296752930 -68.916099548340 -269.284210205078 3.661792755127
-0.075676001608 -64.847785949707 -279.192993164063 1.101375102997
-1.587324976921 -65.380844116211 -281.852233886719 2.080779790878
-151.304428100586 -67.733894348145 -289.401641845703 1.552447557449
-151.053512573242 -66.790817260742 -291.557281494141 1.785578370094
-147.704269409180 -66.927558898926 -290.766571044922 2.365578889847
-150.191970825195 -66.840339660645 -293.438354492188 2.439532756805
23.946455001831 -59.299297332764 -11.340946197510 4.633061885834
31.849658966064 -66.766227722168 -14.530033111572 2.933662414551
43.842018127441 -62.983818054199 -16.541791915894 1.773757219315
45.756423950195 -61.377098083496 -20.969589233398 2.937731266022
16.242603302002 -65.992355346680 -25.608901977539 5.835688114166
16.618293762207 -60.032897949219 -28.880373001099 4.118230342865
19.035778045654 -66.080726623535 -32.819835662842 5.098776340485
28.739261627197 -66.161972045898 -33.694396972656 2.312731742859
-45.656276702881 -61.527111053467 -44.908042907715 0.754224717617
-86.612068176270 -64.995742797852 -49.758750915527 2.597861766815
-90.980743408203 -63.654914855957 -52.209865570068 2.806035280228
-94.698905944824 -60.005119323730 -53.340160369873 3.273742914200
70.505668640137 -64.687294006348 -61.063591003418 3.354122400284
65.236770629883 -62.494140625000 -63.608489990234 4.160799026489
-26.687862396240 -64.559944152832 -67.998283386230 2.283801317215
-29.794315338135 -63.249565124512 -68.064865112305 2.076545476913
100.392860412598 -62.461730957031 -73.841423034668 3.254921674728
-42.223285675049 -63.153823852539 -77.584930419922 2.094953298569
-61.128204345703 -62.473373413086 -80.906738281250 2.420146703720
101.335212707520 -61.593685150146 -80.161407470703 3.976906299591
-101.023857116699 -65.488189697266 -86.756340026855 3.484627008438
-61.441711425781 -63.888893127441 -85.397834777832 1.426501750946
-63.600318908691 -63.910293579102 -86.543182373047 2.189037084579
49.728893280029 -62.526950836182 -85.692306518555 4.442199230194
59.360622406006 -62.128864288330 -88.207756042480 2.262030601501
58.347564697266 -64.260887145996 -92.282211303711 2.633487701416
-70.067451477051 -64.339866638184 -97.632347106934 2.512981891632
-70.110885620117 -65.205673217773 -97.059455871582 2.435799121857
-73.089485168457 -64.709869384766 -104.401679992676 3.028399944305
94.469535827637 -63.839500427246 -101.431632995605 4.998426437378
89.514457702637 -62.190639495850 -104.965957641602 4.661405563354
-81.497367858887 -64.681564331055 -109.363677978516 2.624435901642
-78.142555236816 -64.304420471191 -110.222167968750 1.526450634003
-85.483718872070 -65.423019409180 -115.163383483887 3.064749240875
-79.380790710449 -64.746528625488 -116.477264404297 1.406943440437
-65.245376586914 -64.460853576660 -120.117446899414 0.706988632679
-78.939285278320 -63.471118927002 -119.567062377930 0.783245742321
-82.192153930664 -65.130371093750 -123.170593261719 1.466242551804
-77.506713867188 -64.631027221680 -127.850837707520 0.867309331894
-55.099594116211 -66.998733520508 -129.899856567383 1.960587501526
-79.637504577637 -64.930389404297 -132.973403930664 2.334418058395
-90.704780578613 -64.241104125977 -136.937408447266 1.254267454147
-52.791698455811 -64.557640075684 -137.366531372070 1.517852902412
27.254352569580 -61.698795318604 -135.585403442383 2.763000011444
-93.845687866211 -63.799976348877 -143.223266601563 1.304880976677
-97.569000244141 -65.779113769531 -141.237365722656 2.871432065964
-98.008773803711 -65.701759338379 -142.329193115234 2.762663125992
14.063895225525 -63.726535797119 -146.299621582031 1.817477226257
-101.494659423828 -64.032661437988 -152.862075805664 2.422851562500
-96.117507934570 -63.889842987061 -149.558273315430 1.904385685921
-105.230445861816 -64.958847045898 -160.366683959961 2.668029308319
-103.266296386719 -64.079330444336 -166.055007934570 2.625653743744
-107.313926696777 -64.764320373535 -166.587219238281 1.273187875748
-110.222618103027 -65.435867309570 -173.369644165039 1.742717742920
-144.107376098633 -65.842758178711 -176.881774902344 2.110367536545
-107.834335327148 -65.056953430176 -179.463577270508 2.578137397766
-109.377235412598 -64.417556762695 -179.987792968750 1.510136365891
-153.027160644531 -65.726371765137 -184.316284179688 3.074665069580
-112.667243957520 -65.631141662598 -185.669189453125 1.152920603752
-149.495101928711 -64.834213256836 -187.920455932617 0.511263191700
-112.718704223633 -65.622131347656 -188.827697753906 1.826825380325
-143.970901489258 -66.134887695313 -194.997940063477 1.328863382339
-147.795410156250 -65.891448974609 -198.572219848633 0.986863195896
-116.390190124512 -65.427764892578 -199.149078369141 2.048030138016
-122.107009887695 -65.735816955566 -199.509155273438 1.652162551880
-125.712066650391 -64.120552062988 -200.832794189453 2.156896829605
-124.589637756348 -65.479164123535 -203.876800537109 1.601085662842
-151.212295532227 -65.269493103027 -206.133483886719 1.649160385132
-153.918884277344 -66.824935913086 -225.228805541992 1.426150083542
-127.555206298828 -64.928680419922 -228.908370971680 2.761665344238
-155.725234985352 -67.555511474609 -230.538482666016 1.654995441437
-129.929443359375 -65.497077941895 -231.270538330078 3.201761722565
-154.292282104492 -67.035400390625 -233.654632568359 1.409427881241
-0.731215000153 -63.750198364258 -235.689575195313 2.857292890549
16.817226409912 -65.021118164063 -239.521835327148 2.168747901917
-151.178573608398 -66.981948852539 -247.717224121094 2.096813917160
-8.568298339844 -65.345352172852 -248.140808105469 1.936750054359
22.487310409546 -63.545234680176 -249.453399658203 1.812141060829
-0.251289993525 -63.614665985107 -253.836486816406 2.921453952789
-151.805831909180 -65.913833618164 -253.369644165039 1.650469422340
-155.507461547852 -66.088638305664 -257.837707519531 1.611721038818
-155.713226318359 -65.821250915527 -258.707244873047 1.615612745285
-150.570755004883 -65.841644287109 -263.782501220703 2.510157585144
0.847175002098 -65.125648498535 -267.472351074219 1.712046980858
