-8.286553382874 -74.355903625488 -277.723724365234 1.164041399956
-128.808563232422 -74.570648193359 -283.661621093750 3.363695144653
-136.710205078125 -74.650695800781 -285.169433593750 1.664696335793
-45.068481445313 -75.852378845215 -284.695739746094 2.917135715485
-87.621475219727 -74.362724304199 -285.740783691406 1.170241594315
-26.787054061890 -73.929374694824 -285.506958007813 1.242376685143
-31.496604919434 -74.344940185547 -285.522338867188 1.608403205872
-112.782859802246 -75.132690429688 -286.896453857422 2.007423877716
-14.889193534851 -73.963546752930 -285.910125732422 2.595262527466
14.492657661438 -74.576675415039 -287.891174316406 1.183447957039
-50.178401947021 -75.425582885742 -289.776611328125 2.764337778091
-112.482116699219 -75.064880371094 -290.483612060547 1.830317974091
-77.570426940918 -73.416778564453 -290.343444824219 1.361958265305
-67.540626525879 -73.899986267090 -290.033233642578 1.254798531532
-30.907211303711 -74.327156066895 -289.830718994141 1.897616744041
-100.435096740723 -74.576919555664 -290.911895751953 1.575756788254
-111.113502502441 -74.172264099121 -291.117767333984 2.058885097504
-8.346935272217 -74.653396606445 -290.488494873047 2.085884094238
-158.981140136719 -74.906600952148 -292.277191162109 1.092109084129
-151.648239135742 -77.682586669922 -299.760681152344 0.859086751938
-150.952514648438 -76.883087158203 -311.955474853516 1.740258574486
27.897216796875 -70.822387695313 -14.535967826843 0.785352468491
24.174760818481 -70.848472595215 -16.488439559937 0.256826817989
24.152929306030 -71.087287902832 -19.395256042480 2.039731502533
20.652477264404 -70.849861145020 -23.445074081421 0.391110807657
22.537239074707 -71.232261657715 -29.177057266235 2.279335498810
29.949968338013 -71.097480773926 -35.603466033936 0.938758552074
27.717496871948 -71.111434936523 -36.244853973389 1.981285333633
-55.750938415527 -71.653770446777 -49.794483184814 0.904970943928
-30.818410873413 -69.906234741211 -52.754573822021 2.036264657974
87.599655151367 -70.902366638184 -66.270523071289 1.460475683212
-90.565353393555 -72.336082458496 -71.246482849121 1.843526244164
72.676177978516 -72.058959960938 -73.217475891113 0.614588439465
-41.036266326904 -72.315696716309 -78.586387634277 0.784547388554
-93.002105712891 -72.140426635742 -80.052551269531 1.063657045364
-45.696613311768 -73.339302062988 -83.378501892090 0.923282325268
98.442687988281 -71.946380615234 -86.785171508789 1.029709219933
-93.064071655273 -73.585113525391 -90.770530700684 3.419636726379
69.712211608887 -71.436904907227 -89.125282287598 2.058635711670
-94.308410644531 -72.324844360352 -92.945579528809 3.697254657745
57.364456176758 -73.776596069336 -92.554962158203 1.107164382935
104.290763854980 -71.357383728027 -94.729881286621 1.864661812782
-68.284049987793 -71.158294677734 -98.672950744629 2.410926818848
43.545803070068 -72.514205932617 -97.851478576660 1.691765546799
77.481422424316 -71.429275512695 -99.807540893555 2.517184734344
81.922508239746 -71.094589233398 -99.399032592773 2.179672718048
44.166355133057 -71.442306518555 -100.229003906250 1.113725900650
108.883399963379 -72.281982421875 -101.659774780273 0.210604354739
-94.389274597168 -72.279495239258 -111.918861389160 2.375451087952
103.094444274902 -71.174720764160 -103.076454162598 1.885019779205
108.160148620605 -71.465911865234 -108.890396118164 0.722957849503
36.600902557373 -72.806724548340 -113.822212219238 1.628959774971
46.273368835449 -73.151679992676 -112.748458862305 1.429627418518
44.465824127197 -73.400001525879 -115.942970275879 1.308242797852
33.406147003174 -73.034294128418 -115.503875732422 1.884871244431
43.047389984131 -71.458084106445 -116.444709777832 1.467059254646
44.566043853760 -71.890159606934 -118.862670898438 0.935492992401
107.738296508789 -72.936508178711 -120.272224426270 1.102735042572
112.599334716797 -72.225463867188 -125.141601562500 0.681462287903
30.561079025269 -71.704223632813 -123.791213989258 0.986088693142
30.684347152710 -71.694854736328 -130.632354736328 1.815028786659
-74.172958374023 -72.303016662598 -133.917404174805 2.656436204910
-55.416351318359 -71.114631652832 -131.812881469727 1.256315708160
114.169952392578 -72.547264099121 -138.779296875000 1.876797795296
26.887535095215 -71.710693359375 -134.586502075195 1.485911488533
36.628761291504 -72.547653198242 -134.016006469727 1.716238379478
-77.305053710938 -71.943962097168 -137.354736328125 0.750187098980
25.796501159668 -72.138923645020 -137.579605102539 1.170346260071
26.779356002808 -72.893798828125 -140.574783325195 1.154261589050
-45.659511566162 -71.584251403809 -142.828796386719 1.457017421722
-71.457580566406 -72.605636596680 -145.266448974609 1.627290964127
-53.630310058594 -72.697143554688 -146.403915405273 2.463407039642
33.164508819580 -72.441772460938 -144.881423950195 2.441721200943
-52.685394287109 -74.351303100586 -151.205047607422 1.792325973511
34.456005096436 -72.880645751953 -149.173828125000 1.467497706413
29.907564163208 -71.873237609863 -157.649719238281 1.417627096176
109.578468322754 -72.141662597656 -149.708480834961 0.974798738956
23.594194412231 -72.975738525391 -153.218917846680 0.581078708172
13.314583778381 -72.762908935547 -152.844223022461 1.010593175888
-38.317283630371 -73.449440002441 -155.425369262695 2.157957077026
-71.182792663574 -70.971679687500 -154.008316040039 1.337650418282
-47.047882080078 -72.766830444336 -156.846160888672 0.888350605965
108.655616760254 -72.876022338867 -157.348098754883 1.641394495964
32.526885986328 -73.139457702637 -157.773361206055 2.451403141022
111.958961486816 -72.705139160156 -159.506134033203 1.739993691444
-35.400882720947 -72.282096862793 -161.730743408203 1.860885620117
18.829271316528 -71.538642883301 -164.680511474609 0.935421228409
2.725490093231 -72.129539489746 -162.415710449219 1.272082567215
-31.425134658813 -71.764137268066 -163.841156005859 1.409859538078
-62.145503997803 -72.244682312012 -164.861145019531 1.102658271790
-31.761934280396 -72.905387878418 -166.910079956055 2.009109497070
-57.976318359375 -73.173294067383 -171.550048828125 2.001938581467
-37.054740905762 -73.390136718750 -173.213256835938 1.396486520767
27.925674438477 -73.238731384277 -168.658264160156 1.782538294792
-37.617301940918 -71.821434020996 -175.699935913086 2.648969411850
-150.435150146484 -72.136329650879 -177.374160766602 0.457900553942
112.301284790039 -72.208671569824 -175.606002807617 0.724567294121
-150.637893676758 -72.499931335449 -181.346786499023 0.350432902575
-143.350936889648 -72.889335632324 -181.228668212891 1.675591111183
14.483327865601 -72.707420349121 -180.523742675781 1.561193585396
24.652254104614 -73.068092346191 -183.248016357422 0.621067702770
-33.395126342773 -72.281799316406 -182.757232666016 0.879929780960
-149.109497070313 -72.330505371094 -187.630432128906 0.689458310604
-29.629274368286 -72.555915832520 -188.910766601563 1.511238098145
-144.755523681641 -72.448585510254 -189.553268432617 1.824865102768
-15.527326583862 -72.775192260742 -191.257675170898 1.264062166214
13.786486625671 -74.376731872559 -191.767456054688 2.018461704254
100.420104980469 -73.152008056641 -196.390914916992 2.231528282166
10.948183059692 -73.526329040527 -193.298141479492 1.478820085526
-126.926208496094 -71.942199707031 -195.144958496094 2.568940401077
-130.624404907227 -72.909744262695 -196.018218994141 1.057503342628
-139.708709716797 -74.263366699219 -198.169387817383 1.255115151405
95.948410034180 -72.265190124512 -197.793670654297 1.966059446335
-132.922821044922 -72.845123291016 -200.343231201172 0.851396620274
7.810153007507 -74.288650512695 -206.058670043945 1.446425437927
-24.369020462036 -72.757232666016 -198.933898925781 1.467648386955
-132.167587280273 -71.984199523926 -202.384765625000 1.155778765678
-148.979598999023 -75.618858337402 -205.035858154297 0.985441803932
99.716804504395 -73.978004455566 -205.134124755859 1.533940196037
-12.197818756104 -73.525672912598 -202.392868041992 1.977697610855
98.608604431152 -73.196357727051 -198.811645507813 1.382956504822
-7.646248817444 -73.204162597656 -205.902893066406 2.064731121063
94.649711608887 -73.159729003906 -206.309097290039 2.808315753937
-144.361175537109 -72.746421813965 -208.825408935547 1.846684813499
-16.103693008423 -72.573295593262 -209.038314819336 1.813067555428
-149.354507446289 -73.051322937012 -213.994262695313 1.898030042648
-149.014389038086 -73.172836303711 -208.220977783203 2.455368995667
-16.768791198730 -71.573699951172 -212.143630981445 1.290286064148
-87.771255493164 -72.359779357910 -213.593658447266 1.582933306694
-161.113632202148 -72.979125976563 -215.162460327148 2.710635900497
-159.670715332031 -72.720977783203 -211.519363403320 2.890970468521
-155.549270629883 -72.583007812500 -212.620285034180 1.673789381981
-28.055345535278 -73.072441101074 -213.969299316406 1.089884757996
-25.267105102539 -72.735740661621 -217.295166015625 0.919106900692
-15.265233039856 -72.404396057129 -214.856567382813 1.428458452225
-14.770454406738 -73.427139282227 -215.636444091797 1.044605374336
-145.091598510742 -74.296424865723 -217.926895141602 1.261580586433
18.792043685913 -75.429138183594 -218.937393188477 0.428643912077
-150.705154418945 -72.956993103027 -221.159729003906 1.645878434181
-88.324119567871 -73.304687500000 -218.005142211914 0.839647531509
-164.195053100586 -73.204147338867 -223.437133789063 1.506078004837
-25.158174514771 -73.747024536133 -219.284957885742 1.208687305450
-17.696807861328 -73.823249816895 -217.644042968750 2.490361690521
-160.869461059570 -73.008216857910 -216.194717407227 3.360836029053
16.075250625610 -72.995956420898 -217.794296264648 1.223098397255
-156.936050415039 -73.041938781738 -219.206344604492 3.325935840607
6.937809944153 -72.993400573730 -220.954925537109 1.433771371841
-159.237228393555 -73.197448730469 -221.868713378906 1.454771399498
-154.300628662109 -73.024299621582 -220.556488037109 1.962697505951
-104.254653930664 -72.872360229492 -221.129653930664 1.195478677750
7.504744052887 -71.910232543945 -221.622619628906 1.092738151550
-159.178665161133 -73.563987731934 -226.242660522461 1.056663036346
-160.922744750977 -73.920425415039 -224.956329345703 1.159755945206
4.814153194427 -73.569839477539 -223.915222167969 1.779238224030
-115.630363464355 -72.487052917480 -225.996185302734 0.736303627491
-156.493499755859 -73.292434692383 -226.413696289063 2.548180103302
14.858609199524 -72.671356201172 -224.254440307617 1.653160929680
-109.723167419434 -72.615325927734 -227.973556518555 0.675434231758
-115.759704589844 -72.838294982910 -227.566192626953 1.428007602692
-119.874877929688 -73.093955993652 -227.884643554688 3.482100725174
79.770408630371 -73.181739807129 -226.664352416992 0.598288714886
-161.599594116211 -73.568275451660 -229.061508178711 1.098791599274
-154.721862792969 -73.262191772461 -227.558303833008 1.731031060219
-2.724222898483 -72.452705383301 -228.581192016602 2.293366909027
-164.458557128906 -73.497573852539 -232.207916259766 0.432630717754
5.640248775482 -72.355644226074 -229.329589843750 1.367093920708
-160.879562377930 -73.592178344727 -230.469375610352 2.490072488785
-159.146606445313 -73.558349609375 -231.721572875977 3.634347915649
72.714782714844 -73.051399230957 -230.829727172852 1.880280375481
-165.454437255859 -72.750480651855 -231.789855957031 1.533868551254
-164.763656616211 -73.735824584961 -236.749389648438 1.305598974228
6.845016002655 -74.414840698242 -233.537460327148 2.105564117432
-153.844009399414 -73.723396301270 -237.973251342773 3.909114122391
74.352714538574 -73.581588745117 -234.692855834961 2.105639457703
70.905296325684 -73.106895446777 -233.210433959961 1.054962158203
-144.890594482422 -74.190231323242 -239.411117553711 3.053270339966
9.395622253418 -72.085304260254 -239.138900756836 2.122508287430
-8.962336540222 -73.074203491211 -239.775588989258 0.572856009007
67.715232849121 -73.710914611816 -239.271163940430 1.600743412971
-165.729537963867 -73.036643981934 -241.247955322266 0.459611743689
10.389093399048 -72.449142456055 -242.102584838867 0.582462847233
20.925182342529 -74.640274047852 -241.180648803711 1.522336721420
62.620624542236 -72.884223937988 -243.139739990234 0.686692714691
19.086040496826 -73.188552856445 -245.062393188477 1.578054308891
17.228687286377 -74.229492187500 -244.870483398438 1.273574471474
-71.655220031738 -74.089172363281 -246.140045166016 1.244241714478
17.018610000610 -74.453880310059 -245.372497558594 1.004999518394
-11.253632545471 -72.316017150879 -245.961242675781 1.515806436539
-144.391464233398 -73.468811035156 -247.298507690430 2.452334642410
-65.540763854980 -74.519775390625 -250.069549560547 1.873228430748
-143.092285156250 -73.031570434570 -252.881362915039 2.012761831284
-127.384391784668 -73.809883117676 -254.012893676758 2.130079984665
-97.093292236328 -73.860099792480 -254.040420532227 1.080235481262
-134.191619873047 -73.014678955078 -254.628829956055 1.456493020058
-109.646583557129 -72.833755493164 -256.372711181641 1.133538365364
-112.131179809570 -73.183097839355 -256.993316650391 2.090575933456
-95.005180358887 -73.340110778809 -257.117370605469 0.911685168743
-101.181663513184 -73.121345520020 -258.807891845703 0.970152020454
-113.104118347168 -73.123229980469 -260.852416992188 0.688238501549
24.844608306885 -72.696197509766 -263.682678222656 1.888234734535
-13.191729545593 -74.272438049316 -266.657867431641 1.889792323112
-166.770614624023 -73.109291076660 -270.448364257813 1.279505848885
-144.409637451172 -74.013008117676 -272.228149414063 2.302375555038
15.363183021545 -74.130355834961 -282.837127685547 1.899853706360
-125.412719726563 -73.375717163086 -283.312469482422 1.507484316826
-123.338264465332 -71.571647644043 -285.253021240234 1.700944662094
-80.900428771973 -73.847198486328 -285.559478759766 1.530206084251
-51.361949920654 -73.800506591797 -285.014526367188 2.402913570404
-104.926124572754 -73.089874267578 -286.235778808594 2.611356258392
-37.996215820313 -73.833793640137 -285.615203857422 1.527070164680
-29.327575683594 -73.550926208496 -286.410491943359 0.883077979088
-7.941802024841 -75.041191101074 -285.664855957031 2.539784669876
-38.893676757813 -73.312789916992 -288.898864746094 2.003528118134
-58.701477050781 -73.383186340332 -289.733520507813 2.326111793518
-27.771608352661 -73.540069580078 -289.389373779297 1.904077410698
-18.319248199463 -73.874275207520 -289.751281738281 2.316231489182
14.986613273621 -73.728652954102 -290.617248535156 1.142666697502
-113.937049865723 -74.126213073730 -291.303802490234 1.009711742401
-118.332496643066 -74.021499633789 -291.737884521484 2.082391738892
13.320041656494 -74.183425903320 -291.298645019531 2.147319793701
-134.614669799805 -73.200874328613 -292.598571777344 1.648822069168
-144.830963134766 -74.453254699707 -298.541259765625 1.637863159180
-142.757186889648 -75.090919494629 -305.032501220703 1.483014583588
-151.722961425781 -74.674285888672 -312.170471191406 1.090732455254
26.452621459961 -69.850051879883 -12.933506011963 1.666276335716
43.287033081055 -68.593025207520 -13.127193450928 2.103843927383
36.659954071045 -69.992614746094 -14.911272048950 2.392477512360
46.315124511719 -70.091384887695 -19.040168762207 1.861707091331
44.441001892090 -70.157493591309 -21.084568023682 1.540552020073
46.520534515381 -70.218200683594 -22.326999664307 2.693057537079
24.530767440796 -70.549499511719 -24.839038848877 1.756611704826
25.003976821899 -70.174705505371 -26.466123580933 1.200260639191
44.628364562988 -70.446441650391 -30.960599899292 0.956659615040
38.170227050781 -70.258094787598 -34.925075531006 1.030459880829
37.542423248291 -69.128700256348 -34.429515838623 2.195989608765
38.702095031738 -68.913932800293 -39.286453247070 2.432890176773
-62.249050140381 -70.756896972656 -49.014339447021 1.424265503883
-49.654556274414 -70.590270996094 -48.995944976807 1.509812593460
-79.798988342285 -68.488304138184 -51.684577941895 1.923553943634
-75.089202880859 -71.450836181641 -52.938648223877 1.464835882187
-78.029525756836 -71.727622985840 -54.967708587646 3.502187490463
-27.581098556519 -69.988639831543 -54.521400451660 1.677037954330
-21.089357376099 -71.956436157227 -61.283676147461 1.214116692543
-18.233192443848 -71.850387573242 -63.751853942871 1.986911654472
77.923561096191 -69.641006469727 -65.181121826172 1.717656254768
78.887222290039 -71.085525512695 -66.635246276855 1.031177997589
71.659027099609 -69.456748962402 -69.134391784668 1.732439517975
72.645401000977 -72.629165649414 -74.385612487793 1.665423035622
-30.872461318970 -68.787979125977 -76.837059020996 2.682781457901
-48.441867828369 -71.508506774902 -84.113471984863 1.648331761360
99.506515502930 -70.895133972168 -84.557792663574 1.263149023056
55.882362365723 -68.253265380859 -84.430664062500 2.251903772354
-64.013839721680 -70.388839721680 -91.631423950195 1.795998811722
52.669097900391 -69.343063354492 -89.505088806152 1.184815645218
-64.712989807129 -69.282043457031 -92.894309997559 1.621838331223
57.653625488281 -70.999099731445 -93.505668640137 1.500192284584
105.222007751465 -71.121826171875 -94.354820251465 2.087452650070
71.056068420410 -70.235481262207 -96.791748046875 1.087091445923
94.256912231445 -71.395515441895 -99.104415893555 2.216785907745
106.919868469238 -71.205162048340 -104.853858947754 1.170942068100
-95.372955322266 -71.035903930664 -99.250579833984 3.082582712173
53.746936798096 -70.527359008789 -103.669013977051 2.370424985886
39.728889465332 -70.271903991699 -104.274101257324 1.548046231270
41.898723602295 -71.464401245117 -104.101097106934 1.727070450783
-95.851196289063 -70.108329772949 -107.583602905273 2.725476741791
-86.009094238281 -73.828865051270 -111.655364990234 1.461572766304
38.056709289551 -71.114814758301 -112.290855407715 2.083181142807
-94.579627990723 -71.674751281738 -115.050201416016 2.335084676743
44.603767395020 -70.735839843750 -112.613151550293 1.385733604431
108.921997070313 -71.487762451172 -114.173782348633 1.133713722229
110.751495361328 -70.549766540527 -115.870880126953 1.130009174347
110.934547424316 -70.555038452148 -116.956344604492 1.910923480988
110.350845336914 -70.733734130859 -119.906890869141 1.155815720558
42.369178771973 -71.362319946289 -123.430137634277 1.881086587906
34.529998779297 -70.849739074707 -124.073898315430 1.323018789291
41.286582946777 -72.497062683105 -127.578781127930 2.233867645264
32.181743621826 -71.175003051758 -128.424499511719 1.620616316795
-58.427089691162 -71.123832702637 -128.935317993164 1.360034584999
-54.600498199463 -70.909721374512 -131.794097900391 1.650020718575
-60.162487030029 -70.768814086914 -132.913711547852 1.042299032211
-50.812267303467 -72.878242492676 -136.090011596680 0.803977012634
30.266490936279 -71.066612243652 -134.347122192383 1.042742609978
-79.632568359375 -69.629898071289 -133.129531860352 0.646219968796
116.877906799316 -70.918815612793 -142.242538452148 1.397695064545
37.058219909668 -70.575141906738 -136.431015014648 1.746964812279
35.211917877197 -70.732437133789 -142.823730468750 1.823801636696
-68.213844299316 -71.358871459961 -143.955520629883 2.493525028229
-70.295478820801 -71.437805175781 -146.221176147461 0.951241254807
-75.704650878906 -70.498596191406 -145.591995239258 0.831976830959
109.934562683105 -71.173210144043 -146.386138916016 2.812497854233
-69.032287597656 -72.185333251953 -150.489501953125 1.514792561531
-70.824577331543 -71.530929565430 -148.251220703125 0.828002154827
-38.418586730957 -72.577339172363 -151.843338012695 1.638591527939
21.728670120239 -71.741844177246 -153.072341918945 1.023917675018
33.264656066895 -71.659866333008 -151.971633911133 2.516797065735
8.084140777588 -72.079612731934 -152.452392578125 1.407667398453
14.687566757202 -70.694320678711 -156.306991577148 1.541214108467
24.672290802002 -71.064445495605 -150.894866943359 1.926617383957
-38.589752197266 -70.934989929199 -152.699172973633 1.971021771431
-66.883247375488 -70.747489929199 -157.364044189453 1.278700351715
-39.873981475830 -71.385375976563 -155.265045166016 1.814041972160
29.026422500610 -71.266342163086 -159.117645263672 1.647818803787
-65.231842041016 -71.350257873535 -161.140502929688 2.223095655441
-64.839904785156 -71.489913940430 -161.855194091797 1.429993391037
-44.413272857666 -70.834571838379 -158.467391967773 2.792168140411
22.034744262695 -71.545707702637 -161.057434082031 1.874402523041
20.638465881348 -71.603057861328 -166.916641235352 1.620838522911
113.968261718750 -71.115905761719 -166.945053100586 0.707065224648
-29.549570083618 -71.391746520996 -173.102600097656 1.906819343567
113.493324279785 -72.270881652832 -171.603103637695 1.634628057480
-146.044601440430 -71.058380126953 -175.038848876953 0.964641273022
18.768756866455 -71.736846923828 -175.576065063477 0.757616460323
112.094184875488 -71.129516601563 -173.654052734375 1.289191365242
27.514560699463 -71.982513427734 -177.927917480469 0.414635241032
104.223098754883 -71.342590332031 -181.090133666992 1.866619229317
-19.307641983032 -71.956466674805 -184.664047241211 2.132037162781
-29.100381851196 -72.551834106445 -185.568222045898 1.355503559113
14.225698471069 -73.263244628906 -189.699722290039 0.110454507172
-27.725557327271 -72.646568298340 -187.938964843750 2.188260078430
-149.696350097656 -71.353660583496 -188.587448120117 0.212827831507
99.468818664551 -71.133064270020 -193.032089233398 1.550441384315
-130.683013916016 -72.398750305176 -195.530914306641 0.916591525078
23.187511444092 -70.930175781250 -193.083877563477 1.576633334160
105.565376281738 -72.281471252441 -193.094772338867 2.595465898514
-121.295448303223 -71.802726745605 -197.871047973633 0.863892734051
104.250358581543 -71.588516235352 -194.927215576172 2.539846658707
12.687181472778 -71.950706481934 -196.249664306641 0.714287281036
-154.503860473633 -71.947151184082 -197.497756958008 0.710361957550
19.285432815552 -71.165634155273 -198.878646850586 2.480438709259
-158.796142578125 -72.102493286133 -200.508880615234 3.723353624344
9.601698875427 -72.190528869629 -198.348937988281 1.130630612373
-121.584770202637 -72.078674316406 -199.771148681641 1.043698191643
8.884298324585 -71.671730041504 -203.128784179688 1.538969635963
-23.490333557129 -71.017929077148 -199.251571655273 1.268755912781
-160.836563110352 -72.221328735352 -202.402679443359 2.867302656174
-154.421798706055 -72.190017700195 -203.670791625977 1.980721235275
-152.346878051758 -72.210212707520 -205.461288452148 1.308846354485
-21.723634719849 -71.867126464844 -203.905700683594 1.228218436241
-152.737838745117 -72.228622436523 -206.058898925781 0.737411737442
-160.606918334961 -72.344032287598 -204.964691162109 3.083570718765
-150.231140136719 -72.223503112793 -207.253509521484 1.541563749313
7.644495010376 -73.013076782227 -208.669509887695 1.538290143013
17.644636154175 -71.174995422363 -204.719467163086 1.318914055824
98.132385253906 -72.368659973145 -207.232131958008 2.131567716599
-150.275161743164 -72.322326660156 -209.742080688477 2.792983770370
-165.101181030273 -72.011436462402 -215.718322753906 1.999290585518
85.558967590332 -72.979095458984 -212.952377319336 1.840967297554
-143.837188720703 -71.931968688965 -216.132125854492 2.638835191727
-4.726375102997 -73.175003051758 -215.144638061523 1.338055610657
6.931087970734 -73.266746520996 -214.957519531250 1.371502280235
17.383850097656 -71.059295654297 -215.010345458984 1.404430389404
14.860211372375 -71.843048095703 -217.193771362305 0.647459387779
-144.062881469727 -72.356437683105 -221.599899291992 1.419217705727
-16.721130371094 -72.383712768555 -219.431274414063 2.655613422394
-21.434219360352 -71.848022460938 -220.080947875977 1.463461279869
-96.500366210938 -72.621650695801 -221.969055175781 1.124372363091
2.414568901062 -71.268508911133 -221.852172851563 2.365625619888
81.952362060547 -72.392692565918 -223.632064819336 1.816536068916
78.548446655273 -72.778503417969 -221.220214843750 1.702350616455
-100.249320983887 -72.859725952148 -223.830444335938 0.766217470169
13.406362533569 -72.135536193848 -226.890014648438 1.888250350952
87.409851074219 -72.732818603516 -221.922073364258 1.817875742912
-104.899093627930 -72.885375976563 -225.524475097656 0.355565458536
77.361618041992 -73.706390380859 -222.815841674805 0.777834355831
-4.029421806335 -71.346725463867 -226.311279296875 2.070691347122
-16.812046051025 -71.796356201172 -226.736709594727 1.385624647141
-9.042453765869 -71.838233947754 -228.813308715820 1.133821964264
74.153022766113 -72.256401062012 -232.047821044922 1.683397531509
12.302430152893 -73.439979553223 -234.590194702148 2.008363246918
-123.020935058594 -71.134948730469 -232.590698242188 0.685700833797
-165.957214355469 -71.728965759277 -230.565963745117 0.986429512501
76.008270263672 -72.386444091797 -233.379180908203 1.709844231606
-125.469963073730 -71.139541625977 -234.220153808594 1.151844978333
-7.777833938599 -71.415946960449 -235.481704711914 1.067417502403
73.503326416016 -71.516464233398 -235.760147094727 1.351210236549
8.809593200684 -72.161750793457 -237.084030151367 2.095746040344
-1.485226035118 -73.224128723145 -239.085174560547 0.489357739687
-7.982369899750 -72.219833374023 -240.773605346680 0.835577189922
69.954017639160 -72.477828979492 -238.556930541992 1.965315341949
16.039991378784 -71.430236816406 -237.954925537109 1.320750355721
-144.002120971680 -72.144950866699 -245.464187622070 2.826162576675
52.490531921387 -72.032127380371 -243.022842407227 2.547345638275
-11.268004417419 -72.052383422852 -245.181701660156 1.480577945709
-69.892257690430 -71.673324584961 -247.330749511719 1.215826034546
57.913391113281 -70.361907958984 -246.681304931641 0.947128951550
-66.644706726074 -72.385292053223 -249.511383056641 1.338385820389
49.799583435059 -73.094276428223 -247.364929199219 0.844831645489
-90.288604736328 -72.680290222168 -251.077392578125 0.846919298172
23.972108840942 -71.665824890137 -252.194015502930 1.830877065659
44.646060943604 -71.780662536621 -252.840576171875 0.126740723848
-135.016510009766 -72.206108093262 -254.930770874023 0.800342500210
-166.657119750977 -72.054679870605 -258.671722412109 2.413473367691
-105.757575988770 -72.871124267578 -259.885131835938 1.091161727905
-141.007019042969 -72.938385009766 -262.347595214844 1.529888153076
-142.436050415039 -73.847160339355 -262.739227294922 0.647401571274
-14.146576881409 -72.118629455566 -262.634246826172 1.382525324821
22.649198532104 -72.199020385742 -273.441345214844 2.224506139755
-7.674198150635 -73.420570373535 -279.963745117188 2.440914392471
-156.880111694336 -72.254562377930 -282.055633544922 3.248463153839
-127.558975219727 -72.583694458008 -283.266967773438 2.480947494507
-155.097961425781 -72.288375854492 -285.192596435547 1.868479013443
-89.311103820801 -72.338973999023 -285.903320312500 2.127075910568
-82.509521484375 -72.358551025391 -285.796936035156 1.888190150261
-47.800621032715 -72.773620605469 -286.075805664063 2.790753126144
-13.296970367432 -73.194427490234 -286.495147705078 2.163241863251
-36.533096313477 -73.075767517090 -286.825988769531 1.917642951012
-12.983926773071 -72.627670288086 -287.468200683594 1.821852684021
-34.640220642090 -72.875022888184 -287.841033935547 2.625781059265
-11.365788459778 -72.649559020996 -287.875274658203 1.505252599716
-44.358085632324 -73.121368408203 -288.872863769531 1.978336811066
-4.162694931030 -72.563903808594 -288.670318603516 1.551645040512
-70.049636840820 -73.199455261230 -290.074462890625 1.968541383743
-84.725723266602 -73.117729187012 -290.494018554688 2.112387418747
-103.943878173828 -72.075012207031 -291.445983886719 1.300920128822
-115.966682434082 -71.501350402832 -291.945678710938 1.445342063904
-132.153244018555 -71.983016967773 -293.901855468750 2.233465671539
-152.607025146484 -72.780075073242 -297.915039062500 1.626268625259
-154.471817016602 -71.588722229004 -306.301483154297 2.056875944138
-147.258544921875 -73.636253356934 -312.241577148438 1.202322721481
41.686305999756 -68.695625305176 -12.068896293640 1.623445630074
22.087154388428 -66.047660827637 -16.625408172607 2.163434743881
42.826496124268 -69.509605407715 -18.982128143311 1.478567361832
25.547437667847 -68.344398498535 -22.598979949951 2.519276618958
41.424663543701 -68.753944396973 -31.182210922241 2.531364440918
24.109308242798 -68.480133056641 -35.758914947510 2.520878553391
34.748481750488 -69.100547790527 -37.615749359131 1.581240057945
-62.830028533936 -70.040672302246 -48.284538269043 1.699915766716
-46.314632415771 -68.496398925781 -47.360649108887 1.216752409935
-45.057945251465 -68.917831420898 -47.892303466797 1.286079406738
-42.315711975098 -68.783401489258 -48.202445983887 0.959900021553
-33.291671752930 -69.440757751465 -51.313781738281 2.354111433029
-27.117364883423 -68.594123840332 -53.020534515381 2.223412990570
-14.816538810730 -69.685737609863 -63.931343078613 2.146418094635
76.710563659668 -72.085548400879 -69.059440612793 1.683423280716
97.725051879883 -68.535972595215 -70.115486145020 1.314830303192
-21.590785980225 -70.304359436035 -72.885726928711 0.785717189312
71.455459594727 -72.026229858398 -74.784370422363 1.566710591316
-42.713809967041 -70.750099182129 -79.170196533203 1.945200920105
66.781768798828 -68.005348205566 -80.805694580078 1.721610188484
57.734588623047 -68.161384582520 -83.621780395508 1.201070189476
60.579479217529 -68.450233459473 -86.069900512695 0.737608432770
56.081333160400 -71.443763732910 -90.321861267090 1.991478681564
-60.878635406494 -70.459640502930 -90.614265441895 1.862431645393
-96.258903503418 -69.265419006348 -95.260864257813 1.923963785172
45.589797973633 -70.248443603516 -94.477554321289 1.985593557358
103.558753967285 -70.560119628906 -95.107818603516 2.268962144852
59.267322540283 -70.423355102539 -95.438102722168 1.076498985291
71.363265991211 -68.261894226074 -98.948066711426 1.705354094505
-71.955482482910 -67.838195800781 -99.423851013184 1.525275945663
52.439979553223 -69.548629760742 -101.743202209473 2.119236469269
107.335342407227 -69.829284667969 -102.718887329102 1.715087532997
75.730491638184 -69.246498107910 -101.497993469238 2.102755308151
104.919914245605 -69.785125732422 -101.123893737793 1.432040333748
89.467033386230 -71.215286254883 -101.187400817871 2.499038457870
103.530433654785 -69.212020874023 -105.387725830078 1.129459857941
51.908870697021 -70.762283325195 -106.310249328613 0.885950684547
-87.042297363281 -71.628471374512 -112.042411804199 2.626812934875
42.144458770752 -69.747184753418 -112.288703918457 2.262455463409
-95.409645080566 -70.499282836914 -112.425979614258 2.571205854416
42.276355743408 -70.372703552246 -114.993629455566 0.538411438465
-79.786865234375 -69.697380065918 -118.563255310059 1.057916641235
45.329120635986 -69.935295104980 -114.786231994629 1.539564847946
113.142585754395 -69.899223327637 -112.700195312500 1.280987024307
35.528766632080 -70.544250488281 -122.835205078125 1.133514404297
-79.974060058594 -69.599906921387 -119.344818115234 1.309146761894
-85.240188598633 -69.508552551270 -120.874565124512 1.846434593201
35.858470916748 -70.509696960449 -125.477668762207 2.442764282227
-85.043594360352 -70.232620239258 -126.215217590332 0.735562562943
34.050128936768 -69.309242248535 -119.620231628418 2.212193489075
-78.324943542480 -70.178672790527 -127.078681945801 1.423670768738
-50.941551208496 -69.926918029785 -130.279815673828 1.142159581184
-55.533012390137 -70.447257995605 -130.778747558594 1.953316092491
-49.679439544678 -69.924743652344 -131.440856933594 2.239338636398
32.450172424316 -70.329818725586 -132.911163330078 1.877307534218
-60.321620941162 -70.530593872070 -133.607818603516 1.576385974884
32.849887847900 -70.308090209961 -134.290512084961 2.592043161392
-71.619735717773 -68.588294982910 -135.245056152344 1.109306693077
116.702445983887 -70.565635681152 -142.466995239258 1.636804699898
25.516489028931 -71.117858886719 -139.625701904297 1.308974981308
30.428354263306 -70.385848999023 -137.975799560547 1.845130205154
-72.547630310059 -69.823768615723 -142.185928344727 0.636044859886
-52.920917510986 -71.737800598145 -147.450836181641 2.170507431030
32.698211669922 -70.973861694336 -142.105758666992 0.423750787973
-53.202232360840 -69.569015502930 -145.423446655273 1.562463998795
25.846708297729 -70.228324890137 -150.562408447266 2.501749753952
-72.882713317871 -70.147804260254 -150.312103271484 1.721209287643
-53.895439147949 -71.675666809082 -149.419815063477 1.044564723969
-44.337791442871 -70.095199584961 -150.325515747070 2.043218851089
10.292018890381 -70.020797729492 -149.942947387695 0.677632212639
116.082672119141 -70.534523010254 -150.729232788086 1.115849256516
-51.347717285156 -71.213623046875 -153.223754882813 0.908689856529
29.059194564819 -70.741958618164 -155.815841674805 0.423281818628
-38.138153076172 -70.443679809570 -154.243804931641 1.199969530106
30.554031372070 -69.934982299805 -158.452011108398 0.857996344566
-40.994079589844 -70.578346252441 -156.187240600586 2.273532867432
-36.817958831787 -70.439147949219 -156.538345336914 1.959681153297
-42.573493957520 -70.427314758301 -158.972061157227 1.137630343437
-43.084358215332 -70.491928100586 -159.039520263672 1.435670137405
8.479095458984 -69.930648803711 -157.899398803711 1.876968860626
-45.187095642090 -70.452651977539 -161.401535034180 0.880285918713
26.811332702637 -69.922332763672 -160.214096069336 1.512873530388
-38.240108489990 -70.684928894043 -161.459747314453 1.455356001854
-33.324325561523 -69.904479980469 -163.393890380859 1.498499870300
27.297060012817 -71.186355590820 -167.117431640625 1.298195958138
-29.767129898071 -71.073463439941 -167.438110351563 1.299570202827
-29.807229995728 -70.927299499512 -174.329208374023 1.762967586517
112.529655456543 -69.777725219727 -166.052886962891 1.350541949272
17.223646163940 -72.666259765625 -171.586624145508 1.273639321327
-34.397125244141 -70.864944458008 -173.894989013672 1.173504948616
-27.388351440430 -70.713630676270 -172.210311889648 2.138331651688
-37.401977539063 -69.735168457031 -173.040603637695 2.101589441299
-141.809310913086 -71.269294738770 -177.709838867188 1.847006320953
-25.535583496094 -71.042633056641 -181.132980346680 1.143249273300
16.313310623169 -70.802040100098 -175.627120971680 0.846546411514
106.760253906250 -70.461532592773 -175.719299316406 2.532428026199
106.410301208496 -70.312553405762 -178.902313232422 1.491701006889
-23.201625823975 -70.705108642578 -179.089385986328 3.113382577896
16.758283615112 -71.562149047852 -181.509277343750 0.222009748220
-141.155258178711 -70.946342468262 -185.015411376953 2.391911983490
-27.595216751099 -70.728141784668 -183.103668212891 1.988782525063
-26.763528823853 -70.664779663086 -185.621932983398 0.950179159641
25.530862808228 -71.254241943359 -185.691940307617 1.780340075493
22.503416061401 -71.902427673340 -190.344818115234 1.102347373962
-109.207908630371 -70.336212158203 -187.872863769531 1.044507861137
14.842078208923 -71.397628784180 -188.527496337891 0.942813992500
22.204071044922 -71.054443359375 -189.653198242188 0.680800795555
-20.392755508423 -71.293930053711 -188.882202148438 1.764148831367
-111.879753112793 -70.217292785645 -194.952499389648 1.933746099472
104.340843200684 -70.450950622559 -191.039810180664 1.923729538918
-123.428573608398 -71.159408569336 -194.763015747070 0.743977665901
-138.945465087891 -71.153083801270 -195.934814453125 1.931331634521
-116.121765136719 -71.291389465332 -197.334838867188 1.169120907784
-112.529380798340 -71.707237243652 -198.730331420898 0.879126667976
100.683845520020 -70.974555969238 -200.576187133789 0.792718768120
-10.686882019043 -70.869384765625 -201.983001708984 1.794731020927
-18.488983154297 -69.823059082031 -203.048324584961 1.274986386299
98.858009338379 -70.662048339844 -202.716140747070 2.367085695267
-125.550765991211 -70.894523620605 -204.087020874023 1.700436115265
-21.437150955200 -71.308403015137 -204.282363891602 1.364959478378
10.349067687988 -72.276649475098 -208.584350585938 1.519934177399
-143.297546386719 -70.187751770020 -207.777420043945 1.385286211967
-8.636851310730 -70.720375061035 -210.478439331055 1.849178671837
16.405328750610 -70.932342529297 -208.309097290039 1.077798962593
95.986808776855 -72.208435058594 -210.419342041016 1.246684551239
95.871826171875 -70.966506958008 -208.660385131836 3.090932607651
18.617515563965 -70.761962890625 -209.019332885742 0.702460944653
12.891502380371 -70.938484191895 -213.469940185547 1.200480461121
-93.437019348145 -70.714080810547 -215.653106689453 1.811229467392
-90.449127197266 -70.947868347168 -217.578872680664 1.226182579994
83.568252563477 -71.285209655762 -216.582244873047 1.481753468513
13.747729301453 -71.500022888184 -219.792831420898 1.099206209183
-102.159515380859 -71.114990234375 -219.030181884766 1.140419125557
-10.571950912476 -71.458816528320 -217.760025024414 1.642627716064
-18.549486160278 -71.106231689453 -222.301239013672 2.064799785614
8.502490043640 -70.781089782715 -221.499588012695 1.580720305443
-6.246466159821 -71.318229675293 -223.499542236328 2.324800491333
-126.532531738281 -70.485206604004 -223.662368774414 1.235922217369
-8.755575180054 -71.078674316406 -223.803192138672 1.387349128723
-102.869949340820 -70.922218322754 -225.806701660156 1.596749186516
-138.810180664063 -72.146553039551 -225.799118041992 2.486102104187
-112.296905517578 -70.485877990723 -225.871368408203 1.161582708359
83.185195922852 -70.925231933594 -225.786254882813 1.756229877472
16.396989822388 -71.246467590332 -225.261337280273 1.635404348373
-165.991958618164 -70.430061340332 -227.995529174805 0.892083823681
-109.649230957031 -71.166999816895 -229.897171020508 1.538752317429
-116.930374145508 -71.817092895508 -231.550415039063 1.127931475639
79.803230285645 -71.261039733887 -229.828399658203 1.623983263969
11.105545997620 -71.192665100098 -234.534179687500 2.055774211884
1.350571036339 -73.097816467285 -233.330947875977 2.673833847046
16.183784484863 -71.444381713867 -237.178451538086 1.273519039154
-1.932855010033 -71.469627380371 -233.977340698242 1.712294578552
74.395477294922 -70.940132141113 -234.747421264648 1.722882866859
-3.182641029358 -70.734947204590 -235.666839599609 0.932134628296
10.486941337585 -70.758720397949 -234.844985961914 1.603260636330
0.060621999204 -70.760322570801 -236.698181152344 1.583557367325
2.008678913116 -71.800651550293 -238.029067993164 2.689142942429
6.490816116333 -72.548835754395 -240.969863891602 1.886713385582
63.660560607910 -71.511550903320 -240.360488891602 2.067513942719
10.619729042053 -69.959373474121 -241.954406738281 0.746131896973
54.412952423096 -71.123550415039 -244.612991333008 2.068206548691
-12.381142616272 -71.485656738281 -245.857086181641 1.521354794502
-12.766575813293 -73.021858215332 -248.322433471680 1.517219424248
-72.506713867188 -71.231636047363 -250.183563232422 1.347620368004
38.858966827393 -71.427803039551 -251.700469970703 3.388191461563
-77.095283508301 -71.449058532715 -252.349227905273 2.445070028305
-153.834136962891 -70.963516235352 -254.675720214844 1.320787191391
-82.380432128906 -72.570976257324 -254.188446044922 1.034477829933
-138.709960937500 -72.173133850098 -255.051879882813 2.487469434738
40.905429840088 -71.503494262695 -254.709243774414 1.706728816032
-110.507148742676 -71.376319885254 -256.124572753906 0.490436553955
-93.607330322266 -71.396842956543 -257.218109130859 1.824113845825
-155.241455078125 -70.833862304688 -257.755523681641 1.419363498688
-109.542358398438 -70.546516418457 -261.331573486328 1.037781596184
-166.691085815430 -72.585311889648 -261.508392333984 1.456096529961
-155.818984985352 -71.268005371094 -264.109588623047 2.016679286957
-153.683227539063 -71.348281860352 -266.245208740234 1.992368578911
-13.932313919067 -71.367156982422 -261.780822753906 1.591619491577
24.834651947021 -71.288169860840 -267.960113525391 1.846801400185
-153.627548217773 -71.429695129395 -267.931182861328 3.132376194000
-13.336965560913 -71.906745910645 -267.706665039063 2.278042316437
-156.743545532227 -71.637901306152 -271.299377441406 3.176797628403
-11.300902366638 -71.018722534180 -272.559570312500 2.268243074417
22.481712341309 -70.446006774902 -274.959930419922 1.603007793427
-158.216369628906 -72.086288452148 -277.922271728516 1.901342988014
-160.159362792969 -71.203292846680 -277.676696777344 0.624885857105
-155.357025146484 -72.145706176758 -280.869995117188 2.436141967773
-125.146034240723 -72.506149291992 -283.465820312500 1.462469220161
17.465328216553 -71.476585388184 -282.314086914063 1.578047394753
-138.839340209961 -71.288978576660 -285.265289306641 2.705205678940
-90.544296264648 -71.838798522949 -286.047668457031 3.255830526352
-75.142616271973 -72.131523132324 -285.809204101563 0.907556891441
-74.639312744141 -72.012535095215 -285.888092041016 1.218398094177
-69.121315002441 -71.398895263672 -287.012512207031 2.336949348450
-52.594150543213 -72.265106201172 -288.163665771484 1.543295264244
-156.550033569336 -72.235160827637 -286.925689697266 1.346688270569
-66.993011474609 -71.386459350586 -287.560974121094 1.644474148750
-60.254566192627 -71.957450866699 -288.431915283203 2.032513380051
5.129041194916 -72.241355895996 -289.727722167969 2.265437602997
-77.606979370117 -72.282630920410 -290.127349853516 2.128753423691
-102.032493591309 -72.043640136719 -291.358062744141 2.910021543503
-122.357208251953 -72.080963134766 -292.052490234375 2.325098514557
-155.308929443359 -71.206382751465 -293.239593505859 1.923132538795
-126.602500915527 -71.015617370605 -293.972991943359 1.527534365654
-142.918045043945 -72.703392028809 -308.392425537109 2.827049970627
-151.722869873047 -70.766532897949 -312.016967773438 1.043687462807
41.341171264648 -66.173477172852 -18.688840866089 0.779659271240
49.464675903320 -64.923141479492 -24.336740493774 3.375984191895
45.993297576904 -66.122337341309 -34.445968627930 2.285096168518
-50.318721771240 -68.311141967773 -46.675304412842 1.966506719589
-70.504165649414 -67.956741333008 -47.160270690918 1.170719742775
-31.763042449951 -67.882965087891 -50.297328948975 0.792645454407
-89.909767150879 -69.661216735840 -63.617885589600 1.533373951912
82.981002807617 -68.722595214844 -63.652893066406 1.354203104973
86.849151611328 -70.038040161133 -65.285430908203 1.505108356476
-15.101062774658 -69.568832397461 -66.711692810059 2.331222295761
96.341644287109 -68.594429016113 -69.337738037109 1.756175994873
70.035621643066 -68.660041809082 -69.715751647949 1.437070369720
-39.799655914307 -67.397811889648 -76.149742126465 1.919176459312
-42.743988037109 -69.171775817871 -78.480903625488 0.518938660622
64.421661376953 -68.598335266113 -83.778480529785 0.746649205685
64.350578308105 -68.928642272949 -86.493957519531 1.477315306664
101.048110961914 -69.637863159180 -88.729660034180 1.715875267982
-58.963188171387 -69.862258911133 -89.608703613281 1.488220334053
-96.714332580566 -68.257865905762 -91.797264099121 0.882376670837
47.153625488281 -69.400398254395 -96.124908447266 1.181012630463
100.313331604004 -69.870773315430 -91.960723876953 2.087640285492
106.088058471680 -69.062873840332 -99.495071411133 1.509973406792
72.366340637207 -69.588600158691 -98.459083557129 2.120336055756
52.399719238281 -69.083786010742 -101.394416809082 1.675407767296
-96.321907043457 -69.375091552734 -99.991394042969 2.866483449936
47.147506713867 -67.213203430176 -100.255363464355 0.829653203487
53.626609802246 -67.322639465332 -101.728843688965 1.411518335342
81.491577148438 -68.420333862305 -102.367103576660 2.409957408905
85.113670349121 -67.613922119141 -102.837692260742 1.935676455498
-95.898880004883 -70.221763610840 -104.415733337402 1.350098967552
40.286968231201 -68.774681091309 -104.818069458008 1.129192948341
47.113945007324 -68.885498046875 -106.139617919922 0.956453680992
103.545318603516 -68.502281188965 -104.886482238770 0.924200236797
41.990287780762 -69.589843750000 -111.178489685059 1.520819664001
37.606117248535 -69.764160156250 -109.440299987793 2.351840496063
112.557891845703 -70.764785766602 -110.092636108398 1.788822174072
37.133239746094 -69.413398742676 -111.662315368652 2.847199440002
106.711708068848 -68.385154724121 -114.969818115234 1.407279014587
-77.820480346680 -69.833755493164 -114.081993103027 1.257623910904
-85.189979553223 -69.239387512207 -120.061225891113 1.735818743706
107.898338317871 -69.546371459961 -120.906219482422 0.820972025394
38.985569000244 -68.915153503418 -124.437637329102 1.089025735855
-59.961326599121 -69.492065429688 -125.913352966309 1.788017630577
-86.613319396973 -68.820365905762 -122.900199890137 0.915240645409
-60.452816009521 -70.372772216797 -131.219253540039 1.126682519913
-84.204803466797 -69.105598449707 -128.909393310547 1.362559080124
-73.657463073730 -69.553840637207 -130.085983276367 1.187685132027
-48.241844177246 -70.007331848145 -133.161163330078 1.085560441017
-90.186180114746 -69.059669494629 -134.666351318359 1.476463437080
-76.018249511719 -69.529335021973 -134.531387329102 1.158762931824
-76.561553955078 -68.984558105469 -134.485321044922 1.554427266121
-46.340885162354 -70.924118041992 -136.800201416016 1.413753986359
-74.765083312988 -68.887672424316 -138.824798583984 1.062916636467
-78.839958190918 -69.593292236328 -137.034286499023 1.972428083420
110.257682800293 -70.367279052734 -140.782028198242 1.096378445625
26.337329864502 -69.190521240234 -142.570434570313 0.922392487526
-43.249355316162 -69.628402709961 -144.862655639648 1.360634565353
114.170700073242 -68.734916687012 -141.813339233398 1.764028906822
-55.967437744141 -69.956344604492 -145.576293945313 1.134835600853
-50.878288269043 -69.011680603027 -146.379409790039 1.827375292778
31.940359115601 -69.351066589355 -148.908432006836 1.683098912239
28.779785156250 -70.098548889160 -148.819442749023 0.704060137272
116.569770812988 -70.606674194336 -146.320846557617 1.033269643784
-47.925064086914 -69.802284240723 -150.987060546875 1.131354808807
9.256695747375 -68.046737670898 -152.666091918945 0.596918642521
-47.930374145508 -69.123184204102 -155.211074829102 1.794104814529
31.462694168091 -69.572616577148 -152.541244506836 1.593267560005
112.480178833008 -69.124786376953 -151.537200927734 3.040252208710
114.545410156250 -69.392204284668 -153.366790771484 2.176493644714
29.505748748779 -68.660629272461 -156.199600219727 1.809979915619
111.920211791992 -69.308387756348 -157.718521118164 1.524796485901
24.676443099976 -69.720336914063 -159.686676025391 1.497378349304
110.731201171875 -69.799697875977 -156.255767822266 1.461865425110
26.664375305176 -69.915740966797 -161.018829345703 0.747928023338
24.889142990112 -69.471023559570 -163.724914550781 2.528042554855
111.650535583496 -69.528938293457 -164.164550781250 1.454297065735
-30.494827270508 -70.310317993164 -167.679046630859 0.984373629093
-39.553546905518 -69.172248840332 -168.134338378906 2.133592367172
28.237028121948 -70.293426513672 -171.117385864258 1.745076179504
-143.689895629883 -68.981666564941 -175.066070556641 1.803122162819
-34.323707580566 -69.361442565918 -176.905120849609 1.577258348465
-108.269767761230 -69.875045776367 -180.743881225586 1.905542135239
26.319906234741 -69.657386779785 -178.478256225586 2.356979370117
-151.636352539063 -70.973014831543 -180.206451416016 2.299583196640
-24.117916107178 -69.755157470703 -179.141052246094 3.355159282684
-33.133007049561 -71.193351745605 -181.930587768555 1.283084630966
-141.165588378906 -70.764694213867 -182.165328979492 1.339643478394
-110.719345092773 -68.662841796875 -182.279205322266 1.939136385918
-32.347297668457 -71.200843811035 -183.093338012695 1.413098931313
-107.007797241211 -69.459144592285 -185.936828613281 2.441549777985
106.460853576660 -70.164688110352 -184.730316162109 2.295826673508
22.151226043701 -69.390251159668 -183.368606567383 1.955631732941
-25.740392684937 -70.761795043945 -188.205551147461 1.194908022881
16.634332656860 -70.128395080566 -184.458816528320 2.195314645767
-21.402645111084 -69.611892700195 -193.608978271484 0.497794777155
