9.825720787048 -77.089096069336 -239.394058227539 1.708375930786
-50.663047790527 -77.502647399902 -241.986907958984 2.224750757217
-23.596454620361 -77.364692687988 -241.602416992188 1.346386194229
-150.137390136719 -75.316589355469 -246.983963012695 1.311065435410
21.672142028809 -76.394882202148 -243.476760864258 0.712554872036
-45.235935211182 -76.390769958496 -245.721160888672 1.889704585075
-51.175907135010 -76.827781677246 -247.054412841797 1.854390501976
-59.473529815674 -76.934944152832 -248.247268676758 1.334071874619
-146.410736083984 -77.099189758301 -251.838256835938 0.357255071402
-10.385051727295 -75.453178405762 -249.868225097656 0.775666356087
-153.106109619141 -77.403381347656 -255.455398559570 2.420228004456
-153.427749633789 -74.531265258789 -255.779373168945 1.980466723442
-137.672653198242 -76.777412414551 -259.169982910156 1.364556431770
-151.984436035156 -79.062332153320 -265.288391113281 1.039047122002
-12.788510322571 -75.291755676270 -265.350006103516 0.500351190567
18.731245040894 -76.356369018555 -271.652435302734 2.442878723145
17.248916625977 -78.942741394043 -270.596252441406 0.917501151562
11.786676406860 -75.907600402832 -281.499328613281 1.962978601456
7.101933956146 -78.248512268066 -281.609313964844 2.365169286728
-29.019386291504 -75.318443298340 -285.293304443359 0.773070633411
-42.416091918945 -76.844985961914 -286.759735107422 0.184005111456
-40.541240692139 -77.025939941406 -287.324188232422 2.101739645004
-14.613965988159 -76.953926086426 -286.614135742188 0.559115529060
-34.797348022461 -77.169273376465 -287.269470214844 1.153611660004
-50.336566925049 -76.803688049316 -287.796936035156 1.258621811867
0.454816997051 -77.003990173340 -287.309204101563 2.201668739319
-127.172409057617 -76.378959655762 -289.030303955078 1.520082592964
3.122322082520 -77.128250122070 -287.792297363281 1.863443493843
10.423899650574 -76.948753356934 -287.495300292969 1.705255866051
-47.569057464600 -76.063949584961 -290.052642822266 0.657790243626
13.415045738220 -77.281845092773 -288.064239501953 2.292043209076
-19.821826934814 -77.139770507813 -289.697662353516 1.127007365227
-126.405769348145 -75.585601806641 -292.728881835938 1.267369747162
-29.368612289429 -76.749763488770 -290.156341552734 2.548307657242
-16.373987197876 -75.665962219238 -290.676086425781 1.129275560379
5.573631763458 -76.630050659180 -290.703582763672 1.621017575264
-143.529388427734 -76.408828735352 -294.183685302734 2.860117912292
-151.894989013672 -76.572189331055 -306.061218261719 1.755307912827
-144.571197509766 -75.525482177734 -311.553436279297 0.735595464706
-60.334949493408 -75.027183532715 -55.141033172607 1.411648392677
-70.855606079102 -75.221458435059 -56.592224121094 2.043976783752
-73.642768859863 -75.357978820801 -57.826957702637 1.561424374580
-38.187431335449 -75.900634765625 -61.319301605225 1.354929566383
-35.090507507324 -75.542449951172 -61.880245208740 1.216008901596
-91.211509704590 -74.004096984863 -71.952072143555 1.722786664963
-91.527137756348 -75.090095520020 -76.985328674316 2.349980831146
77.067787170410 -75.836097717285 -73.831298828125 2.399634361267
77.686134338379 -76.595046997070 -75.942276000977 1.722278594971
-33.894599914551 -75.780380249023 -78.468887329102 2.077584028244
73.317375183105 -75.847557067871 -77.246009826660 1.480524659157
84.938888549805 -76.336463928223 -77.108634948730 1.869062423706
-89.633316040039 -78.140487670898 -84.347747802734 2.807698965073
-91.247673034668 -77.104614257813 -84.792556762695 1.826054811478
89.877777099609 -76.410255432129 -85.405662536621 1.703448057175
-56.259426116943 -75.263839721680 -90.237274169922 2.394223213196
81.421791076660 -75.774147033691 -91.464210510254 1.995970845222
85.286621093750 -76.474594116211 -91.698272705078 1.644968509674
87.418281555176 -75.908172607422 -92.136856079102 1.553221106529
48.385654449463 -76.805976867676 -96.270034790039 2.184149026871
-78.963928222656 -72.430603027344 -100.803520202637 1.367845654488
49.590938568115 -75.019508361816 -104.790588378906 1.651229619980
44.010978698730 -75.216514587402 -111.782104492188 3.135987997055
44.786094665527 -76.004287719727 -114.136047363281 1.556511282921
40.570735931396 -76.084373474121 -118.588783264160 2.994449138641
27.779548645020 -74.616218566895 -123.059150695801 3.630691289902
26.935644149780 -76.171546936035 -126.596748352051 3.300189018250
26.834655761719 -74.661247253418 -131.701644897461 3.474578857422
23.572921752930 -76.556510925293 -136.835922241211 2.769936323166
34.556770324707 -75.740829467773 -139.775878906250 2.181366205215
111.976783752441 -76.215751647949 -134.517440795898 1.934296846390
25.203559875488 -75.577865600586 -137.718307495117 1.602717638016
113.387626647949 -75.573516845703 -138.425964355469 1.887690305710
-53.298389434814 -74.965347290039 -142.074798583984 1.960178732872
-53.263404846191 -75.271881103516 -143.814895629883 1.608343005180
111.224342346191 -76.662971496582 -143.137695312500 1.332861900330
109.142013549805 -76.220901489258 -143.992019653320 1.745751142502
20.755168914795 -76.245941162109 -148.661010742188 2.791487216949
-56.078510284424 -74.841178894043 -148.359390258789 1.779232978821
-53.409206390381 -74.947235107422 -148.990798950195 1.122450232506
32.122005462646 -76.004631042480 -148.765441894531 1.355853199959
31.397666931152 -74.718147277832 -153.173156738281 1.508909583092
29.247175216675 -74.977706909180 -154.564193725586 2.491370916367
23.296773910522 -76.941764831543 -151.392623901367 1.974809527397
-48.369453430176 -74.816825866699 -158.678024291992 1.231645941734
19.240097045898 -76.304023742676 -156.868988037109 2.183371067047
0.448412001133 -75.543327331543 -158.366516113281 2.214993238449
-3.218705892563 -76.259971618652 -161.434906005859 2.323116302490
2.409895896912 -76.551521301270 -161.827484130859 1.874552488327
21.202514648438 -76.595542907715 -162.135620117188 1.695614814758
-33.770458221436 -75.883338928223 -167.135391235352 1.913604021072
25.899307250977 -75.682670593262 -167.264785766602 3.030638933182
106.214096069336 -75.975151062012 -163.583953857422 2.204375028610
16.528902053833 -76.007980346680 -170.011474609375 2.391484975815
-11.247787475586 -75.625473022461 -169.566940307617 2.221315860748
-31.572917938232 -76.905303955078 -172.274291992188 2.493031978607
-9.550250053406 -75.942749023438 -173.080581665039 1.665585994720
19.757730484009 -76.405075073242 -168.236816406250 1.123823761940
-57.902381896973 -75.928390502930 -174.956893920898 0.721799433231
-54.125167846680 -75.739227294922 -176.489898681641 1.065150618553
14.864948272705 -76.350448608398 -178.316543579102 2.778583049774
109.711242675781 -76.077247619629 -174.490280151367 1.629404306412
14.702971458435 -76.692031860352 -180.214172363281 1.968692302704
17.840360641479 -76.150672912598 -177.741256713867 1.760548114777
102.059494018555 -75.244735717773 -178.977752685547 3.901671886444
-58.229846954346 -77.707946777344 -182.961364746094 1.685562133789
23.952087402344 -75.386054992676 -183.509445190430 2.187259674072
-21.282575607300 -75.592887878418 -184.038131713867 1.726149559021
-48.614158630371 -75.448410034180 -185.231140136719 0.838901102543
-147.946411132813 -78.023605346680 -187.563705444336 1.738186478615
100.283164978027 -76.375709533691 -186.061187744141 3.642706394196
-150.854736328125 -75.561965942383 -194.097717285156 1.316057205200
21.720434188843 -75.935531616211 -190.277374267578 1.974481940269
-29.834403991699 -75.594192504883 -188.408920288086 1.688229441643
-50.442436218262 -75.764343261719 -193.571640014648 2.177048683167
-27.027772903442 -75.511016845703 -196.641967773438 1.969698667526
95.862884521484 -75.708473205566 -194.158798217773 3.263242721558
-37.357013702393 -76.340995788574 -198.707626342773 2.206586837769
9.702483177185 -77.353797912598 -198.896820068359 1.800111532211
94.891662597656 -76.049362182617 -196.835388183594 2.329250335693
10.750292778015 -76.183303833008 -201.131149291992 1.456700086594
17.310371398926 -75.584533691406 -198.176162719727 2.533537626266
-11.905063629150 -76.717491149902 -203.056411743164 1.625717520714
16.844539642334 -76.009475708008 -198.131439208984 2.487289190292
-35.439868927002 -75.893066406250 -207.136306762695 0.721720874310
-9.573519706726 -75.808204650879 -206.232635498047 1.682274937630
-21.152164459229 -75.206314086914 -206.575912475586 2.260205745697
-74.572982788086 -75.723915100098 -209.741378784180 1.065361261368
-34.618171691895 -76.130775451660 -208.560333251953 1.634111166000
7.486519813538 -76.603683471680 -205.041564941406 2.090325117111
-10.612613677979 -75.640640258789 -208.310714721680 0.775341212749
92.526451110840 -76.144050598145 -211.001251220703 1.688795924187
-15.085686683655 -74.974540710449 -213.345336914063 1.269534468651
-20.698169708252 -74.953529357910 -215.954269409180 0.731333315372
-80.421638488770 -75.538642883301 -215.671096801758 0.360285967588
-147.461853027344 -75.877929687500 -217.454025268555 1.585998773575
15.369905471802 -75.449867248535 -214.242111206055 2.199411869049
-2.977125883102 -74.832901000977 -216.025161743164 0.833122789860
-18.905464172363 -76.007911682129 -218.243331909180 1.489436149597
-12.236215591431 -74.386993408203 -218.118789672852 1.886715412140
-21.887920379639 -75.601516723633 -219.410293579102 1.182482600212
5.062802791595 -74.727119445801 -218.962234497070 2.429693937302
-150.163909912109 -74.956497192383 -219.180007934570 2.718032598495
-20.889602661133 -77.542175292969 -222.437911987305 1.905412316322
82.932434082031 -76.286102294922 -219.545028686523 2.436126232147
-10.863343238831 -74.524711608887 -223.353775024414 1.609705924988
-6.589300155640 -75.610076904297 -225.329620361328 0.646363556385
-21.915107727051 -76.404090881348 -223.088516235352 2.170780181885
-155.084091186523 -74.134338378906 -228.974166870117 1.449806094170
77.118011474609 -75.673660278320 -227.058853149414 1.900988936424
-10.172535896301 -75.061058044434 -228.446319580078 1.208110213280
-138.822708129883 -74.786231994629 -229.846420288086 2.481519460678
-149.379684448242 -72.502700805664 -231.782669067383 1.345315337181
-138.839477539063 -76.356994628906 -232.356445312500 2.603279352188
-0.663313984871 -76.348373413086 -233.661788940430 2.394408702850
-146.306915283203 -75.017631530762 -236.923797607422 2.001731872559
1.216539025307 -76.506896972656 -234.215393066406 1.612787365913
17.249187469482 -75.463882446289 -236.679504394531 0.948213398457
-0.851550996304 -75.625648498535 -238.244766235352 1.090572714806
-46.519546508789 -76.041000366211 -240.868194580078 1.540926694870
-48.891082763672 -75.997116088867 -241.387481689453 0.780499875546
-26.527406692505 -75.891197204590 -242.403274536133 0.906207025051
-150.483856201172 -74.895896911621 -245.472625732422 1.733263611794
-40.032573699951 -76.799896240234 -244.739807128906 1.725475072861
-66.583320617676 -76.744628906250 -247.135070800781 0.897689640522
-48.683414459229 -75.232658386230 -246.648605346680 0.773265600204
-62.621212005615 -75.620971679688 -249.862442016602 1.238916039467
-73.475868225098 -75.669517517090 -250.762435913086 1.189900517464
-143.766662597656 -73.027290344238 -255.678207397461 1.097588896751
20.563367843628 -76.759094238281 -256.952850341797 1.435384750366
-127.438514709473 -75.180976867676 -261.837921142578 1.989386796951
-10.850806236267 -77.774703979492 -267.598052978516 1.762013792992
-13.109814643860 -73.877243041992 -269.201599121094 0.392981082201
19.193155288696 -74.680709838867 -273.504882812500 2.284739494324
-146.725128173828 -75.601402282715 -282.016998291016 0.353466719389
-5.030491828918 -74.906425476074 -281.534454345703 2.932616472244
-155.317001342773 -75.177864074707 -288.054901123047 1.205432057381
-130.905792236328 -75.876556396484 -288.226715087891 1.594034790993
-27.590068817139 -75.952453613281 -285.807617187500 0.839859306812
-133.056594848633 -75.371376037598 -287.569244384766 1.781207084656
-66.577346801758 -75.657249450684 -287.320617675781 1.354862213135
-139.488662719727 -75.109313964844 -289.784088134766 2.682249784470
8.663619041443 -76.431556701660 -287.035247802734 1.173287153244
-119.395759582520 -75.956626892090 -290.046112060547 1.775584340096
-68.995384216309 -75.755104064941 -288.907196044922 1.765943527222
-141.895767211914 -75.882743835449 -291.649139404297 1.149072289467
-54.688636779785 -74.921493530273 -290.444213867188 0.619720220566
-30.171865463257 -75.765701293945 -290.548278808594 2.233284950256
-5.571987152100 -76.515899658203 -290.281341552734 1.757291913033
-142.979370117188 -75.342964172363 -293.771209716797 1.847154974937
-153.492538452148 -74.952033996582 -295.048614501953 0.773594081402
-152.014648437500 -76.658706665039 -295.988464355469 1.555877089500
-147.342315673828 -75.493972778320 -299.248657226563 0.691751778126
-144.593231201172 -75.577774047852 -303.791870117188 1.154176473618
-51.173877716064 -74.501838684082 -54.265365600586 1.523860573769
-66.139556884766 -73.586616516113 -53.041324615479 0.626559197903
-64.472343444824 -74.664756774902 -54.586063385010 0.539373993874
-47.272029876709 -75.108901977539 -55.920547485352 1.354681611061
-42.275157928467 -75.253700256348 -57.787952423096 1.331468343735
-38.236549377441 -75.465652465820 -59.989894866943 1.285228013992
-28.519166946411 -74.144592285156 -62.157180786133 1.761173605919
-27.676427841187 -74.780593872070 -64.455955505371 2.012579917908
-25.238199234009 -75.587432861328 -69.641349792480 1.597783565521
87.479774475098 -75.327369689941 -73.178222656250 1.956570625305
76.438796997070 -75.369071960449 -72.354499816895 2.229175806046
72.353187561035 -74.389175415039 -73.468070983887 2.787765026093
-38.144908905029 -74.686027526855 -78.460411071777 1.211522340775
-47.838630676270 -73.183151245117 -83.347404479980 2.532591819763
-53.731044769287 -72.919982910156 -87.458839416504 2.755532741547
-54.639747619629 -75.212959289551 -89.099700927734 2.031896114349
-92.719696044922 -77.429367065430 -93.944786071777 1.975053548813
71.729179382324 -75.308700561523 -90.359161376953 2.310384511948
89.796195983887 -75.838310241699 -90.808570861816 2.669813394547
72.841461181641 -75.147766113281 -92.575378417969 1.214801669121
-95.632652282715 -74.588279724121 -102.291839599609 2.536238193512
75.732299804688 -75.145637512207 -94.312454223633 0.528833091259
46.939628601074 -75.192794799805 -97.493957519531 1.915388822556
51.571609497070 -75.645668029785 -97.831504821777 1.456972599030
38.730068206787 -75.246841430664 -102.207992553711 2.948661088943
42.914741516113 -74.917221069336 -99.936813354492 2.909572362900
41.621520996094 -74.793098449707 -101.432289123535 3.122172355652
-95.668167114258 -74.445190429688 -107.891029357910 3.788170099258
46.872734069824 -76.607254028320 -108.648315429688 1.803167462349
33.817272186279 -75.076957702637 -113.891441345215 2.070323467255
30.237228393555 -73.740676879883 -122.656089782715 2.688070058823
110.125946044922 -75.385231018066 -120.234008789063 1.610711455345
108.802360534668 -75.587570190430 -119.489509582520 1.034710288048
106.839714050293 -74.925941467285 -121.244430541992 1.797253012657
110.381408691406 -75.973793029785 -126.339523315430 0.905190706253
37.691284179688 -74.944793701172 -131.074111938477 1.372516989708
34.587833404541 -76.086807250977 -133.440292358398 3.003017425537
24.797977447510 -75.275100708008 -138.899688720703 2.229105234146
21.425178527832 -74.514686584473 -143.293212890625 2.529506683350
108.921783447266 -75.925682067871 -141.439361572266 1.823459267616
108.235549926758 -75.385070800781 -144.580505371094 2.652060508728
-46.887172698975 -75.135627746582 -146.669357299805 1.920903205872
22.842971801758 -75.162330627441 -147.942031860352 1.304173827171
-67.925582885742 -74.059051513672 -151.228210449219 1.011141896248
-74.595848083496 -74.045616149902 -152.736831665039 2.461358070374
107.524803161621 -74.896392822266 -151.406631469727 2.519707679749
113.281730651855 -75.603630065918 -153.260543823242 1.248177289963
30.910011291504 -74.437461853027 -155.477920532227 1.015058875084
-70.515907287598 -74.162933349609 -154.712692260742 1.493267297745
3.850564956665 -74.295074462891 -155.430435180664 2.781174898148
4.029482841492 -75.638374328613 -158.365020751953 0.689769268036
-68.705101013184 -73.551094055176 -159.886337280273 1.298999786377
-47.779102325439 -74.661376953125 -163.431213378906 1.932511925697
19.430070877075 -75.452026367188 -165.499008178711 1.670691370964
107.453300476074 -75.593505859375 -155.602981567383 2.613041877747
29.611845016479 -74.439659118652 -161.914154052734 1.928025245667
1.071849942207 -74.953254699707 -164.632461547852 2.739349842072
17.611183166504 -75.965797424316 -164.903503417969 2.902861595154
-63.838455200195 -74.606544494629 -167.565841674805 1.417901396751
-62.623630523682 -75.006370544434 -170.107360839844 1.934063553810
-42.338973999023 -74.417640686035 -168.202545166016 1.700363278389
25.865898132324 -74.840621948242 -168.455993652344 3.084062099457
18.499233245850 -75.435310363770 -169.933364868164 2.033589124680
27.864706039429 -75.039939880371 -167.669006347656 3.510781049728
17.865829467773 -74.764083862305 -171.241683959961 1.589764833450
-27.095569610596 -75.427673339844 -174.052215576172 0.962714493275
18.043319702148 -75.345520019531 -172.441024780273 1.515405058861
13.509108543396 -73.213859558105 -177.230926513672 1.870775341988
-61.121013641357 -74.243782043457 -177.759582519531 2.526932001114
107.010475158691 -74.813529968262 -175.868789672852 1.591427683830
13.282290458679 -75.060989379883 -180.643371582031 1.534165620804
26.100715637207 -73.749404907227 -176.533950805664 0.790427207947
-32.369239807129 -75.277954101563 -184.460098266602 1.009937047958
-48.224151611328 -74.896278381348 -186.351989746094 1.723908782005
13.874079704285 -75.392906188965 -188.797790527344 1.219872593880
-54.419712066650 -74.489540100098 -186.384841918945 2.486008405685
103.360961914063 -74.898178100586 -184.831298828125 1.503431916237
-50.012569427490 -74.622177124023 -192.758575439453 1.629410147667
-148.801391601563 -74.055694580078 -191.104095458984 2.028428316116
13.190627098083 -74.909729003906 -190.090026855469 1.968312978745
-42.382400512695 -73.890251159668 -196.053680419922 2.502954006195
12.398059844971 -75.679649353027 -194.837127685547 1.351205229759
-18.707702636719 -74.315017700195 -193.745651245117 1.583950877190
12.895745277405 -76.434295654297 -195.693084716797 1.772005677223
-138.401962280273 -74.752342224121 -198.617675781250 2.363878965378
18.430913925171 -74.433906555176 -196.972885131836 2.510255813599
-138.621627807617 -74.056335449219 -201.248306274414 2.015191555023
-140.445175170898 -73.965362548828 -202.477508544922 2.072444438934
-36.127632141113 -75.427040100098 -200.635299682617 1.793301820755
97.477134704590 -74.980499267578 -198.315795898438 1.512322425842
-154.108779907227 -72.944099426270 -203.927551269531 1.801944375038
-12.303811073303 -75.340217590332 -205.359344482422 1.464731931686
-34.273635864258 -75.234046936035 -202.706222534180 1.103516817093
-41.207145690918 -75.635665893555 -205.110748291016 1.616752982140
6.317280769348 -75.389198303223 -207.114440917969 1.367030382156
90.312843322754 -74.698738098145 -203.972610473633 3.188745260239
-76.907302856445 -74.800880432129 -209.812393188477 0.736519455910
-33.858806610107 -75.315910339355 -207.873886108398 1.685814023018
-8.241713523865 -75.517631530762 -212.213897705078 1.320175170898
-75.554931640625 -74.839996337891 -212.223663330078 1.106022238731
-36.488063812256 -74.450241088867 -209.807052612305 1.256683707237
-17.518751144409 -74.459190368652 -213.461517333984 0.951118826866
-23.344787597656 -73.753387451172 -214.290084838867 2.047148704529
93.230468750000 -74.568122863770 -211.233184814453 0.853779554367
-77.819297790527 -74.798385620117 -214.306655883789 1.701395034790
15.417378425598 -74.610534667969 -215.295440673828 1.921324729919
5.133993148804 -73.990814208984 -214.638916015625 1.533887624741
-4.694414138794 -74.319648742676 -217.276992797852 1.144500017166
-93.373893737793 -75.474227905273 -218.444503784180 0.625847160816
2.062726020813 -73.644203186035 -222.386154174805 1.856579542160
-20.654308319092 -75.287101745605 -219.354995727539 0.556677401066
17.335611343384 -75.225624084473 -220.487884521484 1.181673765182
78.864723205566 -74.735511779785 -219.922454833984 2.259248733521
-153.477828979492 -72.986167907715 -226.057266235352 0.791279792786
-14.485751152039 -75.265899658203 -222.200531005859 2.205135583878
83.764900207520 -75.473571777344 -222.041564941406 1.687581777573
-142.585983276367 -74.416534423828 -227.370574951172 2.182135343552
15.501242637634 -74.651649475098 -224.108184814453 1.956949472427
-9.761865615845 -73.872062683105 -225.680587768555 1.285633921623
5.274653911591 -75.726173400879 -225.357650756836 1.505071759224
18.418754577637 -75.924530029297 -230.014526367188 1.677894234657
70.020004272461 -74.721427917480 -231.133026123047 1.491452455521
76.211097717285 -75.082679748535 -229.186859130859 1.358257412910
5.293975830078 -73.708404541016 -233.640426635742 2.084005117416
0.486912995577 -73.462081909180 -235.843521118164 1.335548400879
-1.783390998840 -73.736366271973 -237.658172607422 1.084935903549
2.223545074463 -75.223297119141 -238.693603515625 1.265134930611
-41.978633880615 -75.518554687500 -240.124725341797 2.018909692764
4.451768875122 -75.089279174805 -238.390716552734 1.506616234779
-34.854450225830 -74.565696716309 -242.765136718750 1.407381296158
7.695648193359 -74.581268310547 -241.656158447266 0.908228933811
7.789493083954 -76.013824462891 -243.248870849609 0.288668900728
19.391204833984 -74.622581481934 -244.734405517578 1.273451805115
17.120101928711 -73.632240295410 -246.674575805664 0.828076899052
-80.427833557129 -74.909729003906 -251.700637817383 1.429437994957
20.769287109375 -73.138717651367 -250.776748657227 1.878101348877
-75.809364318848 -75.355789184570 -251.321350097656 1.626385450363
-142.352844238281 -75.156723022461 -257.515350341797 1.206606626511
-125.693511962891 -75.163093566895 -259.298339843750 1.371003150940
-135.770263671875 -73.722496032715 -260.928131103516 1.000766634941
-133.325607299805 -74.767730712891 -261.593536376953 1.344592809677
-151.486328125000 -78.184120178223 -265.990783691406 1.620279908180
-146.741287231445 -75.476158142090 -272.816253662109 1.933811903000
-150.452926635742 -75.747161865234 -268.789733886719 1.515650987625
-150.994125366211 -74.796768188477 -282.716522216797 0.644152581692
-163.277511596680 -73.938621520996 -286.393890380859 1.434439063072
-129.437789916992 -74.513008117676 -286.348907470703 3.671166896820
-47.022411346436 -75.583839416504 -285.880950927734 2.479973316193
-61.315177917480 -74.512924194336 -285.969573974609 1.998306989670
-74.135215759277 -74.366561889648 -286.841156005859 3.073168516159
0.871707022190 -76.194786071777 -283.831390380859 2.156305551529
-123.950477600098 -73.895141601563 -287.812622070313 1.241782188416
3.644891977310 -76.511070251465 -284.499206542969 2.455263137817
-136.031616210938 -74.765373229980 -289.074340820313 1.097540497780
-92.688125610352 -74.691535949707 -289.106628417969 1.473783731461
-81.675697326660 -75.066345214844 -288.991058349609 1.711725234985
-157.979354858398 -73.965469360352 -290.939727783203 2.186620712280
-138.501785278320 -74.792320251465 -291.732757568359 2.656848430634
-115.827781677246 -74.654342651367 -290.475616455078 0.516543924809
-68.313529968262 -75.134025573730 -290.079956054688 1.061964750290
16.487689971924 -74.397026062012 -289.995910644531 0.643252432346
-30.482570648193 -74.502334594727 -290.674987792969 1.662410855293
-18.193191528320 -74.751327514648 -290.924682617188 1.514778494835
-132.250442504883 -75.232040405273 -293.194427490234 1.797521352768
-129.814300537109 -73.626800537109 -294.873046875000 3.102678060532
-145.543212890625 -74.070236206055 -297.408752441406 2.007384061813
-144.056015014648 -74.811752319336 -303.854431152344 0.739182353020
-144.932815551758 -73.980918884277 -313.824035644531 1.879974842072
-62.689262390137 -73.593933105469 -52.735103607178 1.348067760468
-81.053863525391 -73.032829284668 -57.359718322754 1.002504467964
-81.524543762207 -72.858451843262 -57.392036437988 1.473280191422
-29.014944076538 -73.487625122070 -60.576934814453 1.180508136749
-25.055873870850 -73.288452148438 -62.809074401855 2.194768905640
-86.745521545410 -74.226928710938 -64.864501953125 1.030378460884
-89.904762268066 -73.928550720215 -68.975486755371 3.381824254990
80.388374328613 -73.522254943848 -68.608581542969 0.997879207134
87.773429870605 -74.209342956543 -70.736885070801 0.858774960041
-93.354385375977 -73.484794616699 -75.563552856445 2.151190996170
-31.958595275879 -74.586250305176 -77.595405578613 0.852355480194
91.950012207031 -73.839805603027 -77.076980590820 2.288407802582
91.186447143555 -75.305557250977 -81.426528930664 2.374102354050
-95.465820312500 -72.657417297363 -80.961242675781 2.859937191010
-51.855003356934 -72.641304016113 -85.116920471191 2.579874038696
94.429496765137 -73.806648254395 -86.607406616211 2.517518520355
-57.474861145020 -75.905090332031 -91.364234924316 2.773398399353
51.366985321045 -73.577552795410 -89.107742309570 2.159693002701
-59.392749786377 -75.419982910156 -91.863296508789 4.392070293427
46.471065521240 -74.199790954590 -92.331428527832 3.039495229721
42.926643371582 -75.182762145996 -96.590423583984 3.171444892883
52.308887481689 -73.458236694336 -94.121353149414 1.972338557243
51.550125122070 -72.799736022949 -98.327606201172 2.377309560776
38.726257324219 -73.756523132324 -100.851455688477 4.115717887878
104.407760620117 -73.872116088867 -100.468032836914 2.289961814880
-85.571990966797 -74.801971435547 -107.513038635254 3.591770887375
-86.195083618164 -74.814605712891 -109.126907348633 2.349795341492
105.899230957031 -74.482833862305 -105.774978637695 1.775198578835
43.915218353271 -74.374633789063 -112.263755798340 3.344000101089
44.075912475586 -74.321495056152 -115.885391235352 1.739731311798
-91.931221008301 -73.294685363770 -116.519828796387 1.022799253464
104.728164672852 -74.435890197754 -110.005844116211 1.495861411095
110.588546752930 -73.440620422363 -114.857429504395 2.045017719269
41.419357299805 -75.739433288574 -121.909606933594 3.280624866486
110.703308105469 -74.983253479004 -120.343963623047 2.022343158722
106.454452514648 -73.820884704590 -125.742637634277 2.561864376068
24.814931869507 -74.250816345215 -132.013397216797 4.246799945831
113.261238098145 -74.896553039551 -132.993515014648 1.758703470230
107.029838562012 -74.389846801758 -129.864227294922 2.026121616364
-58.783050537109 -73.576217651367 -135.881332397461 2.779191732407
-54.990123748779 -72.971694946289 -137.156921386719 1.657055497169
24.216209411621 -74.134880065918 -140.817596435547 0.984251976013
-57.828254699707 -71.974426269531 -135.895385742188 1.298828959465
-75.424560546875 -72.663299560547 -138.028228759766 1.115050315857
-74.103141784668 -73.549613952637 -142.125183105469 2.015492200851
107.171806335449 -73.310188293457 -136.483245849609 2.604309082031
-54.549343109131 -74.747955322266 -145.712158203125 1.318066477776
-76.356506347656 -73.786041259766 -143.760406494141 1.161065936089
-44.888675689697 -75.060028076172 -145.524261474609 0.975287497044
107.640411376953 -74.818412780762 -148.486541748047 2.917727231979
20.087659835815 -74.084747314453 -148.678436279297 3.308349609375
-75.214469909668 -73.040534973145 -152.439102172852 3.435456752777
-52.312942504883 -73.534233093262 -156.259384155273 1.545606136322
-38.746189117432 -74.602333068848 -155.003570556641 2.175311803818
-40.974258422852 -74.473602294922 -155.118759155273 2.320932865143
-73.369979858398 -73.309974670410 -156.489089965820 1.723330497742
8.216908454895 -73.889533996582 -156.511886596680 2.359930038452
-52.015579223633 -72.530708312988 -156.627258300781 2.200788736343
-48.594520568848 -73.313331604004 -158.623901367188 0.746265888214
27.574304580688 -74.787902832031 -161.316848754883 3.062083482742
-36.963668823242 -74.098800659180 -161.848495483398 1.927926778793
-69.252113342285 -74.415855407715 -164.582382202148 2.043955802917
106.614204406738 -74.240875244141 -157.243469238281 2.422992944717
106.162445068359 -73.243995666504 -158.527526855469 2.649573087692
27.129562377930 -74.516906738281 -162.831756591797 2.633023023605
109.630973815918 -74.158149719238 -165.370452880859 1.690805673599
108.306259155273 -74.577766418457 -166.528228759766 1.904838085175
15.663472175598 -74.911193847656 -171.728485107422 1.829364657402
-29.049684524536 -71.411521911621 -171.789413452148 2.007332086563
-54.685089111328 -74.686096191406 -176.598999023438 1.857988357544
107.694175720215 -74.033081054688 -174.687896728516 1.487505316734
-38.976730346680 -73.400947570801 -174.279281616211 1.354247093201
14.031963348389 -72.426521301270 -175.981872558594 1.977714419365
-37.955097198486 -72.831024169922 -179.777008056641 1.485501050949
-53.663364410400 -73.554573059082 -181.494293212891 0.642657220364
-147.745620727539 -72.907089233398 -184.091247558594 1.803644537926
-150.251754760742 -72.873497009277 -186.405029296875 0.732082664967
104.672966003418 -74.556808471680 -179.797607421875 2.077077388763
22.198684692383 -74.252388000488 -184.214385986328 2.694057941437
-53.175434112549 -73.571380615234 -184.333892822266 1.008107304573
-53.166141510010 -74.872917175293 -188.503524780273 1.269032478333
-48.285739898682 -73.684928894043 -189.876251220703 1.969889402390
-48.076160430908 -73.708511352539 -193.162536621094 1.117304086685
11.656428337097 -74.723037719727 -186.655822753906 2.060673713684
11.046746253967 -73.455993652344 -187.453552246094 2.298013925552
103.278724670410 -73.873603820801 -187.824844360352 0.721553981304
-26.610986709595 -73.131294250488 -194.229125976563 1.589538335800
-46.383754730225 -73.741958618164 -195.775421142578 1.994508504868
20.578525543213 -74.626052856445 -197.045364379883 1.016325831413
-43.242671966553 -73.782760620117 -196.741210937500 1.606073379517
97.579788208008 -74.699546813965 -196.660324096680 1.327896118164
-37.844261169434 -73.675743103027 -201.736206054688 1.105777025223
93.075820922852 -74.932678222656 -198.890945434570 2.541580677032
17.660921096802 -74.765365600586 -199.967376708984 1.529880046844
-39.294944763184 -73.356803894043 -203.859252929688 1.023630380630
17.650705337524 -73.558601379395 -201.142822265625 1.736076831818
-22.260410308838 -74.656196594238 -205.175323486328 2.343016624451
-40.294437408447 -74.195472717285 -204.700805664063 1.032733201981
93.553611755371 -74.624069213867 -206.074966430664 2.479202032089
8.497422218323 -74.113876342773 -206.552169799805 1.794297337532
89.793067932129 -73.972114562988 -212.290939331055 2.113989591599
-6.675590991974 -72.829055786133 -209.801254272461 1.380357623100
-27.533042907715 -73.981781005859 -210.452087402344 1.315785408020
-80.550064086914 -73.373710632324 -213.889678955078 1.720937132835
87.204940795898 -74.160667419434 -213.479721069336 0.968021273613
-20.727676391602 -73.805557250977 -216.394317626953 0.923637986183
17.650270462036 -73.849143981934 -214.360916137695 2.153753519058
-27.406116485596 -74.559646606445 -215.312789916992 0.743642330170
-31.854486465454 -73.800994873047 -214.689422607422 2.455404996872
-97.892860412598 -74.091094970703 -219.521423339844 1.690092802048
-13.574840545654 -71.599082946777 -220.170501708984 0.410537272692
-22.597507476807 -73.906227111816 -220.382339477539 0.603898584843
2.011790990829 -73.284103393555 -222.382156372070 1.951405167580
15.158187866211 -73.552116394043 -218.594345092773 1.863191485405
-14.692950248718 -73.589218139648 -221.409042358398 0.819490253925
-16.183361053467 -74.127830505371 -225.047317504883 1.157551646233
14.786718368530 -73.334640502930 -221.834701538086 1.135391831398
7.384499073029 -74.431007385254 -225.287261962891 2.494661092758
5.438676834106 -73.720680236816 -224.322509765625 2.418231248856
-127.841781616211 -73.955665588379 -229.914016723633 1.263205528259
-13.720150947571 -73.467872619629 -226.618789672852 0.976033329964
82.104988098145 -73.635169982910 -225.157318115234 1.034289598465
-16.922727584839 -73.523773193359 -228.850738525391 1.482586026192
-154.744888305664 -76.447044372559 -232.168869018555 2.191274881363
-127.768898010254 -73.763961791992 -232.274520874023 0.720071852207
-10.944347381592 -73.284782409668 -232.793045043945 1.282666087151
77.747970581055 -74.877708435059 -228.372650146484 1.254900574684
-8.258230209351 -74.441810607910 -231.279678344727 1.953053832054
-2.635938882828 -74.057685852051 -230.976547241211 1.667384147644
67.606216430664 -74.308639526367 -232.839843750000 3.568557024002
-2.304390907288 -74.701881408691 -235.961868286133 1.184847116470
67.884635925293 -74.551040649414 -234.288482666016 2.695335149765
-150.928161621094 -72.818092346191 -244.443435668945 1.007639169693
63.345214843750 -73.850967407227 -236.241134643555 1.329586625099
-34.562252044678 -74.582023620605 -239.150451660156 1.354837417603
-36.730812072754 -74.072204589844 -240.520339965820 1.716613054276
10.696397781372 -74.457534790039 -239.983261108398 2.193835020065
-43.044979095459 -73.666587829590 -242.012313842773 1.019917011261
-24.996440887451 -74.380302429199 -241.816162109375 1.270253539085
7.572185993195 -73.101890563965 -240.804702758789 1.148640155792
-42.107849121094 -73.663162231445 -243.040359497070 1.899861335754
-146.776428222656 -74.970695495605 -246.263702392578 1.853621006012
12.701109886169 -73.644958496094 -241.929229736328 1.589132070541
-150.653793334961 -74.296478271484 -244.326522827148 1.333327889442
-70.265571594238 -73.837905883789 -246.664215087891 0.284148693085
-6.470671176910 -74.568809509277 -246.086074829102 2.042726278305
-9.121476173401 -73.972976684570 -247.843414306641 0.940551340580
-81.824127197266 -72.789817810059 -249.873748779297 0.548488080502
-152.660949707031 -72.910224914551 -254.741027832031 1.354296922684
-144.448226928711 -75.443252563477 -255.015945434570 2.970685005188
-88.813720703125 -73.420867919922 -255.384368896484 1.141068935394
-164.315795898438 -73.095893859863 -259.844177246094 1.235958337784
-126.653884887695 -73.779975891113 -256.735290527344 1.708316564560
22.621601104736 -73.369422912598 -255.365631103516 1.786463379860
-155.410263061523 -74.286567687988 -258.476928710938 0.751230955124
-147.314834594727 -73.715286254883 -260.213653564453 1.004750609398
-163.059829711914 -73.497611999512 -262.495697021484 1.680333852768
-135.331512451172 -72.068374633789 -263.589660644531 1.423645973206
-125.288551330566 -72.797515869141 -264.358337402344 1.582059502602
-161.439727783203 -73.360443115234 -266.330657958984 2.389510393143
-144.370880126953 -73.828498840332 -265.275573730469 1.104236006737
-166.969375610352 -72.396453857422 -266.013153076172 3.243386507034
-153.965148925781 -72.913093566895 -266.866577148438 1.724257707596
-161.320251464844 -73.343376159668 -268.524505615234 3.621735334396
-165.692779541016 -73.278259277344 -264.662750244141 2.351537704468
20.893209457397 -74.212738037109 -269.760162353516 1.485516071320
19.579111099243 -75.534179687500 -270.804779052734 1.962387919426
-160.867401123047 -73.500381469727 -272.981506347656 2.320947885513
-157.723663330078 -73.443008422852 -273.732147216797 2.047170400620
-166.847610473633 -73.120498657227 -281.131256103516 2.810878038406
-153.148544311523 -73.318817138672 -273.296813964844 1.157161474228
-151.531997680664 -73.527565002441 -273.048156738281 1.268570899963
-151.616638183594 -73.654853820801 -276.957824707031 1.471107602119
-146.261062622070 -74.003074645996 -281.455810546875 0.905169785023
-161.767776489258 -73.793144226074 -280.553466796875 3.471430301666
-153.918350219727 -73.650550842285 -281.213348388672 2.295377969742
18.354278564453 -73.283561706543 -277.641296386719 2.260691881180
-151.574356079102 -74.833129882813 -283.969024658203 1.645226597786
-159.976333618164 -73.835739135742 -283.690582275391 3.408458232880
-159.981979370117 -73.828193664551 -286.660247802734 2.463982105255
-127.113479614258 -73.916488647461 -285.807617187500 2.154428482056
-29.001459121704 -73.136596679688 -285.328155517578 0.828275799751
-40.503871917725 -73.962753295898 -285.536682128906 1.290928840637
-66.478546142578 -74.055297851563 -286.182281494141 0.869324445724
-17.933082580566 -73.509857177734 -285.668609619141 4.066078662872
9.552348136902 -74.654129028320 -285.129547119141 3.011392116547
-1.923933029175 -74.369621276855 -286.042022705078 1.887212514877
-109.324470520020 -73.069458007813 -288.623229980469 1.800742745399
-92.790397644043 -74.145103454590 -288.191833496094 1.211505532265
-112.007347106934 -73.679679870605 -291.064147949219 1.831258654594
-102.255416870117 -73.983886718750 -289.973449707031 1.518089056015
-91.100914001465 -74.250450134277 -290.783691406250 1.392337799072
-48.485145568848 -74.174415588379 -290.484985351563 2.618566513062
-120.213569641113 -74.392494201660 -291.624114990234 1.245144128799
-86.784790039063 -73.260299682617 -291.542114257813 1.109545469284
-116.874664306641 -73.272979736328 -292.314453125000 0.790017008781
-135.086502075195 -74.044517517090 -292.810028076172 1.087935209274
-7.917531013489 -74.192810058594 -290.956329345703 1.338999986649
11.936868667603 -74.325500488281 -292.017913818359 2.967965602875
-152.960235595703 -73.845680236816 -297.784301757813 1.511348128319
-154.154846191406 -74.843612670898 -309.898406982422 2.076420068741
-69.590904235840 -72.630439758301 -51.955009460449 0.934360265732
-65.467041015625 -73.018859863281 -52.122531890869 1.613588094711
-54.867492675781 -74.255279541016 -53.627979278564 1.809885501862
-77.156135559082 -72.835510253906 -54.758327484131 4.022674560547
-45.895565032959 -73.864738464355 -54.215763092041 1.693841338158
-83.149154663086 -72.362670898438 -57.765373229980 3.012185811996
-88.309539794922 -71.354003906250 -61.195476531982 2.496907472610
-22.215238571167 -74.000526428223 -68.545257568359 2.254328250885
-21.052730560303 -72.034286499023 -69.890930175781 3.427825212479
71.430389404297 -73.019813537598 -70.755767822266 2.861848831177
-41.834369659424 -71.105186462402 -76.501998901367 2.207120180130
-34.885337829590 -72.034019470215 -76.786109924316 0.775631010532
66.677673339844 -71.727516174316 -76.153709411621 3.078230142593
92.956222534180 -74.390480041504 -82.990226745605 1.998171567917
-59.157062530518 -71.574256896973 -89.928794860840 2.479300975800
56.134017944336 -73.230255126953 -90.259902954102 2.180302619934
43.479854583740 -71.738746643066 -93.376815795898 4.027893543243
46.624439239502 -73.218482971191 -94.339553833008 1.640611529350
40.859874725342 -70.839706420898 -96.793464660645 4.418012619019
102.740249633789 -72.982650756836 -94.845436096191 2.850248098373
57.466117858887 -71.846115112305 -92.125793457031 0.956411540508
-96.902503967285 -72.878005981445 -101.179267883301 3.671155452728
-76.860649108887 -70.004264831543 -101.101760864258 2.536957263947
53.189170837402 -72.623977661133 -99.391181945801 2.069534063339
41.185405731201 -71.043754577637 -100.235260009766 2.535004854202
39.583625793457 -72.658317565918 -102.811264038086 2.002936363220
-96.643524169922 -72.794578552246 -110.402381896973 2.011252403259
33.785945892334 -73.634201049805 -109.338722229004 3.640511512756
47.246871948242 -72.508300781250 -109.542900085449 1.973135232925
40.744575500488 -74.771865844727 -118.585098266602 3.902793407440
41.649875640869 -72.453781127930 -119.589645385742 2.831359148026
113.321548461914 -72.222488403320 -124.506111145020 1.400784373283
-57.743713378906 -72.286804199219 -131.574218750000 0.955589413643
36.018321990967 -72.798141479492 -135.569961547852 0.843226552010
34.485988616943 -73.844604492188 -134.886199951172 2.789642572403
111.328521728516 -73.466148376465 -134.726608276367 0.771514475346
-77.165992736816 -72.303016662598 -136.528747558594 0.397905617952
-56.915225982666 -72.513053894043 -136.793609619141 1.628345370293
114.505569458008 -72.976470947266 -135.321044921875 2.327636957169
-77.098358154297 -73.279289245605 -142.034851074219 1.995894551277
-48.145877838135 -72.704689025879 -142.648986816406 2.572195768356
-61.109661102295 -70.721992492676 -141.641159057617 2.772654056549
109.886863708496 -73.208503723145 -137.507263183594 1.380595326424
20.415945053101 -72.620704650879 -146.859832763672 3.040221929550
31.011701583862 -73.343894958496 -145.054321289063 3.196180820465
-44.691646575928 -73.078758239746 -149.024444580078 1.687492847443
-70.782669067383 -72.610328674316 -150.728942871094 1.688696384430
22.200332641602 -73.312042236328 -150.286193847656 2.175582885742
-75.943214416504 -71.482742309570 -151.376953125000 2.182119607925
30.544017791748 -73.376319885254 -146.846481323242 2.507021903992
-39.897674560547 -72.148475646973 -153.452087402344 0.781933069229
19.838733673096 -73.675926208496 -150.090789794922 2.923030853271
9.510456085205 -73.313812255859 -153.788864135742 0.333115905523
-72.126136779785 -74.080963134766 -158.927825927734 2.598373413086
-49.906291961670 -73.530250549316 -156.697982788086 1.750785231590
-63.909961700439 -72.918273925781 -159.787322998047 1.570944905281
-50.001899719238 -72.920265197754 -159.770660400391 1.542510509491
3.378779888153 -74.355140686035 -162.412475585938 2.614796638489
-35.448539733887 -73.161926269531 -164.575408935547 1.778856277466
-46.977996826172 -73.863136291504 -165.025039672852 1.937911272049
18.687391281128 -72.624679565430 -165.615127563477 1.999962806702
-44.246425628662 -73.158645629883 -165.376541137695 1.630469083786
26.859958648682 -72.787834167480 -164.027526855469 2.668720483780
112.720329284668 -73.560234069824 -165.167419433594 1.158719539642
-32.099998474121 -73.018936157227 -169.613662719727 1.758224010468
26.046733856201 -74.098487854004 -168.140701293945 2.963041067123
-65.592697143555 -72.963134765625 -169.779861450195 1.629246473312
-59.798248291016 -72.931381225586 -170.236129760742 1.437111973763
-42.763648986816 -72.144790649414 -171.628295898438 1.782515406609
-60.965812683105 -72.441902160645 -173.319152832031 1.983443021774
107.526924133301 -73.272666931152 -174.048797607422 1.992582201958
-149.148010253906 -72.018417358398 -177.408798217773 1.746500134468
-148.075134277344 -72.671676635742 -180.628875732422 1.220917105675
-56.451656341553 -73.374710083008 -181.081298828125 1.291779875755
106.177597045898 -73.878601074219 -172.830322265625 1.502344608307
109.657104492188 -72.279556274414 -176.868698120117 1.063754677773
106.921920776367 -73.660591125488 -177.069198608398 2.059048175812
22.583219528198 -74.493263244629 -182.484420776367 2.441076755524
-35.945117950439 -74.819206237793 -182.324462890625 2.965589523315
-144.965438842773 -72.176116943359 -185.235626220703 2.497057914734
105.763496398926 -73.382003784180 -180.676452636719 0.951186954975
19.537424087524 -74.320793151855 -193.672225952148 2.605010032654
105.591110229492 -73.721176147461 -188.129348754883 1.783202171326
101.698074340820 -73.017066955566 -187.012634277344 2.278453588486
8.955116271973 -74.719619750977 -195.785018920898 2.026717662811
-129.316390991211 -71.982955932617 -197.788803100586 2.633609294891
-123.661933898926 -70.810440063477 -198.620269775391 1.554149985313
-149.805892944336 -76.879692077637 -199.791198730469 1.503201961517
-133.096801757813 -72.478538513184 -200.549957275391 0.451761782169
-125.388816833496 -72.875915527344 -201.520278930664 1.745892286301
-23.664915084839 -72.006088256836 -199.378082275391 1.516848802567
-23.515619277954 -73.422431945801 -199.436126708984 1.144814610481
-132.817184448242 -72.398681640625 -202.489395141602 0.848431885242
-142.998855590820 -72.781730651855 -204.594741821289 2.141053199768
-11.569719314575 -73.971794128418 -206.295898437500 1.982089996338
96.704681396484 -72.927047729492 -197.896224975586 1.874749064445
-19.988533020020 -73.123741149902 -205.904769897461 1.692700505257
90.181259155273 -73.652008056641 -208.089279174805 0.514885306358
16.556705474854 -72.539634704590 -206.248199462891 2.043120861053
-8.343402862549 -72.018608093262 -211.881347656250 0.951720416546
16.133813858032 -73.752166748047 -209.375228881836 1.872687101364
-28.252723693848 -72.691795349121 -211.450622558594 0.821213722229
-84.908195495605 -72.247039794922 -213.883514404297 1.291485190392
-90.443283081055 -73.006011962891 -213.900329589844 0.977445483208
-16.098676681519 -73.535018920898 -212.668014526367 1.365952968597
-94.659614562988 -74.442390441895 -216.065246582031 0.898086428642
-97.692131042480 -72.146598815918 -217.266326904297 1.195435285568
83.355873107910 -72.988014221191 -217.134490966797 0.772403657436
-26.521753311157 -73.236640930176 -220.154281616211 2.362117767334
-24.356170654297 -72.914573669434 -222.317825317383 1.883834838867
-22.269130706787 -73.510101318359 -219.232101440430 1.126143932343
-19.791387557983 -72.852561950684 -221.994491577148 1.632680892944
-19.625656127930 -72.782577514648 -222.634109497070 1.300871133804
17.047391891479 -73.008735656738 -221.773757934570 0.974066734314
-142.256195068359 -72.174720764160 -227.516128540039 1.625597953796
77.046806335449 -73.017738342285 -224.675918579102 1.401479363441
-5.711192131042 -72.601615905762 -227.540313720703 1.246159315109
8.062721252441 -73.372276306152 -228.049224853516 1.025061964989
78.698112487793 -73.445175170898 -224.978637695313 0.886817455292
-125.268524169922 -73.622138977051 -230.793685913086 1.412407875061
-163.139160156250 -72.151779174805 -235.875625610352 1.299127459526
-138.464950561523 -72.659461975098 -232.023315429688 2.705006837845
15.248395919800 -73.300643920898 -229.205047607422 0.504410982132
8.774124145508 -73.614524841309 -231.973480224609 1.249496459961
-130.112747192383 -72.661239624023 -234.203475952148 1.428003907204
-1.099251031876 -73.516189575195 -233.173919677734 2.683913230896
-145.829528808594 -72.023567199707 -236.924804687500 1.967389822006
-3.294312953949 -73.375686645508 -235.347869873047 1.120782017708
10.554763793945 -73.160186767578 -235.977813720703 0.869554162025
-4.076435089111 -73.021438598633 -236.149032592773 2.026569604874
-3.192671060562 -72.681098937988 -236.574371337891 1.628700733185
6.402082920074 -73.379722595215 -237.089431762695 1.927797079086
-162.355926513672 -72.889312744141 -240.409271240234 0.841174006462
-157.676284790039 -72.174530029297 -241.457641601563 2.582328796387
15.986334800720 -73.346458435059 -239.694152832031 1.073170185089
-1.171059966087 -72.599876403809 -239.902343750000 1.143845677376
64.941856384277 -73.971527099609 -237.869781494141 1.271575927734
60.401741027832 -73.315170288086 -238.476760864258 3.327934026718
-165.780120849609 -72.337516784668 -246.553680419922 1.143685936928
-161.458953857422 -72.513595581055 -244.958938598633 2.682412147522
-153.279800415039 -72.151596069336 -244.037872314453 1.822843074799
-57.903491973877 -73.639373779297 -243.635986328125 1.787972569466
-6.008309841156 -72.809913635254 -242.031295776367 0.855637550354
-50.988517761230 -72.896720886230 -243.692367553711 1.805633068085
-153.787933349609 -72.409767150879 -247.928009033203 1.177396535873
-61.192935943604 -72.224189758301 -245.148468017578 1.217637896538
17.188253402710 -71.927162170410 -245.183898925781 1.133669495583
-10.171960830688 -72.082130432129 -247.468658447266 1.670376658440
-7.239102840424 -73.378326416016 -245.927581787109 1.196062803268
-157.170684814453 -72.597862243652 -250.901519775391 2.015271425247
-166.816726684570 -71.812522888184 -253.172454833984 1.071800351143
-86.191825866699 -72.411956787109 -250.980438232422 0.881195247173
-163.840225219727 -72.830764770508 -255.136032104492 1.515114665031
-145.824569702148 -73.201789855957 -253.914779663086 1.021153569221
-75.602142333984 -73.237495422363 -253.330825805664 1.265455126762
-93.436485290527 -73.383468627930 -255.422698974609 1.629260659218
-85.503952026367 -72.096702575684 -255.717025756836 1.088030099869
-135.434463500977 -71.997070312500 -257.245544433594 1.455522894859
