# This PCD file was generated using the MATLAB® pcwrite function
# from Computer Vision Toolbox®.
# .PCD v.7 - Point Cloud Data file format
VERSION .7
FIELDS x y z
SIZE 4 4 4
TYPE F F F
COUNT 1 1 1
WIDTH 1415
HEIGHT 1
VIEWPOINT 0 0 0 1 0 0 0
POINTS 1415
DATA ascii
-22.739178 -76.118256 -220.027817
-16.088806 -74.446671 -220.344299
-25.785418 -75.783203 -221.042770
1.139303 -74.701103 -222.136154
-153.851837 -76.030037 -213.685364
-24.938255 -77.844788 -224.036346
78.868134 -75.736580 -226.994873
-15.006975 -74.798988 -225.637161
-10.839007 -75.937981 -227.800537
-26.008896 -76.742867 -224.676407
-159.314835 -75.662987 -223.215881
72.640678 -75.487595 -234.191879
-14.594488 -75.548241 -230.732971
-143.121399 -76.237419 -224.965378
-153.790466 -74.113182 -226.404831
-143.262512 -77.914391 -227.401688
-5.377289 -76.991066 -236.411453
-150.983871 -76.824509 -231.598099
-3.529604 -77.159966 -237.061829
12.331306 -76.110916 -240.458389
-5.826046 -76.466766 -241.003311
-51.563328 -77.314972 -241.055389
-53.960308 -77.310043 -241.442978
-31.689301 -77.090668 -243.708176
-155.629196 -77.098625 -239.898087
-45.294079 -78.193512 -245.247131
-71.936119 -78.427475 -246.157898
-54.051765 -76.770340 -246.735168
-68.142006 -77.393936 -249.147217
-79.028931 -77.557266 -249.437485
-149.505859 -75.621994 -250.532486
14.528708 -78.250526 -260.811829
-133.524719 -77.922943 -257.496521
-17.416285 -79.942093 -269.635590
-19.797232 -76.132904 -271.274445
12.223682 -76.893135 -277.334900
-153.895370 -79.343315 -276.532379
-12.404597 -77.632942 -283.984009
-162.812302 -79.239311 -282.094147
-138.442657 -79.773224 -283.597534
-35.155521 -79.019600 -286.943970
-140.558365 -79.255455 -282.843140
-74.167778 -79.063400 -286.291138
-147.105484 -79.133743 -284.704895
0.977292 -79.296188 -290.170441
-127.050919 -79.850342 -286.051086
-76.669014 -79.246147 -287.734772
-149.604889 -80.003296 -286.398315
-62.477921 -78.378700 -290.101379
-37.997753 -79.054344 -291.536896
-13.414931 -79.619583 -292.610931
-150.809479 -79.562584 -288.477600
-161.380493 -79.300621 -289.182007
-159.940994 -81.035583 -290.129608
-155.467712 -79.978859 -293.691803
-152.973999 -80.237984 -298.373657
-45.881748 -67.812325 -54.716850
-60.764519 -66.950630 -52.699860
-59.175430 -68.082253 -54.288082
-42.072109 -68.462349 -56.559864
-37.185284 -68.651939 -58.695255
-33.273121 -68.929695 -61.108067
-23.703648 -67.634506 -63.868065
-22.983683 -68.362511 -66.181229
-20.829142 -69.373703 -71.455666
91.512093 -68.473656 -81.282112
80.534622 -68.557571 -79.842796
76.384544 -67.655029 -80.767288
-34.212738 -68.941788 -79.571358
-44.176128 -67.717880 -83.969353
-50.289581 -67.672562 -87.753181
-51.266251 -70.040085 -89.242096
-89.533699 -72.729561 -91.857254
74.833923 -69.302002 -97.543068
92.852432 -69.723465 -98.976669
75.820091 -69.228394 -99.822701
-92.931412 -70.269363 -100.141777
78.610054 -69.280411 -101.716850
49.687019 -69.666145 -103.282516
54.297218 -70.100517 -103.858398
41.229660 -69.979843 -107.524757
45.530502 -69.523796 -105.506554
44.155273 -69.472969 -106.931488
-93.278564 -70.366638 -105.731293
49.015259 -71.557800 -114.345757
35.675446 -70.345375 -118.912666
31.602699 -69.411148 -127.512741
111.514786 -70.389145 -129.482956
110.236465 -70.568680 -128.657883
108.173424 -69.996681 -130.327072
111.436958 -71.237030 -135.562759
38.589691 -70.922562 -136.274796
35.370728 -72.186707 -138.413635
25.286121 -71.678528 -143.347961
21.667986 -71.130829 -147.574814
109.142235 -71.846390 -150.546112
108.277901 -71.445732 -153.664169
-46.717632 -72.375763 -147.105957
22.831947 -71.967140 -152.263824
-67.985580 -71.643379 -150.525757
-74.729034 -71.741463 -151.659180
107.185326 -71.255074 -160.454605
112.837036 -72.000656 -162.595093
30.461718 -71.509270 -160.261887
-70.763962 -71.914696 -153.852798
3.446359 -71.555069 -158.711227
3.474961 -73.021614 -161.591614
-69.248535 -71.512451 -159.140671
-48.541683 -72.626617 -163.796967
18.454021 -73.033012 -169.574982
106.887886 -72.131882 -164.607101
28.808880 -71.796432 -166.609802
0.168174 -72.626541 -167.707733
16.675844 -73.533562 -168.857712
-64.805328 -72.861862 -167.028000
-63.729538 -73.361702 -169.614090
-43.376911 -72.549393 -168.870361
24.710024 -72.503708 -172.909607
17.278709 -73.212906 -173.947235
26.751165 -72.655075 -172.227600
16.567482 -72.602837 -175.245468
-28.472359 -73.702103 -175.513077
16.683678 -73.233879 -176.427109
11.871111 -71.341370 -181.042709
-62.660614 -72.917244 -177.363632
105.315140 -72.224327 -184.831451
11.472865 -73.334610 -184.355789
24.486469 -71.758087 -181.027084
-34.315987 -74.035637 -185.607574
-50.254272 -73.846786 -186.626633
11.614856 -74.011543 -192.509109
-56.445683 -73.485367 -186.331085
101.175423 -72.718658 -193.564789
-52.397541 -73.860085 -192.929337
-150.943756 -73.917198 -185.792664
10.856317 -73.589012 -193.780533
-44.968960 -73.216484 -196.672989
9.809116 -74.567230 -198.439102
-21.199781 -73.375618 -195.673157
10.265663 -75.354347 -199.288727
-140.970688 -74.862167 -193.838287
15.702341 -73.371819 -200.958954
-141.342346 -74.281105 -196.479721
-143.232010 -74.255714 -197.608032
-38.963589 -74.904243 -201.527054
94.554260 -73.420174 -206.684464
-156.963974 -73.393539 -198.335678
-15.440105 -74.852615 -207.572037
-37.229126 -74.787170 -203.704483
-44.281178 -75.340172 -205.699341
3.054718 -74.845963 -210.359390
87.085098 -73.431450 -211.939697
-80.193321 -74.958466 -208.433517
-37.100616 -75.087524 -208.879105
-11.762700 -75.295113 -214.628799
-78.976372 -75.091385 -210.912628
-39.841003 -74.323997 -210.697586
-21.104164 -74.356300 -215.400757
-26.973547 -73.727608 -215.932266
89.594444 -73.591644 -219.350708
-81.353004 -75.154999 -212.865967
11.679649 -74.354744 -219.060898
1.443092 -73.779701 -217.858673
-8.512905 -74.290337 -219.928101
-97.106003 -76.116821 -216.097382
-2.055989 -73.787033 -225.430237
-24.553646 -75.458054 -221.069763
13.312822 -75.178314 -224.321487
74.771362 -74.232201 -227.210220
-157.560242 -74.379601 -220.444427
-18.552765 -75.515495 -224.253265
79.553268 -75.025970 -229.566162
-146.744965 -75.788391 -222.301376
11.275294 -74.772926 -227.854904
-14.042342 -74.238945 -228.047363
1.005723 -75.971832 -228.485321
13.872778 -76.277260 -233.855499
65.319122 -74.760735 -237.900497
71.611694 -74.994751 -236.289124
0.546953 -74.310829 -236.834366
-4.376936 -74.192924 -238.774368
-6.741654 -74.560669 -240.446289
-2.784473 -76.062431 -241.639633
-46.993298 -76.729256 -240.589188
-0.544244 -75.899902 -241.467453
-40.035686 -75.840416 -243.660889
2.508734 -75.509537 -244.927353
2.527613 -77.008347 -246.460632
14.015562 -75.600586 -248.648636
11.631204 -74.710289 -250.499359
-86.029037 -76.887238 -250.017822
15.042604 -74.367409 -254.815918
-81.392662 -77.284180 -249.878159
-148.176086 -77.818222 -252.353668
-131.641876 -77.783974 -255.061249
-141.806580 -76.485374 -256.186066
-139.392853 -77.540970 -256.941864
-157.736465 -81.270172 -260.170471
-153.402695 -78.823967 -267.358673
-156.882736 -78.948212 -263.123505
-158.203949 -78.599411 -277.026184
-170.679810 -77.985970 -280.045746
-136.885712 -78.320175 -281.864044
-54.564663 -78.790985 -285.948822
-68.849800 -77.825287 -285.285431
-81.699249 -77.806465 -285.445984
-6.626939 -78.977066 -286.549896
-131.494019 -77.727074 -283.656433
-3.892183 -79.302200 -287.357330
-143.617798 -78.735428 -284.204285
-100.345337 -78.358566 -286.657257
-89.340393 -78.650703 -287.140320
-165.641739 -78.170403 -284.874786
-146.231155 -78.893639 -286.717255
-123.524628 -78.542633 -286.733765
-76.059074 -78.671127 -288.969025
8.605766 -77.335518 -293.646515
-38.326862 -77.799782 -291.699524
-26.068420 -77.972908 -292.623535
-140.066574 -79.351677 -288.505371
-137.742432 -77.802788 -290.383820
-153.582840 -78.464973 -292.017151
-152.448303 -79.471596 -298.498474
-153.884125 -79.074997 -308.429932
-57.302635 -66.920578 -52.586536
-75.899803 -66.687218 -56.199226
-76.373161 -66.517700 -56.212605
-24.117228 -66.913910 -62.291904
-20.290012 -66.782784 -64.747833
-81.987206 -68.241829 -63.317455
-85.372124 -68.142120 -67.254768
84.668221 -66.524200 -76.404694
91.930092 -67.249977 -78.910561
-89.185623 -68.005371 -73.653046
-27.989197 -68.761574 -79.057770
95.745178 -67.123184 -85.483704
94.755508 -68.779335 -89.717819
-91.600685 -67.424942 -78.954788
-48.289318 -67.280602 -85.533478
97.692177 -67.481110 -95.130417
-54.215897 -70.848541 -91.313576
54.557022 -67.661896 -95.232353
-56.162971 -70.398750 -91.725006
49.496010 -68.456108 -98.148643
45.730366 -69.645576 -102.157791
55.218422 -67.750954 -100.291245
54.221523 -67.278679 -104.472755
41.287037 -68.432823 -106.234535
106.887009 -68.070473 -109.510773
-83.174049 -70.635963 -105.902252
-83.885498 -70.722130 -107.476860
108.087708 -68.897591 -114.861969
45.841042 -69.503021 -117.882011
45.800243 -69.604019 -121.505966
-90.036621 -69.560791 -114.596107
106.683548 -69.040245 -119.019104
112.256393 -68.212685 -124.227852
42.827305 -71.297478 -127.307068
112.081360 -69.988205 -129.641891
107.529068 -69.088158 -134.839584
25.675114 -70.359947 -136.522980
113.933289 -70.425766 -142.406708
107.880432 -69.829193 -138.959015
-58.011395 -70.439018 -135.747040
-54.300850 -69.863091 -137.256683
24.588251 -70.625664 -145.277054
-57.073940 -68.832634 -135.882233
-74.754166 -69.735878 -136.999130
-73.653587 -70.787666 -141.122147
107.645149 -69.033234 -145.615463
-54.318272 -72.001251 -145.740173
-75.991806 -71.109787 -142.617630
-44.659534 -72.237114 -146.078354
107.461868 -71.051201 -157.551437
20.030048 -70.941490 -152.890411
-75.339630 -70.728920 -151.370300
-52.681427 -71.225014 -156.437683
-39.056484 -72.142975 -155.896393
-41.288624 -72.034950 -155.892471
-73.720001 -71.158722 -155.501785
7.742043 -71.165588 -160.050751
-52.414356 -70.236107 -156.863785
-49.102020 -71.079536 -159.013153
26.810940 -72.133064 -165.885544
-37.660912 -71.920761 -162.845276
-70.046852 -72.581512 -163.757996
105.946480 -70.856735 -166.254089
105.414894 -69.918999 -167.552078
26.280386 -71.930374 -167.383423
108.507240 -71.101212 -174.532883
107.124390 -71.579353 -175.596130
14.343008 -72.786140 -175.601990
-30.335705 -69.606483 -173.317139
-56.166378 -73.264191 -176.546143
106.055885 -71.389198 -183.724701
-40.366367 -71.770485 -175.162811
12.454970 -70.497574 -179.859283
-39.656429 -71.429543 -180.728180
-55.428242 -72.336365 -181.534378
-149.511734 -72.461700 -178.904633
-152.142471 -72.544907 -181.074371
102.761154 -72.152649 -188.631119
20.169626 -72.617180 -188.449661
-55.098316 -72.471436 -184.393509
-55.307922 -73.950378 -188.498215
-50.522491 -72.788063 -190.190170
-50.495171 -72.950996 -193.479065
9.513140 -73.266090 -190.277115
8.848298 -72.038712 -191.092590
100.917763 -71.823929 -196.589828
-29.128489 -72.269249 -195.764786
-48.949959 -73.084511 -196.178513
17.844343 -73.551804 -201.142899
-45.866993 -73.144600 -197.315399
94.745865 -73.067802 -205.050690
-40.754982 -73.213844 -202.603775
90.127579 -73.427956 -207.014725
14.770703 -73.836716 -203.889069
-42.324047 -72.996384 -204.654205
14.684009 -72.681534 -205.112228
-25.377188 -74.231293 -206.862106
-43.360722 -73.877357 -205.402374
90.203514 -73.424187 -214.220840
5.250591 -73.532433 -209.974182
86.098244 -73.065681 -220.239410
-10.090591 -72.494659 -212.423431
-30.940300 -73.820709 -211.860382
-84.069733 -73.732986 -212.358109
83.450096 -73.323181 -221.272919
-24.476719 -73.851532 -218.175095
13.953652 -73.538322 -218.285492
-31.077562 -74.605469 -216.691727
-35.491474 -73.852058 -215.853928
-101.690521 -74.812889 -216.978241
-17.565239 -71.758736 -222.434525
-26.563694 -74.136162 -222.044739
-2.110006 -73.427460 -225.438690
11.228070 -73.440529 -222.382111
-18.731524 -73.807922 -223.523270
-20.416178 -74.512436 -227.046616
10.675538 -73.364746 -225.602997
3.103960 -74.660057 -228.587708
1.208013 -73.922714 -227.546906
-132.169388 -75.333389 -225.680527
-18.050169 -73.903152 -228.779617
77.706009 -73.334503 -232.659622
-21.370869 -74.077148 -230.825073
-159.131516 -78.108055 -226.323593
-132.229263 -75.242523 -228.047424
-15.622704 -73.965355 -235.101288
73.189339 -74.744278 -235.571335
-12.846078 -75.037560 -233.692413
-7.219485 -74.601311 -233.719910
62.810665 -74.438454 -239.485977
-7.158735 -75.456238 -238.684158
63.010628 -74.740753 -240.936325
-156.035278 -74.981781 -238.934738
58.363575 -74.156921 -242.660645
-39.543446 -75.699760 -240.070679
-41.789295 -75.264366 -241.337875
5.596302 -75.293144 -243.431183
-48.179985 -74.967430 -242.491180
-30.142412 -75.545280 -243.271973
2.418758 -73.995941 -244.133835
-47.301353 -75.001488 -243.569122
-151.970779 -77.181213 -240.890839
7.482345 -74.550659 -245.518646
-155.740982 -76.451843 -238.770737
-75.613770 -75.529182 -245.606064
-11.880839 -75.786469 -248.556732
-14.630458 -75.285141 -250.187149
-87.341797 -74.700836 -248.207428
-158.335236 -75.527351 -249.106476
-150.126953 -78.012077 -249.731400
-94.619843 -75.616570 -253.287872
-170.252762 -76.013435 -253.539124
-132.471664 -76.299065 -252.509583
16.639805 -74.781563 -259.487061
-161.274353 -77.081833 -252.621475
-153.293350 -76.528648 -254.829697
-169.141983 -76.519592 -256.237152
-141.531586 -74.943810 -258.935638
-131.540253 -75.634651 -260.231720
-167.738297 -76.535530 -260.158844
-150.633560 -76.838028 -260.038605
-173.250656 -75.597694 -259.574585
-160.309448 -76.059067 -261.129333
-167.740768 -76.611671 -262.354706
-171.892944 -76.411819 -258.261322
14.124212 -76.253159 -273.714050
12.766711 -77.627365 -274.626770
-167.534195 -76.956367 -266.819366
-164.437576 -76.909142 -267.745941
-173.960251 -76.968147 -274.631592
-159.846741 -76.734268 -267.572144
-158.216995 -76.920807 -267.405396
-158.517014 -77.216133 -271.295319
-153.415939 -77.719185 -276.066223
-168.850113 -77.579712 -274.310059
-161.050995 -77.410393 -275.412170
11.143730 -75.680481 -281.473572
-158.852341 -78.693497 -278.241699
-167.234970 -77.744133 -277.537598
-167.405289 -77.863907 -280.499969
-134.540665 -77.684685 -281.479004
-36.564568 -76.195770 -286.506348
-48.052582 -77.110878 -286.037750
-74.021088 -77.413475 -285.229004
-25.529055 -76.505516 -287.447510
1.953541 -77.432518 -288.394379
-9.557841 -77.268013 -288.676544
-116.943825 -76.834167 -285.315887
-100.401878 -77.774162 -285.762177
-119.752014 -77.567276 -287.575287
-109.952194 -77.755943 -287.018311
-98.857735 -77.978622 -288.437439
-56.293518 -77.590492 -290.519714
-127.969604 -78.361061 -287.645935
-94.599777 -76.991592 -289.476746
-124.684753 -77.248741 -288.568268
-142.888016 -78.168724 -288.014099
-15.816012 -77.344093 -293.251923
3.949394 -77.382683 -295.412750
-161.011063 -78.308823 -291.987610
-162.865875 -79.833405 -303.962982
-64.159172 -65.973045 -51.464252
-60.047474 -66.339310 -51.844913
-49.536510 -67.564621 -53.885460
-71.865898 -66.351212 -53.830006
-40.615021 -67.136612 -54.988800
-78.020561 -66.049797 -56.515430
-83.372391 -65.225349 -59.692028
-17.765123 -67.720078 -70.598167
-16.697519 -65.805199 -72.088753
75.600670 -66.177193 -78.068245
-37.821461 -65.306313 -77.563797
-30.890440 -66.197624 -78.195435
70.544128 -65.150848 -83.242615
96.427208 -67.919708 -91.415192
-55.856571 -66.472092 -89.971466
59.249393 -67.330818 -96.662308
46.428459 -66.063194 -99.128975
49.528618 -67.560707 -100.202003
43.614796 -65.329842 -102.429214
105.525429 -66.952583 -103.846695
60.462952 -66.018600 -98.656609
-94.153664 -68.521950 -99.033623
-74.166214 -65.506805 -100.196068
55.797375 -67.137161 -105.632591
43.750957 -65.678925 -105.872055
42.024101 -67.413620 -108.283920
-94.407097 -68.832069 -108.252052
35.882957 -68.709076 -114.430565
49.300701 -67.498428 -115.432808
42.328770 -70.193077 -123.994118
43.155170 -67.913872 -125.144981
114.438812 -67.390038 -134.056915
-56.747086 -68.958923 -131.563156
36.650002 -68.982376 -140.757309
35.167828 -70.009308 -139.945374
111.894127 -69.084572 -144.088379
-76.413116 -69.323898 -135.421478
-56.207081 -69.402832 -136.806335
115.028595 -68.598511 -144.879349
-76.641602 -70.534767 -140.876419
-47.774349 -69.783646 -143.128342
-60.680405 -67.850693 -141.483948
110.298203 -68.956474 -146.792725
20.444859 -69.398582 -151.156677
31.130730 -69.969269 -149.915939
-44.675446 -70.406342 -149.664932
-70.824089 -70.194695 -149.929779
22.043003 -70.223587 -154.644821
-76.022987 -69.132195 -150.336182
30.564754 -70.081764 -151.676239
-40.143211 -69.633018 -154.388550
19.699390 -70.595337 -154.302750
9.179066 -70.464615 -157.430984
-72.606056 -72.024773 -157.971222
-50.302929 -71.222923 -157.009613
-64.461441 -70.842300 -159.336197
-50.574432 -70.745872 -160.095261
2.588884 -71.917633 -165.647232
-36.308136 -71.091003 -165.689728
-47.837688 -71.891815 -165.465408
17.679506 -70.218529 -169.769287
-45.136543 -71.183868 -165.998291
25.928680 -70.256073 -168.634521
111.597351 -70.473450 -174.528015
-33.245491 -71.140556 -170.908432
24.901073 -71.747490 -172.636658
-66.694954 -71.327217 -169.208405
-60.935265 -71.274338 -169.988113
-44.012161 -70.428490 -172.360382
-62.276466 -70.925659 -173.019180
105.917175 -70.603287 -183.110077
-150.549866 -71.297318 -172.198059
-149.651031 -72.080429 -175.442383
-58.190922 -72.158554 -180.974503
104.643211 -71.165909 -181.793655
107.878349 -69.717010 -186.083984
105.149361 -71.124542 -186.072876
20.651705 -72.780991 -186.735184
-37.772144 -73.510910 -183.297180
-146.806259 -71.760933 -180.232269
103.790207 -71.008965 -189.618439
16.988987 -73.109573 -197.732910
103.208183 -71.668449 -197.029022
99.376579 -70.944489 -195.727783
6.310055 -73.672913 -199.233337
-131.879562 -71.996040 -193.635651
-126.291161 -70.820549 -194.830200
-152.401642 -77.117912 -194.282623
-135.802399 -72.636055 -196.158157
-128.156647 -73.020500 -197.539185
-26.483047 -71.345085 -201.113129
-26.323895 -72.761543 -201.119308
-135.631470 -72.637428 -198.111801
-145.910126 -73.181877 -199.627823
-14.771947 -73.520462 -208.605255
93.786987 -71.356102 -206.309906
-23.163736 -72.715591 -207.781448
86.715706 -72.563065 -216.083298
13.299181 -71.890030 -210.187241
-11.878679 -71.785843 -214.439758
12.715030 -73.238411 -213.231583
-31.726313 -72.579796 -212.871033
-88.431213 -72.637726 -212.156631
-93.951347 -73.435585 -211.832489
-19.651041 -73.389015 -214.727600
-98.267509 -74.993011 -213.695999
-101.383385 -72.772163 -214.822342
79.393524 -72.335312 -224.753738
-30.475388 -73.485001 -221.626755
-28.436174 -73.240746 -223.919418
-26.175806 -73.688805 -220.932449
-23.861273 -73.132874 -223.854126
-23.731915 -73.089211 -224.504379
12.932951 -73.020660 -225.682129
-146.444824 -73.552612 -222.560043
72.676704 -72.732552 -231.923447
-10.113096 -73.020943 -230.182327
3.618070 -73.715927 -231.425598
74.312637 -73.160957 -232.299408
-129.652100 -75.019806 -226.715714
-167.758347 -74.034676 -229.735138
-142.904861 -74.203438 -227.247055
10.727643 -73.643425 -232.982422
4.113110 -74.121140 -235.369629
-134.686676 -74.239983 -229.887665
-5.812112 -74.143707 -236.020554
-150.535431 -73.829956 -231.752670
-8.125521 -74.111938 -238.072678
5.664711 -73.826347 -239.482697
-8.954142 -73.797852 -238.843262
-8.098551 -73.469849 -239.331299
1.459047 -74.122490 -240.350632
-167.220703 -74.960320 -234.270050
-162.613297 -74.258270 -235.607178
10.883455 -74.133568 -243.484970
-6.265362 -73.517136 -242.767288
59.868553 -74.335953 -244.369247
55.295803 -73.738121 -244.749329
-170.985245 -74.696442 -240.231750
-166.580856 -74.773651 -238.874496
-158.366989 -74.315056 -238.427277
-63.105255 -75.114212 -243.283234
-11.210992 -73.852203 -244.612289
-56.211323 -74.326096 -243.756683
-159.087509 -74.743279 -242.268555
-66.486633 -73.788292 -244.668518
11.765848 -72.942451 -249.088455
-15.676280 -73.387398 -249.834900
-12.650460 -74.595718 -248.406250
-162.627960 -75.082405 -245.038086
-172.392014 -74.462898 -246.798706
-91.767471 -74.401451 -249.083801
-169.519470 -75.543434 -248.880310
-151.461136 -75.735207 -248.651215
-81.317055 -75.252548 -251.984070
-99.237770 -75.613327 -253.069855
-91.346191 -74.284660 -253.860474
-141.283401 -74.601395 -252.604416
17.105501 -73.296684 -258.474274
-103.397461 -75.267578 -254.845734
-108.630745 -75.083916 -255.197830
-110.523109 -74.988754 -255.511292
-121.727684 -75.510994 -256.703369
-114.812943 -74.679802 -257.299225
-122.069420 -75.463531 -257.997131
-149.070526 -77.326889 -258.577362
-140.019989 -74.953796 -260.370300
-158.342300 -76.363640 -261.905487
-152.230026 -75.751495 -266.673645
-174.155106 -76.449783 -272.659698
-16.299828 -75.450485 -280.303040
-136.964096 -76.277229 -280.866119
-144.924316 -76.434708 -282.017609
-53.346836 -77.305183 -285.579285
-95.911148 -75.997391 -284.780212
-35.128994 -75.347557 -287.265900
-39.832500 -75.779572 -287.058075
-121.094940 -76.891914 -284.789825
-23.260670 -75.354309 -288.196320
6.007169 -75.932320 -291.460297
-58.678967 -77.065781 -290.439301
-120.953827 -76.942848 -288.387085
-86.078743 -75.171104 -289.854034
-76.042801 -75.609238 -289.974213
-39.434738 -75.903595 -291.386597
-108.940170 -76.428093 -289.366547
-119.619064 -76.067200 -289.110748
-16.924450 -76.174133 -293.035583
-167.486877 -77.004227 -288.115753
-160.479309 -80.003273 -295.821594
-160.328705 -79.608925 -308.055084
31.495647 -63.008980 -19.246828
27.690483 -63.113014 -21.029921
27.541012 -63.448807 -23.923361
23.863379 -63.358727 -27.819187
25.494089 -63.925781 -33.613445
32.613953 -63.980145 -40.364006
30.355343 -64.023170 -40.904686
-53.627968 -65.304161 -50.704327
-28.860018 -63.570801 -54.826401
88.846115 -64.610886 -73.553474
-89.355202 -66.821762 -70.552734
73.635262 -66.049980 -79.787811
-40.200794 -66.876312 -80.084137
-92.180794 -66.928543 -79.243393
-45.063873 -68.075310 -84.627686
98.774239 -66.301888 -94.483948
-92.710648 -68.730423 -89.894142
69.966118 -65.969490 -95.559975
-94.056343 -67.547745 -92.052353
57.490124 -68.464752 -98.357712
104.261475 -65.958351 -102.695992
-68.317444 -66.483665 -98.966705
43.444260 -67.427345 -103.073578
77.254105 -66.291771 -106.571465
81.707230 -65.928391 -106.372154
43.953552 -66.433281 -105.510620
108.546936 -67.097992 -109.788704
-94.978287 -68.136063 -110.994316
102.695511 -66.058525 -110.982574
107.499924 -66.526237 -117.003120
35.799847 -68.276680 -118.701218
45.511978 -68.552376 -118.047722
43.565861 -68.913406 -121.148697
32.534847 -68.571228 -120.230690
42.117062 -66.994202 -121.651070
43.529156 -67.501534 -124.118477
106.581245 -68.377403 -128.299835
111.218140 -67.812614 -133.401443
29.318764 -67.528320 -128.422928
29.138649 -67.746910 -135.259308
-75.756981 -68.824493 -133.857040
-56.931591 -67.502106 -132.629135
112.184326 -68.584084 -147.077286
25.170433 -67.907768 -139.038040
34.931370 -68.691765 -138.873749
-79.040077 -68.591148 -137.161728
23.949928 -68.439430 -141.963806
24.802761 -69.290482 -144.973007
-47.670399 -68.305695 -144.046295
-73.545837 -69.496468 -145.299271
-55.786259 -69.564674 -147.224579
30.988462 -68.960548 -149.571915
-55.046951 -71.374931 -152.005402
32.090584 -69.538033 -153.900558
27.166046 -68.829750 -162.194595
107.111008 -68.559319 -157.798950
21.060755 -69.805405 -157.453323
10.806930 -69.615494 -156.629227
-40.884613 -70.565109 -156.887985
-73.666809 -68.154320 -154.094131
-49.672859 -69.960304 -157.941086
105.854073 -69.551460 -165.361389
29.783503 -70.090385 -162.392487
109.057648 -69.441368 -167.668640
-38.256317 -69.598900 -163.352066
15.785508 -68.768089 -168.733124
-0.198974 -69.338356 -165.736191
-34.380608 -69.138031 -165.653198
-65.113274 -69.757851 -165.289795
-34.847488 -70.382233 -168.664536
-61.240135 -70.894913 -172.122940
-40.412018 -71.095299 -174.706573
24.704914 -70.568771 -173.052734
-41.091942 -69.612427 -177.216492
-153.870239 -70.370476 -173.861649
108.683617 -69.481453 -183.775406
-154.247086 -70.867188 -177.807083
-146.960220 -71.227402 -178.000214
10.747423 -70.480011 -184.319901
20.787262 -70.896500 -187.480148
-37.184498 -70.293617 -184.435349
-152.999542 -70.902367 -184.154617
-33.693783 -70.760063 -190.737732
-148.734543 -71.069611 -186.264160
-19.708803 -71.009132 -193.700760
9.561130 -72.526115 -195.459900
95.897652 -71.158897 -203.968735
6.653627 -71.737038 -196.890274
-131.173279 -70.688950 -192.656769
-134.901749 -71.697800 -193.332138
-144.065704 -73.153664 -195.031158
91.363869 -70.334763 -205.199951
-137.389893 -71.785477 -197.550430
2.956889 -72.935677 -209.466309
-28.882019 -71.277794 -200.972626
-136.730118 -70.990601 -199.650986
-153.625046 -74.769447 -201.429855
94.811584 -72.278709 -212.639786
-16.872456 -72.119469 -204.941895
93.980873 -71.290253 -206.303711
-12.482564 -71.899681 -208.659561
89.693436 -71.517517 -213.614822
-149.193298 -72.009270 -205.514267
-21.073664 -71.402878 -211.435074
-154.409256 -72.503693 -210.443008
-153.813004 -72.431244 -204.689713
-21.880648 -70.509796 -214.539215
-92.872902 -71.587677 -212.804062
-166.208817 -72.510918 -211.088989
-164.607147 -72.126350 -207.524231
-160.539261 -72.011047 -208.811279
-33.229530 -72.107399 -215.810516
-30.593126 -71.872330 -219.266388
-20.494747 -71.425423 -217.287247
-20.030001 -72.471924 -218.053970
-150.318787 -73.864731 -214.517792
13.362650 -74.467728 -222.775589
-156.076630 -72.653252 -217.540527
-93.616096 -72.681213 -217.152802
-169.652832 -73.022621 -219.206436
-30.567528 -72.949097 -221.224396
-23.040478 -72.944878 -219.915207
-166.010513 -72.573616 -212.129547
10.687268 -72.007080 -221.594254
-162.214325 -72.694344 -215.310303
1.418817 -72.141418 -224.343826
-164.630463 -72.946541 -217.861084
-159.641449 -72.712730 -216.776108
-109.671402 -72.408142 -219.578552
1.950271 -71.079201 -225.071655
-164.764008 -73.458687 -222.218735
-166.447601 -73.777969 -220.845001
-0.831103 -72.823639 -227.186005
-121.253387 -72.224571 -223.944595
-162.090424 -73.183769 -222.517914
9.183914 -71.902496 -228.001114
-115.439072 -72.398491 -226.177307
-121.450455 -72.628464 -225.494781
-125.574394 -72.908752 -225.621292
73.926849 -72.270119 -233.276443
-167.307449 -73.565384 -224.925461
-160.371429 -73.185669 -223.740524
-8.574276 -71.888786 -231.546707
-170.303375 -73.609566 -227.942245
-0.251771 -71.788040 -232.669083
-166.650406 -73.633797 -226.362381
-164.974838 -73.635834 -227.690811
66.692978 -72.303123 -237.126022
-171.283401 -72.852364 -227.505371
-170.808289 -74.000343 -232.455261
0.775413 -73.982407 -236.855682
-159.953796 -73.991272 -234.163147
68.160667 -72.956352 -241.038406
64.780052 -72.444283 -239.420761
-151.070724 -74.475090 -235.981384
3.063769 -71.832413 -242.639206
-15.299294 -72.905052 -242.425873
61.327503 -73.261230 -245.310272
-171.976028 -73.455040 -236.927155
3.926682 -72.291557 -245.630432
14.503922 -74.414497 -245.105621
56.062435 -72.581642 -248.973816
12.487429 -73.099495 -248.947815
10.645543 -74.139816 -248.639053
-78.206924 -74.347206 -245.959427
10.414525 -74.381561 -249.123505
-17.866198 -72.361649 -248.525299
-150.925217 -74.015663 -243.902756
-72.270599 -74.887741 -250.140442
-149.876923 -73.760574 -249.549286
-134.230988 -74.522278 -251.351639
-103.970985 -74.469353 -252.724228
-141.062653 -73.771454 -251.690369
-116.620201 -73.564552 -254.528870
-119.128120 -73.942955 -255.026443
-102.023880 -74.045197 -255.906555
-108.270226 -73.904205 -257.327087
-120.271431 -74.015289 -258.838348
17.412558 -73.209221 -267.811768
-20.710073 -75.014519 -269.038910
-174.309937 -74.505981 -266.033875
-152.045639 -75.391815 -268.775116
7.098642 -75.314545 -286.467560
-133.562027 -75.059654 -280.708130
-131.584503 -73.314262 -282.797821
-89.191277 -75.453018 -284.915100
-59.658257 -75.286720 -285.685883
-113.226776 -74.801201 -284.547302
-46.332275 -75.294136 -286.878784
-37.708897 -75.008209 -288.067657
-16.304022 -76.399300 -288.224518
-47.376942 -74.886124 -290.134766
-67.201691 -75.052368 -290.085114
-36.286560 -75.091446 -291.111481
-26.857998 -75.405090 -291.881989
6.375642 -75.174080 -294.232269
-122.448273 -76.037086 -289.172485
-126.859100 -75.962021 -289.413971
4.682762 -75.657059 -294.823425
-143.167267 -75.226509 -289.576630
-153.630646 -76.711647 -295.014343
-151.843506 -77.558517 -301.566620
-161.118774 -77.411194 -308.308807
30.118736 -61.988663 -17.614885
46.921642 -60.680992 -18.598482
40.228958 -62.162109 -20.038702
49.692009 -62.365498 -24.587240
47.729462 -62.506252 -26.542969
49.752159 -62.601261 -27.873930
27.674551 -63.091743 -29.393410
28.073334 -62.769848 -31.051468
47.480331 -63.124077 -36.402527
40.851978 -63.090355 -40.080006
40.241215 -61.947208 -39.594788
41.183407 -61.890713 -44.502934
-60.089443 -64.404068 -49.666245
-47.507477 -64.193672 -50.213375
-77.751427 -62.286160 -51.627388
-73.087349 -65.272720 -52.990582
-76.113319 -65.627174 -54.876598
-25.703829 -63.701023 -56.731705
-19.508596 -65.871155 -63.706867
-16.765186 -65.837746 -66.301750
79.221733 -63.347092 -72.077408
80.127083 -64.836037 -73.524185
72.787308 -63.316425 -75.752182
73.555542 -66.658966 -80.933846
-29.986897 -63.257278 -78.906502
-47.847969 -66.279510 -85.300240
99.930565 -65.173225 -92.342201
56.342453 -62.678421 -90.363388
-63.743164 -65.464920 -92.151428
52.912830 -63.948032 -95.250954
-64.503029 -64.403305 -93.418022
57.723225 -65.719566 -99.412010
105.207268 -65.707207 -102.370728
70.962936 -65.020042 -103.314262
94.043900 -66.176949 -106.616402
106.438499 -66.135139 -112.926315
-95.405609 -66.473656 -98.343102
53.367641 -65.600777 -109.401665
39.335457 -65.413803 -109.391037
41.516663 -66.592407 -109.275185
-96.257271 -65.826424 -106.672813
-86.587143 -69.646980 -111.052391
37.313766 -66.529602 -117.293114
-95.310211 -67.636841 -114.132446
43.838165 -66.139114 -117.918587
108.026947 -66.721832 -122.311516
109.774796 -65.834724 -124.118477
109.909584 -65.875603 -125.210236
109.196571 -66.154694 -128.124344
41.129444 -67.134010 -128.598755
33.267010 -66.670128 -128.910004
39.869621 -68.410316 -132.655197
30.729858 -67.148506 -133.138687
-59.811752 -67.425591 -129.621857
-56.116726 -67.293884 -132.653473
-61.723499 -67.209541 -133.528732
-52.512993 -69.391693 -137.045853
28.553474 -67.244461 -138.970642
-81.189377 -66.145332 -132.916367
114.728081 -67.062866 -150.709641
35.243671 -66.799507 -141.369614
33.116638 -67.176453 -147.665161
-70.253342 -68.195511 -144.175980
-72.432938 -68.357178 -146.342972
-77.813461 -67.416069 -145.505432
107.609238 -67.479286 -154.529709
-71.356514 -69.242432 -150.636063
-73.051033 -68.519836 -148.343277
-40.831337 -69.574280 -153.335922
19.197521 -68.573715 -157.264984
30.770418 -68.415421 -156.681595
5.595698 -68.937462 -156.028122
12.014907 -67.658943 -160.216370
22.231398 -67.813904 -155.244232
-41.048336 -67.962006 -154.237350
-69.521370 -68.027504 -157.643295
-42.442799 -68.502213 -156.727234
26.217737 -68.275223 -163.641235
-68.036026 -68.750328 -161.467346
-67.675468 -68.912415 -162.193741
-47.122219 -68.074196 -159.741089
19.148411 -68.643204 -165.257904
17.494108 -68.900902 -171.044098
110.727432 -68.094452 -175.238205
-32.919224 -69.068565 -174.996124
110.052185 -69.405907 -179.829620
-149.385849 -69.200096 -171.760941
15.243112 -69.330109 -179.602615
108.557930 -68.338455 -181.853088
23.877188 -69.624107 -182.331528
100.366135 -68.826675 -188.920685
-23.197138 -69.983742 -186.976379
-33.017288 -70.642586 -187.423996
10.086081 -71.342720 -193.451859
-31.748442 -70.811684 -189.849060
-153.633011 -69.960037 -185.116501
95.086258 -69.032234 -200.639816
-134.941208 -71.171028 -192.859940
18.877525 -69.093163 -197.306686
101.179619 -70.161156 -200.935333
-125.669632 -70.621216 -195.633636
99.781288 -69.534271 -202.729492
8.252337 -70.254852 -199.966858
-158.827759 -70.867142 -193.779633
14.723648 -69.535324 -202.911224
-163.248474 -71.137657 -196.590134
5.078057 -70.575218 -201.917755
-126.041519 -70.961426 -197.508789
4.146968 -70.218735 -206.675568
-28.026831 -69.547050 -201.386612
-165.370224 -71.326645 -198.386337
-159.018188 -71.315651 -199.938736
-157.024597 -71.388489 -201.818069
-26.463999 -70.545074 -206.083939
-157.441559 -71.428177 -202.396774
-165.253738 -71.534019 -200.950546
-154.990326 -71.454330 -203.701157
2.669411 -71.748543 -212.108109
12.825651 -69.745300 -208.669785
93.127846 -70.745750 -214.717545
-155.144119 -71.636322 -206.180649
-170.221802 -71.576019 -211.498825
80.316399 -71.589973 -219.849670
-148.997681 -71.437386 -212.860046
-9.975351 -72.169014 -218.017853
1.679262 -72.214424 -218.346283
12.108441 -69.974083 -218.937057
9.494389 -70.838951 -220.978897
-149.463409 -72.044914 -218.295273
-22.152060 -71.562462 -221.790863
-26.891888 -71.064941 -222.247772
-101.963257 -72.158966 -220.769745
-3.148169 -70.462982 -225.095856
76.237152 -71.372795 -230.372025
72.945419 -71.689568 -227.799744
-105.789818 -72.471916 -222.453690
7.613666 -71.459946 -230.585846
81.766678 -71.636902 -228.896027
-110.509926 -72.570068 -223.937515
71.693611 -72.674278 -229.309341
-9.783005 -70.712135 -229.258987
-22.569561 -71.219620 -229.100494
-14.899530 -71.304108 -231.517960
68.071892 -71.544296 -238.432571
6.175950 -73.024490 -238.181793
-128.935532 -71.118752 -230.245239
-171.736450 -71.792290 -226.294907
69.866936 -71.712341 -239.840057
-131.454315 -71.186150 -231.763153
-13.933802 -71.100319 -238.246323
67.254669 -70.930939 -242.134857
2.569775 -71.842224 -240.558914
-7.798281 -73.006157 -242.063980
-14.368733 -72.081108 -243.494293
63.589657 -71.997307 -244.737610
9.750788 -71.115364 -241.774231
-150.461472 -72.629974 -242.132523
45.943413 -71.760910 -248.434982
-17.847298 -72.072189 -247.755066
-76.510361 -71.966415 -247.306885
51.190521 -70.195145 -252.384369
-73.359184 -72.739624 -249.604904
43.067905 -72.976654 -252.615494
-97.047531 -73.167923 -250.107483
17.045067 -71.798912 -256.336243
37.670364 -71.864265 -257.897186
-141.904083 -72.976250 -251.981995
-173.679779 -73.058456 -254.315445
-112.890564 -73.705803 -258.207520
-148.213760 -73.976280 -259.096741
-149.654251 -74.902519 -259.394073
-21.496218 -72.730881 -265.050537
14.784364 -73.045624 -277.474335
-15.791961 -74.588356 -282.597900
-164.947922 -74.005241 -278.091400
-135.708023 -74.273933 -280.593567
-163.306427 -74.137634 -281.301605
-97.616241 -73.986008 -284.934540
-90.816612 -73.978661 -285.130066
-56.152557 -74.283607 -286.937958
-21.699738 -74.599678 -288.876740
-44.928001 -74.571930 -288.177917
-21.432917 -74.064651 -289.881042
-43.082981 -74.398682 -289.282227
-19.834324 -74.094559 -290.358704
-52.835705 -74.712708 -289.872192
-12.674052 -74.010750 -291.475616
-78.554581 -74.919090 -289.927094
-93.235069 -74.901825 -289.696198
-112.481422 -73.957466 -289.826843
-124.517235 -73.442101 -289.810272
-140.772034 -74.044388 -291.027740
-161.379440 -75.045204 -294.098907
-163.619919 -74.140884 -302.429047
-156.667053 -76.360779 -308.612762
45.369919 -60.753708 -17.467237
25.575296 -58.326649 -21.233232
46.206566 -61.794086 -24.393494
28.778660 -60.809616 -27.275206
44.261681 -61.450932 -36.537537
26.759352 -61.389519 -40.346416
37.308693 -62.035030 -42.652828
-60.641014 -63.665882 -48.935513
-44.108685 -62.034920 -48.798607
-42.874737 -62.469547 -49.371326
-40.149639 -62.336128 -49.807373
-31.269245 -63.065987 -53.293316
-25.180887 -62.255596 -55.300060
-13.370522 -63.668575 -66.704735
77.850052 -65.923897 -75.814674
98.779396 -62.339397 -77.921249
-20.531870 -64.609032 -75.323593
72.346146 -66.073761 -81.299103
-41.910236 -65.336845 -80.644432
67.390465 -62.272205 -87.236832
58.228237 -62.553223 -89.641151
60.963211 -62.913864 -92.202400
56.295788 -66.063103 -96.148438
-60.565647 -65.490959 -91.272881
-96.122543 -64.574028 -94.378914
45.624630 -65.043205 -99.870949
103.509529 -65.176666 -103.067261
59.246834 -65.203110 -101.432327
71.164566 -63.118496 -105.546440
-72.034821 -63.203114 -99.663429
52.142529 -64.562805 -107.453194
106.941429 -64.687340 -110.858780
75.419258 -64.172668 -108.253929
104.598885 -64.598259 -109.160316
89.165581 -66.082802 -108.489197
103.018982 -64.172585 -113.374825
51.415489 -65.930046 -111.949303
-87.647293 -67.464294 -111.465950
41.390823 -65.148636 -117.518112
-96.028862 -66.377281 -111.514389
41.405773 -65.863640 -120.203972
-80.697578 -65.727051 -118.363434
44.462547 -65.409073 -120.147141
112.300850 -65.070496 -121.080589
34.318184 -66.320030 -127.727760
-80.919708 -65.656364 -119.138710
-86.248848 -65.634216 -120.434990
34.530270 -66.372574 -130.381958
-86.285606 -66.535484 -125.752121
32.977444 -64.983475 -124.492996
-79.612175 -66.487320 -126.914764
-52.399132 -66.248528 -131.336823
-57.005585 -66.800995 -131.613571
-51.189747 -66.280769 -132.552261
30.795008 -66.452644 -137.658447
-61.914410 -66.995171 -134.222610
31.133083 -66.475601 -139.054169
-73.283394 -65.147415 -135.419479
114.541115 -66.717979 -150.937683
23.574492 -67.488205 -144.028198
28.551003 -66.684654 -142.623520
-74.511932 -66.617081 -142.267395
-55.128685 -68.638382 -148.333267
30.638443 -67.402405 -146.828522
-55.330521 -66.404106 -146.368484
23.415274 -66.963120 -154.992264
-75.205254 -67.213348 -150.355392
-56.189816 -68.645363 -150.257950
-46.689579 -67.063194 -151.639664
7.902489 -66.788452 -153.689072
113.555603 -66.964821 -159.160675
-53.815495 -68.301811 -154.184647
26.394243 -67.640808 -160.363388
-40.668060 -67.520988 -155.815994
27.766787 -66.917145 -163.088745
-43.606621 -67.730263 -157.624985
-39.450901 -67.588516 -158.165848
-45.308640 -67.677704 -160.340317
-45.821667 -67.746292 -160.382797
5.738279 -66.970177 -161.555649
-48.027199 -67.793106 -162.649002
23.949650 -66.976181 -164.682129
-41.088558 -68.003334 -163.008286
-36.267220 -67.271004 -165.183914
24.135134 -68.468269 -171.554474
-32.887070 -68.562119 -169.341248
-33.233276 -68.646210 -176.224792
109.323227 -66.732185 -174.327866
13.880926 -70.131126 -175.519775
-37.799667 -68.585167 -175.589249
-30.723940 -68.353622 -174.223801
-40.769215 -67.437820 -174.640076
-145.272125 -69.485512 -174.609131
-29.266869 -68.973930 -183.204178
12.783254 -68.405960 -179.575455
103.134483 -67.758102 -183.700180
102.643074 -67.716667 -186.867676
-26.846315 -68.560364 -181.278717
12.970807 -69.360474 -185.443085
-144.944107 -69.404373 -181.943253
-31.413345 -68.732475 -185.090698
-30.694410 -68.750366 -187.644165
21.547766 -69.162239 -190.019577
18.320288 -69.975777 -194.509155
-113.158173 -68.780258 -186.236954
10.744637 -69.436913 -192.370758
18.047729 -69.106209 -193.833450
-24.471386 -69.466118 -191.161789
-116.141739 -68.906906 -193.190842
100.038391 -68.267265 -198.889862
-127.666039 -69.881836 -192.456894
-143.219467 -69.967918 -192.937210
-120.479836 -70.074501 -195.345261
-116.950836 -70.524361 -196.884521
95.964928 -69.121475 -208.231567
-15.357906 -69.445808 -204.688034
-23.204607 -68.462425 -205.439560
94.044525 -68.886848 -210.297424
-130.200684 -69.935638 -201.680984
-26.197241 -69.998253 -206.491302
5.371450 -71.000404 -212.167786
-148.096848 -69.413399 -204.600113
-13.687182 -69.573433 -213.266464
11.427282 -69.626862 -212.206848
90.842354 -70.699379 -217.809753
90.799347 -69.399826 -216.089645
13.604955 -69.472687 -213.019989
7.688242 -69.817345 -217.203308
-98.632393 -70.031113 -214.663055
-95.731674 -70.318787 -216.710938
78.158463 -70.025047 -223.441666
8.266132 -70.586700 -223.535873
-107.493927 -70.574478 -217.633804
-15.939466 -70.561180 -220.426285
-24.112074 -70.387787 -224.617508
2.946930 -69.943161 -225.030670
-11.873360 -70.597412 -226.353943
-132.051102 -70.183380 -221.196106
-14.394610 -70.376740 -226.553528
-108.504951 -70.610474 -224.374710
-144.403091 -71.957291 -222.728546
-117.927544 -70.208908 -224.034622
77.366074 -69.973839 -232.626419
10.669137 -70.506737 -229.122162
-171.663620 -70.408432 -223.770020
-115.457588 -71.014946 -228.149338
-122.801567 -71.744865 -229.454712
73.809967 -70.456009 -236.500839
4.971698 -70.780685 -238.147247
-4.710885 -72.678101 -236.448914
9.928924 -71.103096 -241.004868
-8.027695 -71.083679 -237.002365
68.187996 -70.318054 -241.182495
-9.354730 -70.410103 -238.658096
4.337801 -70.359482 -238.444473
-6.160279 -70.458755 -239.831192
-4.268035 -71.536232 -241.212112
0.082977 -72.366776 -244.322830
57.217777 -71.113396 -246.290649
4.151424 -69.797455 -245.575394
47.788979 -70.899330 -250.138336
-18.992048 -71.532150 -248.398743
-19.478821 -73.151108 -250.792145
-79.250824 -71.629189 -250.053726
31.937826 -71.493416 -256.513245
-83.929756 -71.934540 -252.004822
-160.697784 -71.790474 -250.931946
-89.285652 -73.135368 -253.568970
-145.599380 -72.960022 -251.939819
33.849270 -71.662483 -259.605835
-117.476074 -72.102615 -254.291245
-100.641434 -72.101593 -256.133789
-162.240845 -71.768539 -253.948746
-116.747108 -71.443779 -259.560669
-173.836823 -73.683594 -257.128601
-163.097290 -72.416527 -260.252899
-161.057922 -72.560715 -262.477539
-21.248034 -71.950607 -264.232910
17.206110 -71.944809 -272.128906
-161.076630 -72.698174 -264.160706
-20.913271 -72.685661 -270.158173
-164.337784 -73.029396 -267.378235
-19.098688 -71.953148 -275.123596
14.541124 -71.344864 -279.041321
-166.100479 -73.703674 -273.910553
-168.034988 -72.819656 -273.608276
-163.374344 -73.851639 -276.978882
-133.306686 -74.194786 -280.901978
9.208840 -72.637589 -286.126892
-147.072113 -73.085396 -282.130280
-98.857063 -73.495171 -285.040466
-83.458694 -73.726875 -285.477417
-82.959969 -73.608856 -285.582520
-77.500320 -73.014145 -286.970886
-61.036354 -73.861542 -288.826355
-164.834122 -74.147293 -282.969269
-75.398499 -73.012718 -287.613556
-68.702553 -73.589325 -288.763794
-3.440008 -73.691772 -292.955200
-86.111252 -74.030502 -289.674316
-110.568199 -73.916611 -289.825073
-130.903290 -74.046898 -289.613525
-163.879150 -73.325607 -289.362793
-135.234726 -73.060837 -291.377686
-152.164841 -75.285049 -304.993469
-161.131088 -73.500511 -308.285248
44.719326 -58.455151 -24.145367
52.578281 -57.366161 -30.187254
48.668186 -58.914066 -40.086754
-48.079323 -61.840641 -47.942440
-68.267929 -61.571949 -47.540955
-29.704739 -61.469883 -52.398106
-88.375298 -63.891495 -63.053833
84.337364 -62.360817 -70.806885
88.135773 -63.716736 -72.565224
-13.778568 -63.645523 -69.472031
97.432121 -62.376610 -77.081261
71.135834 -62.545143 -76.286911
-38.881580 -61.875607 -77.869484
-41.917591 -63.736507 -80.007248
64.903862 -62.972195 -90.080421
64.714119 -63.393211 -92.777596
101.279541 -64.050629 -96.617920
-58.610474 -64.853767 -90.373863
-96.428955 -63.452980 -90.933853
47.109718 -64.245255 -101.613441
100.403427 -64.393799 -99.803612
105.834511 -63.818031 -107.609917
72.194832 -64.424690 -105.058762
52.115482 -64.086716 -107.118599
-96.394615 -64.841766 -99.095711
46.909790 -62.197197 -105.809868
53.317677 -62.333511 -107.565514
81.132042 -63.356201 -109.405266
84.725716 -62.553509 -110.062943
-96.163940 -65.834206 -103.503944
39.861519 -63.933666 -110.008682
46.623672 -64.065094 -111.628052
103.052582 -63.446461 -112.898582
41.285240 -64.954849 -116.407982
36.983326 -65.086098 -114.471756
111.836563 -65.850533 -118.422318
36.410713 -64.811333 -116.680969
105.768333 -63.655128 -123.111046
-78.533859 -65.707008 -113.971977
-86.163963 -65.337883 -119.634071
106.696373 -65.009781 -129.052521
37.692520 -64.733475 -129.535507
-61.218540 -65.699127 -126.590492
-87.713776 -65.018753 -122.419304
-61.940384 -66.758156 -131.837128
-85.572594 -65.496155 -128.516846
-75.085693 -65.947197 -130.145691
-49.829422 -66.415810 -134.331085
-91.803406 -65.662971 -134.000534
-77.641281 -66.079208 -134.480103
-78.184677 -65.535072 -134.428040
-48.087139 -67.447021 -138.018600
-76.582809 -65.576927 -138.843918
-80.570801 -66.236374 -136.851563
108.176468 -66.485626 -148.975357
24.254530 -65.657425 -147.068863
-45.362392 -66.410561 -146.249115
112.031860 -64.875168 -150.233246
-58.097847 -66.805817 -146.385300
-53.053993 -65.871025 -147.444809
29.571861 -66.010223 -153.640900
26.422047 -66.765167 -153.386703
114.237961 -66.888100 -154.778320
-50.304047 -66.804848 -152.150421
6.737802 -64.909958 -156.427505
-50.499901 -66.267159 -156.390228
28.934744 -66.354553 -157.239517
109.913956 -65.595222 -159.854019
111.897354 -65.916473 -161.763733
26.813118 -65.571922 -160.835495
109.081474 -65.986992 -165.994827
21.839268 -66.764023 -164.067307
107.960899 -66.433273 -164.465149
23.767139 -66.996964 -165.479309
21.871548 -66.648926 -168.117050
108.527451 -66.423523 -172.411621
-33.628471 -67.809944 -169.574799
-42.703953 -66.718826 -169.664398
24.892494 -67.706139 -175.619690
-147.044891 -67.117378 -171.961761
-37.867126 -67.182739 -178.647919
-111.907257 -68.078148 -179.175980
22.647905 -67.322762 -182.905090
-155.201508 -69.306488 -176.674805
-27.768652 -67.615822 -181.321106
-36.891346 -69.177284 -183.657776
-144.828995 -69.127716 -179.103119
-114.428413 -66.926292 -180.640274
-36.157917 -69.220894 -184.853409
-110.878754 -67.831497 -184.430847
102.434540 -67.763268 -192.693848
18.265306 -67.233345 -187.611435
-29.786327 -68.930054 -190.266083
12.709205 -68.026413 -188.430176
-25.698036 -67.946281 -195.892212
-30.698870 -68.229416 -194.098541
10.587966 -67.883408 -198.409485
17.014503 -68.344749 -195.007416
-23.921999 -68.192688 -195.700592
-113.088287 -69.234131 -195.010651
-166.037308 -69.062920 -192.951370
-18.517738 -69.033218 -198.086502
-17.457495 -69.120232 -200.286774
14.022547 -68.011803 -200.255829
-20.824493 -68.047462 -202.332855
8.989707 -68.520386 -202.294617
-116.788490 -70.261192 -198.650665
-124.659767 -69.021751 -200.282578
-25.581785 -68.299683 -206.182434
13.193578 -68.831825 -205.581619
-133.087784 -68.391914 -201.854126
-147.504547 -69.677345 -202.592377
10.325465 -68.332054 -208.028015
13.132648 -67.855644 -210.345856
-17.835743 -68.479622 -207.304031
-11.001838 -70.507614 -212.172211
5.024900 -68.182739 -214.499512
90.014015 -68.980850 -216.023087
-18.720964 -69.270828 -214.628220
12.387802 -68.006104 -212.931885
11.446622 -68.559448 -217.044632
-15.031310 -68.860573 -218.042740
-106.212852 -69.324966 -217.515915
-8.610644 -69.683319 -223.047363
-109.671860 -69.487778 -219.123093
9.467029 -69.336250 -226.898468
-6.572040 -69.287201 -227.058609
76.102661 -68.451965 -231.808899
-114.867409 -70.248116 -222.243774
-139.093307 -70.534996 -221.770554
-19.045509 -69.616081 -227.543930
0.074846 -71.745384 -228.591797
2.183080 -71.308289 -232.147568
6.754751 -69.721451 -233.365234
-10.316076 -69.656105 -232.392166
-128.780045 -68.773109 -231.220398
-144.725952 -69.234200 -229.635071
9.042010 -70.489532 -237.238785
-18.680674 -69.643341 -232.684341
-161.076691 -70.134117 -230.976379
-158.318390 -70.654610 -240.102631
-157.971329 -70.493408 -239.624146
-3.533072 -70.315834 -238.707199
-161.066940 -70.429726 -236.155060
49.900772 -69.365768 -245.277466
-2.881773 -72.113243 -243.884979
55.679874 -69.508995 -246.115677
46.793358 -70.644241 -247.215622
53.220924 -69.521408 -248.045456
49.012650 -70.492470 -248.576004
-18.866127 -70.608353 -247.523865
-157.434814 -70.096939 -245.036896
-162.045975 -71.107117 -244.202988
-82.655067 -71.131470 -249.085541
-95.677994 -71.895241 -249.809982
-94.007729 -70.864227 -250.345093
-96.000320 -70.671288 -250.699661
-165.127060 -70.617157 -252.576141
-132.970856 -72.086258 -250.934357
38.949902 -71.224113 -258.168243
-111.047493 -70.631851 -253.289566
-128.780136 -71.682945 -253.308594
-161.829071 -71.799622 -253.133698
-173.320282 -71.848541 -257.072296
28.758089 -70.517479 -263.134155
25.981392 -71.104065 -263.267883
-164.534988 -71.569237 -257.795013
-142.595505 -69.834091 -259.033691
-165.655579 -72.034119 -261.682556
-173.580078 -72.414833 -269.445251
17.810232 -70.597794 -271.706329
-171.603363 -71.668777 -266.139954
-169.811142 -71.650467 -265.973541
-170.244858 -72.121780 -272.268280
-16.903265 -71.899879 -281.574219
-153.435837 -72.012604 -278.263031
-172.819901 -72.826630 -281.377258
-141.632980 -73.141464 -281.195648
-141.568878 -70.022728 -283.110413
-170.170654 -72.942802 -282.718475
-102.209389 -72.400558 -285.542023
-83.420021 -72.550087 -286.974762
-93.348564 -72.141312 -287.751434
-80.553284 -72.552025 -287.639130
-157.399933 -72.518890 -286.007477
-85.321213 -73.151932 -289.321777
-130.522964 -72.052612 -289.354706
-144.072479 -73.083168 -288.992340
-153.146042 -72.902550 -290.788177
-152.524124 -74.024681 -302.795776
35.682232 -59.036934 -15.599517
28.207121 -61.111179 -18.543900
46.716198 -59.210316 -30.855518
50.882278 -59.519794 -36.914467
35.766338 -58.249199 -41.838554
