80.184501647949 -75.484809875488 -221.298843383789 1.815267801285
-152.230407714844 -74.439872741699 -223.735671997070 2.090938568115
-13.188461303711 -76.296134948730 -222.077987670898 3.122089147568
85.052368164063 -76.232124328613 -223.488037109375 0.519812643528
-141.356796264648 -75.854331970215 -225.207611083984 1.740994453430
16.762332916260 -75.620010375977 -224.471405029297 1.915708303452
-8.524813652039 -74.926780700684 -225.647857666016 1.837133169174
6.520287990570 -76.735992431641 -225.545608520508 2.090966701508
19.588901519775 -76.948234558105 -230.409698486328 1.444070816040
71.161972045898 -75.615432739258 -232.366043090820 1.511164784431
77.384368896484 -75.938751220703 -230.515380859375 1.342832922935
6.401512145996 -74.807250976563 -233.848739624023 1.976941704750
1.559201002121 -74.597808837891 -235.977188110352 1.355383634567
-0.738967001438 -74.897804260254 -237.752258300781 1.495769023895
3.255253076553 -76.384757995605 -238.835678100586 1.725320339203
-40.963073730469 -76.816818237305 -239.556503295898 2.269579172134
5.487626075745 -76.241371154785 -238.569900512695 1.371093273163
-33.884754180908 -75.872802734375 -242.320541381836 1.459420800209
8.677473068237 -75.759552001953 -241.892059326172 1.586163997650
8.750064849854 -77.208869934082 -243.470642089844 1.153627634048
20.322473526001 -75.801780700684 -245.156311035156 1.512979865074
18.017812728882 -74.838584899902 -247.070404052734 1.746063947678
-79.593742370605 -76.438003540039 -250.521911621094 1.790971755981
21.599597930908 -74.379119873047 -251.235443115234 1.683659076691
-74.968528747559 -76.867271423340 -250.211776733398 1.076966047287
-141.602661132813 -76.917579650879 -255.342590332031 1.681341886520
-124.973976135254 -76.897323608398 -257.391601562500 1.380637526512
-135.079620361328 -75.502006530762 -258.875366210938 1.345778822899
-132.642852783203 -76.547607421875 -259.568542480469 1.566029191017
-150.861389160156 -80.060913085938 -263.638031005859 1.221693754196
-146.233825683594 -77.413383483887 -270.567077636719 0.987539708614
-149.879913330078 -77.651321411133 -266.479034423828 1.380694746971
-150.646102905273 -76.852050781250 -280.404785156250 2.295614957809
-162.989074707031 -76.067207336426 -283.894165039063 2.615055084229
-129.151428222656 -76.548095703125 -284.384216308594 3.442061662674
-46.736328125000 -77.387374877930 -285.222869873047 3.336654663086
-61.031745910645 -76.356758117676 -285.094360351563 2.098301649094
-73.864425659180 -76.254981994629 -285.762329101563 3.664025783539
1.185968995094 -77.844680786133 -283.933074951172 2.844354629517
-123.690002441406 -75.930900573730 -285.942016601563 2.174334526062
3.949050903320 -78.160499572754 -284.641723632813 1.192984104156
-135.787139892578 -76.847824096680 -287.001007080078 1.437830448151
-92.450103759766 -76.655242919922 -287.727233886719 2.274291276932
-81.436195373535 -76.998527526855 -287.783752441406 2.318461179733
-157.764083862305 -76.128311157227 -288.523620605469 1.929062962532
-138.299346923828 -76.910110473633 -289.619140625000 2.192732334137
-115.608665466309 -76.696342468262 -288.726318359375 1.803043842316
-68.092964172363 -77.041191101074 -289.085418701172 1.035097479820
16.696249008179 -76.070327758789 -290.365386962891 1.410584092140
-30.278343200684 -76.311981201172 -290.292083740234 2.604717016220
-17.993844985962 -76.529876708984 -290.735595703125 1.594892263412
-132.070861816406 -77.348327636719 -291.175811767578 1.640857934952
-129.666534423828 -75.754524230957 -292.910247802734 3.099090814590
-145.432540893555 -76.268379211426 -295.189208984375 1.583726763725
-144.046264648438 -77.074989318848 -301.649536132813 2.361478805542
-145.084503173828 -76.353691101074 -311.612152099609 1.701071500778
-58.685592651367 -72.936668395996 -51.891056060791 3.811934947968
-77.123222351074 -72.475730895996 -56.227134704590 3.263182163239
-77.594863891602 -72.303009033203 -56.253780364990 2.870917320251
-25.141193389893 -72.822059631348 -60.271080017090 0.877708792686
-21.218856811523 -72.635993957520 -62.568244934082 1.549139618874
-82.930427551270 -73.765998840332 -63.626728057861 3.274092197418
-86.155738830566 -73.520469665527 -67.689620971680 2.866145849228
84.119583129883 -72.642341613770 -70.050415039063 1.130654215813
91.471710205078 -73.331954956055 -72.289070129395 1.526809573174
-89.711357116699 -73.156974792480 -74.226043701172 1.913047909737
-28.352886199951 -74.111480712891 -77.227569580078 1.413661122322
95.545463562012 -73.019058227539 -78.698730468750 1.197743415833
94.716850280762 -74.533531188965 -83.019584655762 2.412795543671
-91.911087036133 -72.393417358398 -79.597824096680 1.056167125702
-48.372398376465 -72.302108764648 -84.450309753418 1.243700981140
97.872406005859 -73.081451416016 -88.267395019531 1.316703677177
-54.081707000732 -75.648239135742 -90.571685791016 0.576101720333
54.774997711182 -72.997543334961 -90.081069946289 1.600162267685
-56.008724212646 -75.173789978027 -91.045173645020 1.850463628769
49.830085754395 -73.667816162109 -93.219215393066 2.368506193161
46.221023559570 -74.706199645996 -97.410224914551 1.681049823761
55.636405944824 -72.929489135742 -95.110092163086 2.332384586334
54.808681488037 -72.318290710449 -99.310470581055 0.819775164127
41.949016571045 -73.337364196777 -101.618545532227 2.396837949753
107.628303527832 -73.268356323242 -102.284317016602 1.124728083611
-82.436103820801 -74.795822143555 -106.279968261719 2.933249711990
-83.084838867188 -74.827499389648 -107.883438110352 3.209549188614
109.036659240723 -73.931938171387 -107.607604980469 1.834051609039
46.956939697266 -74.063743591309 -113.105094909668 1.630708813667
47.059650421143 -74.049064636230 -116.729202270508 1.647939682007
-88.942657470703 -73.402832031250 -115.199508666992 1.260152220726
107.798080444336 -73.933654785156 -111.819450378418 1.511435508728
113.577346801758 -72.974449157715 -116.774505615234 2.039527893066
44.311431884766 -75.538909912109 -122.694648742676 1.976979017258
113.609016418457 -74.575592041016 -122.245353698730 1.040198802948
109.271163940430 -73.482948303223 -127.587509155273 1.667805314064
27.543581008911 -74.204521179199 -132.546951293945 2.846136331558
115.964454650879 -74.617721557617 -134.934387207031 0.420896530151
109.782341003418 -74.094566345215 -131.711456298828 2.190627813339
-56.107074737549 -73.801208496094 -135.084503173828 1.634451627731
-52.336772918701 -73.199996948242 -136.426971435547 1.020841360092
26.804071426392 -74.184791564941 -141.341171264648 2.256315231323
-55.157302856445 -72.197044372559 -135.130950927734 1.197051882744
-72.783317565918 -72.957130432129 -136.974639892578 0.434224545956
-71.524879455566 -73.883766174316 -141.082489013672 1.221475601196
109.815490722656 -73.085662841797 -138.343048095703 0.811028897762
-52.027420043945 -75.066825866699 -144.968688964844 1.924930810928
-73.803359985352 -74.143928527832 -142.678848266602 1.435112595558
-42.364116668701 -75.350311279297 -144.931976318359 2.272843360901
110.096847534180 -74.721427917480 -150.335479736328 0.276456058025
22.550451278687 -74.230438232422 -149.135070800781 2.182435035706
-72.802169799805 -73.488540649414 -151.382156372070 1.800296902657
-49.963203430176 -73.960311889648 -155.562698364258 1.198719143867
-36.375080108643 -74.977577209473 -154.512649536133 1.118382573128
-38.605068206787 -74.856216430664 -154.593551635742 1.983921647072
-71.021781921387 -73.796386718750 -155.458007812500 1.170688629150
10.555664062500 -74.151977539063 -156.779327392578 0.881674349308
-49.674678802490 -72.959976196289 -155.945983886719 0.886789083481
-46.283657073975 -73.754600524902 -157.988586425781 1.209307074547
29.836433410645 -75.048713684082 -161.883346557617 1.916073918343
-34.703517913818 -74.542694091797 -161.390197753906 1.461507439613
-67.030418395996 -74.977806091309 -163.603820800781 1.563547372818
108.929321289063 -74.240798950195 -159.080551147461 0.353912740946
108.454216003418 -73.259002685547 -160.367813110352 1.539920926094
29.366779327393 -74.795227050781 -163.393768310547 0.873496294022
111.815734863281 -74.237068176270 -167.255157470703 1.722266793251
110.473937988281 -74.672729492188 -168.387039184570 0.524899125099
17.761350631714 -75.316543579102 -172.101257324219 1.446061134338
-26.957092285156 -71.940597534180 -171.484558105469 1.526466965675
-52.656322479248 -75.337066650391 -175.848281860352 0.790620923042
109.730110168457 -74.217391967773 -176.541229248047 1.296760559082
-36.916763305664 -73.983917236328 -173.793930053711 1.263270139694
16.054914474487 -72.882186889648 -176.354339599609 1.236124634743
-35.984676361084 -73.470268249512 -179.313079833984 1.198755979538
-51.716171264648 -74.255378723145 -180.771102905273 0.372616678476
-145.829345703125 -73.894332885742 -181.869964599609 1.082151055336
-148.372177124023 -73.892478942871 -184.143600463867 1.488184213638
106.629264831543 -74.804267883301 -181.596069335938 1.456056714058
24.094486236572 -74.773918151855 -184.696395874023 1.877864360809
-51.273578643799 -74.301345825195 -183.617797851563 2.531548261642
-51.327041625977 -75.647552490234 -187.772888183594 1.466776013374
-46.472663879395 -74.460975646973 -189.236114501953 2.797936677933
-46.315494537354 -74.519271850586 -192.524871826172 1.214709758759
13.516025543213 -75.299728393555 -186.963760375977 0.756013751030
12.889992713928 -74.043006896973 -187.765121459961 1.513548731804
105.105087280273 -74.211151123047 -189.606842041016 1.651134371758
-24.871864318848 -73.894561767578 -193.940704345703 1.721101045609
-44.664924621582 -74.576126098633 -195.163986206055 2.811432361603
22.270830154419 -75.289817810059 -197.495086669922 1.908369421959
-41.539550781250 -74.618667602539 -196.179397583008 2.122596502304
99.268287658691 -75.147590637207 -198.340698242188 2.358483076096
-36.221889495850 -74.550476074219 -201.260940551758 1.863590717316
94.729995727539 -75.417037963867 -200.496398925781 1.966321706772
19.307378768921 -75.468521118164 -200.368408203125 0.497916638851
-37.707202911377 -74.258338928223 -203.363800048828 0.766417086124
19.274879455566 -74.274482727051 -201.556381225586 0.448809951544
-20.692127227783 -75.524978637695 -204.938140869141 1.327682852745
-38.717544555664 -75.108741760254 -204.180236816406 1.145126104355
95.092155456543 -75.184295654297 -207.690032958984 0.776297390461
10.038084983826 -74.912963867188 -206.812408447266 1.384181141853
91.230987548828 -74.609474182129 -213.851684570313 1.203154802322
-5.188535213470 -73.704811096191 -209.831985473633 1.017364859581
-26.050256729126 -74.921760559082 -210.136810302734 2.955014705658
-79.116928100586 -74.496330261230 -212.732437133789 1.235778808594
88.624778747559 -74.817893981934 -214.996841430664 1.698648452759
-19.341150283813 -74.790672302246 -216.188659667969 1.950523138046
19.064313888550 -74.706962585449 -214.768890380859 2.100892782211
-25.999244689941 -75.551452636719 -214.992477416992 1.127372503281
-30.439292907715 -74.798370361328 -214.306182861328 2.204684257507
-96.545234680176 -75.321800231934 -218.078125000000 1.175421953201
-12.255972862244 -72.605239868164 -220.102127075195 1.576253175735
-21.274095535278 -74.939308166504 -220.144958496094 1.205147027969
3.298219919205 -74.271080017090 -222.544616699219 1.500983476639
16.504121780396 -74.462272644043 -218.964859008789 2.151053667068
-13.387893676758 -74.611625671387 -221.301269531250 2.051374197006
-14.934606552124 -75.193374633789 -224.909271240234 2.139209270477
16.080347061157 -74.280632019043 -222.201004028320 1.393129587173
8.627196311951 -75.434356689453 -225.522827148438 1.870234370232
6.694956779480 -74.719055175781 -224.534729003906 2.961452960968
-126.656471252441 -75.380287170410 -227.991302490234 1.242079973221
-12.498731613159 -74.543571472168 -226.526916503906 0.901489496231
83.337577819824 -74.431861877441 -226.596328735352 1.439907550812
-15.736347198486 -74.632232666016 -228.706619262695 1.561584234238
-153.584747314453 -77.969657897949 -229.788879394531 1.507454276085
-126.621833801270 -75.213745117188 -230.354583740234 2.070375680923
-9.822378158569 -74.419174194336 -232.746368408203 0.905232965946
78.933441162109 -75.720825195313 -229.728088378906 0.897333860397
-7.109084129333 -75.552497863770 -231.263854980469 1.323204636574
-1.483816981316 -75.149688720703 -231.054794311523 1.646798491478
68.720054626465 -75.227638244629 -234.038360595703 1.906947374344
-1.230005979538 -75.846473693848 -236.037612915039 1.139427661896
68.976028442383 -75.484809875488 -235.488601684570 1.668260216713
-149.975021362305 -74.462265014648 -242.160995483398 1.310741186142
64.403999328613 -74.818229675293 -237.375778198242 1.508393049240
-33.534851074219 -75.849510192871 -238.711013793945 0.701996445656
-35.726478576660 -75.360389709473 -240.051437377930 0.401431709528
11.704168319702 -75.609611511230 -240.268768310547 2.116482973099
-42.064811706543 -74.988174438477 -241.446502685547 2.231851339340
-24.013441085815 -75.650146484375 -241.531372070313 1.690832972527
8.563299179077 -74.271461486816 -241.054611206055 1.226776242256
-41.144226074219 -74.993209838867 -242.489379882813 2.481168985367
-145.846618652344 -76.622879028320 -244.024307250977 2.545040369034
13.675183296204 -74.812477111816 -242.255126953125 2.441322088242
-149.694519042969 -75.938552856445 -242.032684326172 1.548138499260
-69.355560302734 -75.284233093262 -245.660400390625 1.266911983490
-5.557719230652 -75.833595275879 -246.094726562500 1.723088383675
-8.237963676453 -75.263954162598 -247.815719604492 2.090773344040
-80.966880798340 -74.302436828613 -248.695709228516 1.796049237251
-151.871688842773 -74.669746398926 -252.427993774414 1.160231590271
-143.657058715820 -77.183006286621 -252.807098388672 2.220222234726
-88.041664123535 -75.011833190918 -254.086761474609 1.090798854828
-163.605895996094 -74.942237854004 -257.341827392578 2.445403814316
-125.897346496582 -75.489410400391 -254.828475952148 1.236202239990
23.379096984863 -74.654006958008 -255.850631713867 1.379169225693
-154.676254272461 -76.093688964844 -256.104492187500 2.497123718262
-146.611282348633 -75.518844604492 -257.976470947266 1.170402169228
-162.391250610352 -75.368957519531 -260.008636474609 1.659313201904
-134.688232421875 -73.875373840332 -261.561096191406 1.228914380074
-124.656738281250 -74.585121154785 -262.482452392578 1.398818135262
-160.832977294922 -75.268531799316 -263.870239257813 1.167254686356
-143.748184204102 -75.678329467773 -263.083343505859 2.631674289703
-166.359634399414 -74.316390991211 -263.474700927734 1.458048462868
-153.369247436523 -74.806427001953 -264.530395507813 1.166409969330
-160.748580932617 -75.274703979492 -266.065795898438 2.144697904587
-165.059082031250 -75.180122375488 -262.135528564453 1.099244594574
21.423637390137 -75.656608581543 -270.205841064453 1.803144931793
20.096897125244 -76.992805480957 -271.215087890625 2.767716884613
-160.366470336914 -75.478317260742 -270.527557373047 4.099870204926
-157.235290527344 -75.420379638672 -271.328918457031 3.094361543655
-166.477096557617 -75.202415466309 -278.584197998047 1.255109310150
-152.654205322266 -75.278938293457 -270.968170166016 2.580499172211
-151.033279418945 -75.480567932129 -270.743164062500 2.424431800842
-151.179946899414 -75.650070190430 -274.649383544922 1.623928189278
-145.895858764648 -76.031867980957 -279.228485107422 2.220715999603
-161.386749267578 -75.854858398438 -278.080566406250 4.434748172760
-153.549285888672 -75.697792053223 -278.867340087891 3.738259792328
18.756536483765 -74.819114685059 -278.054840087891 2.328199625015
-151.246139526367 -76.903457641602 -281.647369384766 1.717526316643
-159.645477294922 -75.926223754883 -281.245300292969 4.856222629547
-159.698547363281 -75.950584411621 -284.214385986328 3.402151107788
-126.820518493652 -75.939407348633 -283.886566162109 2.080456972122
-28.716072082520 -74.884834289551 -284.984527587891 0.614581882954
-40.217880249023 -75.744781494141 -285.000244140625 2.172279596329
-66.199157714844 -75.915626525879 -285.229370117188 1.836005926132
-17.653499603271 -75.231315612793 -285.497924804688 3.442278862000
9.840246200562 -76.294204711914 -285.386291503906 2.174134731293
-1.649914979935 -76.051048278809 -286.118103027344 1.298314929008
-109.081275939941 -75.073791503906 -286.995239257813 2.184481620789
-92.539352416992 -76.099304199219 -286.816802978516 1.779366731644
-111.800971984863 -75.717559814453 -289.386260986328 2.033433437347
-102.032035827637 -75.983238220215 -288.448455810547 1.876817703247
-90.891159057617 -76.227836608887 -289.434082031250 2.250627040863
-48.276466369629 -76.031509399414 -289.817718505859 1.189647793770
-120.012969970703 -76.458892822266 -289.807281494141 2.329706907272
-86.590591430664 -75.234039306641 -290.271972656250 2.282666444778
-116.688789367676 -75.337692260742 -290.562835693359 0.809364914894
-134.903884887695 -76.164543151855 -290.758850097656 0.958540499210
-7.721675872803 -75.943496704102 -290.937530517578 2.563219785690
12.113545417786 -76.033027648926 -292.315032958984 2.701040267944
-152.855239868164 -76.068252563477 -295.448486328125 1.655020833015
-154.240142822266 -77.199508666992 -307.530548095703 1.256339907646
-65.576683044434 -71.983825683594 -51.011043548584 2.553320169449
-61.454906463623 -72.362686157227 -51.240329742432 2.051331043243
-50.877174377441 -73.586074829102 -52.901775360107 1.093764305115
-73.185058593750 -72.239776611328 -53.690666198730 1.398256659508
-41.916954040527 -73.177215576172 -53.637104034424 2.106825351715
-79.226669311523 -71.815727233887 -56.606372833252 1.730696320534
-84.444068908691 -70.858146667480 -59.964099884033 2.481527566910
-18.468074798584 -73.401832580566 -68.341178894043 1.483124732971
-17.332937240601 -71.446968078613 -69.726219177246 2.271277427673
75.127044677734 -72.187614440918 -72.059326171875 1.757648110390
-38.220066070557 -70.646026611328 -76.013656616211 1.230336785316
-31.273777008057 -71.558761596680 -76.398918151855 2.570113658905
70.285026550293 -70.966423034668 -77.394073486328 1.474795818329
96.458763122559 -73.630447387695 -84.621086120605 1.369819402695
-55.753414154053 -71.306869506836 -89.155921936035 1.747213006020
59.521999359131 -72.649543762207 -91.312965393066 2.050423145294
46.815402984619 -71.226364135742 -94.242889404297 1.201271176338
49.948524475098 -72.707710266113 -95.239913940430 1.883260130882
44.138607025146 -70.371276855469 -97.626625061035 1.466643810272
106.048164367676 -72.323143005371 -96.645614624023 0.662939846516
60.820098876953 -71.281867980957 -93.214622497559 1.387733936310
-93.669639587402 -72.835083007813 -99.786750793457 3.442152976990
-73.637580871582 -69.905616760254 -100.060493469238 1.779887318611
56.430023193359 -72.149459838867 -100.401939392090 1.380361318588
44.409755706787 -70.611381530762 -101.070808410645 1.457486391068
42.771785736084 -72.257911682129 -103.603446960449 0.813861966133
-93.558151245117 -72.850006103516 -109.013191223145 2.566702127457
36.873531341553 -73.319770812988 -110.026542663574 0.940033853054
50.326133728027 -72.159149169922 -110.457984924316 1.861847400665
43.686977386475 -74.537551879883 -119.370315551758 2.704513549805
44.569358825684 -72.227912902832 -120.413940429688 2.006415367126
116.152420043945 -71.852500915527 -126.478126525879 1.079355835915
-55.002891540527 -72.462768554688 -130.808609008789 2.361179828644
38.684486389160 -72.759353637695 -136.297546386719 1.195524811745
37.166320800781 -73.802619934082 -135.578216552734 1.316994786263
114.000152587891 -73.211334228516 -136.651550292969 1.970847129822
-74.501640319824 -72.585548400879 -135.451446533203 2.599930524826
-54.257160186768 -72.742774963379 -136.037857055664 2.177668094635
117.165863037109 -72.719345092773 -137.301925659180 2.485867023468
-74.519050598145 -73.620712280273 -140.947158813477 1.431718707085
-45.581867218018 -72.973190307617 -142.030319213867 1.668394923210
-58.533641815186 -71.015411376953 -140.836578369141 1.440909862518
112.513549804688 -72.987533569336 -139.411392211914 1.671372532845
22.903448104858 -72.746055603027 -147.337722778320 1.623632669449
33.528736114502 -73.420692443848 -145.694244384766 1.553046464920
-42.228763580322 -73.406211853027 -148.455841064453 1.056557416916
-68.344917297363 -73.027816772461 -149.747787475586 1.435752034187
24.634927749634 -73.469245910645 -150.784576416016 2.710128307343
-73.518417358398 -71.921432495117 -150.325225830078 1.660897254944
33.032600402832 -73.473648071289 -147.478240966797 0.424195021391
-37.508808135986 -72.510368347168 -152.969268798828 1.005438566208
22.277822494507 -73.837493896484 -150.547561645508 1.604662895203
11.890824317932 -73.543495178223 -154.083648681641 1.022817373276
-69.814781188965 -74.590103149414 -157.907928466797 2.231173992157
-47.563880920410 -73.954421997070 -156.039733886719 1.995063781738
-61.616802215576 -73.414146423340 -158.911102294922 1.951095104218
-47.710304260254 -73.377738952637 -159.116836547852 1.265499353409
5.625351905823 -74.694229125977 -162.596466064453 0.941326677799
-33.234848022461 -73.631004333496 -164.150848388672 1.119387030602
-44.767913818359 -74.368675231934 -164.408508300781 1.222323775291
20.875772476196 -72.956207275391 -166.061843872070 0.305254280567
-42.044368743896 -73.660499572754 -164.811172485352 1.880914211273
29.073078155518 -73.079841613770 -164.603485107422 1.282644271851
114.906181335449 -73.628517150879 -167.107955932617 1.443365335464
-29.967582702637 -73.532928466797 -169.243240356445 1.990998387337
28.198135375977 -74.436820983887 -168.688873291016 2.392251014709
-63.458675384521 -73.570945739746 -168.874389648438 1.694919109344
-57.672370910645 -73.528167724609 -169.423583984375 2.068521499634
-40.664535522461 -72.709770202637 -171.096328735352 1.349901080132
-58.890415191650 -73.075035095215 -172.492599487305 1.366421699524
109.570861816406 -73.450630187988 -175.907714843750 1.112601518631
-147.127487182617 -72.937805175781 -175.175827026367 0.445530027151
-146.104232788086 -73.622657775879 -178.405487060547 2.028907775879
-54.498027801514 -74.078750610352 -180.315521240234 1.363618731499
108.242927551270 -74.047149658203 -174.661407470703 1.263612151146
111.652854919434 -72.482009887695 -178.771774291992 1.851056456566
108.918861389160 -73.872627258301 -178.913742065430 1.792709231377
24.507286071777 -74.995147705078 -182.970321655273 1.661512255669
-34.009822845459 -75.480163574219 -181.870941162109 1.918645143509
-143.069931030273 -73.168060302734 -183.066406250000 1.632316350937
107.702194213867 -73.635986328125 -182.504760742188 0.447387486696
21.282815933228 -74.951210021973 -194.109176635742 2.097960233688
107.411865234375 -74.055648803711 -189.949890136719 1.227675795555
103.535110473633 -73.350288391113 -188.778671264648 1.419278979301
10.669345855713 -75.401779174805 -196.048095703125 1.069870591164
-127.623878479004 -73.066726684570 -195.869567871094 3.393924474716
-121.986869812012 -71.887680053711 -196.803848266602 1.032224178314
-148.128356933594 -78.040969848633 -197.491561889648 1.315351963043
-131.446426391602 -73.602325439453 -198.564453125000 1.307639956474
-123.753776550293 -73.988922119141 -199.653610229492 0.654029667377
-22.011650085449 -72.816635131836 -199.147857666016 1.828393340111
-21.859169006348 -74.233108520508 -199.193130493164 1.079069614410
-131.198028564453 -73.542533874512 -200.508850097656 0.501134335995
-141.410842895508 -73.976142883301 -202.446899414063 2.361375808716
-10.022731781006 -74.823280334473 -206.236785888672 1.562459707260
98.368400573730 -73.390884399414 -199.581344604492 0.806165039539
-18.436666488647 -73.994209289551 -205.720169067383 1.815275430679
91.685256958008 -74.243194580078 -209.660430908203 1.257598400116
18.096559524536 -73.313415527344 -206.654205322266 1.873101949692
-6.891695022583 -72.921333312988 -211.893692016602 1.960603356361
17.627351760864 -74.560615539551 -209.760925292969 1.774067759514
-26.789546966553 -73.644561767578 -211.137466430664 1.798452258110
-83.477668762207 -73.381637573242 -212.668624877930 1.629812955856
-89.010078430176 -74.155952453613 -212.588806152344 1.163644313812
-14.654074668884 -74.467407226563 -212.539962768555 1.371948242188
-93.256217956543 -75.627075195313 -214.670532226563 1.602756023407
-96.314208984375 -73.352653503418 -215.847457885742 1.563048005104
84.714462280273 -73.695137023926 -218.601928710938 1.545350432396
-25.196138381958 -74.278099060059 -219.861358642578 1.365474820137
-23.066312789917 -73.973327636719 -222.062576293945 1.577239513397
-20.928558349609 -74.529953002930 -219.004440307617 1.259175062180
-18.497154235840 -73.895309448242 -221.812957763672 1.173628926277
-18.341857910156 -73.831748962402 -222.455856323242 0.742929399014
18.340744018555 -73.947883605957 -222.179718017578 0.863512516022
-141.035903930664 -73.613304138184 -225.382400512695 1.529707312584
78.285942077637 -73.823188781738 -226.040740966797 1.628551125526
-4.508068084717 -73.665252685547 -227.585601806641 2.269658088684
9.258154869080 -74.403488159180 -228.306442260742 1.921185731888
79.933448791504 -74.249320983887 -226.365234375000 0.860059797764
-124.098571777344 -75.049156188965 -228.915527343750 1.207119464874
-162.049621582031 -73.737525939941 -233.406631469727 2.378155469894
-137.315689086914 -74.136009216309 -229.944198608398 2.529855251312
16.424222946167 -74.324531555176 -229.577728271484 1.895609021187
9.907533645630 -74.685913085938 -232.238769531250 1.246169209480
-128.999374389648 -74.138252258301 -232.257492065430 1.585116386414
0.016014000401 -74.627601623535 -233.282135009766 2.592802286148
-144.759384155273 -73.573036193848 -234.733795166016 1.357134222984
-2.213866949081 -74.516494750977 -235.422073364258 1.358705997467
11.622697830200 -74.269714355469 -236.275680541992 2.075927972794
-3.009706974030 -74.173011779785 -236.214370727539 1.206172227859
-2.133842945099 -73.834838867188 -236.657409667969 0.294898062944
7.453463077545 -74.512580871582 -237.318328857422 1.884741067886
-161.336700439453 -74.521553039551 -237.944061279297 0.775429904461
-156.676498413086 -73.805213928223 -239.074737548828 2.027196884155
16.994777679443 -74.480964660645 -240.076202392578 0.918799340725
-0.165854007006 -73.783805847168 -240.017959594727 1.247270464897
65.974784851074 -74.951889038086 -239.028366088867 1.712656855583
61.423660278320 -74.314559936523 -239.569656372070 2.738662719727
-164.860122680664 -74.045196533203 -244.038482666016 2.811655282974
-160.513549804688 -74.192260742188 -242.511260986328 3.368045568466
-152.321823120117 -73.797912597656 -241.725036621094 2.291060447693
-56.947357177734 -75.019218444824 -242.832550048828 2.579558134079
-5.035833835602 -74.029991149902 -242.066925048828 1.155664324760
-50.036365509033 -74.258216857910 -243.007446289063 1.396367788315
-152.891235351563 -74.099243164063 -245.603561401367 1.449849963188
-60.264640808105 -73.629402160645 -244.307281494141 0.876470625401
18.104770660400 -73.117408752441 -245.599334716797 1.274304628372
-9.287848472595 -73.372085571289 -247.444458007813 1.183940052986
-6.326994895935 -74.643592834473 -245.936706542969 2.220499515533
-156.320465087891 -74.328559875488 -248.520401000977 2.435744285583
-166.003768920898 -73.594161987305 -250.645065307617 0.562278985977
-85.352767944336 -73.948486328125 -249.736389160156 1.601725220680
-163.056015014648 -74.625259399414 -252.644989013672 1.878973722458
-145.022171020508 -74.933639526367 -251.708099365234 1.477934360504
-74.799583435059 -74.770118713379 -252.246841430664 0.945493757725
-92.664543151855 -74.987556457520 -254.051574707031 1.680778622627
-84.741508483887 -73.682235717773 -254.486450195313 1.289915800095
-134.690109252930 -73.736221313477 -255.217285156250 1.176724791527
23.811302185059 -73.204978942871 -254.773132324219 2.450310707092
-96.748695373535 -74.560249328613 -255.978591918945 1.276492595673
-101.962913513184 -74.333755493164 -256.531341552734 1.734183788300
-103.840858459473 -74.217201232910 -256.916168212891 2.171006679535
-114.991592407227 -74.633323669434 -258.566619873047 0.886824488640
-108.054740905762 -73.825492858887 -258.861541748047 1.651041984558
-115.281433105469 -74.542625427246 -259.870697021484 1.292572975159
-142.246780395508 -76.222930908203 -261.577850341797 1.874084115028
-133.120910644531 -73.848838806152 -262.934417724609 0.714035809040
-151.374298095703 -75.098045349121 -265.237487792969 0.736014604568
-145.074584960938 -74.371444702148 -269.738098144531 4.159809112549
-166.747650146484 -74.745933532715 -276.605926513672 1.543557643890
-8.710428237915 -74.460235595703 -277.963897705078 0.997068822384
-129.259613037109 -74.537521362305 -283.325225830078 3.756530523300
-137.168441772461 -74.610015869141 -284.795104980469 2.177507162094
-45.527038574219 -75.921501159668 -284.757995605469 3.291327953339
-88.082717895508 -74.381942749023 -285.601531982422 1.194976329803
-27.247411727905 -74.021583557129 -285.659118652344 1.412997245789
-31.957477569580 -74.431495666504 -285.651428222656 1.337448358536
-113.250244140625 -75.123100280762 -286.635864257813 2.065361261368
-15.351670265198 -74.070617675781 -286.119140625000 2.608653783798
14.019610404968 -74.721733093262 -288.239837646484 1.106278657913
-50.660682678223 -75.495178222656 -289.814941406250 2.388538837433
-112.966575622559 -75.060333251953 -290.224517822266 1.391028761864
-78.052680969238 -73.454116821289 -290.253417968750 1.162730574608
-68.022094726563 -73.948997497559 -289.990539550781 1.287723779678
-31.388675689697 -74.420043945313 -289.962615966797 1.643003106117
-100.921173095703 -74.587448120117 -290.711029052734 1.257489562035
-111.599945068359 -74.170196533203 -290.866394042969 2.435982704163
-8.832214355469 -74.774330139160 -290.727813720703 2.188876152039
-159.473419189453 -74.848381042480 -291.795989990234 1.729514598846
-152.179718017578 -77.642959594727 -299.310791015625 1.458658337593
-151.541366577148 -76.860229492188 -311.509796142578 1.392701029778
28.735857009888 -70.626655578613 -14.957080841064 1.616822242737
25.004076004028 -70.650810241699 -16.891696929932 1.052767157555
24.968057632446 -70.893394470215 -19.798057556152 2.523214817047
21.448564529419 -70.657035827637 -23.831399917603 1.260550975800
23.305429458618 -71.049194335938 -29.571821212769 2.361721992493
30.687494277954 -70.931732177734 -36.033763885498 0.873398065567
28.451967239380 -70.943840026855 -36.664455413818 2.247034549713
-55.080890655518 -71.403297424316 -49.814136505127 1.026421070099
-30.160734176636 -69.689666748047 -52.895687103271 1.477834105492
88.190032958984 -70.846122741699 -66.976318359375 1.382413864136
-89.998291015625 -72.071670532227 -71.098518371582 2.256610631943
73.232131958008 -71.993804931641 -73.850318908691 1.278569698334
-40.504894256592 -72.120544433594 -78.675163269043 0.606665194035
-92.476890563965 -71.884574890137 -79.893089294434 1.230717778206
-45.189331054688 -73.144790649414 -83.443588256836 0.694229900837
98.933570861816 -71.929985046387 -87.541175842285 1.028629422188
-92.591850280762 -73.343185424805 -90.608734130859 3.527907133102
70.192863464355 -71.388954162598 -89.744560241699 1.836146235466
-93.845069885254 -72.084259033203 -92.779457092285 3.619824171066
57.826053619385 -73.718238830566 -93.112098693848 0.664432585239
104.744277954102 -71.358406066895 -95.514518737793 0.976829826832
-67.847015380859 -70.956542968750 -98.632713317871 2.233541011810
43.983753204346 -72.446121215820 -98.344131469727 1.496920943260
77.910903930664 -71.404632568359 -100.463844299316 2.238470792770
82.354286193848 -71.074760437012 -100.077018737793 1.715355992317
44.594215393066 -71.378074645996 -100.726005554199 0.776712536812
109.302604675293 -72.297592163086 -102.465065002441 0.900047421455
-94.016616821289 -72.063591003418 -111.752174377441 2.348110675812
103.508277893066 -71.185211181641 -103.855506896973 1.844685554504
108.545761108398 -71.490089416504 -109.693214416504 1.258312344551
36.962207794189 -72.751121520996 -114.281082153320 1.200729727745
46.639274597168 -73.106330871582 -113.253135681152 0.981994569302
44.816177368164 -73.356643676758 -116.438636779785 1.277912616730
33.759174346924 -72.977043151855 -115.947151184082 1.945077061653
43.397689819336 -71.413673400879 -116.936134338379 1.320132732391
44.904239654541 -71.850738525391 -119.360755920410 1.056584715843
108.067718505859 -72.975044250488 -121.070945739746 1.505646228790
112.906265258789 -72.276214599609 -125.964439392090 0.680014908314
30.876102447510 -71.654365539551 -124.222526550293 0.483396708965
30.966661453247 -71.654075622559 -131.064178466797 1.961429834366
-73.905784606934 -72.140190124512 -133.847076416016 2.358995437622
-55.137924194336 -70.971656799316 -131.833801269531 1.355554938316
114.411254882813 -72.617713928223 -139.609039306641 1.091902017593
27.150966644287 -71.670501708984 -135.000106811523 1.364354372025
36.893798828125 -72.518455505371 -134.475097656250 1.251033782959
-77.053855895996 -71.781852722168 -137.269851684570 0.881602227688
26.045118331909 -72.101325988770 -137.987396240234 0.788448154926
27.012731552124 -72.861297607422 -140.986236572266 1.161136984825
-45.434452056885 -71.467422485352 -142.895614624023 1.416024804115
-71.245086669922 -72.460899353027 -145.208557128906 1.506110072136
-53.423583984375 -72.575370788574 -146.431121826172 2.483796596527
33.377750396729 -72.422584533691 -145.323959350586 2.115610837936
-52.503623962402 -74.236938476563 -151.234527587891 1.867975831032
34.648174285889 -72.868621826172 -149.621902465820 1.721146464348
30.060461044312 -71.866806030273 -158.077255249023 1.028850793839
109.768043518066 -72.220848083496 -150.516677856445 0.953405499458
23.767038345337 -72.955909729004 -153.614883422852 0.741574347019
13.489602088928 -72.730209350586 -153.191329956055 0.962130188942
-38.154792785645 -73.357894897461 -155.524673461914 2.178952693939
-71.010154724121 -70.838699340820 -153.953765869141 1.399918079376
-46.891262054443 -72.666625976563 -156.904617309570 0.842905282974
108.807777404785 -72.964065551758 -158.150817871094 1.171622157097
32.677639007568 -73.136337280273 -158.211761474609 2.705401182175
112.100967407227 -72.799987792969 -160.324844360352 1.644798755646
-35.267185211182 -72.202308654785 -161.845443725586 1.803699731827
18.949081420898 -71.528038024902 -165.055435180664 0.865980803967
2.855621099472 -72.096580505371 -162.712890625000 0.977258384228
-31.300960540771 -71.691894531250 -163.975524902344 1.499296426773
-62.026401519775 -72.136749267578 -164.847991943359 1.082961916924
-31.653800964355 -72.836738586426 -167.041305541992 1.894507169724
-57.890373229980 -73.079124450684 -171.555526733398 2.071880578995
-36.977272033691 -73.323341369629 -173.318450927734 1.407992362976
28.024309158325 -73.244285583496 -169.074386596680 1.729395985603
-37.549839019775 -71.757209777832 -175.804473876953 2.695661306381
-150.374679565430 -71.938362121582 -176.938873291016 0.701232075691
112.366889953613 -72.324958801270 -176.426788330078 0.401354908943
-150.596862792969 -72.306907653809 -180.910003662109 0.748597621918
-143.309890747070 -72.704940795898 -180.826217651367 1.902696967125
14.526018142700 -72.712265014648 -180.876144409180 1.237646818161
24.681358337402 -73.088745117188 -183.648544311523 0.899119973183
-33.362018585205 -72.231880187988 -182.881256103516 0.929231882095
-149.098327636719 -72.147537231445 -187.201095581055 0.986532390118
-29.625970840454 -72.518562316895 -189.052368164063 1.605414748192
-144.753738403320 -72.273368835449 -189.144577026367 1.532549500465
-15.535683631897 -72.757896423340 -191.466384887695 1.086639642715
13.773409843445 -74.395416259766 -192.114212036133 2.095221281052
100.385314941406 -73.281112670898 -197.153411865234 2.158298730850
10.928839683533 -73.543601989746 -193.632415771484 1.531008720398
-126.950782775879 -71.795768737793 -194.822113037109 2.384244918823
-130.654266357422 -72.759994506836 -195.676406860352 1.024313449860
-139.750366210938 -74.105476379395 -197.782333374023 1.191529154778
95.908027648926 -72.390747070313 -198.535919189453 2.028331279755
-132.973266601563 -72.698249816895 -199.990447998047 0.801929354668
7.728906154633 -74.318801879883 -206.376785278320 1.639683961868
-24.413959503174 -72.739311218262 -199.100265502930 1.453123211861
-132.226776123047 -71.840904235840 -202.036712646484 1.206065893173
-149.055603027344 -75.458763122559 -204.602615356445 1.444929003716
99.639213562012 -74.117675781250 -205.892059326172 1.806543231010
-12.260371208191 -73.526931762695 -202.616363525391 1.909395813942
98.562202453613 -73.326446533203 -199.565383911133 0.762853682041
-7.725259780884 -73.215484619141 -206.148529052734 2.132039785385
94.567550659180 -73.294837951660 -207.043869018555 2.212931871414
-144.451919555664 -72.596847534180 -208.417968750000 2.175732135773
-16.196838378906 -72.578521728516 -209.244308471680 1.656169772148
-149.470275878906 -72.902473449707 -213.562484741211 1.840996265411
-149.102706909180 -73.016860961914 -207.790740966797 1.990873575211
-16.875581741333 -71.582191467285 -212.347717285156 1.295933246613
-87.885040283203 -72.284606933594 -213.457229614258 1.676001310349
-161.234756469727 -72.817642211914 -214.674545288086 2.477356672287
-159.774139404297 -72.556472778320 -211.038726806641 3.170686721802
-155.657836914063 -72.424903869629 -212.159530639648 1.612462759018
-28.172525405884 -73.069709777832 -214.117431640625 1.108424544334
-25.399820327759 -72.740707397461 -217.457031250000 0.941561877728
-15.386013984680 -72.418235778809 -215.066711425781 1.401022672653
-14.896196365356 -73.442588806152 -215.847610473633 1.251871347427
-145.227722167969 -74.157852172852 -217.513809204102 1.007810831070
18.647701263428 -75.489334106445 -219.306335449219 0.650386929512
-150.855072021484 -72.815879821777 -220.721527099609 2.095129966736
-88.460136413574 -73.234611511230 -217.864776611328 0.996373414993
-164.355987548828 -73.049751281738 -222.934082031250 1.966376662254
-25.301620483398 -73.754722595215 -219.445983886719 1.365201354027
-17.832590103149 -73.837799072266 -217.840667724609 2.608499765396
-160.995559692383 -72.848373413086 -215.707916259766 2.997696638107
15.939325332642 -73.051391601563 -218.153472900391 1.319565653801
-157.076644897461 -72.890769958496 -218.738265991211 2.989085912704
6.786883831024 -73.041954040527 -221.270370483398 1.600920796394
-159.390716552734 -73.046974182129 -221.389389038086 1.872920989990
-154.447692871094 -72.878067016602 -220.101013183594 2.394493579865
-104.404899597168 -72.787170410156 -220.913635253906 1.202227830887
7.351914882660 -71.960342407227 -221.942184448242 1.285517573357
-159.353515625000 -73.419296264648 -225.763092041016 1.363270521164
-161.091857910156 -73.771949768066 -224.467971801758 1.619537472725
4.648404121399 -73.619697570801 -224.219726562500 1.630764842033
-115.803283691406 -72.394515991211 -225.726242065430 0.482169508934
-156.668869018555 -73.151206970215 -225.947326660156 2.487228393555
14.692190170288 -72.733764648438 -224.608139038086 2.022985458374
-109.905769348145 -72.532478332520 -227.731643676758 0.369343787432
-115.940544128418 -72.747642517090 -227.295150756836 1.464178442955
-120.057495117188 -72.998764038086 -227.593582153320 3.377566576004
79.591049194336 -73.325500488281 -227.327697753906 0.517963588238
-161.787887573242 -73.424346923828 -228.570312500000 0.690844833851
-154.902694702148 -73.124588012695 -227.100418090820 1.674917578697
-2.910855054855 -72.499572753906 -228.851058959961 1.994294047356
-164.661788940430 -73.354309082031 -231.703109741211 0.905324518681
5.450049877167 -72.413566589355 -229.639572143555 1.014292597771
-161.074630737305 -73.450958251953 -229.981582641602 1.952129840851
-159.347640991211 -73.420852661133 -231.242095947266 3.945777893066
72.515747070313 -73.192092895508 -231.459472656250 1.687863707542
-165.654769897461 -72.605476379395 -231.281280517578 1.388390064240
-164.988891601563 -73.598129272461 -236.242767333984 1.679281592369
6.632209777832 -74.479705810547 -233.850448608398 2.342696428299
-154.075210571289 -73.600448608398 -237.518814086914 3.715880632401
74.134544372559 -73.729301452637 -235.329666137695 1.592510819435
70.694831848145 -73.248519897461 -233.831405639648 1.271785020828
-145.129348754883 -74.079948425293 -238.998870849609 3.294831991196
9.158786773682 -72.160568237305 -239.467056274414 2.007272005081
-9.203175544739 -73.128173828125 -240.014678955078 0.847891151905
67.475097656250 -73.856605529785 -239.876007080078 1.684416294098
-165.975433349609 -72.903656005859 -240.737564086914 0.923939228058
10.137635231018 -72.529464721680 -242.434982299805 0.932957351208
20.675376892090 -74.732086181641 -241.560562133789 1.166688561440
62.363037109375 -73.028839111328 -243.721267700195 1.039496421814
18.819433212280 -73.283226013184 -245.435363769531 1.360423088074
16.961772918701 -74.321662902832 -245.233215332031 0.979064643383
-71.926940917969 -74.075912475586 -246.077987670898 1.513473749161
16.749027252197 -74.546463012695 -245.733917236328 0.930471301079
-11.523118019104 -72.375305175781 -246.190292358398 1.837677240372
-144.667083740234 -73.369438171387 -246.889480590820 2.532934188843
-65.831871032715 -74.519012451172 -250.036102294922 2.072575569153
-143.394088745117 -72.941047668457 -252.479064941406 1.842757344246
-127.692741394043 -73.739761352539 -253.684661865234 2.437036752701
-97.402206420898 -73.826507568359 -253.856933593750 1.435799956322
-134.501876831055 -72.937164306641 -254.269088745117 1.841555953026
-109.965263366699 -72.788085937500 -256.130523681641 1.406657338142
-112.453216552734 -73.135246276855 -256.738769531250 2.017880916595
-95.328216552734 -73.313056945801 -256.944519042969 0.937435626984
-101.512443542480 -73.089057922363 -258.605773925781 1.054034829140
-113.444534301758 -73.079246520996 -260.593292236328 0.988543987274
24.489465713501 -72.822120666504 -264.083587646484 1.571497082710
-13.562520027161 -74.356414794922 -266.874816894531 2.037937879562
-167.156234741211 -73.013175964355 -269.932525634766 0.632136881351
-144.805145263672 -73.946159362793 -271.817993164063 2.371761798859
14.914831161499 -74.269859313965 -283.190612792969 1.365567326546
-125.860702514648 -73.346229553223 -282.993835449219 1.797272443771
-123.793388366699 -71.547195434570 -284.946655273438 1.171974658966
-81.360267639160 -73.874275207520 -285.453033447266 1.949666619301
-51.819496154785 -73.862464904785 -285.049377441406 2.395941495895
-105.387992858887 -73.088890075684 -286.015472412109 2.697226047516
-38.456840515137 -73.912635803223 -285.713897705078 1.059109449387
-29.791770935059 -73.641258239746 -286.550994873047 1.181715130806
-8.404481887817 -75.156311035156 -285.905670166016 2.134851455688
-39.369369506836 -73.394844055176 -288.993927001953 1.986471652985
-59.181003570557 -73.442459106445 -289.733764648438 2.458377838135
-28.250055313110 -73.636161804199 -289.537292480469 2.090335130692
-18.799943923950 -73.982231140137 -289.943939208984 1.990123629570
14.501538276672 -73.877868652344 -290.969329833984 1.647094249725
-114.424285888672 -74.120986938477 -291.038970947266 0.769146800041
-118.821632385254 -74.011543273926 -291.452178955078 1.746392250061
12.831183433533 -74.331520080566 -291.642150878906 2.420758008957
-135.106750488281 -73.172431945801 -292.236083984375 1.227867007256
-145.352828979492 -74.420257568359 -298.128204345703 1.626948356628
-143.310897827148 -75.068901062012 -304.628448486328 0.867555677891
-152.310195922852 -74.650787353516 -311.723999023438 1.802479505539
27.300107955933 -69.650489807129 -13.349007606506 1.214948534966
44.134891510010 -68.414001464844 -13.624827384949 2.396672487259
37.497684478760 -69.807929992676 -15.375362396240 2.172844648361
47.132869720459 -69.923728942871 -19.550239562988 1.314536213875
45.248912811279 -69.990249633789 -21.585565567017 1.857438445091
47.322406768799 -70.055084228516 -22.837844848633 2.911028146744
25.320499420166 -70.363166809082 -25.244285583496 1.636836886406
25.786371231079 -69.991065979004 -26.874101638794 0.789358913898
45.388694763184 -70.292320251465 -31.461990356445 1.855097770691
38.911899566650 -70.101371765137 -35.395786285400 0.407583653927
38.287830352783 -68.970565795898 -34.898712158203 1.777619719505
39.424514770508 -68.763542175293 -39.761413574219 2.008665084839
-61.574115753174 -70.497581481934 -49.004112243652 1.741115093231
-48.979488372803 -70.346107482910 -49.046146392822 2.199571847916
-79.133888244629 -68.211326599121 -51.593383789063 1.918108105659
-74.433708190918 -71.181167602539 -52.866069793701 1.153861641884
-77.384033203125 -71.457061767578 -54.880683898926 3.416970014572
-26.932008743286 -69.778282165527 -54.677860260010 2.106237888336
-20.475049972534 -71.762725830078 -61.468505859375 1.820826053619
-17.630596160889 -71.663337707520 -63.950443267822 1.707344889641
78.520782470703 -69.571678161621 -65.842323303223 1.534046411514
79.475746154785 -71.019264221191 -67.299140930176 0.915703237057
72.237640380859 -69.385040283203 -69.765830993652 1.564090490341
73.195083618164 -72.565498352051 -75.017539978027 2.321222305298
-30.328620910645 -68.602798461914 -76.979072570801 2.502690076828
-47.935871124268 -71.311653137207 -84.167823791504 1.405849337578
100.009292602539 -70.877113342285 -85.320289611816 1.713447928429
56.389453887939 -68.182525634766 -84.988067626953 1.734972238541
-63.542259216309 -70.183044433594 -91.612701416016 1.884243845940
53.150653839111 -69.275077819824 -90.045631408691 0.640620410442
-64.246116638184 -69.077049255371 -92.873680114746 1.376800894737
58.114006042480 -70.942337036133 -94.067817687988 1.365913867950
105.677597045898 -71.123481750488 -95.144226074219 1.442281603813
71.501480102539 -70.199157714844 -97.418930053711 1.369118928909
94.689582824707 -71.390167236328 -99.840980529785 1.465096473694
107.325119018555 -71.222572326660 -105.651138305664 0.513601958752
-94.938201904297 -70.802268981934 -99.080986022949 3.043236017227
54.159320831299 -70.479156494141 -104.212974548340 2.046611547470
40.138858795166 -70.207603454590 -104.751365661621 1.547222256660
42.308063507080 -71.402488708496 -104.587173461914 2.058038711548
-95.455184936523 -69.885002136230 -107.412834167480 2.937568664551
-85.637130737305 -73.622703552246 -111.526718139648 1.409749269485
38.427349090576 -71.058975219727 -112.758926391602 2.038442850113
-94.221221923828 -71.462707519531 -114.883361816406 2.528718471527
44.973239898682 -70.688308715820 -113.113014221191 1.125363111496
109.282302856445 -71.519760131836 -114.980148315430 1.310767173767
111.104789733887 -70.586181640625 -116.687194824219 1.847088217735
111.282646179199 -70.593093872070 -117.773521423340 1.579195141792
110.684623718262 -70.774932861328 -120.721000671387 1.589251041412
42.686191558838 -71.326217651367 -123.918357849121 2.229356288910
34.844646453857 -70.805030822754 -124.525306701660 1.688265085220
41.582408905029 -72.465072631836 -128.060287475586 2.360047817230
32.475219726563 -71.133148193359 -128.864196777344 1.097302436829
-58.134872436523 -70.973472595215 -128.941879272461 1.367230176926
-54.321746826172 -70.767707824707 -131.819198608398 1.866414427757
-59.888851165771 -70.621566772461 -132.912384033203 1.083257555962
-50.556465148926 -72.746398925781 -136.130584716797 1.047228813171
30.531797409058 -71.030189514160 -134.777740478516 1.174992799759
-79.358360290527 -69.459472656250 -133.036605834961 0.901012420654
117.104560852051 -70.997055053711 -143.087326049805 1.264540433884
37.314064025879 -70.549621582031 -136.894714355469 1.552789211273
35.437023162842 -70.713035583496 -143.278305053711 1.444745779037
-67.993621826172 -71.216331481934 -143.914794921875 2.512620210648
-70.086158752441 -71.295715332031 -146.170349121094 1.112277030945
-75.491134643555 -70.349174499512 -145.516555786133 1.101840615273
110.141174316406 -71.248497009277 -147.197341918945 2.740066051483
-68.844299316406 -72.050338745117 -150.443679809570 1.530204415321
-70.625076293945 -71.390861511230 -148.197723388672 0.625018477440
