76.680114746094 -71.857711791992 -100.239128112793 1.633652925491
81.120201110840 -71.509773254395 -99.830825805664 2.212497234344
43.364997863770 -71.998710632324 -100.632385253906 1.961415529251
108.083557128906 -72.565589904785 -102.127105712891 1.087233185768
-95.196609497070 -73.261390686035 -112.212768554688 2.344738960266
102.288993835449 -71.466217041016 -103.526893615723 2.515275478363
107.350624084473 -71.674819946289 -109.347930908203 0.907502174377
35.792884826660 -73.247192382813 -114.233024597168 0.913878262043
45.467594146729 -73.565193176270 -113.171264648438 1.413558483124
43.658199310303 -73.786384582520 -116.366722106934 1.740782022476
32.597553253174 -73.469406127930 -115.914321899414 2.746926307678
42.231624603271 -71.844848632813 -116.846366882324 2.034080743790
43.749820709229 -72.244895935059 -119.270118713379 1.911305546761
106.924446105957 -73.024810791016 -120.744529724121 0.985680341721
111.778282165527 -72.242202758789 -125.610115051270 0.984130322933
29.739833831787 -72.061759948730 -124.184471130371 1.619074463844
29.856956481934 -71.978462219238 -131.025222778320 1.161503791809
-75.000000000000 -72.968330383301 -134.227478027344 1.888888597488
-56.246387481689 -71.728019714355 -132.126251220703 1.101321458817
113.337982177734 -72.411323547363 -139.251815795898 1.661481618881
26.056707382202 -71.966941833496 -134.976089477539 1.170795679092
35.801685333252 -72.771232604980 -134.422897338867 1.659388661385
-78.136566162109 -72.584861755371 -137.658081054688 1.146939039230
24.964710235596 -72.367355346680 -137.972686767578 1.518855452538
25.947877883911 -73.086112976074 -140.976623535156 1.126848936081
-46.497600555420 -72.040550231934 -143.154861450195 1.479520678520
-72.293586730957 -73.138290405273 -145.581420898438 1.818010449409
-54.467109680176 -73.146682739258 -146.734954833984 1.816993713379
32.327339172363 -72.562484741211 -145.283599853516 2.332391262054
-53.519924163818 -74.745437622070 -151.554367065430 1.633362174034
33.616733551025 -72.950119018555 -149.581558227539 1.992740154266
29.056766510010 -71.869873046875 -158.042266845703 1.523905515671
108.735168457031 -71.906677246094 -150.172103881836 1.244407176971
22.751779556274 -73.044975280762 -153.618194580078 1.175041437149
12.471743583679 -72.877067565918 -153.232513427734 0.624722719193
-39.159278869629 -73.741180419922 -155.776977539063 2.442670822144
-72.033088684082 -71.409507751465 -154.305465698242 0.464944750071
-47.893783569336 -73.078086853027 -157.182937622070 1.134863734245
107.808418273926 -72.562637329102 -157.818374633789 1.465812087059
31.680980682373 -73.124259948730 -158.181732177734 1.822321891785
111.109130859375 -72.355468750000 -159.977264404297 1.862446427345
-36.253162384033 -72.494621276855 -162.071929931641 2.579140186310
17.970962524414 -71.503868103027 -165.059646606445 1.248628139496
1.871678948402 -72.183097839355 -162.787628173828 1.321386456490
-32.281387329102 -71.938232421875 -164.180038452148 0.919390261173
-63.000503540039 -72.529968261719 -165.179000854492 1.786825299263
-32.616394042969 -73.047790527344 -167.260757446289 1.625741124153
-58.833641052246 -73.370124816895 -171.881042480469 1.260556101799
-37.912864685059 -73.485893249512 -173.564254760742 0.869097650051
27.070484161377 -73.124969482422 -169.063156127930 1.784160971642
-38.483863830566 -71.892837524414 -176.033477783203 3.001051664352
-151.301025390625 -72.638412475586 -177.615066528320 0.650596320629
111.435111999512 -71.684829711914 -176.071151733398 1.304715752602
-151.505874633789 -72.960151672363 -181.591201782227 1.080228090286
-144.217330932617 -73.321815490723 -181.483474731445 0.683699011803
13.615547180176 -72.519767761230 -180.910797119141 1.285345196724
23.783390045166 -72.810729980469 -183.647445678711 1.150902271271
-34.266197204590 -72.260612487793 -183.098892211914 1.808075070381
-149.983779907227 -72.717201232910 -187.873962402344 1.016721487045
-30.504779815674 -72.453666687012 -189.258209228516 1.372359156609
-145.631088256836 -72.797309875488 -189.801666259766 1.775908946991
-16.404174804688 -72.591651916504 -191.619338989258 1.238011837006
12.915296554565 -74.071029663086 -192.171203613281 1.593536496162
99.539215087891 -72.452209472656 -196.854888916016 2.209348917007
10.072276115417 -73.215545654297 -193.690261840820 1.227374196053
-127.808914184570 -72.160018920898 -195.402740478516 2.570441007614
-131.504028320313 -73.132835388184 -196.283203125000 1.021765232086
-140.584793090820 -74.499404907227 -198.441055297852 1.060237288475
95.062782287598 -71.568176269531 -198.244232177734 2.589612483978
-133.806533813477 -73.030921936035 -200.605316162109 0.815401911736
6.925903797150 -73.853302001953 -206.455566406250 1.622407674789
-25.252719879150 -72.526451110840 -199.287399291992 1.010275483131
-133.056549072266 -72.145133972168 -202.638122558594 0.496660202742
-149.856353759766 -75.817955017090 -205.313812255859 1.145693540573
98.831390380859 -73.187080383301 -205.605850219727 2.121869087219
-13.081656455994 -73.209304809570 -202.764770507813 1.255933642387
97.725738525391 -72.477775573730 -199.274414062500 1.221336722374
-8.534534454346 -72.832023620605 -206.275009155273 1.759238481522
93.760047912598 -72.376396179199 -206.767669677734 1.998817920685
-145.252746582031 -72.886665344238 -209.076217651367 1.277142763138
-16.997209548950 -72.201171875000 -209.396286010742 1.539194583893
-150.249450683594 -73.155906677246 -214.243789672852 1.744027137756
-149.903701782227 -73.338035583496 -208.472442626953 2.713840961456
-17.669042587280 -71.170951843262 -212.490112304688 1.124424099922
-88.669090270996 -72.223793029785 -213.888153076172 2.491533756256
-162.009811401367 -73.117942810059 -215.401153564453 2.023421287537
-160.564682006836 -72.893180847168 -211.756713867188 3.671365022659
-156.444793701172 -72.727012634277 -212.859603881836 0.993438720703
-28.951187133789 -72.694885253906 -214.322189331055 0.301855117083
-26.167272567749 -72.311408996582 -217.646606445313 0.637076199055
-16.164623260498 -71.966491699219 -215.213088989258 1.076328516006
-15.666485786438 -72.978828430176 -216.004333496094 0.807453691959
-145.985153198242 -74.341758728027 -218.193191528320 1.327869176865
17.900733947754 -74.811775207520 -219.355117797852 1.010453701019
-151.606872558594 -72.990028381348 -221.406692504883 1.878302931786
-89.222145080566 -73.123481750488 -218.309051513672 1.575917124748
-165.097702026367 -73.266365051270 -223.675140380859 2.003905057907
-26.056108474731 -73.300834655762 -219.647232055664 2.041814565659
-18.593034744263 -73.364997863770 -218.013565063477 2.198106288910
-161.766448974609 -73.134979248047 -216.433868408203 2.844237565994
15.175329208374 -72.401824951172 -218.183654785156 0.765552580357
-157.835632324219 -73.120719909668 -219.449035644531 3.929134368896
6.035130977631 -72.401679992676 -221.336303710938 1.383545160294
-160.138549804688 -73.256790161133 -222.110961914063 1.689969420433
-155.201507568359 -73.078109741211 -220.801147460938 2.106558799744
-105.157058715820 -72.720993041992 -221.415191650391 0.689954221249
6.597166061401 -71.309158325195 -221.992797851563 1.216655492783
-160.082427978516 -73.576118469238 -226.488632202148 1.001618981361
-161.823944091797 -73.953269958496 -225.204727172852 1.245658397675
3.911135911942 -72.954742431641 -224.300811767578 1.259349107742
-116.538543701172 -72.328704833984 -226.267639160156 0.781587839127
-157.398513793945 -73.292060852051 -226.659042358398 1.647509455681
13.951641082764 -72.012733459473 -224.638900756836 1.674565553665
-110.632652282715 -72.412246704102 -228.251281738281 0.936805069447
-116.667884826660 -72.663581848145 -227.841217041016 1.986339569092
-120.782295227051 -72.932174682617 -228.158889770508 2.523698329926
78.862777709961 -72.239051818848 -227.109329223633 1.250093102455
-162.505844116211 -73.559768676758 -229.305313110352 1.283629536629
-155.628036499023 -73.242492675781 -227.804763793945 1.457051038742
-3.635776042938 -71.817573547363 -228.948104858398 1.635844588280
-165.367874145508 -73.466659545898 -232.448333740234 1.192428231239
4.727572917938 -71.679222106934 -229.702529907227 1.198734402657
-161.786972045898 -73.565696716309 -230.713973999023 2.448858976364
-160.055282592773 -73.511528015137 -231.967193603516 3.360963344574
71.802970886230 -72.092063903809 -231.267074584961 1.589978933334
-166.366333007813 -72.728065490723 -232.021438598633 2.292016506195
-165.676071166992 -73.657356262207 -236.991867065430 1.288531422615
5.936745166779 -73.688316345215 -233.933303833008 2.321848392487
-154.757659912109 -73.588363647461 -238.224792480469 4.005038261414
73.439544677734 -72.574234008789 -235.137054443359 0.932065546513
69.991600036621 -72.129196166992 -233.646697998047 0.824207782745
-145.803756713867 -74.004119873047 -239.675201416016 2.662156581879
8.473085403442 -71.288658142090 -239.511550903320 1.933822870255
-9.881367683411 -72.343666076660 -240.143218994141 1.298776507378
66.798545837402 -72.680793762207 -239.710845947266 1.250726461411
-166.648742675781 -72.913764953613 -241.481826782227 0.730507731438
9.465346336365 -71.616691589355 -242.479827880859 1.218949556351
20.010866165161 -73.775680541992 -241.590423583984 1.107227206230
61.697246551514 -71.832893371582 -243.565979003906 1.212845444679
18.162513732910 -72.289703369141 -245.454788208008 0.926040291786
16.309476852417 -73.340011596680 -245.272491455078 0.856963694096
-72.575386047363 -73.539566040039 -246.464904785156 2.073953866959
16.099842071533 -73.559837341309 -245.776702880859 0.715907514095
-12.181174278259 -71.528228759766 -246.318420410156 1.270531296730
-145.314529418945 -73.196090698242 -247.554809570313 2.120012760162
-66.462783813477 -73.903640747070 -250.404006958008 1.555539011955
-144.022079467773 -72.693771362305 -253.133743286133 1.149924993515
-128.312240600586 -73.397415161133 -254.286926269531 2.849519014359
-98.021209716797 -73.326866149902 -254.340744018555 1.308579564095
-135.123107910156 -72.622718811035 -254.888504028320 0.934358239174
-110.580551147461 -72.325469970703 -256.651214599609 1.215769767761
-113.064292907715 -72.678009033203 -257.273406982422 1.279155135155
-95.937927246094 -72.765563964844 -257.413696289063 1.588060736656
-102.116737365723 -72.553230285645 -259.096527099609 0.638242363930
-114.040916442871 -72.580589294434 -261.130828857422 1.590744733810
23.902456283569 -71.574569702148 -264.073608398438 1.377447605133
-14.129969596863 -73.270034790039 -267.033203125000 2.132951974869
-167.715591430664 -72.677055358887 -270.680419921875 1.208716273308
-145.352798461914 -73.472679138184 -272.488830566406 1.596078276634
14.409699440002 -72.840705871582 -283.234283447266 1.443883538246
-126.368461608887 -72.640884399414 -283.581817626953 2.048829078674
-124.302917480469 -70.807846069336 -285.504638671875 0.776090621948
-81.856666564941 -72.911186218262 -285.871582031250 2.473026275635
-52.318134307861 -72.752868652344 -285.351287841797 1.624091386795
-105.885780334473 -72.242195129395 -286.519317626953 1.833349466324
-38.952915191650 -72.726547241211 -285.963653564453 1.469254612923
-30.286180496216 -72.400688171387 -286.763244628906 1.108769297600
-8.894003868103 -73.813804626465 -286.051818847656 1.938986539841
-39.855365753174 -72.173896789551 -289.240753173828 1.393365383148
-59.663471221924 -72.314102172852 -290.059295654297 2.511359930038
-28.732927322388 -72.351661682129 -289.743133544922 1.580035090446
-19.279642105103 -72.644371032715 -290.116638183594 2.077450990677
14.024593353271 -72.357002258301 -291.009307861328 0.409973204136
-114.897041320801 -73.259895324707 -291.590515136719 1.340949535370
-119.293251037598 -73.168006896973 -292.019714355469 0.956216692924
12.359230995178 -72.811058044434 -291.694122314453 1.859900593758
-135.579330444336 -72.402954101563 -292.857696533203 0.431656628847
-145.795867919922 -73.632087707520 -298.804779052734 1.310592293739
-143.725372314453 -74.191772460938 -305.304260253906 1.073454499245
-152.699096679688 -73.734191894531 -312.429718017578 2.297790527344
25.723022460938 -71.414192199707 -13.309803009033 1.740490198135
42.552135467529 -70.088211059570 -13.504290580750 1.005500197411
35.929069519043 -71.494911193848 -15.297661781311 0.813654303551
45.580867767334 -71.510955810547 -19.435586929321 1.684167146683
43.705196380615 -71.562561035156 -21.478984832764 0.991828203201
45.783843994141 -71.601661682129 -22.723764419556 2.401897668839
23.793331146240 -71.993415832520 -25.220521926880 1.755113959312
24.263597488403 -71.599296569824 -26.843887329102 1.900856494904
43.884887695313 -71.744720458984 -31.357706069946 1.157882094383
37.422515869141 -71.539512634277 -35.314437866211 1.751348137856
36.790679931641 -70.417999267578 -34.806243896484 1.752369880676
37.945152282715 -70.146499633789 -39.661579132080 1.713989496231
-63.006530761719 -72.286392211914 -49.322872161865 0.706223309040
-50.412784576416 -72.069885253906 -49.313396453857 1.735133171082
-80.567710876465 -70.059074401855 -51.953674316406 2.224053621292
-75.847328186035 -72.989227294922 -53.243492126465 2.304274797440
-78.788345336914 -73.255897521973 -55.272903442383 2.604821443558
-28.346830368042 -71.321189880371 -54.850833892822 0.491388738155
-21.853372573853 -73.190437316895 -61.639366149902 0.565677344799
-18.999855041504 -73.046539306641 -64.108688354492 1.874668121338
77.146064758301 -70.439537048340 -65.595893859863 0.867015361786
78.114151000977 -71.864524841309 -67.066261291504 2.141865491867
70.877326965332 -70.237770080566 -69.541633605957 2.371059179306
71.871589660645 -73.349678039551 -74.827453613281 2.196720361710
-31.662853240967 -69.894119262695 -77.149505615234 2.508582115173
-49.227817535400 -72.606224060059 -84.439773559570 0.960384905338
98.716514587402 -71.399726867676 -85.003257751465 1.934423685074
55.082355499268 -68.932891845703 -84.810676574707 2.712098121643
-64.810813903809 -71.467849731445 -91.932029724121 0.967842102051
51.868911743164 -69.980918884277 -89.893775939941 1.742451310158
-65.515472412109 -70.350349426270 -93.182357788086 1.268569469452
56.856399536133 -71.574073791504 -93.916145324707 1.463692665100
104.424118041992 -71.498489379883 -94.807006835938 1.724844098091
70.252761840820 -70.721923828125 -97.205223083496 0.855908274651
93.455955505371 -71.764785766602 -99.549942016602 2.382818222046
106.112922668457 -71.462356567383 -105.307769775391 1.155150413513
-96.173904418945 -72.157791137695 -99.531028747559 3.859465599060
52.938796997070 -71.008789062500 -104.070510864258 2.104785442352
38.919307708740 -70.802604675293 -104.660903930664 1.614753723145
41.094013214111 -71.988250732422 -104.502563476563 0.904462933540
-96.663261413574 -71.142723083496 -107.853202819824 2.502196550369
-86.810111999512 -74.780151367188 -111.973052978516 1.451672315598
37.243331909180 -71.566047668457 -112.684829711914 2.238218069077
-95.392158508301 -72.623825073242 -115.337265014648 2.209407806396
43.788543701172 -71.157600402832 -113.008598327637 1.357176303864
108.107833862305 -71.636924743652 -114.631896972656 1.240767002106
109.932075500488 -70.673484802246 -116.320365905762 0.885962724686
110.114181518555 -70.666381835938 -117.405982971191 1.683807134628
109.528564453125 -70.815704345703 -120.357780456543 1.357867121696
41.546802520752 -71.676795959473 -123.829780578613 1.528215527534
33.705078125000 -71.188514709473 -124.461341857910 1.329238414764
40.465015411377 -72.771232604980 -127.989448547363 1.322147369385
31.354248046875 -71.476394653320 -128.813186645508 2.103088617325
-59.254497528076 -71.780090332031 -129.246398925781 1.029728770256
-55.431339263916 -71.520080566406 -132.105972290039 0.861754775047
-60.994842529297 -71.389289855957 -133.219268798828 1.443832397461
-51.639163970947 -73.427291870117 -136.425994873047 0.865070343018
29.433294296265 -71.312042236328 -134.732681274414 0.744360566139
-80.469474792480 -70.325561523438 -133.406295776367 0.790568172932
116.036361694336 -70.735038757324 -142.699661254883 1.892681360245
36.221157073975 -70.771217346191 -136.816940307617 1.560089826584
34.369789123535 -70.867218017578 -143.209396362305 1.549084663391
-69.053642272949 -71.892784118652 -144.259933471680 2.458085536957
-71.136970520020 -71.955665588379 -146.524536132813 0.990444839001
-76.549263000488 -71.044784545898 -145.880706787109 0.257971793413
109.090385437012 -70.972541809082 -146.839859008789 3.507206916809
-69.874641418457 -72.652297973633 -150.801712036133 1.693164467812
-71.667510986328 -72.029098510742 -148.555007934570 1.051256060600
-39.260841369629 -72.907997131348 -152.185699462891 1.655521154404
20.881505966187 -71.820152282715 -153.456787109375 1.790311932564
32.418056488037 -71.704116821289 -152.365066528320 1.584579110146
7.238983154297 -72.218818664551 -152.828903198242 1.273409366608
13.833415985107 -70.765975952148 -156.674011230469 1.261971473694
23.824359893799 -71.154464721680 -151.274673461914 1.511709451675
-39.439289093018 -71.257247924805 -153.023696899414 1.598333001137
-67.737457275391 -71.132202148438 -157.662246704102 1.530058503151
-40.724006652832 -71.685165405273 -155.593185424805 1.901236653328
28.171915054321 -71.250755310059 -159.502838134766 1.818908214569
-66.087043762207 -71.687820434570 -161.446350097656 2.184921026230
-65.695198059082 -71.818237304688 -162.162841796875 1.732133746147
-45.268310546875 -71.118064880371 -158.785552978516 2.639921903610
21.179670333862 -71.537086486816 -161.439575195313 1.992591023445
19.778400421143 -71.537078857422 -167.297866821289 1.542958736420
113.105468750000 -70.678482055664 -167.400390625000 1.375398159027
-30.415582656860 -71.458969116211 -173.438537597656 2.420430183411
112.630966186523 -71.785263061523 -172.070175170898 0.918484151363
-146.912704467773 -71.568145751953 -175.272064208984 1.325635552406
17.901506423950 -71.585334777832 -175.956649780273 1.332140445709
111.225471496582 -70.627517700195 -174.107559204102 1.284592509270
26.646114349365 -71.770950317383 -178.318420410156 0.859439373016
103.348663330078 -70.792053222656 -181.538803100586 2.620672702789
-20.181819915771 -71.858810424805 -185.014083862305 2.126739263535
-29.972923278809 -72.483367919922 -185.916275024414 0.933099389076
13.351932525635 -72.978073120117 -190.092010498047 1.065528631210
-28.599851608276 -72.547180175781 -188.289062500000 1.628731727600
-150.575347900391 -71.732475280762 -188.819946289063 0.789265275002
98.582923889160 -70.473243713379 -193.473770141602 2.332319498062
-131.564224243164 -72.627342224121 -195.790390014648 0.626304209232
22.301393508911 -70.573188781738 -193.458526611328 1.265563845634
104.683929443359 -71.596656799316 -193.553955078125 2.908668994904
-122.181182861328 -71.968894958496 -198.131973266602 0.897402048111
103.364540100098 -70.889297485352 -195.377746582031 2.974421024323
11.802372932434 -71.601417541504 -196.626159667969 1.292215466499
-155.388427734375 -72.249389648438 -197.732009887695 1.350932598114
18.395109176636 -70.761932373047 -199.252166748047 2.470648288727
-159.682739257813 -72.389465332031 -200.740997314453 3.181951284409
8.715993881226 -71.830955505371 -198.725265502930 1.447800159454
-122.471107482910 -72.225578308105 -200.034667968750 0.657985210419
7.992272853851 -71.263732910156 -203.498657226563 1.882706046104
-24.381223678589 -70.780349731445 -199.587127685547 1.742673873901
-161.724365234375 -72.496070861816 -202.634216308594 2.043674707413
-155.310897827148 -72.425636291504 -203.907363891602 2.890219449997
-153.237518310547 -72.418365478516 -205.699752807617 0.877614319324
-22.615325927734 -71.572509765625 -204.251617431641 0.256290256977
-153.628936767578 -72.431907653809 -206.297195434570 0.764050364494
-161.496505737305 -72.590354919434 -205.197586059570 2.503812313080
-151.123336791992 -72.403991699219 -207.493804931641 2.246405601501
6.752854824066 -72.550437927246 -209.052413940430 1.580752253532
16.749149322510 -70.715118408203 -205.091369628906 2.082980155945
97.238723754883 -71.561622619629 -207.685119628906 2.139638900757
-151.169189453125 -72.476272583008 -209.983245849609 2.736716508865
-166.001663208008 -72.160202026367 -215.943206787109 2.072020530701
84.662727355957 -72.160614013672 -213.400894165039 3.127074003220
-144.738525390625 -71.991737365723 -216.374206542969 1.930540919304
-5.623051166534 -72.692039489746 -215.518386840820 1.941996335983
6.034848213196 -72.739425659180 -215.342163085938 1.562744259834
16.478717803955 -70.489974975586 -215.380172729492 1.999843358994
13.956260681152 -71.260276794434 -217.569747924805 1.609821200371
-144.967422485352 -72.358367919922 -221.846023559570 1.518187761307
-17.624673843384 -71.902481079102 -219.786071777344 2.404582023621
-22.340429306030 -71.378593444824 -220.425964355469 1.633725643158
-97.404571533203 -72.430450439453 -222.258453369141 1.242630243301
1.504281997681 -70.685256958008 -222.211135864258 1.877680659294
81.044288635254 -71.473937988281 -224.070602416992 2.040292978287
77.644088745117 -71.899154663086 -221.660140991211 2.299994230270
-101.154212951660 -72.663436889648 -224.119094848633 0.410684049129
12.494928359985 -71.454429626465 -227.267318725586 1.436315655708
86.504608154297 -71.810691833496 -222.369003295898 1.826922535896
-105.805358886719 -72.689384460449 -225.809356689453 1.294649243355
76.459526062012 -72.814575195313 -223.264633178711 1.304766178131
-4.943325996399 -70.741226196289 -226.665344238281 1.380836367607
-17.724439620972 -71.237098693848 -227.084701538086 1.025501132011
-9.956600189209 -71.225784301758 -229.168243408203 0.272638589144
73.236961364746 -71.278320312500 -232.477767944336 1.523431420326
11.389305114746 -72.680511474609 -234.980133056641 1.050772428513
-123.940307617188 -70.935287475586 -232.840957641602 1.252852439880
-166.872070312500 -71.721755981445 -230.786224365234 1.419206619263
75.091522216797 -71.386688232422 -233.812042236328 1.614824771881
-126.390747070313 -70.932128906250 -234.468292236328 1.422307252884
-8.699620246887 -70.726898193359 -235.832794189453 1.296756744385
72.581016540527 -70.501159667969 -236.181396484375 1.449207544327
7.889200210571 -71.389480590820 -237.457122802734 1.970098972321
-2.403106927872 -72.471252441406 -239.460800170898 0.642150402069
-8.905689239502 -71.474731445313 -241.132843017578 1.072369456291
69.033058166504 -71.446556091309 -238.985305786133 1.637184739113
15.115858078003 -70.619911193848 -238.326263427734 1.023932218552
-144.928802490234 -71.890457153320 -245.706710815430 2.672200918198
51.563964843750 -71.022392272949 -243.431335449219 1.274492979050
-12.195896148682 -71.273040771484 -245.536087036133 1.530405759811
-70.823089599609 -71.104087829590 -247.631103515625 2.292308568954
56.976882934570 -69.291442871094 -247.076263427734 1.469921708107
-67.574684143066 -71.779678344727 -249.822006225586 1.244243264198
48.873371124268 -72.048561096191 -247.782287597656 1.328989267349
-91.218620300293 -72.151878356934 -251.371002197266 0.960763692856
23.036132812500 -70.671073913574 -252.573806762695 1.029615044594
43.709793090820 -70.696739196777 -253.239135742188 1.377722144127
-135.951477050781 -71.814239501953 -255.181030273438 0.574328899384
-167.595764160156 -71.748497009277 -258.893249511719 1.889981627464
-106.694572448730 -72.309661865234 -260.167114257813 0.885775923729
-141.945648193359 -72.490669250488 -262.600189208984 0.996745944023
-143.371414184570 -73.400863647461 -263.000335693359 1.063862562180
-15.089762687683 -71.163360595703 -262.985870361328 0.867989599705
21.696380615234 -70.981384277344 -273.824493408203 1.497769355774
-8.627742767334 -72.253440856934 -280.333862304688 1.832466006279
-157.838928222656 -71.658439636230 -282.286254882813 2.214946269989
-128.517807006836 -71.857933044434 -283.525970458984 2.536883115768
-156.059448242188 -71.651489257813 -285.424896240234 1.216435313225
-90.273567199707 -71.432815551758 -286.192077636719 3.322583436966
-83.471870422363 -71.426483154297 -286.091674804688 1.019815325737
-48.761859893799 -71.700492858887 -286.404510498047 1.674610972404
-14.257197380066 -71.979545593262 -286.857666015625 0.987528741360
-37.493900299072 -71.949752807617 -287.167480468750 0.980142593384
-13.947274208069 -71.401138305664 -287.824859619141 0.844447970390
-35.602737426758 -71.730598449707 -288.181915283203 1.841821789742
-12.329424858093 -71.412216186523 -288.233520507813 1.599819779396
-45.320468902588 -72.004501342773 -289.208038330078 1.877116203308
-5.127440929413 -71.289382934570 -289.033721923828 0.150508537889
-71.012573242188 -72.171852111816 -290.388580322266 2.063734292984
-85.689239501953 -72.144004821777 -290.794769287109 1.082751631737
-104.912216186523 -71.167556762695 -291.719116210938 1.882906913757
-116.937644958496 -70.636383056641 -292.202423095703 0.632928013802
-133.123916625977 -71.161399841309 -294.149902343750 1.663352370262
-153.577957153320 -71.996658325195 -298.154022216797 1.306139707565
-155.454925537109 -70.722770690918 -306.525573730469 1.411598801613
-148.238906860352 -72.677711486816 -312.493469238281 1.844346404076
40.952774047852 -70.208541870117 -12.445796012878 1.044786572456
21.339208602905 -67.589775085449 -16.956945419312 3.666053295135
42.090015411377 -70.943710327148 -19.368337631226 1.095429658890
24.803243637085 -69.808471679688 -22.957777023315 2.274276018143
40.674297332764 -70.062698364258 -31.558403015137 2.410334825516
23.353916168213 -69.808631896973 -36.117179870605 1.041492462158
33.993808746338 -70.366760253906 -37.989612579346 0.920741796494
-63.589694976807 -71.580360412598 -48.584930419922 1.463805675507
-47.079738616943 -69.980422973633 -47.658550262451 1.084141492844
-45.821861267090 -70.391128540039 -48.195766448975 0.988139390945
-43.080459594727 -70.242469787598 -48.506774902344 2.439273595810
-34.056663513184 -70.830490112305 -51.632663726807 0.929624557495
-27.887294769287 -69.941032409668 -53.335472106934 1.964836120605
-15.591978073120 -70.866516113281 -64.267829895020 1.280243992805
75.939315795898 -72.847114562988 -69.499214172363 1.229352474213
96.938598632813 -69.202850341797 -70.534934997559 0.589909136295
-22.371709823608 -71.415908813477 -73.222572326660 1.867465257645
70.678901672363 -72.747230529785 -75.218696594238 1.229521036148
-43.498401641846 -71.878158569336 -79.493515014648 2.866662502289
65.983924865723 -68.680564880371 -81.192520141602 1.415135264397
56.934925079346 -68.842330932617 -84.002426147461 1.534582376480
59.778751373291 -69.093566894531 -86.455924987793 1.731346845627
55.288722991943 -72.059143066406 -90.735961914063 1.978014111519
-61.674446105957 -71.537094116211 -90.918357849121 3.023994207382
-97.063308715820 -70.433784484863 -95.521781921387 2.118182182312
44.788822174072 -70.861007690430 -94.869659423828 2.080771207809
102.757972717285 -70.935356140137 -95.552513122559 2.112555503845
58.466072082520 -70.971199035645 -95.843658447266 0.738850891590
70.550209045410 -68.724098205566 -99.340484619141 0.781890690327
-72.769470214844 -68.865303039551 -99.689857482910 1.966305971146
51.629684448242 -70.055999755859 -102.133193969727 3.115288734436
106.524833679199 -70.107833862305 -103.158500671387 1.462782144547
74.919021606445 -69.663894653320 -101.904556274414 1.608337759972
104.110679626465 -70.090408325195 -101.561073303223 1.409769773483
88.663543701172 -71.581253051758 -101.626800537109 2.057157754898
102.715126037598 -69.477096557617 -105.817321777344 0.789630234241
51.099319458008 -71.222648620605 -106.712554931641 0.980370879173
-87.852386474609 -72.579856872559 -112.335563659668 2.155996322632
41.325622558594 -70.182273864746 -112.671463012695 2.034407377243
-96.224487304688 -71.479904174805 -112.699874877930 2.855289459229
41.457584381104 -70.778182983398 -115.383056640625 1.216757535934
-80.610496520996 -70.550033569336 -118.841453552246 1.622521162033
44.508773803711 -70.330894470215 -115.173576354980 1.332047343254
112.323402404785 -70.047515869141 -113.144920349121 1.327052831650
34.703731536865 -70.892372131348 -123.220283508301 1.272727608681
-80.798774719238 -70.444915771484 -119.621772766113 1.843135237694
-86.066589355469 -70.358093261719 -121.145973205566 2.476271867752
35.030937194824 -70.828140258789 -125.862510681152 2.736742258072
-85.871887207031 -71.023994445801 -126.494255065918 1.223189115524
33.223075866699 -69.697837829590 -119.990974426270 1.458440542221
-79.154281616211 -70.934066772461 -127.362808227539 1.807751297951
-51.774971008301 -70.539054870605 -130.584335327148 1.894141197205
-56.364776611328 -71.072265625000 -131.084915161133 1.719583272934
-50.513916015625 -70.519393920898 -131.746337890625 2.556921482086
31.615316390991 -70.582023620605 -133.290740966797 1.907844066620
-61.155536651611 -71.144264221191 -133.910644531250 1.970281243324
32.013710021973 -70.543899536133 -134.670120239258 2.614072084427
-72.462722778320 -69.229446411133 -135.517318725586 0.839335560799
115.859298706055 -70.380165100098 -142.920181274414 2.241743087769
24.678823471069 -71.325508117676 -140.007461547852 1.652773261070
29.589216232300 -70.591720581055 -138.353958129883 1.267376303673
-73.391914367676 -70.394020080566 -142.470275878906 0.825764358044
-53.762462615967 -72.173339843750 -147.772109985352 2.079413414001
31.857702255249 -71.126327514648 -142.491928100586 1.068165302277
-54.050571441650 -70.027580261230 -145.721298217773 1.199968576431
24.995746612549 -70.317298889160 -150.934249877930 1.847102642059
-73.732955932617 -70.632118225098 -150.599166870117 1.595804095268
-54.738983154297 -72.093955993652 -149.739471435547 0.834410548210
-45.188491821289 -70.465850830078 -150.636291503906 1.338508367538
9.440914154053 -70.178298950195 -150.299377441406 1.456030845642
115.232032775879 -70.262809753418 -151.181076049805 0.509049177170
-52.196510314941 -71.580963134766 -153.540405273438 0.832164645195
28.205553054810 -70.761726379395 -156.195632934570 1.210130691528
-38.991020202637 -70.747589111328 -154.563354492188 1.298186302185
29.694822311401 -69.920555114746 -158.824249267578 1.568270087242
-41.848121643066 -70.872741699219 -156.505691528320 2.726963758469
-37.672901153564 -70.713172912598 -156.858840942383 1.824720025063
-43.430610656738 -70.698104858398 -159.287399291992 1.624041676521
-43.941276550293 -70.764022827148 -159.355102539063 2.087449789047
7.620544910431 -70.009948730469 -158.252853393555 1.879251956940
-46.046260833740 -70.707756042480 -161.714782714844 0.942502737045
25.950531005859 -69.903877258301 -160.582916259766 1.033659815788
-39.098461151123 -70.911758422852 -161.781387329102 1.356881737709
-34.187538146973 -70.091041564941 -163.711212158203 1.581252813339
26.435108184814 -71.091766357422 -167.499847412109 1.441755414009
-30.629346847534 -71.202384948730 -167.770767211914 0.883064627647
-30.676177978516 -70.982414245605 -174.659866333008 2.551337718964
111.662368774414 -69.355690002441 -166.492691040039 0.359973967075
16.363658905029 -72.563659667969 -171.976104736328 1.402465224266
-35.265895843506 -70.942977905273 -174.221099853516 1.832528471947
-28.256275177002 -70.781883239746 -172.540847778320 1.540433287621
-38.274444580078 -69.834396362305 -173.352066040039 2.457505941391
-142.679000854492 -71.733528137207 -177.948760986328 1.188141584396
-26.410182952881 -71.007705688477 -181.468109130859 0.496542334557
15.442326545715 -70.659805297852 -175.995559692383 1.309728860855
105.887084960938 -69.958618164063 -176.160980224609 3.233557939529
105.533714294434 -69.776870727539 -179.341903686523 0.973692834377
-24.075759887695 -70.682861328125 -179.423004150391 3.070360660553
15.885059356689 -71.354942321777 -181.885925292969 0.828364968300
-142.032745361328 -71.329566955566 -185.251007080078 1.817383766174
-28.472806930542 -70.680267333984 -183.433563232422 1.355978727341
-27.643625259399 -70.586570739746 -185.951705932617 1.602129697800
24.652612686157 -70.967262268066 -186.072494506836 1.703932762146
21.623607635498 -71.577499389648 -190.729476928711 1.060694694519
-110.090637207031 -70.561744689941 -188.128890991211 1.184697628021
13.961952209473 -71.122711181641 -188.900329589844 1.621575474739
21.321517944336 -70.738182067871 -190.028549194336 0.962983548641
-21.273319244385 -71.155342102051 -189.223953247070 1.948595523834
-112.769256591797 -70.377449035645 -195.204559326172 1.992427110672
103.453979492188 -69.793182373047 -191.478424072266 2.979202270508
-124.314071655273 -71.367469787598 -195.015380859375 1.245182275772
-139.831909179688 -71.410278320313 -196.173858642578 1.086437344551
-117.009094238281 -71.442771911621 -197.594696044922 1.952026963234
-113.416336059570 -71.829322814941 -198.997634887695 0.977268457413
99.790580749512 -70.228919982910 -201.016754150391 1.521936655045
-11.580906867981 -70.551574707031 -202.327697753906 1.754289746284
-19.388046264648 -69.524909973145 -203.375076293945 1.833353400230
97.961608886719 -69.900718688965 -203.151687622070 1.162424564362
-126.445625305176 -71.010940551758 -204.334213256836 2.375977993011
-22.331398010254 -71.008636474609 -204.622497558594 0.704655885696
9.454560279846 -71.804222106934 -208.961654663086 0.978939116001
-144.198348999023 -70.335174560547 -208.001708984375 1.605609297752
-9.539068222046 -70.303222656250 -210.822769165039 2.110430002213
15.505682945251 -70.438865661621 -208.677124023438 0.905100166798
95.089691162109 -71.375724792480 -210.868591308594 2.044636011124
94.971351623535 -70.153221130371 -209.096313476563 3.123376846313
17.716543197632 -70.252075195313 -209.387359619141 1.547825098038
11.987302780151 -70.403579711914 -213.834747314453 0.653592407703
-94.343177795410 -70.578628540039 -215.924987792969 0.895364046097
-91.356101989746 -70.779838562012 -217.855682373047 0.647404015064
82.662071228027 -70.435783386230 -217.010665893555 1.216953039169
12.840106010437 -70.893791198730 -220.164031982422 0.636160910130
-103.067031860352 -70.977943420410 -219.298751831055 1.372709393501
-11.477723121643 -70.971138000488 -218.110214233398 0.952170312405
-19.460645675659 -70.601547241211 -222.640594482422 2.135620832443
7.590534210205 -70.177444458008 -221.858505249023 1.143334269524
-7.157955169678 -70.751739501953 -223.851562500000 1.921482801437
-127.446479797363 -70.395401000977 -223.903182983398 0.751468777657
-9.668265342712 -70.518913269043 -224.150497436523 1.868750095367
-103.784271240234 -70.715255737305 -226.072204589844 1.056413769722
-139.719345092773 -72.082527160645 -226.047210693359 1.643091678619
-113.212944030762 -70.315742492676 -226.124176025391 1.466054916382
82.269371032715 -69.978546142578 -226.209960937500 1.034690260887
15.483457565308 -70.571006774902 -225.631729125977 1.338797330856
-166.909667968750 -70.450668334961 -228.201965332031 0.709077775478
-110.566184997559 -70.943069458008 -230.159301757813 1.801400780678
-117.846160888672 -71.604324340820 -231.813247680664 0.653618752956
78.885154724121 -70.284385681152 -230.252609252930 1.270164489746
10.183565139771 -70.438705444336 -234.898971557617 1.375028729439
0.437303006649 -72.395446777344 -233.707977294922 1.747986197472
15.260399818420 -70.641822814941 -237.550109863281 0.248921528459
-2.853132963181 -70.773475646973 -234.334060668945 0.772970914841
73.471786499023 -69.932189941406 -235.163284301758 2.157386779785
-4.107330799103 -70.025680541992 -236.014511108398 1.290616989136
9.562965393066 -70.003913879395 -235.204574584961 1.325278520584
-0.864916026592 -70.027084350586 -237.048812866211 1.325486779213
1.086065053940 -71.045310974121 -238.392440795898 2.152026414871
5.568508148193 -71.744049072266 -241.344924926758 1.417483448982
62.734210968018 -70.486007690430 -240.773040771484 1.648300647736
9.686234474182 -69.127761840820 -242.305114746094 1.377381205559
53.481342315674 -70.089157104492 -245.013275146484 1.186983346939
-13.311876296997 -70.703521728516 -246.204406738281 0.977854430676
-13.693412780762 -72.214691162109 -248.685775756836 1.217908859253
-73.441818237305 -70.642196655273 -250.476791381836 1.506718397141
37.922367095947 -70.379158020020 -252.090377807617 2.487163066864
-78.031425476074 -70.854598999023 -252.640762329102 1.412589073181
-154.773651123047 -70.649314880371 -254.896667480469 1.242122054100
-83.313720703125 -71.977722167969 -254.487411499023 1.695011615753
-139.645141601563 -71.794654846191 -255.298660278320 1.462258577347
39.966423034668 -70.414405822754 -255.101531982422 1.751047730446
-111.446670532227 -70.874214172363 -256.386718750000 1.206369400024
-94.547889709473 -70.815788269043 -257.494750976563 1.459338545799
-156.184219360352 -70.492202758789 -257.973724365234 1.008944869041
-110.489830017090 -69.984725952148 -261.585296630859 0.695257306099
-167.630172729492 -72.248779296875 -261.735412597656 0.730173528194
-156.765686035156 -70.860389709473 -264.331542968750 1.057439804077
-154.631546020508 -70.909240722656 -266.469726562500 2.599237203598
-14.877720832825 -70.420249938965 -262.124633789063 0.820662915707
23.883094787598 -70.120750427246 -268.335662841797 0.604220867157
-154.577056884766 -70.972328186035 -268.156555175781 3.769617795944
-14.285527229309 -70.893814086914 -268.056396484375 1.460819125175
-157.695205688477 -71.156753540039 -271.524108886719 2.379932403564
-12.257336616516 -69.945655822754 -272.901214599609 1.292410969734
21.520584106445 -69.212852478027 -275.324035644531 1.234389185905
-159.172134399414 -71.539863586426 -278.150177001953 1.018493771553
-161.118408203125 -70.667297363281 -277.893493652344 1.541504025459
-156.315216064453 -71.556259155273 -281.100799560547 3.060617208481
-126.105369567871 -71.768661499023 -283.726043701172 1.410587906837
16.501764297485 -70.184364318848 -282.684539794922 0.862273693085
-139.805007934570 -70.586715698242 -285.500701904297 2.290662527084
-91.508865356445 -70.936027526855 -286.329986572266 3.395999193192
-76.105934143066 -71.170043945313 -286.107788085938 0.775512933731
-75.603179931641 -71.048210144043 -286.185821533203 0.756846904755
-70.088668823242 -70.400596618652 -287.308258056641 2.265749931335
-53.559230804443 -71.188659667969 -288.482727050781 0.643141448498
-157.513259887695 -71.585449218750 -287.156097412109 1.276018261909
-67.960922241211 -70.373809814453 -287.858367919922 1.067195773125
-61.221042633057 -70.908615112305 -288.741119384766 2.323598146439
4.161994934082 -70.918556213379 -290.095489501953 1.203790307045
-78.573539733887 -71.284576416016 -290.425170898438 2.080856561661
-103.000900268555 -71.129531860352 -291.632507324219 2.579319715500
-123.325912475586 -71.240226745605 -292.309997558594 1.716940999031
-156.281890869141 -70.484016418457 -293.459655761719 1.680358290672
-127.577117919922 -70.171218872070 -294.215362548828 1.215815067291
-143.898696899414 -71.768966674805 -308.638214111328 2.630086898804
-152.714385986328 -69.828338623047 -312.234252929688 1.447290897369
40.591724395752 -67.616859436035 -19.037977218628 2.046483278275
48.705158233643 -66.273666381836 -24.679027557373 2.674896955490
45.229545593262 -67.378051757813 -34.797592163086 2.152218818665
-51.083915710449 -69.818466186523 -46.967853546143 1.899435877800
-71.271034240723 -69.539154052734 -47.431823730469 1.034870028496
-32.533321380615 -69.277626037598 -50.600837707520 2.095376491547
-90.684410095215 -71.144012451172 -63.890289306641 2.694092750549
82.201179504395 -69.517478942871 -64.062187194824 0.746272265911
86.073066711426 -70.799934387207 -65.712043762207 1.621229648590
-15.879446029663 -70.720893859863 -67.046516418457 2.057892560959
95.556129455566 -69.275154113770 -69.756690979004 1.820653080940
69.250251770020 -69.441322326660 -70.113014221191 1.235139846802
-40.594875335693 -68.546920776367 -76.439712524414 2.079636335373
-43.534225463867 -70.307456970215 -78.787277221680 1.778437256813
63.623535156250 -69.250976562500 -84.169494628906 1.547876596451
63.551338195801 -69.552398681641 -86.888305664063 1.112563967705
100.249389648438 -70.091613769531 -89.162689208984 1.914252519608
-59.760486602783 -70.942932128906 -89.908058166504 2.054103612900
-97.519638061523 -69.465286254883 -92.047172546387 1.977189540863
46.347801208496 -69.989112854004 -96.509140014648 1.479512333870
99.512649536133 -70.292747497559 -92.395439147949 1.630283951759
105.277404785156 -69.381050109863 -99.925582885742 1.373742461205
71.558975219727 -70.051979064941 -98.866630554199 1.503728866577
51.587890625000 -69.595092773438 -101.779403686523 2.666144132614
-97.130096435547 -70.492904663086 -100.253158569336 3.377733945847
46.329319000244 -67.757743835449 -100.615859985352 1.054580211639
52.807483673096 -67.825584411621 -102.095939636230 1.428842306137
80.676010131836 -68.805541992188 -102.769638061523 2.107178211212
84.294456481934 -67.979721069336 -103.234619140625 1.093963861465
-96.707664489746 -71.290344238281 -104.686698913574 1.381292343140
39.470958709717 -69.297416687012 -105.189239501953 1.963181853294
46.297138214111 -69.366889953613 -106.517700195313 1.913151979446
102.727645874023 -68.772727966309 -105.308502197266 1.534403800964
41.171817779541 -70.037475585938 -111.559494018555 1.514091372490
36.789928436279 -70.247879028320 -109.819549560547 2.227288484573
111.744476318359 -70.943344116211 -110.546310424805 1.805887818336
36.313682556152 -69.875160217285 -112.037269592285 2.582218408585
105.884536743164 -68.534759521484 -115.392684936523 1.469936490059
-78.639587402344 -70.726684570313 -114.363594055176 0.884059965611
-86.016723632813 -70.097480773926 -120.329826354980 2.351599454880
107.070465087891 -69.627449035645 -121.342216491699 1.307154536247
38.152610778809 -69.232429504395 -124.808067321777 1.776581525803
-60.792495727539 -70.186973571777 -126.205780029297 2.711768388748
-87.444244384766 -69.653663635254 -123.162933349609 1.016335606575
-61.285224914551 -71.012619018555 -131.520401000977 1.090573072433
-85.039985656738 -69.864791870117 -129.176879882813 0.683584392071
-74.492004394531 -70.258422851563 -130.367187500000 1.270673990250
-49.077537536621 -70.577789306641 -133.468658447266 1.641894698143
-91.026634216309 -69.780845642090 -134.927932739258 1.819214105606
-76.856834411621 -70.195579528809 -134.810073852539 1.088273167610
-77.402252197266 -69.653495788574 -134.757690429688 1.571127295494
-47.176208496094 -71.447883605957 -137.118942260742 1.007309317589
-75.610061645508 -69.502883911133 -139.097396850586 0.359791457653
-79.680496215820 -70.243881225586 -137.311096191406 1.824289083481
109.415306091309 -70.225540161133 -141.227691650391 0.890174806118
25.489381790161 -69.363410949707 -142.932006835938 1.478763580322
-44.097042083740 -70.053405761719 -145.169647216797 1.341661810875
113.320892333984 -68.566650390625 -142.244750976563 1.056490302086
-56.814353942871 -70.424247741699 -145.875961303711 1.913418054581
-51.729709625244 -69.450782775879 -146.673202514648 1.159174203873
31.087343215942 -69.433624267578 -149.276138305664 1.112408041954
27.929840087891 -70.194587707520 -149.192489624023 0.275334626436
115.723350524902 -70.380348205566 -146.774124145508 1.322608351707
-48.777488708496 -70.180122375488 -151.291595458984 0.421243488789
8.395336151123 -68.179252624512 -153.000274658203 1.133323192596
-48.789260864258 -69.455741882324 -155.508056640625 1.663359522820
30.607316970825 -69.618049621582 -152.910705566406 1.754769921303
111.623252868652 -68.858825683594 -151.970779418945 2.544691801071
113.687896728516 -69.098373413086 -153.804885864258 2.117923021317
28.643503189087 -68.674636840820 -156.557388305664 1.515735149384
111.058502197266 -68.978279113770 -158.153244018555 0.941234588623
23.815328598022 -69.716049194336 -160.051544189453 1.919973731041
109.872756958008 -69.489990234375 -156.694839477539 1.424670100212
25.802831649780 -69.889228820801 -161.387405395508 0.431412607431
24.023433685303 -69.422546386719 -164.087051391602 2.218717336655
110.783950805664 -69.130683898926 -164.601043701172 2.293246030807
-31.360280990601 -70.439598083496 -168.002883911133 1.137245535851
-40.423847198486 -69.332748413086 -168.438232421875 2.146090984344
27.367954254150 -70.152221679688 -171.490768432617 1.164950251579
-144.566284179688 -69.481910705566 -175.278991699219 1.251028180122
-35.201129913330 -69.406967163086 -177.214981079102 1.080942630768
-109.147972106934 -70.173408508301 -180.996154785156 2.390398979187
25.441753387451 -69.444824218750 -178.842742919922 2.258980989456
-152.509368896484 -71.449546813965 -180.433685302734 2.222626686096
-24.995857238770 -69.736061096191 -179.463684082031 2.543328285217
-34.007656097412 -71.180068969727 -182.260833740234 1.777051210403
-142.041259765625 -71.178565979004 -182.399124145508 0.749882817268
-111.603713989258 -68.954544067383 -182.516311645508 2.132150411606
-33.222961425781 -71.171951293945 -183.424270629883 1.699962019920
-107.892295837402 -69.696762084961 -186.185424804688 2.589715719223
105.578475952148 -69.566246032715 -185.168029785156 2.422140121460
21.267681121826 -69.141777038574 -183.726409912109 1.362268090248
-26.622419357300 -70.651771545410 -188.537094116211 0.832168638706
15.752787590027 -69.890113830566 -184.819793701172 1.739774942398
-22.294095993042 -69.426689147949 -193.931533813477 1.118610620499
-27.367979049683 -69.781547546387 -192.370925903320 1.615072011948
14.066957473755 -69.304252624512 -194.865753173828 0.924178302288
20.339879989624 -69.924240112305 -191.211532592773 1.217436313629
-20.527935028076 -69.683815002441 -193.674041748047 1.124478578568
-109.639480590820 -70.628440856934 -196.902740478516 2.339085102081
-162.628051757813 -70.473236083984 -197.138778686523 1.603924512863
-15.024716377258 -70.425979614258 -195.857803344727 1.224172830582
-13.869855880737 -70.417404174805 -198.011672973633 1.704131960869
17.578561782837 -69.355979919434 -196.565093994141 0.408338814974
-17.145336151123 -69.250694274902 -200.152694702148 1.934029579163
12.639289855957 -69.767051696777 -198.840927124023 1.690592169762
-113.177558898926 -71.488777160645 -200.741729736328 0.226797625422
-120.971138000488 -70.167449951172 -202.657592773438 1.481954336166
-21.730792999268 -69.326210021973 -204.212570190430 1.879314780235
16.982126235962 -69.939216613770 -201.952850341797 1.263806104660
-129.323242187500 -69.457000732422 -204.564285278320 1.352571010590
-143.693695068359 -70.688224792480 -205.983749389648 1.019830226898
14.222737312317 -69.328010559082 -204.497024536133 1.440105080605
17.127712249756 -68.753837585449 -206.667526245117 1.534406423569
-13.943255424500 -69.467483520508 -205.003631591797 1.155291080475
-6.903322219849 -71.288536071777 -209.655227661133 2.465775012970
9.208209991455 -68.886001586914 -211.179672241211 2.551041126251
94.183654785156 -69.736473083496 -209.045501708984 2.794484376907
-14.509097099304 -69.933746337891 -212.387115478516 1.931031227112
16.495977401733 -68.789077758789 -209.287582397461 0.801210641861
15.734610557556 -69.159217834473 -213.457702636719 0.515142381191
-10.674813270569 -69.378562927246 -215.616790771484 1.549181580544
-101.792915344238 -69.736656188965 -219.070343017578 1.113385081291
-4.042407989502 -69.988937377930 -220.369338989258 1.325458049774
-105.178756713867 -69.823547363281 -220.831802368164 1.571863412857
14.185304641724 -69.498008728027 -223.412872314453 0.736010193825
-1.831688046455 -69.419235229492 -224.266921997070 1.268627405167
80.970870971680 -68.492408752441 -225.381729125977 1.928975939751
-110.233467102051 -70.438201904297 -224.205627441406 0.739817142487
-134.456909179688 -70.711372375488 -224.797790527344 0.685827136040
-14.272133827209 -69.708740234375 -225.307388305664 2.239221334457
4.876752853394 -71.816833496094 -225.617004394531 1.149871230125
7.137231826782 -71.226379394531 -229.055145263672 1.059826731682
11.756683349609 -69.593864440918 -230.001983642578 2.008193969727
-5.340326786041 -69.547325134277 -229.769073486328 0.796685278416
-123.743782043457 -68.549156188965 -233.704025268555 0.452725410461
-139.743255615234 -69.057121276855 -232.834411621094 1.398456692696
14.210426330566 -70.193656921387 -233.802688598633 1.729431509972
-13.684339523315 -69.509849548340 -230.423294067383 1.687924385071
