-31.457632064819 -72.382675170898 -167.336517333984 1.670368790627
-57.679306030273 -72.921051025391 -171.911346435547 2.279354095459
-36.760730743408 -72.933181762695 -173.625625610352 1.420053243637
28.225891113281 -72.125778198242 -169.231018066406 1.279348015785
-37.344951629639 -71.375328063965 -176.114135742188 2.177268981934
-150.157836914063 -72.816184997559 -177.509826660156 0.941692292690
112.569854736328 -70.270729064941 -176.388656616211 1.444960951805
-150.366653442383 -73.190055847168 -181.481185913086 0.438349366188
-143.075912475586 -73.506683349609 -181.380218505859 1.743052363396
14.749981880188 -71.752929687500 -181.064422607422 1.629958987236
24.915311813354 -72.018074035645 -183.812988281250 1.033549666405
-33.135650634766 -71.808349609375 -183.180847167969 1.137109637260
-148.855361938477 -73.018508911133 -187.768920898438 0.643334567547
-29.382297515869 -72.057792663574 -189.343063354492 1.913049817085
-144.505142211914 -73.097259521484 -189.702224731445 2.144639015198
-15.284640312195 -72.141632080078 -191.724243164063 1.399716019630
14.042332649231 -73.452491760254 -192.302932739258 2.710623025894
100.647918701172 -71.375488281250 -197.142272949219 2.136069059372
11.191973686218 -72.633560180664 -193.828369140625 1.196348071098
-126.695457458496 -72.425148010254 -195.338851928711 2.480209112167
-130.385971069336 -73.431251525879 -196.201004028320 1.610119104385
-139.461563110352 -74.879661560059 -198.326995849609 1.305959701538
96.164199829102 -70.536125183105 -198.535812377930 2.588451623917
-132.695465087891 -73.398498535156 -200.520462036133 1.222164630890
8.030529975891 -73.453620910645 -206.579528808594 1.381680727005
-24.144796371460 -72.227622985840 -199.378692626953 1.798823714256
-131.953826904297 -72.534355163574 -202.565612792969 0.837901830673
-148.735244750977 -76.341613769531 -205.167816162109 1.035500288010
99.931518554688 -72.226631164551 -205.881988525391 1.322378039360
-11.975032806396 -72.882125854492 -202.866027832031 1.545587420464
98.831039428711 -71.442893981934 -199.558425903320 1.537110567093
-7.435474872589 -72.522644042969 -206.387924194336 2.016371250153
94.853683471680 -71.461257934570 -207.046173095703 2.099934339523
-144.154907226563 -73.431266784668 -208.974624633789 1.886471748352
-15.906413078308 -71.982482910156 -209.503784179688 2.185867547989
-149.157577514648 -73.796585083008 -214.130523681641 1.971944689751
-148.802169799805 -73.902694702148 -208.357864379883 2.903527259827
-16.589012145996 -70.996025085449 -212.609512329102 1.446021676064
-87.583465576172 -72.491516113281 -213.883041381836 1.502468109131
-160.919647216797 -73.843826293945 -215.269912719727 3.168539047241
-159.470489501953 -73.563751220703 -211.630905151367 3.003033161163
-155.353317260742 -73.387069702148 -212.742279052734 2.236965417862
-27.864513397217 -72.610786437988 -214.404296875000 1.163418412209
-25.087892532349 -72.253273010254 -217.737701416016 0.476879984140
-15.083889961243 -71.817359924316 -215.324417114258 1.563069939613
-14.580860137939 -72.836753845215 -216.103408813477 1.706204891205
-144.892105102539 -75.007392883301 -218.071075439453 1.282040238380
18.991743087769 -74.511589050293 -219.482879638672 1.281522393227
-150.526596069336 -73.730613708496 -221.292831420898 1.767332911491
-88.137664794922 -73.451065063477 -218.291198730469 0.684240579605
-164.018890380859 -74.116714477539 -223.536483764648 1.816090941429
-24.973762512207 -73.267570495605 -219.725662231445 1.720743179321
-17.508020401001 -73.266136169434 -218.102966308594 2.450613021851
-160.677734375000 -73.872634887695 -216.302703857422 3.787066936493
16.253664016724 -72.103179931641 -218.338119506836 1.188159823418
-156.751541137695 -73.873489379883 -219.323928833008 3.634687662125
7.108956813812 -72.198112487793 -221.476226806641 1.394171953201
-159.057571411133 -74.057418823242 -221.980300903320 1.902814745903
-154.119735717773 -73.832435607910 -220.680587768555 2.201339721680
-104.079307556152 -73.183761596680 -221.377334594727 1.413062810898
7.663446903229 -71.110748291016 -222.147537231445 0.957269191742
-159.006027221680 -74.432464599609 -226.353622436523 1.758886694908
-160.743331909180 -74.803558349609 -225.062255859375 1.566451907158
4.983920097351 -72.801811218262 -224.430084228516 2.230141878128
-115.470138549805 -72.921783447266 -226.216613769531 1.223454952240
-156.324127197266 -74.134559631348 -226.531829833984 2.885944843292
15.018074989319 -71.804145812988 -224.795898437500 2.092432737350
-109.566802978516 -72.995384216309 -228.208251953125 1.113983988762
-115.599807739258 -73.277557373047 -227.785583496094 1.613809585571
-119.712997436523 -73.574813842773 -228.093368530273 3.689217329025
79.925659179688 -71.673675537109 -227.364624023438 1.520922303200
-161.433670043945 -74.466705322266 -229.166473388672 1.928998112679
-154.555679321289 -74.089080810547 -227.680847167969 2.109449148178
-2.576577901840 -71.769447326660 -229.079772949219 1.551149368286
-164.300872802734 -74.430999755859 -232.305969238281 1.162459135056
5.784660816193 -71.590728759766 -229.848968505859 1.372260928154
-160.716888427734 -74.486373901367 -230.576065063477 3.045702695847
-158.987411499023 -74.437911987305 -231.832595825195 3.809385061264
72.858932495117 -71.622207641602 -231.512878417969 2.167882919312
-165.303131103516 -73.692985534668 -231.887008666992 1.322367787361
-164.614685058594 -74.681724548340 -236.846191406250 1.766156792641
6.999586105347 -73.646591186523 -234.055557250977 2.123870134354
-153.698715209961 -74.563194274902 -238.096954345703 4.204381942749
74.492622375488 -72.144111633301 -235.378921508789 1.689141154289
71.044281005859 -71.700660705566 -233.888992309570 0.711219251156
-144.744644165039 -74.943916320801 -239.555908203125 3.010516881943
9.513187408447 -71.303459167480 -239.668029785156 1.721481442451
-8.835519790649 -72.476280212402 -240.257461547852 0.887230217457
67.845596313477 -72.348999023438 -239.940582275391 1.315538883209
-165.598464965820 -74.001548767090 -241.343780517578 1.075980424881
10.502989768982 -71.663551330566 -242.633407592773 0.814721047878
21.062589645386 -73.747825622559 -241.732910156250 1.077908277512
62.733577728271 -71.581092834473 -243.798294067383 1.361451148987
19.199611663818 -72.322563171387 -245.613098144531 0.785487592220
17.353187561035 -73.381523132324 -245.414459228516 0.786064386368
-71.530555725098 -74.128204345703 -246.465393066406 1.033073425293
17.144126892090 -73.609039306641 -245.915496826172 0.346065878868
-11.149350166321 -71.753799438477 -246.439010620117 1.926922440529
-144.271987915039 -74.233985900879 -247.445968627930 3.130447149277
-65.421730041504 -74.506126403809 -250.409057617188 1.770618319511
-142.990859985352 -73.795455932617 -253.032897949219 2.185432195663
-127.278808593750 -74.419799804688 -254.201507568359 2.381483316422
-96.988861083984 -74.168685913086 -254.303543090820 0.961031377316
-134.095092773438 -73.693641662598 -254.802322387695 0.885068356991
-109.557411193848 -73.272148132324 -256.607025146484 1.161251783371
-112.039909362793 -73.647483825684 -257.220764160156 2.118265867233
-94.913558959961 -73.634346008301 -257.386688232422 1.074777126312
-101.096015930176 -73.480567932129 -259.062438964844 1.087264776230
-113.022827148438 -73.605331420898 -261.077606201172 0.961797297001
24.907497406006 -71.811683654785 -264.248474121094 1.685201406479
-13.118419647217 -73.772476196289 -267.126708984375 1.819976329803
-166.710083007813 -74.145317077637 -270.541320800781 0.984641253948
-144.345626831055 -74.830215454102 -272.374298095703 2.409692525864
15.394063949585 -73.379966735840 -283.376556396484 1.844327807426
-125.383125305176 -74.027008056641 -283.506683349609 0.994569778442
-123.331474304199 -72.206436157227 -285.456054687500 1.579413294792
-80.873962402344 -74.060272216797 -285.862335205078 1.308844089508
-51.336166381836 -73.718551635742 -285.390258789063 2.334552526474
-104.907585144043 -73.543434143066 -286.481048583984 2.340064764023
-37.972270965576 -73.620101928711 -286.023773193359 1.508777499199
-29.308845520020 -73.252655029297 -286.841003417969 0.946410834789
-7.907537937164 -74.528511047363 -286.144989013672 2.548675537109
-38.882888793945 -73.114891052246 -289.306274414063 1.561824917793
-58.690990447998 -73.384094238281 -290.092010498047 2.195791482925
-27.760341644287 -73.232513427734 -289.823730468750 1.425273656845
-18.306035995483 -73.473411560059 -290.208221435547 1.990487217903
14.994512557983 -72.998222351074 -291.156494140625 1.231938004494
-113.920097351074 -74.679924011230 -291.524719238281 1.221534371376
-118.317420959473 -74.619850158691 -291.948181152344 2.342243909836
13.330891609192 -73.470970153809 -291.832855224609 1.410282731056
-134.609024047852 -73.963066101074 -292.770446777344 1.505877137184
-144.826812744141 -75.329391479492 -298.685333251953 1.651634454727
-142.762664794922 -75.959899902344 -305.180389404297 1.867286086082
-151.749542236328 -75.647346496582 -312.297088623047 1.299354314804
27.099529266357 -68.427856445313 -13.510389328003 2.370290756226
43.920070648193 -67.003791809082 -13.748125076294 1.998086452484
37.302913665771 -68.472961425781 -15.512992858887 2.864966869354
46.948474884033 -68.484260559082 -19.665445327759 2.131135702133
45.070114135742 -68.573265075684 -21.705083847046 2.201018571854
47.147109985352 -68.615867614746 -22.952505111694 2.527461290359
25.155658721924 -69.171157836914 -25.409690856934 1.905506372452
25.621139526367 -68.795059204102 -27.038702011108 0.960516810417
45.236221313477 -68.880889892578 -31.580932617188 2.623421192169
38.766868591309 -68.765052795410 -35.529869079590 1.740962147713
38.129066467285 -67.640930175781 -35.035087585449 1.792673587799
39.274673461914 -67.424743652344 -39.895298004150 2.937902688980
-61.676582336426 -70.292282104492 -49.370704650879 1.936834812164
-49.084365844727 -70.000320434570 -49.383670806885 2.249673843384
-79.254707336426 -68.203971862793 -52.002368927002 1.937451124191
-74.518737792969 -71.122108459473 -53.261940002441 1.419287323952
-77.461112976074 -71.432350158691 -55.283176422119 3.734775543213
-27.031551361084 -69.190589904785 -54.964706420898 2.460380315781
-20.537078857422 -71.107765197754 -61.738887786865 2.279333353043
-17.688146591187 -70.978446960449 -64.214302062988 2.080183982849
78.438079833984 -67.815429687500 -65.884941101074 2.072708606720
79.412513732910 -69.253318786621 -67.338462829590 1.192347526550
72.162384033203 -67.701744079590 -69.823143005371 2.246726274490
73.167457580566 -70.875114440918 -75.070243835449 2.284665107727
-30.389198303223 -68.069183349609 -77.274612426758 2.203279495239
-47.948371887207 -70.979522705078 -84.502120971680 0.942405045033
99.985054016113 -68.895080566406 -85.312095642090 2.364543199539
56.337200164795 -66.687126159668 -85.082962036133 2.134633541107
-63.549030303955 -70.030487060547 -91.983985900879 1.759148597717
53.122562408447 -67.819396972656 -90.147201538086 1.103376865387
-64.262245178223 -68.933334350586 -93.247413635254 1.656338214874
58.113544464111 -69.434082031250 -94.156631469727 2.026713848114
105.678581237793 -69.085281372070 -95.122688293457 2.205883026123
71.499649047852 -68.543991088867 -97.477272033691 1.997359752655
94.705177307129 -69.477943420410 -99.844688415527 2.790591716766
107.351531982422 -69.173568725586 -105.625679016113 1.964335441589
-94.918670654297 -71.005386352539 -99.524528503418 3.456758260727
54.177539825439 -69.022384643555 -104.311271667480 2.296949386597
40.156204223633 -68.907676696777 -104.882354736328 1.238825321198
42.338218688965 -70.078163146973 -104.712242126465 1.481689333916
-95.426475524902 -70.099960327148 -107.858238220215 2.443249702454
-85.557792663574 -73.730850219727 -111.946571350098 1.394752860069
38.472927093506 -69.783866882324 -112.893218994141 2.079449176788
-94.157615661621 -71.669189453125 -115.324714660645 2.039719581604
45.015079498291 -69.340438842773 -113.232414245605 0.994972527027
109.333602905273 -69.455635070801 -114.949913024902 1.152536153793
111.149528503418 -68.503013610840 -116.653427124023 2.112083196640
111.329971313477 -68.508720397949 -117.739334106445 3.010016441345
110.740875244141 -68.699356079102 -120.688056945801 1.452795267105
42.760425567627 -70.011634826660 -124.042556762695 2.490607023239
34.914981842041 -69.578407287598 -124.668060302734 2.205164432526
41.679050445557 -71.165718078613 -128.186172485352 3.254197835922
32.559459686279 -69.936080932617 -129.012176513672 1.315582275391
-58.046371459961 -70.787490844727 -129.299942016602 1.578559517860
-54.229095458984 -70.541267395020 -132.168579101563 1.866203069687
-59.794929504395 -70.458038330078 -133.274765014648 1.329752683640
-50.431961059570 -72.480934143066 -136.469741821289 1.293700456619
30.628765106201 -69.859077453613 -134.930282592773 1.951519608498
-79.275856018066 -69.513351440430 -133.444976806641 0.799253225327
117.214881896973 -68.865974426270 -143.039291381836 2.993309497833
37.410152435303 -69.304397583008 -137.031906127930 2.646247386932
35.549903869629 -69.493354797363 -143.419723510742 1.886613249779
-67.866958618164 -71.151153564453 -144.295486450195 2.324120998383
-69.953231811523 -71.255508422852 -146.555831909180 1.184783935547
-75.369934082031 -70.368858337402 -145.915267944336 1.139922976494
110.264312744141 -69.198066711426 -147.165237426758 3.209007978439
-68.693092346191 -71.999313354492 -150.825714111328 1.251839160919
-70.486335754395 -71.358116149902 -148.584365844727 0.696070373058
-38.080398559570 -72.089523315430 -152.254135131836 1.571677923203
22.052379608154 -70.658187866211 -153.632980346680 1.547220706940
33.589633941650 -70.459144592285 -152.560867309570 2.168695926666
8.413442611694 -71.130409240723 -152.978744506836 0.540266215801
14.993317604065 -69.687507629395 -156.852432250977 1.539681673050
24.994421005249 -69.947006225586 -151.464172363281 1.839343428612
-38.269996643066 -70.450736999512 -153.112915039063 1.880820274353
-66.575271606445 -70.554466247559 -157.708465576172 0.910702645779
-39.555942535400 -70.919227600098 -155.674697875977 1.748543620110
29.330249786377 -70.122680664063 -159.697204589844 2.136130332947
-64.927169799805 -71.148628234863 -161.487731933594 1.800712823868
-64.535614013672 -71.285873413086 -162.203094482422 1.011401534081
-44.108303070068 -70.420272827148 -158.866973876953 2.223876714706
22.336982727051 -70.475639343262 -161.619201660156 2.272337675095
20.927036285400 -70.559066772461 -167.474807739258 1.462715029716
114.247016906738 -69.143409729004 -167.734100341797 1.946933031082
-29.275575637817 -70.859992980957 -173.537567138672 1.242403388023
113.772224426270 -70.312744140625 -172.388595581055 1.233497381210
-145.772537231445 -71.689743041992 -175.187576293945 1.301650166512
19.037607192993 -70.729476928711 -176.129333496094 1.362409710884
112.356788635254 -69.189628601074 -174.438430786133 1.829686284065
27.779655456543 -70.893005371094 -178.502197265625 0.888205349445
104.470077514648 -69.496482849121 -181.854644775391 2.254911899567
-19.056802749634 -71.346839904785 -185.123031616211 2.208490848541
-28.845310211182 -72.041488647461 -186.001846313477 1.209539175034
14.475486755371 -72.330383300781 -190.238586425781 1.196223139763
-27.475404739380 -72.127471923828 -188.375762939453 1.585461258888
-149.454238891602 -72.049545288086 -188.726501464844 0.799124300480
99.684783935547 -69.359123229980 -193.785263061523 1.887018203735
-130.448471069336 -72.919853210449 -195.714614868164 1.251764655113
23.405340194702 -69.915321350098 -193.649581909180 1.318048238754
105.792304992676 -70.446945190430 -193.860595703125 3.488850593567
-121.073043823242 -72.235328674316 -198.079086303711 1.358794808388
104.465980529785 -69.770919799805 -195.691223144531 3.329898118973
12.907987594604 -71.046852111816 -196.787399291992 1.726362109184
-154.277359008789 -72.709373474121 -197.623703002930 1.226607918739
19.491657257080 -70.201644897461 -199.434234619141 1.499253630638
-158.575225830078 -72.913681030273 -200.623916625977 4.110361576080
9.819926261902 -71.321731567383 -198.878555297852 0.902592778206
-121.364242553711 -72.518089294434 -199.977890014648 1.286572933197
9.085724830627 -70.820045471191 -203.657684326172 1.594677448273
-23.284246444702 -70.480323791504 -199.702102661133 1.876254916191
-160.618988037109 -73.056755065918 -202.512435913086 3.206254243851
-154.207962036133 -72.964256286621 -203.796401977539 1.773774266243
-152.137329101563 -72.967536926270 -205.591964721680 1.788143515587
-21.520553588867 -71.321586608887 -204.358825683594 1.284320473671
-152.529541015625 -72.991073608398 -206.188568115234 1.435028433800
-160.394378662109 -73.182495117188 -205.074737548828 3.523154735565
-150.025939941406 -72.963500976563 -207.389358520508 1.619778156281
7.845806121826 -72.185195922852 -209.192565917969 1.205256938934
17.836774826050 -70.239494323730 -205.270965576172 1.531816244125
98.326042175293 -70.637504577637 -207.979400634766 1.833730459213
-150.075057983398 -73.067939758301 -209.877593994141 2.095313787460
-164.917984008789 -72.917015075684 -215.817932128906 1.902813553810
85.745391845703 -71.384910583496 -213.667388916016 3.100937366486
-143.656906127930 -72.626846313477 -216.284271240234 2.431069850922
-4.538617134094 -72.483665466309 -215.636856079102 1.477958559990
7.119605064392 -72.459030151367 -215.478271484375 1.934313297272
17.549715042114 -70.147804260254 -215.561386108398 1.921170711517
15.028676986694 -70.961166381836 -217.736968994141 1.135765433311
-143.891723632813 -73.064918518066 -221.750579833984 2.050973653793
-16.551090240479 -71.820678710938 -219.895568847656 2.020479679108
-21.270851135254 -71.333267211914 -220.534729003906 1.140164494514
-96.329963684082 -72.857658386230 -222.236343383789 1.017690777779
2.566591024399 -70.520179748535 -222.365890502930 2.171203851700
82.107055664063 -70.856643676758 -224.339340209961 2.193113565445
78.713043212891 -71.271286010742 -221.918334960938 2.793344736099
-100.080902099609 -73.136894226074 -224.087997436523 0.970069527626
13.554135322571 -71.288291931152 -227.428970336914 2.084809780121
87.571815490723 -71.138893127441 -222.642105102539 0.881619989872
-104.734313964844 -73.212333679199 -225.770523071289 0.496437877417
77.531623840332 -72.214256286621 -223.509124755859 1.138453841209
-3.887173891068 -70.671791076660 -226.808929443359 2.112897634506
-16.665689468384 -71.249465942383 -227.201950073242 1.493387222290
-8.901161193848 -71.218360900879 -229.297592163086 1.000717639923
74.286209106445 -70.815475463867 -232.736129760742 2.083850622177
12.444437980652 -72.619667053223 -235.123733520508 2.069183349609
-122.889884948730 -71.657012939453 -232.795669555664 0.707197368145
-165.813049316406 -72.673973083496 -230.663970947266 1.002340197563
76.139404296875 -70.929824829102 -234.071792602539 0.840317189693
-125.342720031738 -71.689361572266 -234.419082641602 1.053438663483
-7.657098770142 -70.797386169434 -235.969940185547 1.470324516296
73.620117187500 -70.089767456055 -236.448364257813 2.053875446320
8.932969093323 -71.381446838379 -237.611572265625 1.752798557281
-1.355622053146 -72.550361633301 -239.585159301758 1.018855333328
-7.866547107697 -71.614280700684 -241.259658813477 0.281460136175
70.073730468750 -71.092216491699 -239.234405517578 0.855725407600
16.153577804565 -70.579849243164 -238.501785278320 1.468733668327
-143.891357421875 -72.902503967285 -245.615341186523 3.279270410538
52.595821380615 -70.829582214355 -243.658203125000 1.462533116341
-11.164441108704 -71.488700866699 -245.659973144531 1.778150558472
-69.794639587402 -71.697425842285 -247.665405273438 1.382386326790
57.992832183838 -69.113113403320 -247.333435058594 1.111513137817
-66.545494079590 -72.381576538086 -249.852554321289 1.094693183899
49.904979705811 -71.927490234375 -247.991470336914 0.624073624611
-90.189041137695 -72.915069580078 -251.359710693359 0.711312234402
24.052846908569 -70.766136169434 -252.759857177734 1.215328931808
44.725276947021 -70.676612854004 -253.457092285156 1.160159587860
-134.928741455078 -72.893951416016 -255.103881835938 1.109507083893
-166.578323364258 -73.065132141113 -258.767211914063 2.258153915405
-105.676818847656 -73.278137207031 -260.128906250000 1.214070796967
-140.929748535156 -73.701232910156 -262.504394531250 1.480247855186
-142.350616455078 -74.624992370605 -262.890625000000 1.257020473480
-14.084829330444 -71.619903564453 -263.105194091797 1.531641840935
22.683420181274 -71.356681823730 -274.002716064453 1.761625766754
-7.642156124115 -72.893455505371 -280.447875976563 2.494358062744
-156.856948852539 -73.216384887695 -282.174652099609 3.735753297806
-127.537040710449 -73.256294250488 -283.457519531250 2.493527412415
-155.082229614258 -73.238998413086 -285.315917968750 1.528303027153
-89.300048828125 -72.636520385742 -286.188568115234 1.810873031616
-82.498374938965 -72.588203430176 -286.098876953125 1.866616129875
-47.787841796875 -72.658485412598 -286.462432861328 2.883057594299
-13.282836914063 -72.736854553223 -286.965850830078 1.734022974968
-36.519733428955 -72.850074768066 -287.239715576172 1.532819390297
-12.977828979492 -72.169036865234 -287.940856933594 1.695810198784
-34.631431579590 -72.632621765137 -288.259826660156 2.864463806152
-11.360550880432 -72.175666809082 -288.351867675781 2.163676738739
-44.348857879639 -72.977790832520 -289.267211914063 1.778179407120
-4.160631179810 -72.020004272461 -289.164825439453 1.167709469795
-70.041213989258 -73.313995361328 -290.405364990234 1.932430028915
-84.718376159668 -73.379165649414 -290.788940429688 1.877057075500
-103.948219299316 -72.529693603516 -291.695709228516 0.938866794109
-115.977325439453 -72.076721191406 -292.166992187500 0.843949377537
-132.163024902344 -72.723487854004 -294.082275390625 2.199549674988
-152.617599487305 -73.732360839844 -298.043426513672 1.827262997627
-154.514633178711 -72.577079772949 -306.427673339844 1.522425532341
-147.295867919922 -74.565093994141 -312.381317138672 0.950301110744
42.323032379150 -67.120117187500 -12.685677528381 2.890118360519
22.687421798706 -64.676773071289 -17.199340820313 1.242808341980
43.454383850098 -67.937095642090 -19.600009918213 2.718512296677
26.155796051025 -66.951393127441 -23.176681518555 2.409793853760
42.015300750732 -67.220809936523 -31.798131942749 1.022143363953
24.686950683594 -67.128822326660 -36.332725524902 1.990897774696
35.327209472656 -67.647209167480 -38.214481353760 2.658222675323
-62.262878417969 -69.580352783203 -48.640949249268 1.410524725914
-45.761466979980 -67.869918823242 -47.760917663574 1.702372193336
-44.501945495605 -68.279930114746 -48.294799804688 2.047303676605
-41.761955261230 -68.118873596191 -48.611965179443 1.210316300392
-32.739440917969 -68.692886352539 -51.744163513184 2.408229112625
-26.578058242798 -67.788414001465 -53.467853546143 3.112723588943
-14.293659210205 -68.780288696289 -64.406661987305 1.981900930405
77.240005493164 -70.279991149902 -69.755233764648 2.499469280243
98.215469360352 -66.523704528809 -70.870323181152 2.353839635849
-21.083263397217 -69.484916687012 -73.343040466309 0.500028491020
71.970596313477 -70.284873962402 -75.467308044434 2.223237037659
-42.216091156006 -70.153869628906 -79.574539184570 1.540445208549
67.242424011230 -66.323234558105 -81.485359191895 2.106090545654
58.190391540527 -66.575134277344 -84.278823852539 1.707327604294
61.032032012939 -66.840759277344 -86.733345031738 1.311961770058
56.553531646729 -69.887741088867 -90.968048095703 3.100186586380
-60.410804748535 -70.067977905273 -90.974403381348 1.355898857117
-95.812454223633 -69.235511779785 -95.536293029785 1.802320957184
46.040500640869 -68.805519104004 -95.100341796875 0.535463392735
104.007972717285 -68.541717529297 -95.872734069824 1.506256461143
59.716701507568 -68.846328735352 -96.094207763672 1.284071803093
71.781921386719 -66.571937561035 -99.638397216797 2.229983091354
-71.534683227539 -67.575210571289 -99.762054443359 1.342118620872
52.865612030029 -68.052703857422 -102.384262084961 1.437286138535
107.758499145508 -67.789184570313 -103.494575500488 1.716540813446
76.152488708496 -67.518348693848 -102.197044372559 3.078446149826
105.346656799316 -67.765739440918 -101.893730163574 1.517599463463
89.908668518066 -69.349708557129 -101.916236877441 3.387600660324
103.941131591797 -67.215370178223 -106.155296325684 1.830633163452
52.335456848145 -69.281082153320 -106.947479248047 1.594851016998
-86.613800048828 -71.541656494141 -112.335601806641 2.527420520782
42.546848297119 -68.375633239746 -112.903945922852 1.613259315491
-94.992881774902 -70.496574401855 -112.700881958008 2.857798814774
42.678359985352 -69.005432128906 -115.607894897461 0.961732208729
-79.393898010254 -69.552047729492 -118.878250122070 0.877582132816
45.727119445801 -68.537239074707 -115.408920288086 2.574842453003
113.541755676270 -67.822113037109 -113.489990234375 3.014363765717
35.913681030273 -69.260429382324 -123.432456970215 2.035905838013
-79.583953857422 -69.458068847656 -119.659553527832 1.317257523537
-84.854454040527 -69.422294616699 -121.176506042480 1.969374775887
36.236572265625 -69.228096008301 -126.075798034668 3.037635803223
-84.663711547852 -70.155487060547 -126.516120910645 0.747985124588
34.430679321289 -68.033500671387 -120.216400146484 2.396877288818
-77.948059082031 -70.036499023438 -127.396247863770 1.530269026756
-50.576427459717 -69.518959045410 -130.665328979492 1.164529800415
-55.163684844971 -70.085998535156 -131.151870727539 2.114966392517
-49.317237854004 -69.506645202637 -131.829467773438 1.610045909882
32.808502197266 -69.097602844238 -133.501220703125 2.539149522781
-59.958122253418 -70.222854614258 -133.968963623047 1.921713113785
33.204612731934 -69.074768066406 -134.881607055664 1.337167620659
-71.278976440430 -68.396476745605 -135.582366943359 1.479916334152
117.035362243652 -68.515022277832 -143.264038085938 2.910882949829
25.866630554199 -69.968566894531 -140.197036743164 1.771091699600
30.774980545044 -69.184288024902 -138.560729980469 1.784709453583
-72.211479187012 -69.655563354492 -142.518386840820 1.100366234779
-52.579601287842 -71.385177612305 -147.827651977539 1.771412372589
33.040485382080 -69.758277893066 -142.695053100586 1.453159093857
-52.877536773682 -69.215080261230 -145.804046630859 1.214567899704
26.161266326904 -69.098548889160 -151.136322021484 1.441159725189
-72.563163757324 -69.999824523926 -150.643020629883 1.870037674904
-53.559497833252 -71.336845397949 -149.794357299805 1.414941668510
-44.020298004150 -69.663246154785 -150.726852416992 2.283915281296
10.606839179993 -69.044509887695 -150.478988647461 0.741884112358
116.395133972168 -68.507270812988 -151.524780273438 1.717278003693
-51.025798797607 -70.857383728027 -153.605499267578 1.226015567780
29.365863800049 -69.591133117676 -156.396591186523 1.333329558372
-37.827083587646 -69.958175659180 -154.659667968750 1.356453180313
30.846151351929 -68.774803161621 -159.038085937500 1.913221001625
-40.686267852783 -70.125297546387 -156.595779418945 2.194828271866
-36.512607574463 -69.945281982422 -156.957458496094 2.644174098969
-42.273906707764 -69.995780944824 -159.377014160156 0.789839565754
-42.784263610840 -70.065620422363 -159.443069458008 1.039170026779
8.773681640625 -68.988960266113 -158.431121826172 1.346774339676
-44.893051147461 -70.052177429199 -161.799987792969 1.077444076538
27.099218368530 -68.803062438965 -160.790969848633 1.613536834717
-37.944259643555 -70.215446472168 -161.874832153320 2.033156871796
-33.041225433350 -69.390151977539 -163.822677612305 1.819943428040
27.580644607544 -70.076553344727 -167.692871093750 1.352689146996
-29.482458114624 -70.532096862793 -167.873229980469 1.174566268921
-29.540842056274 -70.400680541992 -174.764495849609 1.567008852959
112.797348022461 -67.817756652832 -166.841156005859 2.089631319046
17.511575698853 -71.665916442871 -172.134185791016 0.756717681885
-34.130058288574 -70.383094787598 -174.319107055664 1.469359874725
-27.119041442871 -70.158546447754 -172.652008056641 1.887483716011
-37.143913269043 -69.281494140625 -173.459640502930 1.501255512238
-141.541900634766 -71.864067077637 -177.868545532227 1.721070170403
-25.284889221191 -70.487670898438 -181.578506469727 1.468047857285
16.572860717773 -69.819252014160 -176.176254272461 0.561190605164
107.011436462402 -68.579048156738 -176.491897583008 2.629789352417
106.652252197266 -68.440185546875 -179.674346923828 2.334432363510
-22.949422836304 -70.122688293457 -179.541366577148 3.334699869156
17.011009216309 -70.587135314941 -182.057907104492 1.283280730247
-140.908935546875 -71.549835205078 -185.176361083984 2.151324987411
-27.352357864380 -70.197784423828 -183.544769287109 1.845429182053
-26.527494430542 -70.131401062012 -186.065185546875 1.170402646065
25.769847869873 -70.200668334961 -186.262786865234 1.641941428185
22.737648010254 -70.888626098633 -190.906845092773 0.788905799389
-108.976310729980 -70.627815246582 -188.113723754883 0.935121536255
15.076126098633 -70.456298828125 -189.071716308594 1.668505311012
22.431568145752 -70.042221069336 -190.216247558594 0.816794872284
-20.158758163452 -70.703910827637 -189.339843750000 2.103628873825
-111.666496276855 -70.550216674805 -195.186996459961 2.050184965134
104.554634094238 -68.624420166016 -191.806396484375 2.800271987915
-123.204872131348 -71.606796264648 -194.967117309570 1.025726675987
-138.723861694336 -71.757301330566 -196.100723266602 2.242352247238
-115.903411865234 -71.671424865723 -197.556671142578 1.249963521957
-112.310485839844 -72.054412841797 -198.960144042969 0.899077057838
100.879753112793 -69.204231262207 -201.332641601563 1.447240829468
-10.489616394043 -70.210083007813 -202.465362548828 1.628327727318
-18.304327011108 -69.243652343750 -203.513610839844 1.046777009964
99.045669555664 -68.914360046387 -203.468734741211 2.224199771881
-125.352363586426 -71.382446289063 -204.286407470703 1.459070563316
-21.240568161011 -70.760826110840 -204.737335205078 1.413846611977
10.543114662170 -71.421714782715 -209.115600585938 1.343007206917
-143.114257812500 -70.859962463379 -207.934524536133 1.960921406746
-8.461926460266 -70.058364868164 -210.966110229492 1.360220313072
16.586347579956 -70.016647338867 -208.858016967773 1.288024663925
96.171203613281 -70.505264282227 -211.161636352539 2.270853281021
96.048156738281 -69.260887145996 -209.404968261719 3.590873241425
18.794988632202 -69.825744628906 -209.574050903320 1.566599369049
13.060161590576 -70.068489074707 -214.010177612305 0.853593707085
-93.270339965820 -70.906562805176 -215.931900024414 1.924151539803
-90.284980773926 -71.114616394043 -217.864532470703 1.482494354248
83.729057312012 -69.718467712402 -217.295822143555 1.332067251205
13.906491279602 -70.634635925293 -220.333984375000 0.630796134472
-101.996643066406 -71.401268005371 -219.286651611328 0.973757207394
-10.407358169556 -70.831176757813 -218.241378784180 1.147259712219
-18.399076461792 -70.567436218262 -222.763626098633 1.771212697029
8.650201797485 -69.971481323242 -222.029296875000 1.798338770866
-6.097517013550 -70.659507751465 -223.991790771484 1.576963186264
-126.385963439941 -71.023651123047 -223.860076904297 1.146324992180
-8.609622001648 -70.445556640625 -224.289764404297 1.543167233467
-102.725502014160 -71.229675292969 -226.061782836914 1.506066083908
-138.651641845703 -72.811515808105 -225.963165283203 2.479461669922
-112.156471252441 -70.887290954590 -226.104125976563 0.834267377853
83.319953918457 -69.381477355957 -226.499588012695 0.960437178612
16.539733886719 -70.366119384766 -225.809494018555 1.441523313522
-165.854446411133 -71.370132446289 -228.096145629883 0.896125614643
-109.511993408203 -71.550407409668 -230.135040283203 1.523784518242
-116.790313720703 -72.276351928711 -231.768997192383 1.464085698128
79.931632995605 -69.759330749512 -230.532699584961 1.350097298622
11.225382804871 -70.384262084961 -235.069381713867 1.887083768845
1.492823004723 -72.383872985840 -233.838226318359 2.405200004578
16.299402236938 -70.590950012207 -237.725631713867 1.094604611397
-1.808217048645 -70.789779663086 -234.479873657227 1.624958395958
74.508956909180 -69.502479553223 -235.439025878906 1.796811819077
-3.069376945496 -70.071083068848 -236.167785644531 1.211603403091
10.601731300354 -69.957145690918 -235.379562377930 1.457547545433
0.171449005604 -70.066337585449 -237.207061767578 1.670103073120
2.126508951187 -71.090003967285 -238.540588378906 2.572247266769
6.608675956726 -71.799674987793 -241.490875244141 1.672990441322
63.766582489014 -70.192352294922 -241.024444580078 1.653133869171
10.709191322327 -69.171310424805 -242.490921020508 1.458440423012
54.505210876465 -69.905235290527 -245.254959106445 1.059694051743
-12.284811973572 -70.934486389160 -246.333786010742 1.066915392876
-12.660954475403 -72.479576110840 -248.794998168945 1.091895461082
-72.420318603516 -71.287712097168 -250.512680053711 1.260321378708
38.937759399414 -70.378974914551 -252.303451538086 2.508385896683
-77.011779785156 -71.555274963379 -252.666580200195 2.398881673813
-153.757110595703 -71.838127136230 -254.805053710938 2.089170217514
-82.289970397949 -72.733551025391 -254.490447998047 0.799211025238
-138.622619628906 -72.897979736328 -255.215972900391 2.847332954407
40.977519989014 -70.440567016602 -255.317092895508 1.060589671135
-110.431831359863 -71.822837829590 -256.359771728516 0.696900725365
-93.535369873047 -71.677482604980 -257.494842529297 1.985430598259
-155.173187255859 -71.728889465332 -257.881652832031 2.012076854706
-109.488075256348 -70.994308471680 -261.570831298828 1.132701158524
-166.613937377930 -73.601974487305 -261.602661132813 1.309822797775
-155.761871337891 -72.181976318359 -264.233337402344 1.835526108742
-153.630645751953 -72.245445251465 -266.374053955078 1.889842510223
-13.875973701477 -70.864562988281 -262.253875732422 1.498052239418
24.873077392578 -70.412727355957 -268.528747558594 1.180246114731
-153.578277587891 -72.329811096191 -268.059997558594 2.565479040146
-13.289758682251 -71.410537719727 -268.180023193359 2.066415071487
-156.700271606445 -72.576011657715 -271.420043945313 3.361483812332
-11.274495124817 -70.512397766113 -273.039733886719 1.733030438423
22.494781494141 -69.608589172363 -275.524475097656 1.563606977463
-158.184722900391 -73.052818298340 -278.038360595703 2.655919313431
-160.135803222656 -72.188690185547 -277.789825439453 1.413243055344
-155.332138061523 -73.089912414551 -280.992980957031 3.078801870346
-125.125488281250 -73.155158996582 -283.662475585938 1.506842970848
17.470956802368 -70.704330444336 -282.864135742188 0.778737246990
-138.834594726563 -72.078033447266 -285.430725097656 2.770441293716
-90.538513183594 -72.148941040039 -286.330932617188 2.919604301453
-75.134140014648 -72.287918090820 -286.129791259766 0.829668641090
-74.632240295410 -72.164093017578 -286.210174560547 1.167701840401
-69.123390197754 -71.497924804688 -287.349426269531 2.160713672638
-52.591281890869 -72.202041625977 -288.539520263672 1.352973461151
-156.538970947266 -73.203842163086 -287.045562744141 2.163122177124
-66.996665954590 -71.465454101563 -287.903167724609 1.909011006355
-60.255012512207 -71.971183776855 -288.789489746094 2.373010635376
5.124825000763 -71.607231140137 -290.245758056641 1.701333522797
-77.607421875000 -72.472518920898 -290.441528320313 1.832093596458
-102.037033081055 -72.479125976563 -291.612579345703 2.754271507263
-122.362007141113 -72.720108032227 -292.256835937500 1.906528711319
-155.323608398438 -72.175903320313 -293.364593505859 2.800708055496
-126.622375488281 -71.701057434082 -294.169067382813 0.927111268044
-142.955474853516 -73.581085205078 -308.544799804688 2.181568145752
-151.787979125977 -71.739471435547 -312.151611328125 1.431935310364
41.936641693115 -64.615310668945 -19.309926986694 1.111516356468
50.033477783203 -63.295970916748 -24.980379104614 2.061891078949
46.549530029297 -64.550674438477 -35.078536987305 2.794187068939
-49.765514373779 -67.723083496094 -47.066097259521 1.472936868668
-69.954612731934 -67.570549011230 -47.502071380615 1.705785036087
-31.223918914795 -67.117835998535 -50.734683990479 0.936708450317
-89.382431030273 -69.502258300781 -63.908298492432 1.780132055283
83.489837646484 -66.843566894531 -64.371070861816 1.620878696442
87.366897583008 -68.123863220215 -66.010421752930 1.223793983459
-14.586123466492 -68.671997070313 -67.186531066895 1.755854368210
96.834617614746 -66.594306945801 -70.089057922363 2.452762365341
70.529708862305 -66.922439575195 -70.402137756348 1.595718264580
-39.328083038330 -66.766471862793 -76.568168640137 1.876809239388
-42.260295867920 -68.574493408203 -78.888420104980 0.382903784513
64.881080627441 -66.945854187012 -84.451103210449 1.450907111168
64.806655883789 -67.282508850098 -87.165710449219 0.412754416466
101.503860473633 -67.631217956543 -89.490325927734 1.712272524834
-58.498950958252 -69.449470520020 -89.974792480469 1.443848133087
-96.269424438477 -68.225326538086 -92.073661804199 1.295684337616
47.591781616211 -67.945381164551 -96.753280639648 1.468515515327
100.763549804688 -67.878158569336 -92.719085693359 2.595006227493
106.511528015137 -67.028518676758 -100.269279479980 0.758473873138
72.799346923828 -67.887580871582 -99.149162292480 2.537370204926
52.821578979492 -67.587562561035 -102.036338806152 1.310384750366
-95.885910034180 -69.355636596680 -100.266418457031 2.882730960846
47.553802490234 -65.766960144043 -100.888198852539 0.578976511955
54.030055999756 -65.814987182617 -102.377403259277 1.500954031944
81.902931213379 -66.636718750000 -103.082038879395 2.612836360931
85.515655517578 -65.795280456543 -103.563201904297 2.579007863998
-95.465286254883 -70.207267761230 -104.690040588379 1.344873547554
40.698024749756 -67.406105041504 -105.430770874023 1.770795106888
47.522514343262 -67.451744079590 -106.768898010254 1.632119894028
103.950172424316 -66.504478454590 -105.655555725098 1.753930211067
42.393833160400 -68.217521667480 -111.793685913086 1.263845205307
38.015872955322 -68.431831359863 -110.044342041016 1.582847237587
112.972084045410 -68.688018798828 -110.879226684570 1.231507301331
37.534103393555 -68.090415954590 -112.265907287598 2.526435136795
107.090599060059 -66.376831054688 -115.746879577637 1.479789018631
-77.415313720703 -69.659523010254 -114.401573181152 1.325403928757
-84.804939270020 -69.150955200195 -120.363845825195 1.929641008377
108.274230957031 -67.538536071777 -121.683784484863 1.808224916458
39.350173950195 -67.600357055664 -125.046745300293 2.030555009842
-59.589389801025 -69.164787292480 -126.277565002441 1.268083095551
-86.239311218262 -68.752021789551 -123.200164794922 0.844695866108
-60.085048675537 -70.061386108398 -131.580413818359 1.158155322075
-83.842765808105 -69.025787353516 -129.214675903320 1.248571157455
-73.294387817383 -69.371513366699 -130.416320800781 0.821381688118
-47.883098602295 -69.578506469727 -133.553146362305 1.024681568146
-89.838340759277 -69.051353454590 -134.956970214844 1.112326979637
-75.666145324707 -69.379745483398 -134.855941772461 1.059481024742
-76.214736938477 -68.840309143066 -134.809646606445 1.299609661102
-45.982002258301 -70.483901977539 -137.194946289063 1.095776557922
-74.429924011230 -68.734580993652 -139.153717041016 1.278844833374
-78.493186950684 -69.476982116699 -137.351730346680 1.746696829796
110.593078613281 -68.377296447754 -141.563613891602 1.876285433769
26.661050796509 -68.039283752441 -143.147735595703 1.385165095329
-42.923221588135 -69.174270629883 -145.267654418945 1.321908593178
114.487121582031 -66.708229064941 -142.607925415039 2.524078130722
-55.639114379883 -69.630226135254 -145.949279785156 1.175670266151
-50.561595916748 -68.636650085449 -146.766876220703 2.125078439713
32.249904632568 -68.157272338867 -149.499176025391 1.659697651863
29.097152709961 -68.935974121094 -149.400863647461 1.600528120995
116.893692016602 -68.565399169922 -147.117446899414 2.292649507523
-47.611911773682 -69.407417297363 -151.380157470703 1.362734079361
9.545269012451 -67.086517333984 -153.203613281250 1.082813739777
-47.634300231934 -68.737197875977 -155.605514526367 2.079187631607
31.765594482422 -68.391113281250 -153.130325317383 2.042884111404
112.776824951172 -67.135139465332 -152.326751708984 3.263704299927
114.840141296387 -67.385803222656 -154.160873413086 3.721990823746
29.790739059448 -67.506263732910 -156.785720825195 1.802751898766
112.203613281250 -67.337165832520 -158.506301879883 2.924270629883
24.963718414307 -68.621223449707 -160.258712768555 1.552639007568
111.023132324219 -67.837234497070 -157.039611816406 2.321280002594
26.950239181519 -68.799613952637 -161.595352172852 1.312591433525
25.164062500000 -68.378211975098 -164.297958374023 2.374519586563
111.920402526855 -67.573799133301 -164.951171875000 2.525030851364
-30.218301773071 -69.776733398438 -168.113937377930 1.123479008675
-39.288986206055 -68.729804992676 -168.549255371094 1.605355501175
28.501903533936 -69.182647705078 -171.696960449219 1.283925294876
-143.438690185547 -69.589767456055 -175.224868774414 2.041035890579
-34.078960418701 -68.885208129883 -177.332489013672 2.165182828903
-108.025398254395 -70.142501831055 -180.988037109375 1.647596120834
26.560573577881 -68.581031799316 -179.054367065430 2.451954603195
-151.377471923828 -71.670776367188 -180.341537475586 1.833150982857
-23.875246047974 -69.182006835938 -179.592742919922 3.519086599350
-32.882362365723 -70.715629577637 -182.357101440430 1.267755270004
-140.914108276367 -71.362358093262 -182.326644897461 1.279254794121
-110.490669250488 -68.957931518555 -182.519821166992 1.511777400970
-32.099456787109 -70.717727661133 -183.521759033203 1.896700978279
-106.780319213867 -69.724868774414 -186.184921264648 2.392185449600
106.687095642090 -68.303955078125 -185.502746582031 2.416247129440
22.377508163452 -68.365562438965 -183.934982299805 1.593288421631
-25.509757995605 -70.223602294922 -188.651123046875 1.321907639503
16.865589141846 -69.160827636719 -185.010086059570 1.933413624763
-21.196882247925 -69.041847229004 -194.067565917969 1.041430592537
-26.266222000122 -69.407043457031 -192.494613647461 2.056921243668
15.161352157593 -68.713813781738 -195.060073852539 0.455538481474
21.443304061890 -69.249389648438 -191.408020019531 1.699322700500
-19.428831100464 -69.285087585449 -193.809555053711 2.171790361404
-108.537803649902 -70.804206848145 -196.886718750000 2.722022771835
-161.526626586914 -70.969116210938 -197.041931152344 0.828989863396
-13.924505233765 -70.022224426270 -195.992248535156 1.201923966408
-12.772917747498 -70.034324645996 -198.147842407227 2.435127019882
18.670675277710 -68.766296386719 -196.764099121094 1.005636572838
-16.058519363403 -68.914764404297 -200.298507690430 1.455320358276
13.730585098267 -69.236038208008 -199.026763916016 2.070384740829
-112.076347351074 -71.734817504883 -200.708847045898 1.308831214905
-119.880554199219 -70.484794616699 -202.629287719727 2.182147741318
-20.649465560913 -69.069725036621 -204.349914550781 2.646465778351
18.069751739502 -69.422065734863 -202.143005371094 1.475085616112
-128.239593505859 -69.848823547363 -204.531860351563 0.682598710060
-142.604492187500 -71.184097290039 -205.912994384766 1.728430151939
15.302966117859 -68.860023498535 -204.690490722656 1.316228985786
18.201215744019 -68.296333312988 -206.872695922852 1.180546522141
-12.862403869629 -69.174522399902 -205.151275634766 0.883134067059
-5.818581104279 -71.012855529785 -209.790161132813 2.924521923065
10.275955200195 -68.533683776855 -211.370407104492 1.869691252708
95.258056640625 -68.848243713379 -209.358261108398 3.196013927460
-13.436401367188 -69.738708496094 -212.527297973633 1.927196621895
17.565811157227 -68.368919372559 -209.491104125977 0.773679614067
16.800487518311 -68.796997070313 -213.654953002930 1.130248904228
-9.610321998596 -69.202018737793 -215.769790649414 0.790972232819
-100.729660034180 -70.149551391602 -219.076141357422 1.094812989235
-2.981437921524 -69.833526611328 -220.524490356445 1.305356860161
-104.117538452148 -70.279266357422 -220.831054687500 0.681730747223
15.238458633423 -69.272560119629 -223.602523803711 1.351917624474
-0.779968976974 -69.300582885742 -224.432495117188 1.296571135521
82.013786315918 -67.892654418945 -225.688415527344 1.560981035233
-109.173469543457 -70.967323303223 -224.188827514648 1.046886086464
-133.395690917969 -71.393005371094 -224.739608764648 0.556617021561
-13.219984054565 -69.677833557129 -225.449737548828 2.455548524857
5.940732002258 -71.675094604492 -225.762252807617 1.279701113701
8.192516326904 -71.115226745605 -229.211196899414 1.517055392265
12.800672531128 -69.467361450195 -230.186080932617 0.998449563980
-4.295944213867 -69.520141601563 -229.927078247070 1.552428126335
-122.708976745605 -69.280998229980 -233.689529418945 1.033636212349
-138.703811645508 -69.873512268066 -232.788482666016 2.286798238754
15.252324104309 -70.101097106934 -233.982620239258 1.491894841194
-12.640995979309 -69.540985107422 -230.568679809570 1.494333505630
-154.978271484375 -70.814331054688 -234.840774536133 2.878259420395
-151.838623046875 -71.032424926758 -243.855346679688 1.763358473778
-151.512847900391 -70.884628295898 -243.357925415039 1.805127859116
2.748538017273 -69.945518493652 -235.970123291016 1.017741441727
-154.750747680664 -70.946304321289 -240.021224975586 3.064924240112
56.402606964111 -68.515052795410 -240.264282226563 0.494950652122
3.626681089401 -71.575263977051 -241.169830322266 1.921101570129
62.212436676025 -68.602172851563 -240.863845825195 2.463901281357
53.386989593506 -69.747619628906 -242.369934082031 2.501189708710
59.836204528809 -68.566261291504 -242.894348144531 1.464884638786
55.660041809082 -69.541625976563 -243.630783081055 1.537034273148
-12.201418876648 -70.038131713867 -245.425903320313 0.848351597786
-150.753707885742 -70.314796447754 -248.728393554688 1.907966494560
-155.389038085938 -71.374374389648 -248.120346069336 3.015250921249
-75.865097045898 -70.838226318359 -249.672775268555 1.395757675171
-88.841316223145 -71.645408630371 -250.965423583984 1.914286255836
-87.156860351563 -70.589477539063 -251.397567749023 1.014700293541
-89.134132385254 -70.395652770996 -251.829055786133 1.026590347290
-158.121444702148 -70.636192321777 -256.595703125000 1.314153909683
-126.052871704102 -71.991744995117 -253.655746459961 1.168853521347
46.010856628418 -70.021682739258 -253.654174804688 2.220144271851
-104.060188293457 -70.351524353027 -255.044219970703 1.705407381058
-121.769500732422 -71.492256164551 -255.838638305664 2.383497714996
-154.795532226563 -71.783569335938 -257.051452636719 2.089688777924
-166.111999511719 -71.766990661621 -261.467346191406 1.599893450737
36.030601501465 -69.210868835449 -259.017883300781 1.050504565239
33.265724182129 -69.807144165039 -259.286102294922 1.726990342140
-157.306213378906 -71.420051574707 -261.812469482422 1.991776108742
-135.345779418945 -69.534385681152 -262.076477050781 1.201486349106
-158.260742187500 -71.767738342285 -265.756195068359 1.925742506981
-165.852111816406 -71.943840026855 -273.851989746094 2.621332883835
25.450380325317 -69.076644897461 -268.039276123047 2.131438493729
-164.019744873047 -71.292358398438 -270.445068359375 3.759031295776
-162.236175537109 -71.270133972168 -270.203247070313 3.556710243225
-162.404052734375 -71.544769287109 -276.522308349609 3.008706808090
-8.812443733215 -70.244346618652 -279.387939453125 1.769368410110
-145.360778808594 -71.160415649414 -281.801635742188 0.317001700401
-164.592514038086 -71.974975585938 -285.748748779297 2.848287343979
-133.438919067383 -72.135734558105 -284.271392822266 1.057953357697
-133.315109252930 -68.957832336426 -286.083160400391 1.954192399979
-161.888961791992 -72.035194396973 -286.980834960938 1.838106393814
-93.873985290527 -71.056221008301 -286.937896728516 2.266569852829
-75.040649414063 -71.064277648926 -287.586608886719 0.961067199707
-84.930603027344 -70.682022094727 -288.765167236328 2.101471424103
-72.148757934570 -71.030570983887 -288.130096435547 2.741655826569
