18.737972259521 -76.652694702148 -198.258239746094 2.053127288818
-33.610263824463 -76.600585937500 -206.884902954102 1.506782531738
-7.737945079803 -76.538673400879 -206.170028686523 1.381126642227
-19.317975997925 -75.925636291504 -206.438659667969 2.293350219727
-72.761001586914 -76.415824890137 -209.208770751953 1.266773223877
-32.799240112305 -76.861381530762 -208.311019897461 1.176769614220
9.329234123230 -77.340011596680 -205.090423583984 1.943606615067
-8.791885375977 -76.401679992676 -208.242858886719 1.068691611290
94.324150085449 -77.093513488770 -211.672241210938 1.538362503052
-13.300531387329 -75.806892395020 -213.254623413086 1.475159287453
-18.931783676147 -75.818099975586 -215.822845458984 1.605731487274
-78.652328491211 -76.313644409180 -215.098129272461 2.014966249466
-145.704101562500 -76.584815979004 -216.390014648438 1.650263905525
17.147087097168 -76.339393615723 -214.364517211914 1.429211020470
-1.211583018303 -75.723831176758 -216.023941040039 1.796610713005
-17.157140731812 -76.910194396973 -218.108306884766 2.218178749084
-10.485039710999 -75.297058105469 -218.057083129883 1.911832809448
-20.147457122803 -76.517578125000 -219.259750366211 0.922657847404
6.806931018829 -75.674797058105 -219.020446777344 2.068789243698
-148.417404174805 -75.686248779297 -218.110397338867 1.503479361534
-19.173707962036 -78.506103515625 -222.264236450195 1.432949662209
84.668144226074 -77.353576660156 -220.143096923828 1.522511005402
-9.150412559509 -75.517410278320 -223.299133300781 1.830492496490
-4.892263889313 -76.639190673828 -225.288909912109 1.192924022675
-20.202415466309 -77.376724243164 -222.924865722656 1.707140445709
-153.407516479492 -75.008148193359 -227.880172729492 3.201208114624
78.800109863281 -76.848739624023 -227.623168945313 0.774092793465
-8.497320175171 -76.133178710938 -228.387664794922 1.733154773712
-137.153778076172 -75.696586608887 -228.860015869141 1.577578067780
-147.721527099609 -73.428131103516 -230.754745483398 0.743391931057
-137.190841674805 -77.305831909180 -231.345336914063 1.007496476173
0.972066998482 -77.514289855957 -233.651397705078 2.143292665482
-144.689483642578 -76.026390075684 -235.878601074219 1.702067613602
2.847639083862 -77.684005737305 -234.216094970703 1.569749593735
18.863317489624 -76.701950073242 -236.812042236328 1.441575169563
0.751493990421 -76.862022399902 -238.243484497070 1.115991592407
-44.934852600098 -77.252670288086 -240.529373168945 1.958346009254
-47.310035705566 -77.213409423828 -241.032073974609 1.405969262123
-24.954214096069 -77.155044555664 -242.211334228516 1.749746799469
-148.928253173828 -76.030487060547 -244.397811889648 2.195600271225
-38.477176666260 -78.080398559570 -244.435684204102 0.987853765488
-65.044517517090 -78.024215698242 -246.639160156250 1.197371602058
-47.139583587646 -76.530448913574 -246.305740356445 1.008527994156
-61.100856781006 -76.948379516602 -249.412170410156 0.691874384880
-71.961814880371 -76.995323181152 -250.232666015625 2.055742025375
-142.282913208008 -74.328994750977 -254.679382324219 1.539185643196
22.028444290161 -78.314231872559 -257.086456298828 2.636252164841
-126.002792358398 -76.600646972656 -260.923248291016 0.695301651955
-9.463526725769 -79.449035644531 -267.486938476563 1.542250037193
-11.729001998901 -75.573539733887 -269.134002685547 1.792867422104
20.540767669678 -76.489288330078 -273.658233642578 2.798238039017
-145.436004638672 -77.304580688477 -280.953186035156 2.584826469421
-3.740835905075 -76.804222106934 -281.507720947266 1.261678576469
-154.070953369141 -76.961914062500 -286.934539794922 1.811448931694
-129.662582397461 -77.697967529297 -287.272369384766 2.381789207458
-26.332208633423 -77.883834838867 -285.600708007813 1.894514083862
-131.807876586914 -77.179649353027 -286.607208251953 1.659845471382
-65.329017639160 -77.556419372559 -286.835693359375 2.894749641418
-138.255508422852 -76.942588806152 -288.779174804688 1.878559231758
9.910939216614 -78.433479309082 -287.083374023438 2.615876436234
-118.166175842285 -77.822486877441 -289.173614501953 1.392514228821
-67.758644104004 -77.675277709961 -288.403015136719 1.420781254768
-140.677124023438 -77.741249084473 -290.614593505859 1.882864594460
-53.462360382080 -76.885848999023 -290.056274414063 1.491009593010
-28.948123931885 -77.766502380371 -290.324890136719 2.700109481812
-4.347966194153 -78.547561645508 -290.224548339844 1.051527976990
-141.775390625000 -77.232696533203 -292.736846923828 2.655539989471
-152.297027587891 -76.846519470215 -293.943939208984 1.971455216408
-150.828247070313 -78.569580078125 -294.868011474609 0.500680744648
-146.178207397461 -77.461906433105 -298.179534912109 2.212157726288
-143.462310791016 -77.619644165039 -302.740722656250 2.485655069351
-48.231582641602 -72.830657958984 -53.943691253662 2.744388103485
-63.186763763428 -71.875343322754 -52.625553131104 1.747132897377
-61.532230377197 -72.979545593262 -54.165512084961 3.179203510284
-44.342662811279 -73.468727111816 -55.617530822754 2.252963066101
-39.359683990479 -73.649406433105 -57.518623352051 2.564588546753
-35.337459564209 -73.901039123535 -59.746227264404 2.278929233551
-25.634349822998 -72.627388000488 -62.003952026367 2.089426040649
-24.809165954590 -73.299949645996 -64.298690795898 1.923471808434
-22.409730911255 -74.190101623535 -69.488540649414 2.131522178650
90.279800415039 -74.145263671875 -73.845298767090 1.452171206474
79.245056152344 -74.158523559570 -72.941085815430 1.438676357269
75.152763366699 -73.190086364746 -74.040016174316 0.880883276463
-35.378963470459 -73.406349182129 -78.226745605469 1.174599409103
-45.105941772461 -71.965171813965 -83.065994262695 1.398076057434
-51.027713775635 -71.757003784180 -87.138221740723 0.818202197552
-51.951324462891 -74.073707580566 -88.736892700195 0.751682817936
-90.068336486816 -76.310249328613 -93.271286010742 2.601494789124
74.404861450195 -74.368972778320 -90.909942626953 1.862228035927
92.467422485352 -74.931205749512 -91.481979370117 2.313533544540
75.501228332520 -74.243804931641 -93.136383056641 1.346864461899
-93.038108825684 -73.594017028809 -101.639854431152 2.477879047394
78.379371643066 -74.272575378418 -94.894172668457 2.695774316788
49.564319610596 -74.327728271484 -97.865951538086 0.975791156292
54.193126678467 -74.792350769043 -98.230010986328 1.256958961487
41.320671081543 -74.442733764648 -102.519004821777 2.011788129807
45.522163391113 -74.084106445313 -100.283554077148 1.893450140953
44.218276977539 -73.981201171875 -101.771354675293 1.715397715569
-93.114105224609 -73.537208557129 -107.240180969238 3.388259887695
49.414546966553 -75.913864135742 -108.996383666992 0.845898687840
36.323368072510 -74.445960998535 -114.167793273926 0.769370019436
32.681514739990 -73.239837646484 -122.925849914551 1.852665066719
112.583473205566 -74.960731506348 -121.057365417480 1.898474812508
111.265068054199 -75.149688720703 -120.300270080566 2.167141437531
109.290596008301 -74.512390136719 -122.050926208496 2.103368997574
112.793807983398 -75.643707275391 -127.154762268066 1.791137218475
40.072635650635 -74.584197998047 -131.378067016602 0.762453317642
36.950580596924 -75.758125305176 -133.703811645508 2.430290937424
27.122404098511 -75.016716003418 -139.104034423828 0.889918446541
23.718784332275 -74.319313049316 -143.484222412109 1.110725879669
111.224601745605 -75.826278686523 -142.242584228516 1.542124271393
110.516281127930 -75.333175659180 -145.386627197266 1.738245487213
-44.617034912109 -74.894851684570 -146.355514526367 1.643608450890
25.101919174194 -75.040557861328 -148.132644653320 0.391987413168
-65.686569213867 -73.858688354492 -150.777938842773 0.496662676334
-72.367584228516 -73.858993530273 -152.238235473633 1.443321824074
109.756614685059 -74.948760986328 -152.214172363281 1.724190711975
115.498985290527 -75.692695617676 -154.098587036133 1.907222032547
33.114948272705 -74.443443298340 -155.737045288086 0.987624108791
-68.302268981934 -74.012573242188 -154.241561889648 1.076924324036
6.056777000427 -74.261764526367 -155.495773315430 2.760117530823
6.212608814240 -75.650390625000 -158.410507202148 1.261762261391
-66.528289794922 -73.483139038086 -159.437011718750 0.824605584145
-45.630073547363 -74.677757263184 -163.115798950195 1.329084515572
21.561201095581 -75.595985412598 -165.657867431641 1.094710946083
109.653709411621 -75.710372924805 -156.398635864258 1.661284804344
31.770065307617 -74.542999267578 -162.162902832031 1.451502203941
3.210432052612 -75.057746887207 -164.666183471680 1.568894982338
19.746013641357 -76.097923278809 -165.041366577148 1.977398276329
-61.718944549561 -74.663772583008 -167.134353637695 0.699070870876
-60.523139953613 -75.104461669922 -169.678146362305 1.690932393074
-40.224430084229 -74.515357971191 -167.929595947266 1.956732749939
27.976175308228 -75.039405822754 -168.670471191406 2.689122200012
20.598199844360 -75.646301269531 -170.085098266602 1.553904414177
29.980382919312 -75.229423522949 -167.895004272461 2.937672376633
19.956192016602 -74.994415283203 -171.398986816406 2.043758630753
-25.025262832642 -75.637168884277 -173.873245239258 0.712771952152
20.124200820923 -75.594520568848 -172.590484619141 0.975410640240
15.558122634888 -73.530487060547 -177.379714965820 0.644698500633
-59.075149536133 -74.462059020996 -177.351882934570 1.666377305984
109.064712524414 -75.242248535156 -176.670303344727 0.642542004585
15.304096221924 -75.429672241211 -180.761535644531 0.860830008984
28.153743743896 -74.073173522949 -176.765792846680 1.976088166237
-30.374193191528 -75.640373229980 -184.243728637695 1.732620954514
-46.241909027100 -75.265304565430 -186.026397705078 2.240232706070
15.836200714111 -75.888092041016 -188.913940429688 1.475328683853
-52.437007904053 -74.850296020508 -186.020645141602 2.642533063889
105.350090026855 -75.459838867188 -185.603790283203 2.502271890640
-48.076454162598 -75.087448120117 -192.423324584961 1.570259928703
-146.849807739258 -74.354713439941 -190.062332153320 2.707364082336
15.144014358521 -75.423919677734 -190.208496093750 1.338039517403
-40.469467163086 -74.417282104492 -195.784500122070 1.522788643837
14.315976142883 -76.265792846680 -194.937286376953 1.663084506989
-16.779212951660 -74.840164184570 -193.641723632813 2.006282091141
14.806439399719 -77.034248352051 -195.785079956055 0.729894995689
-136.506149291992 -75.181922912598 -197.639389038086 1.298972964287
20.334787368774 -75.061721801758 -197.135650634766 1.322361230850
-136.744003295898 -74.526237487793 -200.278778076172 0.943147063255
-138.576309204102 -74.451629638672 -201.495986938477 1.937701940536
-34.250167846680 -76.033424377441 -200.387054443359 1.529876708984
99.368370056152 -75.741622924805 -199.042434692383 1.923564910889
-152.248748779297 -73.433357238770 -202.862625122070 0.819213628769
-10.461203575134 -76.053390502930 -205.284301757813 1.092792868614
-32.411014556885 -75.875022888184 -202.474075317383 2.186398267746
-39.362327575684 -76.303771972656 -204.821853637695 1.315771937370
8.146565437317 -76.155960083008 -207.173248291016 0.462331891060
92.163551330566 -75.536880493164 -204.650878906250 1.598726868629
-75.094558715820 -75.490669250488 -209.277114868164 0.953838884830
-32.033840179443 -76.037124633789 -207.642730712891 0.676502287388
-6.449242115021 -76.342231750488 -212.164550781250 1.773038387299
-73.759796142578 -75.568878173828 -211.697219848633 0.317259967327
-34.675930023193 -75.197608947754 -209.569931030273 2.394654989243
-15.733695030212 -75.289924621582 -213.361114501953 1.209240078926
-21.564662933350 -74.588676452637 -214.158264160156 1.441067576408
95.028533935547 -75.522354125977 -211.933547973633 1.081065773964
-76.039169311523 -75.556152343750 -213.764160156250 0.605080723763
17.188011169434 -75.516471862793 -215.430984497070 1.813074827194
6.910490036011 -74.872039794922 -214.709640502930 1.098231315613
-2.937242031097 -75.227493286133 -217.271072387695 1.428443789482
-91.624282836914 -76.273529052734 -217.778335571289 1.591955423355
3.783488035202 -74.640518188477 -222.438842773438 1.875629901886
-18.913063049316 -76.204109191895 -219.218261718750 1.871213555336
19.067665100098 -76.214256286621 -220.627075195313 0.993815660477
80.599838256836 -75.803184509277 -220.514923095703 2.325886487961
-151.778610229492 -73.817443847656 -224.993041992188 2.112776517868
-12.765316963196 -76.235565185547 -222.108383178711 3.189426660538
85.483520507813 -76.580810546875 -222.657836914063 1.306742668152
-140.898483276367 -75.283409118652 -226.362976074219 1.537197828293
17.207803726196 -75.693534851074 -224.242416381836 1.706447839737
-8.065009117126 -74.902275085449 -225.643646240234 1.428268909454
6.971008777618 -76.772613525391 -225.401062011719 1.769916534424
20.080659866333 -77.061470031738 -230.149398803711 1.894654273987
71.673950195313 -75.949302673340 -231.660034179688 1.470231413841
77.878540039063 -76.289337158203 -229.753417968750 1.088006973267
6.932816028595 -74.882797241211 -233.713897705078 2.062911510468
2.110204935074 -74.663612365723 -235.885665893555 1.884463548660
-0.173577994108 -74.962593078613 -237.679367065430 1.238530039787
3.823772907257 -76.471023559570 -238.720733642578 1.708631396294
-40.387977600098 -76.725296020508 -239.826950073242 2.726523637772
6.054313182831 -76.335525512695 -238.436096191406 1.288631320000
-33.281913757324 -75.823410034180 -242.533279418945 1.248425126076
9.275050163269 -75.882537841797 -241.732391357422 2.069560289383
9.355442047119 -77.339607238770 -243.303451538086 1.525618076324
20.947872161865 -75.987960815430 -244.894256591797 1.195302605629
18.664039611816 -75.024414062500 -246.832992553711 1.117892503738
-78.919403076172 -76.240173339844 -251.132095336914 1.273634552956
22.283975601196 -74.599380493164 -250.968597412109 2.425946950912
-74.298896789551 -76.686920166016 -250.779434204102 0.514800250530
-140.885284423828 -76.488502502441 -256.493621826172 1.320233345032
-124.239372253418 -76.546104431152 -258.396942138672 1.354451894760
-134.325790405273 -75.116439819336 -259.975738525391 1.212107181549
-131.887405395508 -76.175292968750 -260.642608642578 1.265763401985
-150.084060668945 -79.633163452148 -264.854980468750 1.318234562874
-145.385162353516 -77.037506103516 -271.755615234375 1.995967864990
-149.067810058594 -77.241119384766 -267.698608398438 2.827716588974
-149.708908081055 -76.504745483398 -281.634124755859 2.271390914917
-162.017547607422 -75.685874938965 -285.235229492188 1.330659389496
-128.179183959961 -76.307739257813 -285.426483154297 2.123321056366
-45.764068603516 -77.488693237305 -285.538970947266 3.468867063522
-60.055679321289 -76.398902893066 -285.540588378906 1.815345525742
-72.881500244141 -76.247718811035 -286.321441650391 2.876400232315
2.142823934555 -78.136245727539 -283.827209472656 2.197725772858
-122.701843261719 -75.720321655273 -286.939239501953 2.207885503769
4.910665988922 -78.466743469238 -284.510131835938 1.125425457954
-134.792953491211 -76.592681884766 -288.099853515625 1.148042798042
-91.450790405273 -76.581130981445 -288.447204589844 2.483494520187
-80.438316345215 -76.969810485840 -288.405639648438 2.083586215973
-156.752578735352 -75.790344238281 -289.818359375000 1.694941639900
-137.282409667969 -76.657081604004 -290.739593505859 2.068820476532
-114.599700927734 -76.532066345215 -289.648986816406 2.253448486328
-67.084510803223 -77.073310852051 -289.590118408203 0.846062123775
17.715961456299 -76.455986022949 -290.131652832031 1.848279595375
-29.258081436157 -76.504798889160 -290.468811035156 2.211560249329
-16.971179962158 -76.775123596191 -290.803619384766 0.783994734287
-131.042419433594 -77.128196716309 -292.239532470703 3.028880119324
-128.616439819336 -75.552497863770 -293.960327148438 1.863479971886
-144.363906860352 -76.012542724609 -296.374908447266 2.580422163010
-142.924560546875 -76.855445861816 -302.818969726563 2.931314945221
-143.872650146484 -76.177139282227 -312.793609619141 1.867704510689
-59.734344482422 -71.882858276367 -52.344253540039 3.988823652267
-78.131301879883 -71.366928100586 -56.843841552734 2.632391929626
-78.601966857910 -71.192398071289 -56.875434875488 2.427558183670
-26.117771148682 -71.945434570313 -60.430480957031 1.665774583817
-22.174762725830 -71.786338806152 -62.694038391113 1.843614101410
-83.878883361816 -72.668457031250 -64.287887573242 2.729059219360
-87.067504882813 -72.428985595703 -68.379997253418 3.128717422485
83.224159240723 -72.259811401367 -69.252799987793 0.684947252274
90.592651367188 -72.990150451660 -71.423683166504 1.139937281609
-90.564300537109 -72.081916809082 -74.948966979980 1.506258130074
-29.186403274536 -73.302062988281 -77.408210754395 1.381629586220
94.723556518555 -72.724342346191 -77.798805236816 1.277650713921
93.926483154297 -74.255874633789 -82.119583129883 2.135362625122
-92.713806152344 -71.334823608398 -80.343345642090 1.800164699554
-49.134346008301 -71.444938659668 -84.814529418945 1.193491458893
97.133789062500 -72.841629028320 -87.346313476563 1.508310198784
-54.803718566895 -74.796623229980 -90.969886779785 1.515883445740
54.054592132568 -72.589721679688 -89.537933349609 1.312488317490
-56.724540710449 -74.316528320313 -91.462471008301 2.831197738647
49.134574890137 -73.254600524902 -92.716094970703 2.405763626099
45.558021545410 -74.298049926758 -96.933639526367 1.434116363525
54.960208892822 -72.549049377441 -94.559478759766 1.842560529709
54.171775817871 -71.954376220703 -98.769783020020 1.693733692169
41.328674316406 -72.931678771973 -101.185623168945 2.998753309250
107.011009216309 -73.134971618652 -101.276184082031 0.391667783260
-83.015930175781 -73.902511596680 -106.929862976074 2.177614927292
-83.650749206543 -73.939132690430 -108.538787841797 2.831067085266
108.463088989258 -73.829544067383 -106.583747863770 1.466351866722
46.433780670166 -73.733024597168 -112.624313354492 1.709571719170
46.568237304688 -73.735946655273 -116.247413635254 1.282989382744
-89.438430786133 -72.525177001953 -115.912536621094 1.261440157890
107.261383056641 -73.846153259277 -110.806236267090 2.234654664993
113.087669372559 -72.934143066406 -115.714920043945 2.307333707809
43.866130828857 -75.242790222168 -122.229637145996 1.750891208649
113.160545349121 -74.561325073242 -121.177688598633 1.606965303421
108.874122619629 -73.476249694824 -126.562728881836 1.656784057617
27.190723419189 -73.886428833008 -132.234664916992 3.054363250732
115.626632690430 -74.673263549805 -133.845275878906 1.243133783340
109.418800354004 -74.109504699707 -130.679122924805 1.643403172493
-56.432174682617 -73.152374267578 -135.506958007813 0.979772746563
-52.647823333740 -72.572990417480 -136.819152832031 1.392413973808
26.528219223022 -73.905364990234 -141.035034179688 1.942569017410
-55.475406646729 -71.552352905273 -135.552642822266 1.109574437141
-73.087623596191 -72.248939514160 -137.547103881836 0.827066600323
-71.797164916992 -73.200187683105 -141.639358520508 1.351431846619
109.514106750488 -73.132202148438 -137.314849853516 1.182175278664
-52.271533966064 -74.481544494629 -145.348953247070 2.545125722885
-74.062660217285 -73.458580017090 -143.254379272461 1.197228074074
-42.610176086426 -74.804450988770 -145.226242065430 1.969550013542
109.893524169922 -74.825942993164 -149.296524047852 1.114928483963
22.342746734619 -73.970527648926 -148.865600585938 2.438676834106
-72.982711791992 -72.848564147949 -151.951583862305 2.401587486267
-50.110214233398 -73.433738708496 -155.929565429688 1.326746940613
-36.536113739014 -74.501686096191 -154.755706787109 1.367739439011
-38.764789581299 -74.371574401855 -154.856735229492 2.033622980118
-71.168045043945 -73.183029174805 -156.010177612305 0.997010767460
10.415677070618 -73.879165649414 -156.614944458008 1.109753727913
-49.814212799072 -72.436424255371 -156.315017700195 1.340149521828
-46.408779144287 -73.254608154297 -158.324066162109 1.373491406441
29.736461639404 -74.879089355469 -161.545547485352 2.263018369675
-34.802700042725 -74.106269836426 -161.620330810547 1.756005644798
-67.110534667969 -74.419403076172 -164.115066528320 1.714675545692
108.804504394531 -74.381996154785 -158.053665161133 0.633490622044
108.344734191895 -73.404380798340 -159.349639892578 0.768384516239
29.281084060669 -74.630836486816 -163.061203002930 1.163152217865
111.762260437012 -74.428855895996 -166.202590942383 1.988324761391
110.428619384766 -74.864379882813 -167.344131469727 1.114515542984
17.750165939331 -75.145874023438 -171.867507934570 1.542420983315
-26.957611083984 -71.583824157715 -171.658569335938 1.877354145050
-52.631549835205 -74.895606994629 -176.231277465820 0.859784364700
109.758003234863 -74.444664001465 -175.506576538086 0.828202426434
-36.905086517334 -73.597244262695 -174.045486450195 1.456362485886
16.091068267822 -72.724739074707 -176.146789550781 1.442755341530
-35.922664642334 -73.113586425781 -179.558609008789 0.876407206059
-51.643928527832 -73.841133117676 -181.150711059570 0.820119976997
-145.741607666016 -73.099655151367 -183.075866699219 1.641451358795
-148.264450073242 -73.098159790039 -185.371673583984 2.157677650452
106.699073791504 -75.042785644531 -180.585586547852 1.160954475403
24.195369720459 -74.688926696777 -184.409088134766 2.162104368210
-51.176654815674 -73.902412414551 -183.993179321289 2.364478826523
-51.199363708496 -75.268074035645 -188.142181396484 1.267610549927
-46.327507019043 -74.108345031738 -189.568389892578 3.057365179062
-46.141830444336 -74.182876586914 -192.855346679688 1.131654500961
13.635048866272 -75.182128906250 -186.766555786133 1.006748557091
13.021253585815 -73.926666259766 -187.579284667969 1.597171545029
105.247451782227 -74.481407165527 -188.612106323242 1.839324593544
-24.684236526489 -73.652763366699 -194.086151123047 2.014328002930
-44.468498229980 -74.259010314941 -195.479598999023 2.972156286240
22.481559753418 -75.258018493652 -197.220703125000 1.662161827087
-41.334571838379 -74.319168090820 -196.467361450195 1.743539214134
99.483413696289 -75.435325622559 -197.392272949219 2.018143177032
-35.972446441650 -74.296859741211 -201.502380371094 1.785390973091
94.963058471680 -75.696395874023 -199.586364746094 1.967698931694
19.542629241943 -75.438201904297 -200.119003295898 0.773200273514
-37.438095092773 -74.008613586426 -203.619537353516 0.983409464359
19.525459289551 -74.249679565430 -201.312820434570 0.327504962683
-20.415294647217 -75.352416992188 -205.038742065430 1.055950284004
-38.444774627686 -74.858734130859 -204.440780639648 1.091235160828
95.389060974121 -75.499244689941 -206.777572631836 1.783616542816
10.332406044006 -74.875228881836 -206.646530151367 1.661473631859
91.584320068359 -74.937828063965 -212.975448608398 2.083987236023
-4.862103939056 -73.619018554688 -209.805068969727 1.319080591202
-25.725225448608 -74.751907348633 -210.286956787109 2.779593467712
-78.764968872070 -74.121330261230 -213.349441528320 1.419438362122
88.987388610840 -75.140991210938 -214.142410278320 1.421890616417
-18.962978363037 -74.677001953125 -216.280334472656 2.110131263733
19.428628921509 -74.743942260742 -214.524505615234 2.108716726303
-25.634368896484 -75.404815673828 -215.138961791992 1.065344572067
-30.077093124390 -74.630302429199 -214.495162963867 2.236560106277
-96.149139404297 -74.900718688965 -218.843704223633 1.094303250313
-11.834870338440 -72.539199829102 -220.141799926758 1.265675306320
-20.861858367920 -74.836471557617 -220.252670288086 1.247517585754
3.733057022095 -74.280319213867 -222.440032958984 1.723578453064
16.906255722046 -74.508659362793 -218.743850708008 1.756180644035
-12.964558601379 -74.546592712402 -221.341369628906 2.259079694748
-14.482064247131 -75.139099121094 -224.960006713867 1.847887396812
16.511543273926 -74.340621948242 -221.984405517578 1.402322053909
9.083007812500 -75.479530334473 -225.365936279297 2.018451690674
7.145180225372 -74.751640319824 -224.398193359375 3.209563016891
-126.172546386719 -74.882812500000 -229.019943237305 1.832927703857
-12.029468536377 -74.506958007813 -226.559280395508 1.102478027344
83.803436279297 -74.788291931152 -225.789459228516 0.705545783043
-15.248244285583 -74.592681884766 -228.766845703125 1.446514844894
-153.094558715820 -77.370307922363 -231.041198730469 1.370336651802
-126.116561889648 -74.727622985840 -231.383605957031 1.461757540703
-9.298350334167 -74.423019409180 -232.755569458008 1.425208210945
79.421554565430 -76.074028015137 -228.953613281250 1.800403237343
-6.602835178375 -75.560401916504 -231.244033813477 1.248701334000
-0.977990984917 -75.179672241211 -230.987579345703 2.132643699646
69.248374938965 -75.559432983398 -233.355468750000 1.939610958099
-0.683511018753 -75.901107788086 -235.964645385742 0.762543439865
69.515945434570 -75.824531555176 -234.802185058594 1.165270924568
-149.362335205078 -73.936431884766 -243.397598266602 1.192111372948
64.963386535645 -75.148170471191 -236.732467651367 1.461671829224
-32.963489532471 -75.784431457520 -238.920974731445 0.243110165000
-35.141269683838 -75.292701721191 -240.282836914063 0.326995342970
12.288032531738 -75.737304687500 -240.083374023438 2.517522573471
-41.465572357178 -74.901130676270 -241.735107421875 2.616991519928
-23.417041778564 -75.637458801270 -241.658706665039 1.394199490547
9.159719467163 -74.390037536621 -240.902999877930 1.791420340538
-40.535930633545 -74.914886474609 -242.769851684570 1.843741178513
-145.226760864258 -76.122756958008 -245.214477539063 1.980994224548
14.279622077942 -74.957679748535 -242.056121826172 2.577950716019
-149.089080810547 -75.413238525391 -243.259887695313 2.192827701569
-68.719429016113 -75.105331420898 -246.186538696289 1.451574563980
-4.923040866852 -75.918167114258 -246.059249877930 1.316125988960
-7.585755825043 -75.345718383789 -247.806320190430 2.340790033340
-80.299613952637 -74.090370178223 -249.328063964844 1.985808491707
-151.169998168945 -74.184814453125 -253.679733276367 1.229912757874
-142.962829589844 -76.733489990234 -253.975006103516 2.315136194229
-87.329872131348 -74.796325683594 -254.777511596680 1.580943226814
-162.861831665039 -74.432518005371 -258.694854736328 1.989224076271
-125.179275512695 -75.122283935547 -255.848648071289 0.680691838264
24.102602005005 -74.903434753418 -255.566680908203 2.128505229950
-153.948196411133 -75.614669799805 -257.373931884766 2.605943441391
-145.864837646484 -75.081764221191 -259.177856445313 2.027935266495
-161.625701904297 -74.876846313477 -261.348876953125 0.204878821969
-133.904205322266 -73.504173278809 -262.665557861328 1.089314103127
-123.868064880371 -74.259384155273 -263.495635986328 1.922483921051
-160.033309936523 -74.801116943359 -265.197143554688 1.307180047035
-142.957885742188 -75.277183532715 -264.258636474609 2.289381504059
-165.559234619141 -73.824470520020 -264.854522705078 2.215201377869
-152.562240600586 -74.372741699219 -265.794006347656 0.662942767143
-159.929748535156 -74.818046569824 -267.391815185547 3.307116746902
-164.274017333984 -74.687171936035 -263.499938964844 0.744315266609
22.268590927124 -75.966072082520 -269.933593750000 1.755495667458
20.945205688477 -77.301589965820 -270.948150634766 3.088903665543
-159.509490966797 -75.044372558594 -271.849029541016 2.588399410248
-156.371215820313 -75.003067016602 -272.623199462891 3.473275423050
-165.548248291016 -74.781639099121 -279.960113525391 2.473255157471
-151.792907714844 -74.878692626953 -272.222991943359 1.457511663437
-150.174865722656 -75.085891723633 -271.982849121094 2.459318637848
-150.288070678711 -75.273307800293 -275.889343261719 1.277267575264
-144.965774536133 -75.698463439941 -280.420135498047 2.711051702499
-160.465240478516 -75.452537536621 -279.408843994141 4.941946029663
-152.620620727539 -75.331321716309 -280.127655029297 2.507744312286
19.673704147339 -75.154876708984 -277.809509277344 3.145606040955
-150.298263549805 -76.559577941895 -282.881683349609 2.056194067001
-158.696685791016 -75.546035766602 -282.557830810547 4.406889915466
-158.723892211914 -75.584259033203 -285.527130126953 3.289537191391
-125.850212097168 -75.706253051758 -284.911285400391 1.294305205345
-27.736377716064 -75.058914184570 -285.154541015625 1.529134511948
-39.241073608398 -75.871788024902 -285.266967773438 1.546209573746
-65.219848632813 -75.937248229980 -285.722930908203 1.689803838730
-16.671268463135 -75.453155517578 -285.569335937500 2.565429449081
10.815821647644 -76.628158569336 -285.211791992188 2.557483434677
-0.666399002075 -76.341392517090 -286.045410156250 0.966346204281
-108.081039428711 -74.928085327148 -287.868438720703 2.571320056915
-91.545692443848 -76.020515441895 -287.540252685547 1.654092907906
-110.782371520996 -75.572036743164 -290.280120849609 1.985215783119
-101.023185729980 -75.873291015625 -289.255523681641 1.139049768448
-89.875221252441 -76.168212890625 -290.142333984375 2.793167829514
-47.258350372314 -76.148330688477 -290.153503417969 0.539120137691
-118.993370056152 -76.281692504883 -290.769592285156 1.526657938957
-85.563423156738 -75.196029663086 -290.947174072266 2.270689725876
-115.658096313477 -75.177719116211 -291.501281738281 0.915259480476
-133.874053955078 -75.930839538574 -291.852996826172 1.250100374222
-6.695296764374 -76.231811523438 -290.918304443359 2.919286251068
13.150671958923 -76.409149169922 -292.121490478516 1.940664768219
-151.783172607422 -75.783226013184 -296.700164794922 1.593580007553
-153.067047119141 -76.966072082520 -308.788452148438 2.289612770081
-66.628860473633 -70.897613525391 -51.529148101807 2.430376291275
-62.506843566895 -71.294448852539 -51.720523834229 2.009675502777
-51.920143127441 -72.569030761719 -53.283447265625 1.659245371819
-74.214523315430 -71.135093688965 -54.274105072021 2.073549270630
-42.952217102051 -72.200386047363 -53.942150115967 2.038233995438
-80.228599548340 -70.700119018555 -57.244602203369 2.337815999985
-85.412437438965 -69.737091064453 -60.652385711670 2.983064174652
-19.376808166504 -72.590797424316 -68.438980102539 2.623041152954
-18.221521377563 -70.647193908691 -69.823211669922 2.438505172729
74.251487731934 -71.777763366699 -71.342544555664 1.702043533325
-39.049392700195 -69.790489196777 -76.297126770020 0.442245721817
-32.103836059570 -70.733497619629 -76.617202758789 2.989758014679
69.461387634277 -70.562049865723 -76.725212097168 1.881224274635
95.686058044434 -73.367538452148 -83.709991455078 2.351635694504
-56.469757080078 -70.441780090332 -89.589271545410 0.625982880592
58.813583374023 -72.267021179199 -90.729804992676 2.169506549835
46.139083862305 -70.805694580078 -93.777626037598 1.647291183472
49.274646759033 -72.304580688477 -94.740173339844 1.826015949249
43.495540618896 -69.955696105957 -97.188674926758 2.053214311600
105.385551452637 -72.156562805176 -95.656051635742 0.950452446938
60.133911132813 -70.913703918457 -92.626426696777 0.681902170181
-94.297599792480 -71.864997863770 -100.544624328613 3.868919372559
-74.251953125000 -69.018974304199 -100.656608581543 1.423367261887
55.803283691406 -71.797370910645 -99.847785949707 0.989722132683
43.795795440674 -70.213241577148 -100.629180908203 2.013718843460
42.173225402832 -71.865028381348 -103.168304443359 1.405615806580
-94.105514526367 -71.924118041992 -109.769561767578 1.417427659035
36.327007293701 -72.933151245117 -109.637763977051 1.080368757248
49.787563323975 -71.829719543457 -109.956771850586 1.538047194481
43.216789245605 -74.223129272461 -118.915649414063 2.939607858658
44.117809295654 -71.922096252441 -119.962356567383 1.991459965706
115.752113342285 -71.868782043457 -125.400779724121 0.494464874268
-55.359889984131 -71.798210144043 -131.227890014648 1.744968652725
38.369880676270 -72.504722595215 -135.894256591797 1.196457028389
36.841182708740 -73.538337707520 -135.183349609375 1.132040858269
113.683265686035 -73.266998291016 -135.586166381836 2.147126436234
-74.817642211914 -71.863098144531 -136.040786743164 2.287418603897
-54.569633483887 -72.106063842773 -136.449035644531 2.113030672073
116.856544494629 -72.791069030762 -136.211090087891 1.424458742142
-74.791290283203 -72.924232482910 -141.531509399414 2.341828823090
-45.843307495117 -72.400428771973 -142.364105224609 1.984072804451
-58.796810150146 -70.383964538574 -141.293121337891 1.645373702049
112.221786499023 -73.050193786621 -138.359954833984 0.843762993813
22.686159133911 -72.479095458984 -147.072219848633 1.663323163986
33.293788909912 -73.189468383789 -145.332550048828 1.907798171043
-42.435974121094 -72.877655029297 -148.757904052734 1.119307875633
-68.538047790527 -72.398368835449 -150.280395507813 1.404853463173
24.444698333740 -73.225708007813 -150.500335693359 2.824720144272
-73.701683044434 -71.273551940918 -150.908340454102 1.746823906898
32.813056945801 -73.248855590820 -147.120574951172 0.554091453552
-37.673072814941 -72.022567749023 -153.233963012695 1.316849470139
22.084106445313 -73.583175659180 -150.282257080078 1.919049859047
11.729725837708 -73.263381958008 -153.910568237305 1.012074947357
-69.942970275879 -73.993293762207 -158.445678710938 2.036932468414
-47.706809997559 -73.439949035645 -156.385589599609 1.715670943260
-61.731731414795 -72.855705261230 -159.382492065430 2.537316560745
-47.823932647705 -72.877258300781 -159.466522216797 1.530085444450
5.534210205078 -74.428779602051 -162.472457885742 1.228873610497
-33.306190490723 -73.213706970215 -164.372268676758 0.805114030838
-44.839515686035 -73.905326843262 -164.727508544922 1.476323246956
20.821411132813 -72.769714355469 -165.812210083008 0.461778581142
-42.109649658203 -73.210227966309 -165.109603881836 2.211997032166
29.005071640015 -72.920021057129 -164.281509399414 1.034082770348
114.853797912598 -73.832283020020 -166.031173706055 2.389597892761
-29.994148254395 -73.153160095215 -169.436233520508 1.646018862724
28.160270690918 -74.292762756348 -168.367980957031 2.611014604568
-63.487060546875 -73.052192687988 -169.360687255859 1.729462623596
-57.696044921875 -73.035728454590 -169.859359741211 2.437103509903
-40.670993804932 -72.294975280762 -171.386840820313 1.489564061165
-58.885330200195 -72.592170715332 -172.941024780273 1.674451470375
109.596397399902 -73.674255371094 -174.878097534180 0.681251347065
-147.094253540039 -72.106086730957 -176.397933959961 1.099620938301
-146.045654296875 -72.810432434082 -179.615234375000 2.376044273376
-54.428905487061 -73.650947570801 -180.720352172852 0.952237784863
108.255157470703 -74.259414672852 -173.640670776367 1.606250643730
111.707344055176 -72.727767944336 -177.728332519531 1.785791158676
108.968963623047 -74.107826232910 -177.887695312500 1.160496830940
24.592144012451 -74.903656005859 -182.678436279297 1.399391412735
-33.933856964111 -75.143661499023 -182.089569091797 2.177555799484
-142.968856811523 -72.390373229980 -184.251480102539 2.623584985733
107.784729003906 -73.883224487305 -181.490325927734 1.168921113014
21.465391159058 -74.899314880371 -193.845214843750 2.006654262543
107.557769775391 -74.336997985840 -188.935653686523 1.891650557518
103.673881530762 -73.610206604004 -187.801773071289 0.452045917511
10.867502212524 -75.315582275391 -195.874908447266 0.929322421551
-127.411170959473 -72.413040161133 -196.919143676758 3.237135410309
-121.761375427246 -71.261543273926 -197.809539794922 0.172946989536
-147.921096801758 -77.310852050781 -198.697326660156 0.848806083202
-131.212188720703 -72.945739746094 -199.644882202148 1.378009319305
-123.511985778809 -73.369018554688 -200.664764404297 0.652961254120
-21.774169921875 -72.611267089844 -199.273040771484 1.988047957420
-21.627161026001 -74.028549194336 -199.310317993164 1.336892008781
-130.946563720703 -72.896186828613 -201.587295532227 1.367767572403
-141.143753051758 -73.297126770020 -203.612686157227 2.352679729462
-9.732136726379 -74.700607299805 -206.247146606445 1.664752721786
98.601684570313 -73.680847167969 -198.649002075195 1.720797300339
-18.146764755249 -73.834625244141 -205.808181762695 2.142096996307
92.003440856934 -74.553543090820 -208.782150268555 1.445940732956
18.395742416382 -73.307975769043 -206.425247192383 1.753459095955
-6.543916225433 -72.838356018066 -211.885284423828 1.866797685623
17.948556900024 -74.567962646484 -209.530059814453 1.571394801140
-26.450445175171 -73.476440429688 -211.300033569336 2.124365568161
-83.121452331543 -72.988487243652 -213.329086303711 1.010374307632
-88.657508850098 -73.739738464355 -213.294097900391 1.308061003685
-14.306683540344 -74.355651855469 -212.592269897461 1.660009622574
-92.891334533691 -75.203308105469 -215.406021118164 1.434566617012
-95.929481506348 -72.921981811523 -216.620376586914 1.613785862923
85.113418579102 -74.019325256348 -217.786865234375 1.062737584114
-24.783460617065 -74.157859802246 -220.006561279297 1.373007535934
-22.633228302002 -73.872261047363 -222.190444946289 1.727560162544
-20.524616241455 -74.423133850098 -219.111099243164 1.339681863785
-18.066143035889 -73.811775207520 -221.901168823242 1.133186459541
-17.904970169067 -73.751907348633 -222.542984008789 0.797104179859
18.773025512695 -74.017044067383 -221.944885253906 1.242191910744
-140.566802978516 -73.044578552246 -226.545486450195 0.517679572105
78.749702453613 -74.156303405762 -225.281036376953 1.357255458832
-4.026287078857 -73.666427612305 -227.552032470703 2.333252191544
9.742540359497 -74.464462280273 -228.148742675781 2.113674402237
80.398208618164 -74.590705871582 -225.589065551758 1.793233394623
-123.605316162109 -74.566551208496 -229.923278808594 1.938374161720
-161.509902954102 -73.120727539063 -234.752868652344 1.889343380928
-136.809051513672 -73.604133605957 -231.072006225586 2.347649574280
16.919715881348 -74.420906066895 -229.357543945313 2.238802671432
10.425100326538 -74.768188476563 -232.073852539063 1.788168668747
-128.472915649414 -73.651428222656 -233.312316894531 0.909876585007
0.543404996395 -74.674301147461 -233.204116821289 2.764175891876
-144.208190917969 -73.033378601074 -235.929244995117 1.722217917442
-1.667202949524 -74.564201354980 -235.364013671875 1.436258554459
12.177201271057 -74.378166198730 -236.097503662109 2.421554088593
-2.454658031464 -74.221221923828 -236.164855957031 0.801157593727
-1.573560953140 -73.888740539551 -236.601791381836 0.417224973440
8.016271591187 -74.608894348145 -237.175491333008 2.213805675507
-160.760589599609 -73.929168701172 -239.280151367188 1.724476099014
-156.087753295898 -73.237304687500 -240.373291015625 2.742171287537
17.581384658813 -74.629447937012 -239.849761962891 0.585098743439
0.423927992582 -73.861709594727 -239.945175170898 1.029700875282
66.547996520996 -75.296096801758 -238.370590209961 1.396859526634
62.004455566406 -74.642707824707 -238.954727172852 2.441199302673
-164.228591918945 -73.467277526855 -245.407379150391 3.016101837158
-159.896179199219 -73.624916076660 -243.841445922852 2.839561700821
-151.710083007813 -73.260414123535 -242.985351562500 0.893177688122
-56.335433959961 -74.877769470215 -243.251342773438 2.160789728165
-4.428928852081 -74.097648620605 -242.035552978516 1.166422247887
-49.420085906982 -74.145927429199 -243.369262695313 1.060531258583
-152.246810913086 -73.577796936035 -246.867248535156 1.132803797722
-59.633914947510 -73.481376647949 -244.761611938477 1.379857540131
18.745256423950 -73.296653747559 -245.369323730469 1.404963374138
-8.631007194519 -73.447830200195 -247.453186035156 1.119408607483
-5.688736915588 -74.724288940430 -245.913589477539 2.023570775986
-155.651321411133 -73.806884765625 -249.812927246094 2.729855060577
-165.312561035156 -73.042892456055 -252.025787353516 1.705197811127
-84.674728393555 -73.723388671875 -250.408782958984 1.581470251083
-162.351730346680 -74.095527648926 -253.994934082031 0.764981925488
-144.328186035156 -74.473358154297 -252.898605346680 1.548565387726
-74.103492736816 -74.600151062012 -252.822784423828 0.988940298557
-91.952735900879 -74.752929687500 -254.782943725586 1.454264283180
-84.020866394043 -73.482162475586 -255.154525756836 1.410257577896
-133.960983276367 -73.334938049316 -256.322723388672 1.239175081253
24.531364440918 -73.451103210449 -254.492263793945 2.994546175003
-96.018081665039 -74.318031311035 -256.747680664063 1.465124487877
-101.226287841797 -74.072799682617 -257.347137451172 1.023250818253
-103.100296020508 -73.950378417969 -257.748962402344 2.437906503677
-114.237808227539 -74.328620910645 -259.495056152344 1.175814986229
-107.295356750488 -73.550636291504 -259.733001708984 0.917759895325
-114.515853881836 -74.242919921875 -260.802032470703 0.822403550148
-141.471969604492 -75.820793151855 -262.737487792969 2.263744354248
-132.324844360352 -73.490570068359 -264.025207519531 1.682789444923
-150.562423706055 -74.675872802734 -266.482208251953 1.672479867935
-144.220642089844 -73.996444702148 -270.930816650391 3.433953046799
-165.834197998047 -74.314674377441 -277.986480712891 1.297614336014
-7.791289806366 -74.683021545410 -277.960937500000 0.948318719864
-128.288299560547 -74.291740417480 -284.377929687500 2.754256248474
-136.184219360352 -74.338798522949 -285.916717529297 0.952405810356
-44.552833557129 -76.025596618652 -285.070434570313 2.512678861618
-87.092781066895 -74.315689086914 -286.294067382813 1.174652576447
-26.258316040039 -74.204902648926 -285.820281982422 0.878557682037
-30.969926834106 -74.595458984375 -285.851959228516 1.614563465118
-112.253158569336 -74.958610534668 -287.545379638672 1.948922514915
-14.359310150146 -74.304862976074 -286.175811767578 2.505535602570
15.026446342468 -75.086372375488 -288.035980224609 0.797447800636
-49.640262603760 -75.602226257324 -290.174133300781 2.433979988098
-111.937873840332 -74.914016723633 -291.131652832031 2.428200960159
-77.018699645996 -73.451034545898 -290.862182617188 1.566975474358
-66.992935180664 -73.985771179199 -290.509124755859 1.141527295113
-30.363410949707 -74.606788635254 -290.157958984375 2.071614742279
-99.886817932129 -74.492813110352 -291.514831542969 2.365089178085
-110.562004089355 -74.032539367676 -291.765716552734 1.959349155426
-7.802777767181 -75.057121276855 -290.723815917969 1.982209086418
-158.427917480469 -74.518943786621 -293.111541748047 0.207586839795
-151.080444335938 -77.378990173340 -300.548919677734 0.775747001171
-150.332214355469 -76.656723022461 -312.745452880859 1.817384004593
27.369678497314 -69.756004333496 -14.656942367554 1.279417991638
23.654886245728 -69.774040222168 -16.624048233032 1.247933387756
23.643276214600 -70.030250549316 -19.529441833496 2.152386426926
20.160188674927 -69.798599243164 -23.594537734985 1.173532247543
22.065532684326 -70.225578308105 -29.316560745239 1.940093040466
29.504234313965 -70.168998718262 -35.714057922363 1.693582415581
27.274274826050 -70.174934387207 -36.364246368408 2.746867179871
-56.141624450684 -70.354431152344 -50.243064880371 1.911505103111
-31.188594818115 -68.757568359375 -53.114166259766 2.316642045975
87.274978637695 -70.465736389160 -66.151634216309 1.743783593178
-90.874076843262 -70.980628967285 -71.829216003418 1.596298098564
72.373115539551 -71.584686279297 -73.150962829590 0.132170885801
-41.316944122314 -71.268234252930 -78.971580505371 1.024372100830
-93.274902343750 -70.825073242188 -80.645950317383 2.279977798462
-45.963714599609 -72.295867919922 -83.776000976563 1.031064391136
98.193321228027 -71.691093444824 -86.616249084473 1.387721538544
-93.302200317383 -72.333992004395 -91.355224609375 2.851601123810
69.475456237793 -71.042747497559 -89.073913574219 2.339114904404
-94.531173706055 -71.080245971680 -93.542739868164 3.906829357147
57.129024505615 -73.337280273438 -92.538688659668 1.120687127113
104.075836181641 -71.181144714355 -94.540977478027 2.158065319061
-68.478492736816 -70.086837768555 -99.173210144043 1.451759934425
43.338378906250 -72.033271789551 -97.897735595703 2.096327543259
77.286788940430 -71.140876770020 -99.724967956543 2.607902288437
81.727951049805 -70.827384948730 -99.300773620605 2.507713079453
43.974056243896 -70.979034423828 -100.279174804688 1.421141028404
108.690826416016 -72.171943664551 -101.446823120117 0.348154574633
-94.536750793457 -71.148818969727 -112.516128540039 2.667444705963
102.913528442383 -71.042427062988 -102.893203735352 1.957534193993
108.000556945801 -71.395622253418 -108.685043334961 0.764599680901
36.455234527588 -72.385047912598 -113.893989562988 1.530600905418
46.121391296387 -72.775032043457 -112.779632568359 1.424450159073
44.325191497803 -73.032974243164 -115.979774475098 0.947564303875
33.265979766846 -72.605735778809 -115.586982727051 2.166091442108
42.919162750244 -71.086593627930 -116.498825073242 1.330683946609
44.445034027100 -71.541313171387 -118.908065795898 1.036192536354
107.615859985352 -72.932533264160 -120.059425354004 0.958302140236
112.499862670898 -72.276741027832 -124.913566589355 0.898195207119
30.460866928101 -71.310508728027 -123.893440246582 0.941163241863
30.611238479614 -71.343032836914 -130.733963012695 1.638576626778
-74.234001159668 -71.412590026855 -134.433364868164 1.929909706116
-55.479778289795 -70.311439514160 -132.261230468750 1.485649108887
114.122657775879 -72.689094543457 -138.542709350586 1.978490710258
26.830064773560 -71.362480163574 -134.703063964844 1.686945080757
36.564342498779 -72.247848510742 -134.088714599609 1.678469419479
-77.350517272949 -71.057586669922 -137.885238647461 1.714324593544
25.748601913452 -71.802932739258 -137.697860717773 0.947601497173
26.739242553711 -72.581062316895 -140.684509277344 1.085188269615
-45.682102203369 -70.899398803711 -143.235153198242 1.417182326317
-71.475425720215 -71.798057556152 -145.769470214844 1.465268969536
-53.644535064697 -71.991348266602 -146.835281372070 2.663815975189
33.143703460693 -72.189010620117 -144.968307495117 2.307452678680
-52.689502716064 -73.679428100586 -151.622573852539 1.173181414604
34.449798583984 -72.660621643066 -149.252807617188 1.357089519501
29.940370559692 -71.680114746094 -157.752655029297 1.414761543274
109.576667785645 -72.324920654297 -149.492355346680 0.950706243515
23.603719711304 -72.722251892090 -153.340515136719 0.398984879255
13.323993682861 -72.452430725098 -153.008102416992 0.932740509510
-38.300193786621 -72.879547119141 -155.790908813477 1.819357037544
-71.157325744629 -70.218315124512 -154.519821166992 0.877636611462
-47.021327972412 -72.159034729004 -157.250595092773 0.328862547874
108.680122375488 -73.100387573242 -157.131042480469 1.754432320595
32.553348541260 -72.960983276367 -157.858261108398 2.428380250931
111.992843627930 -72.960113525391 -159.276885986328 1.586104869843
-35.352676391602 -71.765777587891 -162.091506958008 2.099270582199
18.891921997070 -71.328903198242 -164.829452514648 0.687587022781
2.776377916336 -71.820381164551 -162.625366210938 1.014438629150
-31.365898132324 -71.281723022461 -164.189132690430 1.378422737122
-62.084121704102 -71.604804992676 -165.328689575195 1.712743520737
-31.696657180786 -72.439636230469 -167.252471923828 1.587989568710
-57.893543243408 -72.595909118652 -171.995223999023 2.086989402771
-36.967010498047 -72.934181213379 -173.573669433594 1.236606717110
27.994758605957 -73.101356506348 -168.760620117188 1.691991090775
-37.511333465576 -71.377517700195 -176.071945190430 2.286438941956
-150.321746826172 -71.101722717285 -178.194046020508 1.537227869034
112.401489257813 -72.562522888184 -175.377944946289 0.818193435669
-150.510726928711 -71.488174438477 -182.165191650391 1.442026019096
-143.226470947266 -71.915657043457 -182.015701293945 1.191005706787
14.602480888367 -72.569992065430 -180.682571411133 1.469295144081
24.780027389526 -73.001228332520 -183.364074707031 0.645051896572
-33.263801574707 -71.902885437012 -183.109466552734 1.106161117554
-148.956604003906 -71.364768981934 -188.443603515625 0.958237290382
-29.475164413452 -72.234138488770 -189.246170043945 1.863124847412
-144.595748901367 -71.517616271973 -190.348327636719 2.765911579132
-15.365419387817 -72.542648315430 -191.535491943359 1.194390892982
13.941193580627 -74.303314208984 -191.918746948242 2.013394832611
100.597732543945 -73.567832946777 -196.204040527344 1.930066227913
11.113555908203 -73.447052001953 -193.465835571289 1.620509982109
-126.742004394531 -71.139900207520 -195.871826171875 2.334424018860
