27.876419067383 -69.506484985352 -260.743591308594 1.886480450630
-124.318450927734 -68.902038574219 -263.515869140625 1.124032020569
-10.381509780884 -69.338165283203 -262.552246093750 1.654940366745
-152.276168823242 -69.648025512695 -272.863464355469 2.413100242615
-12.013418197632 -69.781707763672 -264.907806396484 2.243088722229
-9.416846275330 -69.236747741699 -270.355224609375 1.694657802582
-11.179030418396 -69.667533874512 -270.068054199219 1.074368000031
-10.557728767395 -70.104133605957 -275.011047363281 2.039109230042
-152.417098999023 -69.570701599121 -283.334930419922 0.712421298027
-128.190521240234 -68.675514221191 -284.642272949219 1.883094310760
-7.012022972107 -69.416488647461 -284.228637695313 2.056989669800
-6.622713088989 -69.777976989746 -285.013763427734 1.908553361893
-112.045280456543 -69.392501831055 -287.238433837891 2.329312562943
-95.905128479004 -68.997611999512 -288.561767578125 1.466871380806
-106.045700073242 -68.601058959961 -289.427947998047 0.801717162132
-155.979476928711 -67.720146179199 -290.473541259766 2.155842781067
-101.811401367188 -69.236709594727 -290.298492431641 1.393507719040
-138.881195068359 -69.130073547363 -292.068603515625 2.892789602280
-117.682228088379 -68.992195129395 -291.926086425781 1.443855285645
4.544682979584 -70.050285339355 -290.168640136719 1.706044077873
-152.582855224609 -69.786842346191 -297.769714355469 1.297171592712
-154.388870239258 -69.407104492188 -309.250183105469 2.071111202240
-145.395660400391 -69.968322753906 -312.480133056641 1.499382615089
31.272674560547 -65.734474182129 -9.634585380554 3.195776939392
26.698776245117 -69.205879211426 -15.775318145752 1.913202762604
38.832576751709 -66.925033569336 -19.039348602295 2.570602416992
21.963760375977 -69.485000610352 -25.072189331055 2.751423120499
17.748840332031 -68.365615844727 -30.816104888916 3.862627983093
35.390232086182 -71.595901489258 -32.818016052246 4.196790695190
-54.382198333740 -68.028900146484 -44.512840270996 2.530669212341
-44.194984436035 -70.411766052246 -47.473300933838 2.281787395477
-38.580059051514 -70.125686645508 -48.626197814941 2.431788682938
-85.734596252441 -67.705963134766 -50.450817108154 3.004583358765
-22.446750640869 -70.074333190918 -55.811161041260 1.805680394173
-19.849809646606 -70.371253967285 -58.120841979980 2.097224235535
86.634109497070 -69.356689453125 -60.729434967041 3.303816080093
-17.203886032104 -69.815673828125 -66.326591491699 2.950192928314
-98.238578796387 -69.085182189941 -71.195327758789 3.767831325531
97.111305236816 -70.186126708984 -72.556015014648 2.055192232132
-30.015254974365 -71.948265075684 -75.596870422363 2.779222965240
-47.840789794922 -67.640266418457 -80.249443054199 3.315819501877
100.480667114258 -67.738632202148 -81.035659790039 2.454249620438
99.638763427734 -70.508583068848 -84.053924560547 0.987155735493
60.734867095947 -69.524238586426 -86.038574218750 1.093019127846
100.524536132813 -68.118698120117 -89.635566711426 2.769245862961
65.023429870605 -68.593673706055 -94.184867858887 2.597207546234
-68.794044494629 -72.130882263184 -96.409004211426 3.199131250381
105.587890625000 -70.321441650391 -95.615966796875 1.567984223366
42.254451751709 -68.740249633789 -98.159774780273 2.755005359650
68.600807189941 -69.626022338867 -98.530212402344 2.067239761353
-74.341163635254 -67.973640441895 -104.771659851074 0.576739966869
71.890350341797 -69.026535034180 -101.871047973633 1.652637600899
82.848678588867 -68.465339660645 -102.470878601074 1.714494466782
39.688362121582 -69.389373779297 -103.851379394531 2.073757410049
-76.020866394043 -68.368064880371 -109.105300903320 1.348800063133
103.195426940918 -69.261581420898 -105.574089050293 0.915110230446
110.079948425293 -71.346435546875 -109.632942199707 1.842671871185
42.525333404541 -69.339515686035 -108.832191467285 0.988039970398
-90.441093444824 -70.262145996094 -112.416961669922 3.231737852097
107.177345275879 -69.405578613281 -116.586860656738 1.804641246796
-79.811294555664 -67.070381164551 -115.967788696289 2.804436206818
-94.789909362793 -70.317764282227 -119.804580688477 1.593554973602
-81.659500122070 -69.333190917969 -120.826622009277 1.779530525208
-65.922821044922 -67.165512084961 -119.778076171875 2.881870508194
-56.384807586670 -69.415847778320 -125.820800781250 1.851235270500
-76.315574645996 -70.181251525879 -128.906219482422 1.854702472687
-80.109130859375 -68.640068054199 -130.569244384766 1.113848447800
-62.992229461670 -67.692283630371 -130.367034912109 1.655216336250
-79.252502441406 -68.157363891602 -131.947479248047 1.855950236320
-78.298255920410 -68.253555297852 -133.411300659180 1.064840793610
-48.758472442627 -70.013664245605 -137.174697875977 1.217635273933
-53.142501831055 -67.951545715332 -137.386428833008 3.180950403214
19.755973815918 -68.341880798340 -138.779525756836 2.960282564163
-96.320358276367 -68.869438171387 -140.696456909180 2.719033002853
18.526409149170 -69.312019348145 -141.591262817383 3.173365116119
-71.838142395020 -69.763618469238 -144.648117065430 0.857905030251
27.142425537109 -69.446479797363 -143.633041381836 1.413298368454
-99.920227050781 -68.564140319824 -149.555236816406 2.121434688568
17.802745819092 -68.983390808105 -146.862121582031 1.760590434074
-95.553550720215 -68.560897827148 -149.566146850586 1.296341300011
-45.711486816406 -69.272232055664 -149.326080322266 1.524328231812
8.420463562012 -69.029304504395 -150.152023315430 2.495670795441
9.534774780273 -67.954093933105 -149.663421630859 2.252174377441
7.091405868530 -69.513107299805 -154.238449096680 1.730492711067
26.419227600098 -69.285614013672 -151.049346923828 1.557797312737
25.769054412842 -69.343276977539 -158.468536376953 1.511481642723
23.962244033813 -68.897567749023 -156.001678466797 1.823781251907
20.916608810425 -68.930900573730 -160.289962768555 0.810982465744
21.580366134644 -68.689102172852 -161.909317016602 1.362991213799
-108.239486694336 -67.915153503418 -167.600158691406 1.830414891243
26.294246673584 -70.668739318848 -166.396331787109 0.830476582050
-105.153427124023 -68.989471435547 -173.174713134766 1.796116828918
-112.276924133301 -68.553054809570 -179.920791625977 1.663169264793
-106.670196533203 -68.703483581543 -178.983016967773 1.632418751717
15.951790809631 -68.546691894531 -179.316650390625 2.147188425064
20.536445617676 -68.499557495117 -184.324020385742 1.119068741798
-25.824846267700 -68.603179931641 -188.494796752930 1.826502442360
20.546749114990 -68.762084960938 -185.618164062500 0.970132052898
-25.734481811523 -69.224945068359 -193.393066406250 2.431295156479
-114.902259826660 -68.444923400879 -193.387588500977 2.398738145828
-25.807815551758 -69.332962036133 -193.720733642578 2.160717248917
-162.227691650391 -67.590431213379 -197.401626586914 0.979279160500
-117.771598815918 -68.231109619141 -196.675186157227 2.156687021255
-18.859022140503 -68.737709045410 -194.151596069336 1.448154807091
10.917832374573 -69.083580017090 -198.581710815430 0.835973560810
17.571626663208 -69.650146484375 -199.768524169922 1.209686279297
-156.916564941406 -68.283409118652 -201.831466674805 1.086757063866
-13.862096786499 -68.835975646973 -202.741455078125 1.867957353592
-156.212539672852 -68.526031494141 -204.587249755859 2.157824039459
-159.500625610352 -68.468948364258 -205.335250854492 1.336471319199
10.372887611389 -69.143997192383 -201.321517944336 1.982697010040
15.244177818298 -69.141914367676 -204.521514892578 1.101087093353
-154.342468261719 -68.515884399414 -208.669784545898 2.243708372116
-144.869064331055 -68.996475219727 -208.723693847656 2.375835657120
13.473114013672 -68.855148315430 -206.694961547852 2.078187465668
-15.209175109863 -68.235946655273 -210.928359985352 1.874212980270
-11.458764076233 -68.407356262207 -217.062332153320 1.916050672531
-161.056121826172 -67.739273071289 -212.903610229492 1.111695408821
-9.537235260010 -67.939239501953 -213.902893066406 1.286236643791
-159.157760620117 -68.806518554688 -213.516860961914 1.397513151169
-151.974075317383 -67.812942504883 -212.928359985352 1.892929196358
-6.415897846222 -70.095588684082 -212.761642456055 2.123746633530
-145.486007690430 -68.091941833496 -220.368392944336 1.910161733627
-11.920646667480 -69.814178466797 -219.630966186523 1.242792367935
-158.685089111328 -68.550666809082 -222.411117553711 1.241002798080
-165.467605590820 -67.842391967773 -224.875915527344 0.978440403938
0.846490025520 -68.977127075195 -223.508285522461 1.898466944695
-159.513244628906 -67.828720092773 -223.873229980469 1.716214895248
-108.403602600098 -69.516685485840 -222.642761230469 2.021596908569
-134.266357421875 -66.330131530762 -225.894805908203 1.245140075684
-139.910324096680 -68.344718933105 -226.083786010742 1.473939180374
-122.752601623535 -68.030494689941 -226.513824462891 1.484695196152
-155.433166503906 -66.004768371582 -227.649169921875 1.735305905342
-148.457336425781 -64.535934448242 -231.468032836914 2.153369188309
-163.844116210938 -68.006782531738 -231.011474609375 1.259120345116
-113.955223083496 -67.453826904297 -231.754013061523 2.254903316498
-158.748458862305 -68.720230102539 -233.944976806641 2.323589086533
-143.428039550781 -69.480690002441 -234.808074951172 1.110103845596
-162.144699096680 -68.176826477051 -234.232223510742 2.558881521225
-118.221221923828 -68.272155761719 -233.941757202148 1.401000261307
-161.013137817383 -68.237640380859 -234.842315673828 2.049544095993
73.886917114258 -69.290657043457 -229.740219116211 1.989445567131
-2.530617952347 -68.536422729492 -232.734054565430 0.678664028645
-144.251937866211 -68.484893798828 -235.089416503906 1.082585215569
2.291126966476 -69.077285766602 -231.781692504883 1.463489770889
-0.549014985561 -69.651870727539 -235.176559448242 1.358892321587
-13.560884475708 -69.801765441895 -236.051925659180 1.630276679993
-1.006711959839 -67.322570800781 -237.473907470703 1.898396372795
-164.426345825195 -68.536651611328 -243.282562255859 1.540560483932
60.040184020996 -69.679367065430 -235.506515502930 2.424374580383
-151.352920532227 -67.185630798340 -240.618148803711 3.838638782501
49.843471527100 -68.471549987793 -242.031219482422 2.431692361832
48.118198394775 -68.458106994629 -242.954650878906 3.339448451996
47.001426696777 -68.546058654785 -246.626129150391 1.519295573235
-146.374893188477 -68.003295898438 -251.320281982422 1.412976384163
48.620578765869 -68.666534423828 -247.058486938477 1.348558068275
47.293811798096 -68.760910034180 -248.378631591797 1.329526543617
-153.565521240234 -65.589073181152 -254.420028686523 1.661106467247
45.224506378174 -68.254928588867 -252.412475585938 1.787503004074
-128.765716552734 -67.070220947266 -255.281723022461 2.129141807556
41.645004272461 -68.900886535645 -251.953445434570 1.975889682770
33.728950500488 -68.426292419434 -253.613159179688 2.004236221313
-136.422805786133 -67.317695617676 -257.202819824219 1.265257596970
-120.297500610352 -68.795211791992 -256.608856201172 3.749986171722
46.035499572754 -69.199333190918 -252.152542114258 0.942840635777
34.148967742920 -69.252716064453 -255.564346313477 2.342727661133
-8.164825439453 -68.516906738281 -260.029205322266 1.761558771133
34.536361694336 -67.693878173828 -258.392730712891 0.903827548027
-110.182556152344 -68.645431518555 -260.943664550781 1.366486191750
31.327747344971 -66.680923461914 -260.012817382813 0.862075746059
-117.031448364258 -67.264167785645 -263.100585937500 0.616740882397
-151.511291503906 -65.676986694336 -265.935058593750 1.460485696793
25.133214950562 -68.295005798340 -264.597839355469 1.487041950226
-7.141036987305 -68.498931884766 -266.219635009766 2.098396301270
-8.320654869080 -68.839248657227 -271.453643798828 2.875077486038
-147.047241210938 -67.054054260254 -276.565826416016 2.033260107040
20.599166870117 -66.705596923828 -277.624206542969 1.980415105820
-128.750503540039 -68.178733825684 -284.923706054688 2.054303169250
-155.954650878906 -67.622161865234 -288.191802978516 2.754783868790
-123.591804504395 -67.981475830078 -287.442016601563 0.993007779121
-111.562149047852 -68.252456665039 -288.399932861328 2.135032653809
-141.569152832031 -68.150291442871 -290.664062500000 0.568714678288
-134.998550415039 -67.633842468262 -291.488708496094 1.115496754646
-131.302078247070 -68.454696655273 -293.283569335938 0.934836745262
-152.645065307617 -68.139717102051 -300.913696289063 1.049139261246
-146.704101562500 -67.441665649414 -305.337615966797 0.282173782587
-146.688064575195 -67.527565002441 -306.245147705078 0.655558466911
33.368347167969 -65.665550231934 -9.753019332886 2.471132516861
22.837709426880 -69.914726257324 -11.976335525513 4.511416435242
38.677749633789 -67.857498168945 -18.741104125977 3.281966686249
46.298927307129 -69.158248901367 -25.141059875488 2.435164928436
16.545061111450 -69.201042175293 -27.901636123657 4.072896957397
-69.212226867676 -67.152687072754 -44.179508209229 2.430603981018
-63.194732666016 -67.764419555664 -44.085708618164 2.398337364197
-74.112823486328 -67.950714111328 -45.447189331055 3.216231584549
-83.386520385742 -66.948791503906 -48.207126617432 3.655957221985
-24.784473419189 -68.659233093262 -52.738258361816 2.837043762207
-90.108894348145 -68.405639648438 -55.554409027100 2.836917400360
-95.371849060059 -65.658035278320 -58.955436706543 3.751752853394
73.533111572266 -69.021331787109 -60.682811737061 4.300913333893
-16.220977783203 -68.270568847656 -65.255783081055 3.357749938965
-99.512878417969 -67.762245178223 -73.435897827148 3.756997108459
98.951255798340 -68.888931274414 -73.364440917969 1.302618622780
100.440299987793 -67.257392883301 -75.304794311523 1.043692231178
-98.822990417480 -70.247093200684 -83.013313293457 3.307432174683
-49.947929382324 -70.422790527344 -82.972717285156 2.551615476608
-55.009258270264 -67.643264770508 -84.831459045410 3.589357614517
-100.524955749512 -67.226837158203 -90.209762573242 3.655852556229
-99.328125000000 -69.944618225098 -96.531692504883 2.893465757370
59.852905273438 -68.473770141602 -90.570304870605 2.692533493042
47.173118591309 -68.252250671387 -93.393280029297 1.953794240952
-69.999717712402 -66.787055969238 -96.642158508301 2.656020879745
50.651176452637 -67.637725830078 -95.161209106445 1.260364532471
52.103935241699 -67.596519470215 -97.658470153809 2.479582071304
99.143531799316 -68.827308654785 -94.930068969727 2.879291772842
-74.032493591309 -67.778976440430 -100.169570922852 1.300389647484
68.524574279785 -67.858467102051 -100.114715576172 2.345292568207
-83.933151245117 -67.506523132324 -102.523300170898 2.240440368652
104.648818969727 -68.258026123047 -100.037170410156 1.984230875969
-74.031349182129 -67.262222290039 -105.345100402832 1.318278551102
84.847160339355 -67.094718933105 -104.352363586426 1.645545363426
104.390342712402 -68.392738342285 -104.219505310059 1.089372515678
-83.123077392578 -68.186759948730 -110.383972167969 3.126539945602
-83.981262207031 -66.683624267578 -112.504684448242 2.654291868210
-86.258193969727 -68.211555480957 -116.079086303711 2.390629291534
-87.428573608398 -68.764991760254 -118.234321594238 2.876516342163
-78.937850952148 -67.099067687988 -119.894363403320 1.206040024757
-97.558998107910 -66.786018371582 -121.258636474609 1.785188913345
-64.207962036133 -66.779006958008 -123.361885070801 2.037594795227
-79.786453247070 -67.698814392090 -125.589523315430 1.838639140129
-80.852951049805 -67.658966064453 -127.558685302734 1.440711975098
-91.958946228027 -67.943412780762 -129.166717529297 2.547949075699
-55.829944610596 -66.988960266113 -128.827362060547 1.362330794334
-53.607444763184 -68.864685058594 -132.534301757813 2.011911392212
-74.940391540527 -67.519592285156 -135.079330444336 1.259271502495
-61.862190246582 -65.857406616211 -133.839050292969 1.169669985771
-74.788482666016 -67.704963684082 -135.598846435547 1.248299241066
-59.087913513184 -68.167297363281 -138.694793701172 1.534116744995
-50.104633331299 -67.554351806641 -141.034194946289 1.496602535248
-75.071197509766 -67.794647216797 -141.483596801758 1.673429727554
19.880678176880 -68.782623291016 -142.818756103516 2.270121574402
-52.093292236328 -67.881584167480 -146.714660644531 1.579633831978
-95.954566955566 -68.139961242676 -151.298568725586 1.062592267990
-96.874595642090 -67.423187255859 -154.192184448242 2.153812408447
-107.994705200195 -67.699211120605 -166.801345825195 1.761809825897
-110.444351196289 -66.575332641602 -172.750823974609 2.066754817963
-148.582611083984 -67.735145568848 -176.343231201172 1.501315593719
18.969503402710 -67.884269714355 -175.730056762695 1.987860560417
-112.978523254395 -68.782760620117 -182.602569580078 2.764648675919
-142.500564575195 -67.906562805176 -184.557083129883 3.322237491608
16.245567321777 -67.774650573730 -190.380584716797 1.053275704384
-152.079605102539 -66.542724609375 -191.921417236328 1.805420160294
14.206442832947 -67.928138732910 -191.382843017578 2.452681064606
15.795330047607 -67.857398986816 -186.178253173828 0.956651568413
-154.821609497070 -66.891220092773 -194.428955078125 1.034547090530
-127.493438720703 -68.406234741211 -194.481719970703 1.473649024963
-141.218780517578 -66.695526123047 -196.752014160156 0.994122743607
-158.442687988281 -66.903861999512 -198.983810424805 1.061125874519
-21.777072906494 -67.823501586914 -195.969909667969 1.410477161407
-159.835845947266 -67.572074890137 -201.510772705078 2.132208108902
15.326983451843 -67.877777099609 -194.576858520508 1.312021732330
12.934944152832 -68.172271728516 -199.795059204102 0.874108016491
-162.475067138672 -66.976974487305 -204.087173461914 1.939161062241
-113.498741149902 -69.740585327148 -202.440917968750 0.664142072201
-135.168670654297 -68.243377685547 -203.704467773438 1.490987181664
-121.641433715820 -66.811454772949 -204.303573608398 1.325175285339
-162.274703979492 -67.309303283691 -212.508453369141 2.248635292053
-13.767771720886 -67.801872253418 -209.244186401367 1.658040404320
-164.498977661133 -67.141494750977 -210.322509765625 0.681509256363
-17.906831741333 -67.906349182129 -206.706756591797 1.121763348579
-12.867520332336 -67.938026428223 -207.673950195313 2.116060972214
-165.443237304688 -67.610641479492 -216.080917358398 1.024706482887
-6.367761135101 -67.760223388672 -219.609832763672 1.392438530922
-105.663253784180 -67.749092102051 -222.655746459961 1.283818364143
-106.047981262207 -67.176765441895 -224.329879760742 1.062337636948
-109.032936096191 -67.560188293457 -224.150207519531 1.812031984329
-125.154975891113 -66.540893554688 -226.074096679688 1.285491466522
-141.056198120117 -67.341728210449 -226.748809814453 1.449248075485
-2.592124938965 -67.771789550781 -226.769027709961 1.157356619835
-1.501209020615 -67.689720153809 -225.279785156250 1.926557898521
4.390741825104 -67.538688659668 -228.848892211914 1.751624464989
0.499700993299 -67.112030029297 -229.599884033203 1.358282566071
-4.783662796021 -69.353683471680 -230.683624267578 1.592541456223
-8.030364990234 -68.234176635742 -233.505889892578 1.290292739868
-5.929141044617 -67.306388854980 -235.004119873047 1.160944938660
62.044384002686 -68.263877868652 -235.629302978516 1.818835258484
-8.790780067444 -65.814285278320 -238.746307373047 2.051457166672
8.459584236145 -67.898780822754 -240.258239746094 0.994790136814
11.665983200073 -69.145256042480 -241.921142578125 1.222424268723
51.030010223389 -67.094612121582 -242.410339355469 1.940211892128
59.511001586914 -68.074371337891 -242.652709960938 1.332641243935
40.116291046143 -67.705757141113 -251.182815551758 1.309019207954
44.459785461426 -68.363174438477 -249.866668701172 0.467923671007
-8.647372245789 -67.150840759277 -251.437591552734 2.346622705460
-133.950942993164 -67.192672729492 -255.701248168945 1.640620589256
32.249404907227 -68.478515625000 -251.818222045898 2.813123226166
-99.926597595215 -67.980056762695 -255.413635253906 1.178772091866
-137.939575195313 -66.933807373047 -258.001586914063 2.776778697968
-112.761947631836 -67.952735900879 -257.420989990234 0.946471631527
-109.043533325195 -67.231330871582 -259.282989501953 1.727453231812
-110.396118164063 -67.204399108887 -259.370300292969 0.752762019634
-117.527725219727 -66.956954956055 -259.502441406250 1.980185508728
-119.219886779785 -66.968261718750 -260.123962402344 3.127209424973
-140.613006591797 -67.569358825684 -261.495025634766 0.582073152065
-115.943374633789 -67.210578918457 -260.979309082031 1.041144728661
-132.193191528320 -66.771568298340 -262.770050048828 1.096417188644
28.023944854736 -68.362541198730 -261.075103759766 1.466474413872
-145.090377807617 -66.601837158203 -264.800781250000 2.261391401291
-4.973523139954 -67.742706298828 -264.688415527344 1.164087295532
-151.361755371094 -66.713905334473 -269.433197021484 2.800008296967
-6.313780784607 -68.043670654297 -276.283050537109 3.349669218063
20.103239059448 -65.689758300781 -278.743774414063 1.084045410156
-4.861297130585 -67.182411193848 -285.461212158203 1.195192337036
-134.055541992188 -66.655693054199 -288.630065917969 0.808811724186
-148.491348266602 -65.850997924805 -290.889953613281 1.234373211861
-129.605804443359 -68.715446472168 -293.667327880859 2.168023109436
-147.888870239258 -65.934654235840 -295.775573730469 1.287284493446
-150.622100830078 -66.832237243652 -302.447265625000 1.570387244225
-149.648925781250 -66.765541076660 -309.641265869141 1.127410769463
27.284536361694 -64.788230895996 -10.099493980408 3.955678939819
19.381536483765 -61.451045989990 -14.892883300781 5.388763904572
37.379955291748 -66.248809814453 -17.096456527710 2.413712263107
40.099540710449 -61.562267303467 -26.197469711304 3.759639263153
38.633869171143 -67.407409667969 -30.118204116821 4.753260135651
33.816413879395 -68.324745178223 -33.479835510254 3.227713346481
29.872552871704 -65.470733642578 -37.953380584717 3.058739662170
36.179470062256 -64.577758789063 -37.966293334961 1.560556888580
-49.163707733154 -68.328361511230 -45.383354187012 1.468551516533
-81.473457336426 -66.836753845215 -47.068931579590 3.470061302185
73.393562316895 -67.595153808594 -59.340152740479 4.490836143494
76.328796386719 -68.705177307129 -60.126102447510 3.451487779617
89.615798950195 -68.218955993652 -60.759418487549 2.949906110764
-97.717643737793 -66.595314025879 -64.918579101563 3.747177124023
92.742675781250 -68.939117431641 -63.576492309570 2.074703216553
-23.589052200317 -66.579689025879 -67.302474975586 2.677387952805
-98.622726440430 -68.606605529785 -71.456085205078 3.509155035019
-30.484739303589 -66.601470947266 -70.331665039063 4.646731853485
-41.288146972656 -64.182456970215 -77.710792541504 1.514061927795
-45.176162719727 -67.273284912109 -77.484153747559 3.363113880157
-100.328315734863 -67.190956115723 -80.170104980469 4.759964942932
-99.783493041992 -68.768592834473 -85.635810852051 3.663261175156
58.989147186279 -66.458335876465 -80.773368835449 2.493993997574
49.004768371582 -66.583503723145 -86.281890869141 3.739045619965
-67.032257080078 -69.032600402832 -92.433540344238 3.097925186157
45.741123199463 -68.141326904297 -90.673362731934 3.460261821747
49.033092498779 -66.733894348145 -92.143379211426 1.661358356476
65.132568359375 -66.947174072266 -95.911682128906 1.977620601654
45.039688110352 -66.978446960449 -99.311347961426 1.473117828369
43.219425201416 -67.916763305664 -101.323364257813 1.516403317451
-80.744789123535 -68.314643859863 -106.883842468262 2.725466012955
-88.632095336914 -66.571952819824 -109.359443664551 2.610947132111
-87.641670227051 -65.385848999023 -108.964813232422 3.154450178146
-65.498222351074 -65.804496765137 -115.509910583496 2.369031667709
-93.671203613281 -68.462066650391 -119.353034973145 2.149534225464
-59.328624725342 -68.601325988770 -122.383117675781 1.240297675133
-77.851272583008 -65.535301208496 -122.657844543457 1.411618471146
-56.669971466064 -67.985809326172 -124.106040954590 0.788083076477
-85.100433349609 -67.202186584473 -127.099433898926 2.960906028748
-82.734947204590 -67.397361755371 -131.796554565430 1.402056813240
-50.645492553711 -68.196022033691 -133.778839111328 1.392805457115
-76.554176330566 -66.500373840332 -135.686599731445 1.329339027405
-77.438980102539 -66.438552856445 -136.946166992188 0.888475954533
-57.537082672119 -68.126564025879 -139.818252563477 1.700659036636
22.708818435669 -67.422004699707 -138.872756958008 2.052881479263
-51.812839508057 -66.908050537109 -142.426559448242 0.570579111576
-99.842758178711 -65.725128173828 -146.800323486328 1.899104714394
-94.872726440430 -66.332412719727 -150.341232299805 1.766502499580
12.030692100525 -67.158691406250 -149.340530395508 2.453055381775
-106.902687072754 -66.569320678711 -163.628570556641 3.162936449051
-109.299751281738 -67.088531494141 -170.199111938477 2.856422424316
-142.827896118164 -68.120887756348 -177.932220458984 2.669283628464
-154.408813476563 -66.520294189453 -179.195709228516 1.622031092644
-114.185287475586 -66.863029479980 -188.553207397461 1.989886164665
-153.988418579102 -66.754760742188 -186.606689453125 1.185516834259
-145.197235107422 -66.961059570313 -192.769317626953 1.940517187119
-155.866516113281 -66.871284484863 -197.290664672852 1.837288141251
-137.699371337891 -66.043251037598 -196.906936645508 3.319144010544
-147.304580688477 -64.557701110840 -199.585998535156 1.912214398384
-138.047378540039 -66.444351196289 -203.080596923828 2.855374097824
-126.012977600098 -66.706306457520 -204.952438354492 1.620463252068
-151.239685058594 -66.316932678223 -214.769805908203 0.744134545326
-144.406951904297 -65.062767028809 -225.095626831055 2.491220951080
-112.543006896973 -67.111343383789 -226.927703857422 0.853166937828
-108.353439331055 -67.238304138184 -228.038314819336 2.159079313278
-139.699111938477 -65.763732910156 -229.990570068359 1.640322804451
-139.348510742188 -66.301231384277 -231.383819580078 1.719462633133
0.069517001510 -67.425727844238 -227.660827636719 1.227259874344
4.749133110046 -66.205299377441 -232.832107543945 1.874586462975
-124.655227661133 -66.248107910156 -234.142227172852 0.609974503517
-152.618896484375 -66.003433227539 -235.022735595703 1.286070942879
1.495684027672 -66.742019653320 -230.468353271484 0.759891092777
-8.186805725098 -66.441947937012 -239.551544189453 2.204630851746
17.366653442383 -65.364860534668 -239.696792602539 2.518267631531
61.495510101318 -67.775787353516 -240.051406860352 2.029989480972
55.602237701416 -66.793853759766 -243.358810424805 1.941980838776
51.563953399658 -66.974967956543 -247.628936767578 1.102707505226
-147.298614501953 -63.991340637207 -252.792907714844 0.633789837360
37.298152923584 -67.395484924316 -252.718185424805 1.338705420494
-124.620933532715 -66.480934143066 -258.855560302734 0.377798557281
30.198900222778 -66.743270874023 -256.179016113281 1.866980433464
-150.371536254883 -66.312896728516 -260.721252441406 1.776782631874
-142.881698608398 -65.340286254883 -262.104705810547 1.947502017021
-124.828475952148 -66.288108825684 -262.714447021484 0.523559629917
-1.492421984673 -66.380126953125 -260.347717285156 2.054017066956
-1.354212045670 -66.197883605957 -274.289123535156 1.963428616524
-151.287490844727 -65.222221374512 -276.078277587891 1.969535946846
-2.240135908127 -66.553787231445 -274.201568603516 2.546336889267
-151.259841918945 -65.759613037109 -281.550994873047 1.552887916565
-129.520431518555 -66.623413085938 -286.692138671875 2.700305223465
-127.941810607910 -66.144699096680 -287.335815429688 0.994421899319
13.924221038818 -63.411838531494 -286.176025390625 3.207030296326
-123.188613891602 -66.229049682617 -288.769836425781 1.645040869713
-126.572921752930 -65.886634826660 -288.935028076172 1.571404814720
-131.425460815430 -66.111228942871 -289.486083984375 2.230680227280
10.284710884094 -69.830123901367 -287.964233398438 1.830534577370
-1.129032015800 -67.453697204590 -289.768249511719 2.450016498566
-144.506759643555 -66.993804931641 -293.996887207031 2.022286415100
30.437553405762 -69.588386535645 -14.637342453003 2.762454986572
44.089199066162 -68.879837036133 -16.487819671631 2.172240495682
40.014411926270 -61.921646118164 -26.863325119019 4.091423034668
-56.884452819824 -66.236434936523 -43.240276336670 1.349088430405
-54.667270660400 -63.222728729248 -42.296520233154 1.349998950958
-53.479328155518 -66.617271423340 -43.675075531006 3.417607307434
-38.586120605469 -66.525032043457 -46.128757476807 1.901112556458
-86.128608703613 -66.601417541504 -49.844650268555 2.670333385468
-19.686374664307 -65.727905273438 -52.934909820557 2.205239295959
-17.519716262817 -65.818809509277 -54.532386779785 1.097130060196
-95.700126647949 -64.465263366699 -58.026119232178 3.476636886597
-95.742065429688 -67.370330810547 -61.683395385742 4.171905994415
89.588073730469 -67.178276062012 -60.003700256348 3.130851268768
-17.984598159790 -66.031417846680 -65.751152038574 3.857968091965
66.585502624512 -67.533348083496 -64.294883728027 4.470252037048
-32.229877471924 -66.023048400879 -71.157699584961 4.728040218353
-101.326843261719 -64.039360046387 -75.180168151855 3.834541797638
-40.529788970947 -62.409717559814 -77.877258300781 1.609514594078
-101.540008544922 -63.629196166992 -76.158561706543 3.397042274475
-59.267082214355 -66.041191101074 -85.516647338867 3.223325729370
101.492080688477 -66.266479492188 -83.167739868164 1.648231148720
61.045253753662 -66.466285705566 -87.296791076660 1.965598106384
-101.460243225098 -64.493598937988 -94.863182067871 3.333833932877
-68.795669555664 -66.814369201660 -95.373962402344 3.580141544342
45.184406280518 -66.556869506836 -95.823074340820 2.422272920609
44.004608154297 -67.271209716797 -97.273681640625 1.900523900986
98.792030334473 -66.677726745605 -96.753974914551 2.795336484909
95.403648376465 -67.743118286133 -100.419380187988 3.170733928680
-84.176979064941 -66.223602294922 -103.707809448242 2.975790023804
91.572288513184 -67.514656066895 -103.111778259277 3.293850898743
84.037940979004 -66.256004333496 -104.346656799316 0.918619751930
-84.201835632324 -65.751396179199 -112.241424560547 1.950034022331
-64.747711181641 -65.686317443848 -115.286758422852 2.547333240509
-67.930191040039 -65.513656616211 -117.764373779297 2.869730472565
-87.319595336914 -66.446350097656 -121.267074584961 1.902697443962
-58.908267974854 -65.843475341797 -123.308288574219 1.061724781990
-87.910247802734 -65.864746093750 -123.213279724121 2.764178276062
-63.963191986084 -67.130409240723 -125.004699707031 0.536272644997
-88.747299194336 -65.486709594727 -126.479469299316 1.293475747108
-89.012382507324 -64.868392944336 -130.469314575195 0.245189771056
-54.908958435059 -66.436515808105 -132.034439086914 2.766866445541
-76.579238891602 -66.213386535645 -134.135864257813 1.612855315208
-57.773555755615 -64.587677001953 -134.746109008789 1.564564466476
24.342781066895 -65.856079101563 -138.157577514648 1.641690135002
-96.243843078613 -65.968414306641 -138.298049926758 2.321766853333
13.919151306152 -66.654998779297 -142.743423461914 3.053899526596
17.789688110352 -65.757049560547 -148.494766235352 2.179013729095
-99.609611511230 -65.482597351074 -161.006668090820 2.199125766754
-112.561386108398 -66.157447814941 -179.895294189453 2.613147735596
-153.472854614258 -65.380004882813 -185.743774414063 2.253973245621
-113.131660461426 -65.191574096680 -190.805267333984 0.810265779495
-149.843719482422 -64.186691284180 -193.313369750977 0.521185576916
-153.490097045898 -65.515083312988 -195.046401977539 0.783129155636
-142.567703247070 -63.909252166748 -196.911239624023 2.080698490143
-141.593109130859 -64.485191345215 -198.230697631836 1.306478142738
-121.339469909668 -66.337471008301 -197.191909790039 1.391416311264
-119.439704895020 -65.189712524414 -198.500076293945 2.836445808411
-140.290100097656 -64.982955932617 -201.121566772461 0.865057051182
-124.238677978516 -64.727745056152 -203.286911010742 1.170427441597
-126.496688842773 -65.165756225586 -204.548782348633 0.859618306160
-150.712539672852 -64.797065734863 -209.213928222656 2.066555261612
-146.870315551758 -63.372005462646 -217.816497802734 1.824516057968
-133.439590454102 -65.015098571777 -226.711669921875 0.626815080643
-122.159255981445 -65.499977111816 -228.667892456055 1.429641485214
-123.717346191406 -65.686126708984 -229.389099121094 0.943237006664
-118.381057739258 -65.697242736816 -230.558670043945 2.784043073654
-126.572654724121 -65.536026000977 -233.449157714844 1.352482080460
-151.147445678711 -65.570838928223 -236.018280029297 0.990622162819
3.416533946991 -64.737548828125 -236.443099975586 1.246869444847
16.619428634644 -65.318801879883 -238.799758911133 2.513681650162
-4.268124103546 -65.368125915527 -242.695236206055 1.437502861023
-8.400215148926 -64.816223144531 -244.735626220703 1.209882140160
-10.674535751343 -65.797630310059 -245.899688720703 1.111322641373
52.429576873779 -66.420837402344 -245.799758911133 1.169515132904
45.159252166748 -65.577339172363 -247.842575073242 1.364738821983
21.272687911987 -69.605712890625 -248.183868408203 1.766885399818
-5.591911792755 -66.229095458984 -252.383987426758 1.506527543068
38.536144256592 -65.677146911621 -249.591796875000 1.539081811905
-3.571485996246 -64.879089355469 -251.189407348633 2.749135255814
30.108024597168 -65.937614440918 -253.423156738281 2.684810161591
40.664505004883 -66.534164428711 -254.516281127930 0.900300383568
-1.203173995018 -65.798408508301 -257.517547607422 2.223560094833
-131.979476928711 -65.720825195313 -256.979248046875 2.232279300690
-126.766761779785 -65.095642089844 -258.630950927734 1.317843675613
-127.438026428223 -64.930549621582 -260.418090820313 1.031036376953
29.077871322632 -66.621688842773 -257.208007812500 1.341921567917
0.494141995907 -65.546447753906 -260.536529541016 2.339194536209
27.881225585938 -65.142807006836 -260.711822509766 1.760309219360
2.731956958771 -64.815811157227 -264.255859375000 1.350906372070
0.078037999570 -65.914810180664 -268.884246826172 1.973083972931
-147.069107055664 -67.033981323242 -269.281158447266 3.495444297791
-0.041900001466 -65.239707946777 -279.186889648438 1.224524497986
-1.562152981758 -65.724418640137 -281.850463867188 2.198245525360
-151.298431396484 -65.602470397949 -289.386169433594 0.793411552906
-151.032577514648 -64.644165039063 -291.533264160156 0.788920164108
-147.685897827148 -64.841850280762 -290.744598388672 0.640943706036
-150.172103881836 -64.690582275391 -293.414916992188 1.139158487320
24.089458465576 -62.491287231445 -11.301236152649 4.405025005341
31.871334075928 -70.055259704590 -14.559268951416 2.379766464233
43.922779083252 -66.448135375977 -16.539655685425 1.565528154373
45.862380981445 -64.832572937012 -20.953245162964 2.789727926254
16.277772903442 -68.930839538574 -25.627115249634 4.497723102570
16.748935699463 -62.948959350586 -28.844869613647 3.870940685272
19.068544387817 -68.999137878418 -32.839199066162 3.120083332062
28.769395828247 -69.228462219238 -33.716697692871 1.856107234955
-45.543014526367 -63.297515869141 -44.870952606201 1.472151279449
-86.549705505371 -66.063529968262 -49.743236541748 2.739063501358
-90.896469116211 -64.630622863770 -52.181167602539 3.496634006500
-94.555580139160 -60.911499023438 -53.277687072754 3.271942377090
70.551765441895 -68.178840637207 -61.081161499023 4.829642772675
65.318580627441 -65.878440856934 -63.604988098145 4.572093486786
-26.627792358398 -66.426727294922 -67.991966247559 2.726544141769
-29.712783813477 -65.066032409668 -68.046020507813 3.275826692581
100.469772338867 -66.318954467773 -73.845344543457 1.603232860565
-42.139438629150 -64.684761047363 -77.561965942383 1.661080718040
-61.031265258789 -63.670619964600 -80.873138427734 2.620622634888
101.425415039063 -65.409271240234 -80.157470703125 2.425295114517
-100.970748901367 -65.990936279297 -86.740440368652 3.747368574142
-61.367874145508 -65.040405273438 -85.376731872559 2.563343524933
-63.526649475098 -65.016784667969 -86.521720886230 2.586678981781
49.810268402100 -65.463020324707 -85.684623718262 3.892824888229
59.446937561035 -65.197166442871 -88.198616027832 3.377704858780
58.399383544922 -67.275833129883 -92.291870117188 2.504045009613
-70.000808715820 -65.242431640625 -97.612823486328 1.958156347275
-70.058105468750 -66.112556457520 -97.047737121582 2.244117736816
-73.028984069824 -65.502807617188 -104.384506225586 2.560911893845
94.522689819336 -67.352722167969 -101.445480346680 3.046340465546
89.594444274902 -65.592658996582 -104.963668823242 3.016202211380
-81.435760498047 -65.294662475586 -109.344116210938 2.318608045578
-78.075386047363 -64.963768005371 -110.199943542480 1.961927175522
-85.434020996094 -65.919662475586 -115.149337768555 2.988535881042
-79.321113586426 -65.329551696777 -116.458488464355 1.872254014015
-65.183242797852 -65.238342285156 -120.099212646484 1.158477544785
-78.859428405762 -64.033622741699 -119.536773681641 1.207186937332
-82.138862609863 -65.607841491699 -123.154350280762 1.837642192841
-77.446411132813 -65.141731262207 -127.830993652344 0.704070210457
-55.080413818359 -67.850753784180 -129.906433105469 1.651010036469
-79.582176208496 -65.360641479492 -132.955551147461 2.262203454971
-90.637283325195 -64.457870483398 -136.910629272461 1.395283579826
-52.734218597412 -65.379905700684 -137.351348876953 1.573001503944
27.347627639771 -63.824272155762 -135.563049316406 1.344973921776
-93.771240234375 -63.909698486328 -143.191528320313 1.363481998444
-97.525718688965 -65.846549987793 -141.222671508789 2.819596529007
-97.964279174805 -65.752296447754 -142.313674926758 2.766383886337
14.125349044800 -65.543121337891 -146.292053222656 1.091764807701
-101.423797607422 -63.932563781738 -152.830276489258 2.359041929245
-96.044761657715 -63.905963897705 -149.526565551758 1.896205782890
-105.174644470215 -64.730934143066 -160.342071533203 2.627665996552
-103.197097778320 -63.831893920898 -166.022705078125 2.592415809631
-107.255264282227 -64.446914672852 -166.560119628906 1.316975712776
-110.174957275391 -65.010490417480 -173.347640991211 1.505586028099
-144.062210083008 -64.840995788574 -176.855468750000 1.698940277100
-107.781417846680 -64.615135192871 -179.438476562500 2.291751861572
-109.313888549805 -63.946315765381 -179.956542968750 1.498689174652
-152.979598999023 -64.514282226563 -184.286560058594 2.741800308228
-112.623474121094 -65.055633544922 -185.647888183594 0.939285516739
-149.433975219727 -63.646575927734 -187.883361816406 1.073977589607
-112.675048828125 -65.017349243164 -188.806182861328 2.135195255280
-143.932006835938 -64.972076416016 -194.973556518555 1.494955778122
-147.752410888672 -64.634994506836 -198.544616699219 1.896356344223
-116.343826293945 -64.671005249023 -199.124542236328 1.545742034912
-122.064895629883 -64.883872985840 -199.486053466797 0.976000666618
-125.643638610840 -63.199012756348 -200.794265747070 1.292013287544
-124.543457031250 -64.548011779785 -203.850646972656 0.728496134281
-151.159515380859 -63.890106201172 -206.099197387695 1.665745973587
-153.892410278320 -65.229759216309 -225.207122802734 2.829568624496
-127.501960754395 -63.724449157715 -228.875549316406 2.172698259354
-155.710723876953 -65.883338928223 -230.522750854492 2.422533512115
-129.885223388672 -64.233306884766 -231.242187500000 3.292810916901
-154.269866943359 -65.358276367188 -233.634429931641 2.056795835495
-0.675952970982 -64.523674011230 -235.675186157227 3.025559902191
16.849464416504 -66.041931152344 -239.522796630859 2.549812793732
-151.156921386719 -65.228202819824 -247.696670532227 2.414961338043
-8.538744926453 -65.880409240723 -248.138473510742 2.252012729645
22.541687011719 -64.567970275879 -249.441986083984 2.478652000427
-0.195478007197 -64.232398986816 -253.820251464844 2.870167732239
-151.767410278320 -64.099266052246 -253.339111328125 1.247328996658
-155.471755981445 -64.174285888672 -257.807708740234 0.566355228424
-155.673278808594 -63.895801544189 -258.674774169922 1.140873432159
-150.532226562500 -63.953136444092 -263.751159667969 1.131784915924
0.877377986908 -65.637947082520 -267.469421386719 1.778423786163
-147.325866699219 -64.820251464844 -269.743438720703 4.140778541565
-151.213592529297 -64.589256286621 -276.394439697266 2.678214788437
1.603813052177 -64.685188293457 -275.542602539063 2.865250587463
-145.390548706055 -63.873107910156 -284.719879150391 0.668872892857
-144.910583496094 -63.987319946289 -286.287078857422 1.169408082962
-2.175132036209 -65.609962463379 -285.049621582031 1.086003184319
-146.874938964844 -63.760646820068 -288.384124755859 1.191833853722
-152.610519409180 -64.223503112793 -291.008117675781 0.630106866360
-145.530151367188 -64.695381164551 -293.201385498047 1.056037902832
29.528560638428 -68.181861877441 -9.666559219360 3.838485956192
40.805427551270 -64.314971923828 -13.068090438843 1.068122625351
37.086120605469 -64.362045288086 -17.057443618774 2.421000003815
16.989887237549 -67.028869628906 -19.613830566406 5.736690044403
45.880241394043 -61.631835937500 -22.353137969971 3.033072710037
16.233264923096 -71.006935119629 -24.225938796997 4.114588737488
46.152637481689 -66.169570922852 -24.693595886230 2.013631820679
44.864933013916 -62.316921234131 -29.766902923584 2.271123647690
24.070617675781 -70.792015075684 -30.317920684814 2.353751897812
22.740343093872 -68.670944213867 -36.384788513184 2.262757778168
-60.102687835693 -61.702415466309 -41.481113433838 2.709611654282
-74.443069458008 -64.286056518555 -43.395565032959 2.524501800537
-41.251281738281 -64.315956115723 -45.187152862549 2.574107646942
-28.137233734131 -63.310695648193 -47.777946472168 1.461803555489
70.401969909668 -63.784297943115 -58.027050018311 4.865505218506
-100.111328125000 -61.281227111816 -63.544261932373 3.831994771957
-20.332017898560 -63.729515075684 -64.186210632324 2.429175138474
63.173336029053 -61.345851898193 -64.500175476074 4.483703613281
98.405311584473 -64.382041931152 -66.305953979492 2.485977411270
-55.498996734619 -63.545227050781 -78.807144165039 1.551410555840
61.975891113281 -66.496055603027 -81.909538269043 2.338521242142
51.463623046875 -66.498008728027 -83.455184936523 4.230368137360
50.186473846436 -64.814331054688 -85.712013244629 3.998430967331
-68.208320617676 -63.825443267822 -91.307006835938 2.332819938660
55.192890167236 -64.734382629395 -90.413833618164 1.410734534264
48.503173828125 -64.573844909668 -89.930740356445 2.495378971100
-101.607604980469 -64.126792907715 -92.380661010742 4.024818897247
53.619106292725 -64.756263732910 -93.628120422363 0.908111155033
-72.813995361328 -65.763069152832 -104.135833740234 2.153687238693
70.228172302246 -64.159698486328 -103.035446166992 1.526418328285
91.106773376465 -64.722579956055 -104.267921447754 3.555767297745
-89.264350891113 -65.126152038574 -111.832412719727 2.604113340378
-83.615356445313 -63.621280670166 -113.799812316895 1.607446908951
-83.909202575684 -63.936496734619 -115.940452575684 1.890941262245
-79.363449096680 -63.393417358398 -116.072769165039 0.766594707966
-65.307830810547 -64.737915039063 -118.775344848633 1.472529888153
-65.530525207520 -65.254096984863 -121.251869201660 1.229104638100
-85.981430053711 -62.944812774658 -119.211669921875 1.982016921043
-68.395347595215 -63.854110717773 -123.739151000977 2.092034816742
-67.872299194336 -64.093696594238 -124.889724731445 2.550912380219
-54.908843994141 -63.175827026367 -127.869949340820 1.019829988480
-80.925880432129 -63.567535400391 -128.292724609375 1.444454312325
-58.386497497559 -62.035705566406 -130.228332519531 2.573932409286
21.858449935913 -66.138305664063 -134.625625610352 3.479687929153
-57.293621063232 -64.475257873535 -133.877578735352 2.384286880493
-52.604244232178 -65.962669372559 -139.143539428711 2.065483808517
-93.101722717285 -64.043518066406 -138.010604858398 0.760360717773
22.718618392944 -63.767051696777 -140.606262207031 2.774453401566
17.147159576416 -64.242301940918 -143.852386474609 0.668813288212
-98.066596984863 -63.399475097656 -150.253402709961 2.422376394272
-99.015945434570 -63.959922790527 -156.682113647461 1.601467013359
-106.332427978516 -63.597709655762 -166.245986938477 0.643367886543
-103.735717773438 -63.358146667480 -164.220382690430 3.047409534454
-108.038749694824 -63.628067016602 -173.037811279297 1.333521842957
-152.480178833008 -64.030281066895 -182.663909912109 1.185836315155
-145.777389526367 -63.137245178223 -182.659194946289 1.640587210655
-130.904937744141 -63.481967926025 -197.611129760742 0.717657983303
-131.088302612305 -63.428524017334 -197.874328613281 0.973069906235
-128.954299926758 -62.770942687988 -200.253967285156 3.251162290573
-145.575103759766 -64.579528808594 -205.839294433594 0.960715115070
-150.898925781250 -63.374912261963 -216.471221923828 3.792843580246
-153.948303222656 -64.624290466309 -225.290252685547 2.228464603424
-147.242996215820 -64.427001953125 -229.831314086914 2.018913269043
-151.135391235352 -66.316619873047 -236.362899780273 0.947026968002
-3.379230022430 -64.068344116211 -235.182327270508 2.322793006897
-3.470096111298 -65.029220581055 -240.542861938477 2.287179231644
6.584149837494 -63.068161010742 -241.892501831055 1.836577296257
-147.312652587891 -63.777164459229 -245.883926391602 1.131996631622
-3.755285024643 -64.451545715332 -249.954147338867 3.101684093475
2.188164949417 -61.910293579102 -251.588333129883 3.844618558884
-154.395187377930 -64.103073120117 -255.846435546875 0.724633216858
-147.493316650391 -62.954471588135 -256.956695556641 0.801535546780
-142.890563964844 -63.711185455322 -258.680664062500 1.388507366180
-151.091613769531 -64.274978637695 -260.799774169922 1.348527669907
-151.905532836914 -63.224460601807 -260.080566406250 0.748935222626
27.860158920288 -63.867050170898 -258.919586181641 2.187899827957
-149.455749511719 -63.509853363037 -262.688537597656 1.398847818375
-145.584426879883 -63.015190124512 -263.418548583984 0.580082952976
-149.886413574219 -63.041477203369 -270.630889892578 4.902265071869
5.771619796753 -63.024803161621 -267.007263183594 2.839699268341
-150.931289672852 -63.885238647461 -268.206512451172 2.549199342728
-150.761856079102 -63.793331146240 -277.920837402344 3.144564390182
-149.521759033203 -63.090702056885 -279.228057861328 2.219585418701
4.051081180573 -62.890312194824 -278.493499755859 2.598066329956
-151.202987670898 -64.287414550781 -284.776611328125 1.442659974098
0.567031025887 -65.484069824219 -289.998474121094 2.735408544540
20.568353652954 -67.518264770508 -13.725554466248 5.255467414856
33.234230041504 -65.126113891602 -15.086044311523 2.904375314713
43.488407135010 -66.793174743652 -15.765077590942 1.453887701035
45.195594787598 -64.290031433105 -19.158876419067 2.342091798782
21.881328582764 -65.884529113770 -25.710948944092 4.242066383362
25.632980346680 -62.486228942871 -32.157039642334 1.546601653099
39.478523254395 -68.152046203613 -36.451568603516 2.014935016632
-66.483726501465 -61.799087524414 -41.666507720947 1.522610306740
-48.346954345703 -63.846195220947 -44.130393981934 1.527142643929
-91.704467773438 -61.291786193848 -50.498954772949 3.222727298737
-13.619426727295 -64.310928344727 -56.977291107178 1.367136716843
90.406402587891 -64.955535888672 -58.992019653320 2.765049695969
-14.257658958435 -63.423076629639 -62.207149505615 3.930679559708
65.486076354980 -63.866088867188 -62.123561859131 5.069673061371
-35.267383575439 -61.540390014648 -69.357643127441 3.507046699524
-34.737785339355 -66.281745910645 -76.029838562012 2.493332147598
-47.466640472412 -64.217185974121 -79.489196777344 3.501003742218
-59.975833892822 -63.053112030029 -79.159278869629 2.856511831284
60.070144653320 -64.016975402832 -80.063087463379 3.045294046402
57.754673004150 -64.349159240723 -81.229003906250 2.831525564194
52.006748199463 -65.638366699219 -87.122077941895 1.975415825844
59.468379974365 -64.016265869141 -88.003601074219 2.676115512848
52.904575347900 -63.470867156982 -92.504035949707 1.651425242424
-68.616340637207 -62.221565246582 -95.321685791016 0.818079769611
-70.895568847656 -62.529312133789 -99.808502197266 2.252628564835
-73.900329589844 -62.272399902344 -101.441711425781 1.637691736221
