-116.770141601563 -71.971488952637 -225.090576171875 0.885949850082
15.890439987183 -70.505119323730 -221.996047973633 0.750972568989
76.533531188965 -71.006172180176 -224.504364013672 0.186936691403
7.720271110535 -69.983100891113 -223.060806274414 0.880492031574
-111.613304138184 -71.833374023438 -229.918914794922 0.429294139147
76.998634338379 -71.084503173828 -228.343963623047 0.186855286360
81.379707336426 -71.203613281250 -229.573287963867 0.188037276268
-123.211151123047 -71.597167968750 -232.013229370117 0.144644007087
-113.944419860840 -71.981231689453 -231.214492797852 0.568328320980
-11.255058288574 -71.075714111328 -230.791137695313 0.959377944469
71.958549499512 -71.976631164551 -228.706222534180 0.185534462333
64.821479797363 -71.799453735352 -234.793319702148 0.183233842254
75.267738342285 -70.886291503906 -231.265838623047 0.451645910740
-133.154815673828 -70.664337158203 -234.533737182617 0.330736398697
71.966423034668 -71.483100891113 -235.308792114258 1.030633211136
66.976295471191 -70.971412658691 -235.906463623047 1.653103232384
-166.409667968750 -71.908843994141 -228.831665039063 1.072134375572
0.381116122007 -73.786544799805 -238.757156372070 0.166843503714
17.130863189697 -71.526100158691 -240.243911743164 0.170537456870
-5.831632614136 -70.711441040039 -239.173294067383 0.232289046049
13.631183624268 -70.378730773926 -239.331359863281 0.169626295567
64.621490478516 -71.876708984375 -238.863494873047 0.463624745607
11.393987655640 -71.298728942871 -241.113204956055 1.099760651588
-9.802516937256 -67.812355041504 -241.806838989258 0.163741677999
1.599128842354 -69.926345825195 -240.807479858398 0.423304885626
65.142333984375 -72.107131958008 -243.048187255859 1.008048057556
5.805713176727 -72.830955505371 -242.826828002930 0.902931869030
-8.578816413879 -71.856925964355 -243.159881591797 0.164333492517
13.633351325989 -71.455268859863 -244.620712280273 0.813724994659
-167.316390991211 -70.910812377930 -241.094284057617 1.639983534813
59.015048980713 -69.903579711914 -247.518844604492 0.934320032597
52.074245452881 -70.132690429688 -247.446426391602 1.032979130745
55.672004699707 -71.985435485840 -242.333419799805 0.477032780647
-12.002333641052 -71.668991088867 -247.904342651367 1.336990237236
57.459453582764 -72.261772155762 -247.020248413086 1.207956790924
-72.766662597656 -70.766456604004 -248.040908813477 0.767226874828
51.709655761719 -71.609954833984 -249.659347534180 0.178921207786
-90.813629150391 -72.416091918945 -251.724960327148 0.366168886423
-125.561408996582 -72.774505615234 -254.164260864258 0.142985939980
-133.198074340820 -70.948768615723 -254.025863647461 0.141914606094
43.994804382324 -71.740264892578 -252.651596069336 0.656662464142
-135.790008544922 -72.379219055176 -255.602523803711 0.398367047310
-110.515563964844 -72.091766357422 -256.856719970703 1.027771353722
-113.668670654297 -69.990097045898 -256.672302246094 0.504013001919
-82.655380249023 -72.120536804199 -255.057632446289 0.944403409958
-111.796875000000 -72.829635620117 -260.770202636719 0.688672721386
-123.895210266113 -72.839530944824 -261.884521484375 0.261038333178
-145.200927734375 -70.042236328125 -265.888061523438 0.139818638563
-15.430999755859 -71.388595581055 -262.016601562500 0.395359516144
-167.816101074219 -71.275260925293 -263.653381347656 1.495820045471
-14.104637145996 -72.157218933105 -271.846466064453 1.085465431213
-159.703369140625 -70.357025146484 -267.347686767578 0.439549177885
-152.699493408203 -70.401588439941 -275.113372802734 0.727576732635
-168.312149047852 -71.616775512695 -277.123931884766 1.247389793396
-12.674970626831 -70.331336975098 -274.955291748047 0.918891251087
-133.791778564453 -72.458808898926 -283.698211669922 1.348309516907
-159.878158569336 -71.245674133301 -285.891326904297 0.257241308689
-145.474929809570 -71.212753295898 -281.644744873047 0.454743891954
-134.980041503906 -74.070487976074 -284.602752685547 0.140191242099
-8.276250839233 -69.701889038086 -285.032531738281 1.343627333641
-125.464973449707 -74.311340332031 -284.269348144531 0.184381335974
-141.643981933594 -72.227806091309 -285.053497314453 0.306135892868
-116.549911499023 -71.435226440430 -285.964385986328 0.886819601059
-75.739768981934 -71.740661621094 -286.270294189453 0.148479059339
-62.521621704102 -70.426071166992 -287.300292968750 0.583909690380
-5.517516136169 -71.415084838867 -288.079772949219 0.576111018658
-52.902149200439 -70.953277587891 -289.229461669922 0.399851948023
-58.060840606689 -70.452011108398 -288.562896728516 0.151483535767
-69.002052307129 -70.375068664551 -290.331024169922 0.371893256903
-86.628997802734 -72.026947021484 -291.238220214844 0.208961576223
-98.232360839844 -69.140937805176 -290.792785644531 1.305151700974
-162.223587036133 -69.957740783691 -291.123565673828 1.078126430511
-162.655593872070 -72.503356933594 -291.975646972656 0.331212460995
-125.684097290039 -72.615371704102 -294.611724853516 0.699988663197
-145.303283691406 -72.539627075195 -295.876739501953 0.224248498678
-155.759552001953 -72.882911682129 -300.784606933594 0.131766945124
-147.499816894531 -71.504173278809 -313.004608154297 1.286150693893
47.436267852783 -70.039253234863 -17.570705413818 0.376851648092
20.031505584717 -71.957992553711 -26.890579223633 1.010468721390
41.341064453125 -70.897758483887 -33.803104400635 0.256400018930
-16.784746170044 -73.383644104004 -66.821472167969 1.790269851685
82.338684082031 -70.284439086914 -65.413085937500 1.104149103165
85.854179382324 -69.288673400879 -66.009521484375 0.200694710016
76.771598815918 -70.263061523438 -66.206527709961 0.198448270559
74.035964965820 -70.597877502441 -68.248359680176 1.127995252609
91.782104492188 -73.735984802246 -73.143112182617 0.573802053928
-93.503906250000 -69.869468688965 -70.111145019531 1.733754754066
70.825653076172 -72.090950012207 -75.914527893066 0.299680709839
-36.702384948730 -69.231933593750 -76.672729492188 1.411470770836
100.274253845215 -71.481132507324 -86.746643066406 1.198777794838
59.904163360596 -70.875511169434 -90.219444274902 1.769265174866
106.287399291992 -72.294456481934 -96.046463012695 0.588197052479
105.017295837402 -70.760437011719 -97.714035034180 0.203365430236
70.590682983398 -70.122795104980 -99.270942687988 0.991023719311
-77.242828369141 -73.353019714355 -99.127212524414 0.827522695065
54.291637420654 -72.283821105957 -101.529724121094 1.684987068176
105.366355895996 -70.549461364746 -104.850753784180 1.962689161301
48.986980438232 -72.941291809082 -109.661491394043 0.473021954298
80.504005432129 -70.301147460938 -104.003768920898 0.595693826675
42.142139434814 -70.666358947754 -106.368644714355 0.186181366444
107.040008544922 -69.899505615234 -103.470146179199 1.864778399467
47.912998199463 -69.719825744629 -107.592201232910 1.034476518631
109.436111450195 -70.957878112793 -111.144271850586 0.203558862209
109.188148498535 -70.306991577148 -113.644584655762 1.314580082893
-78.152847290039 -70.678474426270 -113.680694580078 0.986636400223
-82.253364562988 -70.894081115723 -117.184951782227 1.980451703072
44.389183044434 -72.308975219727 -120.652153015137 1.721004128456
114.214843750000 -71.108367919922 -118.509025573730 1.921481847763
114.381507873535 -69.323249816895 -123.784446716309 1.272706508636
-84.240081787109 -70.668350219727 -127.164985656738 1.002705812454
107.588859558105 -70.352493286133 -123.481925964355 0.202014923096
-58.700099945068 -72.125328063965 -131.288269042969 1.648501515388
-85.968193054199 -70.686790466309 -125.921730041504 1.148577332497
-75.340667724609 -69.795158386230 -127.631523132324 0.248567208648
-57.460060119629 -68.013435363770 -126.416084289551 0.475612699986
31.116079330444 -69.771652221680 -128.879989624023 2.480905056000
39.551376342773 -72.197029113770 -132.645523071289 0.565512418747
-75.727218627930 -70.519447326660 -136.958129882813 1.517579674721
28.751590728760 -70.723487854004 -132.594787597656 1.407080411911
110.001739501953 -70.345283508301 -139.724334716797 2.054603815079
-43.204738616943 -70.161735534668 -145.953460693359 0.163973823190
25.738651275635 -68.545761108398 -147.589279174805 1.268245458603
115.336074829102 -69.507560729980 -145.483154296875 0.307661741972
34.856678009033 -70.281616210938 -143.226058959961 1.511648774147
111.483520507813 -69.345581054688 -142.700469970703 0.201610460877
-53.185966491699 -71.980072021484 -148.611175537109 1.780246615410
-67.582244873047 -70.297294616699 -149.690795898438 1.750199437141
-51.080951690674 -71.064117431641 -154.785156250000 1.961290121078
-41.042835235596 -70.917823791504 -164.576232910156 2.675718307495
6.743074893951 -69.396423339844 -155.898223876953 0.251720786095
111.631538391113 -69.388626098633 -154.280166625977 0.200880289078
110.049751281738 -70.153907775879 -157.604415893555 0.895645380020
8.692660331726 -69.094375610352 -158.282363891602 1.377252340317
5.582777500153 -71.925941467285 -162.424911499023 0.517277300358
16.103141784668 -71.872970581055 -156.855010986328 0.699875593185
25.186828613281 -69.810401916504 -155.513580322266 1.234263896942
111.220245361328 -69.353591918945 -166.005599975586 0.807251334190
107.549652099609 -71.300773620605 -167.935836791992 0.604995310307
23.896606445313 -68.966682434082 -171.414978027344 0.799978911877
26.400598526001 -69.929519653320 -161.549926757813 0.230084851384
113.530685424805 -69.512702941895 -161.689224243164 2.083183765411
-27.688686370850 -70.187629699707 -174.106933593750 1.202969431877
109.753486633301 -69.653747558594 -168.300567626953 0.811936557293
17.146492004395 -71.076492309570 -171.623825073242 0.174909085035
22.216806411743 -69.962684631348 -165.211334228516 0.176471710205
109.599349975586 -69.551300048828 -173.339309692383 1.909463405609
25.729112625122 -69.936096191406 -170.828918457031 0.176894411445
110.152542114258 -70.907310485840 -181.479568481445 1.007974386215
-37.569000244141 -69.671203613281 -174.526123046875 1.998810887337
27.059837341309 -69.353675842285 -173.663421630859 1.349951386452
107.078514099121 -69.721603393555 -182.406738281250 0.793850958347
24.094474792480 -70.722015380859 -180.836730957031 0.437498301268
-152.585632324219 -70.360916137695 -186.787414550781 0.159509286284
-28.511850357056 -68.915946960449 -187.995056152344 1.595553755760
25.457284927368 -70.052116394043 -184.190780639648 2.218418836594
-110.861022949219 -70.370010375977 -190.830352783203 2.020653724670
-109.055473327637 -70.031906127930 -188.724868774414 0.149638429284
22.065670013428 -70.249816894531 -189.525115966797 0.982176125050
13.282193183899 -70.942665100098 -185.397567749023 0.172987997532
-26.468721389771 -70.408515930176 -189.479705810547 0.762722671032
-30.556585311890 -71.265174865723 -188.771270751953 0.527448058128
-26.352800369263 -70.239608764648 -185.211593627930 0.312705814838
18.001197814941 -69.940635681152 -179.566009521484 2.467248678207
-150.812484741211 -70.683532714844 -193.275878906250 0.144762784243
-143.603622436523 -70.936492919922 -193.446289062500 0.296337068081
-140.845840454102 -70.887229919434 -196.203384399414 0.224062979221
-21.583013534546 -69.825492858887 -191.009094238281 0.314025253057
12.572359085083 -70.089965820313 -199.084716796875 1.432711124420
99.706817626953 -70.445777893066 -194.533233642578 2.211791992188
-113.844177246094 -70.641792297363 -197.886032104492 0.231422469020
21.534891128540 -70.617385864258 -199.074737548828 1.243878364563
-17.711395263672 -70.095375061035 -196.487564086914 0.165101498365
-18.328325271606 -69.000335693359 -198.828125000000 1.112683296204
100.188438415527 -69.925918579102 -198.434799194336 0.194928064942
9.430509567261 -70.109840393066 -200.802734375000 1.420583009720
-21.455554962158 -69.180130004883 -195.832824707031 0.164248928428
-122.396362304688 -71.871299743652 -200.780883789063 0.332414299250
-133.563369750977 -70.030868530273 -203.120208740234 0.145519196987
-113.584434509277 -69.736793518066 -202.859832763672 0.294499903917
-141.947540283203 -71.025451660156 -203.388427734375 0.144767060876
18.842796325684 -69.844894409180 -197.342254638672 1.621986269951
95.819282531738 -69.662979125977 -204.916900634766 1.304086446762
-166.575668334961 -69.158523559570 -203.321197509766 0.149067148566
99.890968322754 -70.567001342773 -203.270355224609 2.354624986649
-18.781465530396 -70.554817199707 -207.072311401367 0.164182871580
94.568130493164 -70.871414184570 -212.599304199219 0.192622199655
87.890586853027 -69.578697204590 -214.715896606445 1.291435241699
14.697443008423 -69.892807006836 -210.189498901367 2.281967639923
18.307044982910 -70.810928344727 -210.363479614258 1.367882728577
12.083296775818 -69.706153869629 -206.996932983398 1.924561381340
-10.764143943787 -70.844429016113 -220.244033813477 0.864495694637
-95.347084045410 -69.923004150391 -216.533203125000 0.477320492268
-7.530615329742 -70.661209106445 -213.856567382813 1.622042298317
90.967994689941 -69.416664123535 -214.490463256836 1.879569292068
-92.125602722168 -70.452919006348 -219.315277099609 0.484844684601
-103.091186523438 -70.877433776855 -219.651473999023 1.090861797333
-91.594985961914 -72.890121459961 -220.024917602539 1.506958246231
86.772712707520 -69.514266967773 -221.168350219727 0.189857900143
-134.402053833008 -70.007598876953 -224.819931030273 0.143721416593
-134.434860229492 -69.462989807129 -224.819946289063 0.143649175763
-116.890892028809 -69.730278015137 -224.759963989258 0.145765885711
-112.647628784180 -68.882522583008 -225.692520141602 0.335976392031
-134.299194335938 -71.023735046387 -225.798522949219 0.143768504262
-109.168434143066 -72.414588928223 -226.089080810547 1.250966072083
-113.670150756836 -71.460136413574 -227.265518188477 0.421051561832
-6.512449264526 -70.601585388184 -225.744567871094 0.745374083519
-17.131940841675 -70.281425476074 -223.089797973633 0.529323458672
-1.208849072456 -70.284927368164 -231.397521972656 1.940998435020
-10.448062896729 -69.606307983398 -227.186172485352 0.164616003633
14.875493049622 -70.253326416016 -232.611740112305 0.735903799534
-16.492595672607 -70.065719604492 -228.535186767578 0.522253274918
-166.821762084961 -69.432334899902 -224.530136108398 1.713646769524
-2.064387321472 -68.900596618652 -232.842361450195 0.166107758880
80.415191650391 -69.830154418945 -229.624923706055 1.682611942291
9.313757896423 -70.686958312988 -234.281616210938 0.301436007023
-6.733042716980 -69.703834533691 -233.755493164063 0.165066018701
-156.481201171875 -69.233062744141 -237.244583129883 0.140616208315
-140.682846069336 -70.118049621582 -233.181030273438 0.530674397945
65.120353698730 -68.957664489746 -234.867568969727 1.907508969307
-5.784450054169 -71.117126464844 -235.587997436523 1.235630989075
6.494705677032 -71.003898620605 -233.199768066406 1.319192171097
69.247901916504 -70.059753417969 -235.023620605469 0.184280887246
77.106994628906 -71.619773864746 -233.909393310547 1.168260097504
70.028907775879 -70.659286499023 -239.777603149414 0.184323787689
-1.019052267075 -70.699066162109 -237.208129882813 0.737605988979
57.177722930908 -70.246963500977 -240.070999145508 1.193101882935
-18.528900146484 -70.838806152344 -238.931015014648 1.575440168381
-16.773744583130 -70.477897644043 -241.323303222656 1.269743323326
8.890804290771 -70.327583312988 -240.763153076172 0.907713770866
66.046875000000 -70.826278686523 -239.978881835938 0.492259055376
62.169635772705 -69.976737976074 -239.491806030273 1.319265484810
51.089714050293 -69.824691772461 -246.887954711914 1.939905524254
61.403007507324 -71.153656005859 -243.073150634766 0.911010086536
-15.944697380066 -70.762626647949 -250.712844848633 0.582291901112
-83.171562194824 -70.208145141602 -250.069869995117 1.802872180939
-76.786270141602 -69.644416809082 -251.619827270508 2.192965745926
44.598556518555 -70.972366333008 -249.174209594727 1.487977504730
-144.790466308594 -70.064071655273 -251.720840454102 0.592514574528
37.103126525879 -70.962158203125 -254.997787475586 0.755289196968
-91.589820861816 -70.302963256836 -251.732528686523 1.478434443474
-154.772796630859 -69.634010314941 -255.495101928711 1.028057813644
-141.178024291992 -70.091926574707 -255.082290649414 1.075137495995
48.128990173340 -71.008277893066 -252.706497192383 0.177766770124
-124.146484375000 -68.021408081055 -256.613220214844 0.585330784321
-115.624610900879 -69.007728576660 -256.310607910156 0.406557083130
-93.611801147461 -68.847709655762 -257.639465332031 0.886344552040
-14.753029823303 -70.378738403320 -254.342880249023 0.186349526048
31.452779769897 -70.423797607422 -258.744598388672 0.173089057207
24.806737899780 -69.524307250977 -260.392883300781 0.694767653942
-157.161651611328 -70.075721740723 -258.984558105469 1.370495319366
-115.112091064453 -72.114883422852 -262.448028564453 0.448143720627
-14.725554466248 -69.701179504395 -261.617401123047 0.161752834916
-134.256698608398 -70.755210876465 -264.517456054688 0.367159307003
-13.565587043762 -69.569732666016 -270.412353515625 0.429022341967
-167.041290283203 -69.614868164063 -274.323822021484 0.137412235141
-9.480809211731 -71.022720336914 -281.253753662109 0.162140160799
-162.470306396484 -69.684387207031 -287.894744873047 0.672942161560
-162.393325805664 -69.294105529785 -277.254058837891 3.194483518600
-143.285064697266 -69.961250305176 -285.257812500000 0.605739176273
-167.884521484375 -70.777122497559 -284.674804687500 0.136822178960
13.158631324768 -70.198616027832 -286.798004150391 0.167263656855
-103.405708312988 -70.574333190918 -286.695922851563 2.806281566620
-86.610160827637 -70.203987121582 -286.832122802734 0.146456897259
-166.541549682617 -69.515472412109 -285.236236572266 1.666972637177
-91.049240112305 -69.181686401367 -287.576660156250 1.484102249146
-150.550537109375 -69.998878479004 -287.376739501953 0.138071760535
-73.060821533203 -69.504280090332 -288.507843017578 1.315881252289
-68.427581787109 -70.025764465332 -288.628997802734 0.149508342147
-81.443138122559 -69.558738708496 -290.346130371094 1.572969079018
-4.297976016998 -67.085227966309 -290.514709472656 1.170043468475
-84.651367187500 -70.352691650391 -290.892974853516 1.891927123070
-98.867820739746 -69.924934387207 -291.722259521484 0.144234642386
-113.921211242676 -70.845222473145 -292.218933105469 0.258257955313
-116.626434326172 -70.220634460449 -292.443084716797 0.141675546765
-134.434982299805 -68.133018493652 -293.653320312500 1.373085975647
-143.845062255859 -71.672531127930 -300.880218505859 0.510129034519
-144.034576416016 -71.819664001465 -311.136291503906 0.137692555785
23.933202743530 -70.974433898926 -16.495506286621 0.190970644355
31.308818817139 -69.636276245117 -17.505325317383 1.202563047409
29.163024902344 -70.864349365234 -19.002235412598 0.305400073528
43.659519195557 -70.883026123047 -22.382225036621 0.990811944008
27.069290161133 -70.962310791016 -31.732757568359 1.072897076607
-74.754943847656 -67.857719421387 -47.828029632568 1.270308613777
90.257522583008 -68.084747314453 -64.137191772461 0.908914744854
-14.850789070129 -71.131767272949 -68.571891784668 0.177199795842
100.466819763184 -67.693664550781 -71.939300537109 1.719055771828
97.458007812500 -71.998428344727 -75.716751098633 0.203320696950
69.233238220215 -71.783653259277 -77.992607116699 0.195663779974
67.794929504395 -70.821235656738 -83.592346191406 0.617809712887
-44.881877899170 -71.984405517578 -83.296676635742 1.343549847603
62.197090148926 -69.461524963379 -84.405509948730 0.968096017838
-95.643035888672 -70.329856872559 -87.249389648438 0.745270609856
-51.431068420410 -68.705825805664 -86.635856628418 0.435158938169
-54.897037506104 -75.892326354980 -91.420906066895 0.580458998680
98.901153564453 -71.723808288574 -96.167304992676 0.595237910748
58.092624664307 -71.608489990234 -95.096611022949 0.191271290183
63.875114440918 -69.184310913086 -91.435272216797 1.511988162994
-97.292297363281 -67.884811401367 -96.402603149414 1.620539188385
107.764236450195 -69.875694274902 -96.266410827637 0.204118639231
46.767379760742 -69.319557189941 -98.609672546387 1.150996088982
100.302787780762 -69.683555603027 -97.961280822754 0.329892963171
106.168441772461 -69.516532897949 -105.472015380859 2.276215791702
103.169380187988 -69.886856079102 -106.089332580566 0.202058315277
73.483383178711 -69.307548522949 -103.348464965820 0.628789842129
88.016319274902 -70.842262268066 -104.616996765137 0.754390478134
49.563457489014 -71.484573364258 -111.405952453613 1.731024026871
110.873779296875 -70.943382263184 -105.783546447754 1.029976487160
44.249969482422 -69.293556213379 -107.274681091309 0.500863611698
43.795192718506 -67.925399780273 -100.998367309570 0.888588547707
111.831565856934 -69.186752319336 -110.290000915527 0.204062134027
-78.911315917969 -69.805450439453 -110.904632568359 2.084293127060
46.986438751221 -69.893295288086 -113.189117431641 0.186673760414
37.223289489746 -69.508514404297 -113.686042785645 0.976762652397
104.763900756836 -68.385559082031 -109.456230163574 0.202037453651
42.473205566406 -67.555442810059 -111.533569335938 1.005380392075
-89.277305603027 -69.055389404297 -115.516014099121 1.066615819931
-96.109764099121 -69.349113464355 -115.570091247559 0.910219311714
107.118659973145 -68.876838684082 -118.094139099121 2.315890550613
-94.506759643555 -71.838363647461 -118.355003356934 0.573844194412
38.290748596191 -68.702270507813 -121.956001281738 0.183622196317
37.657428741455 -68.583183288574 -118.124076843262 1.083194851875
-80.982078552246 -68.861045837402 -124.804893493652 1.610117077827
31.121574401855 -68.535400390625 -135.849578857422 0.442403495312
108.943176269531 -70.639457702637 -131.187225341797 1.662158131599
-51.654148101807 -68.995193481445 -132.509597778320 1.862369656563
-88.651824951172 -69.491195678711 -129.439331054688 0.845624744892
37.489013671875 -70.054634094238 -133.658218383789 1.631623744965
-92.393882751465 -67.452514648438 -134.884399414063 0.782662630081
-89.998283386230 -69.416801452637 -137.814376831055 1.229075193405
-48.793441772461 -71.959136962891 -137.660247802734 1.050630450249
-70.415313720703 -69.326812744141 -140.508270263672 1.556831002235
-50.605686187744 -68.322578430176 -135.011093139648 0.163346767426
112.870346069336 -68.500282287598 -139.048614501953 0.791502177715
-75.109352111816 -69.470497131348 -140.161697387695 0.862245559692
35.088718414307 -68.538177490234 -132.509887695313 2.201973676682
-78.824386596680 -70.243293762207 -138.743209838867 0.158511057496
-74.741279602051 -68.381118774414 -136.483139038086 0.159099504352
-87.487060546875 -68.329582214355 -137.278274536133 0.768220484257
-51.778682708740 -70.286689758301 -149.235855102539 1.860830664635
31.404685974121 -68.456787109375 -145.595703125000 0.429733544588
27.934606552124 -67.796875000000 -150.453720092773 1.564347982407
17.581468582153 -68.161430358887 -144.244873046875 0.176757097244
113.452377319336 -69.072761535645 -146.660263061523 0.920163154602
-96.860328674316 -68.683395385742 -153.796203613281 1.547509431839
16.052745819092 -70.753356933594 -152.538421630859 0.761506319046
-72.223579406738 -69.115150451660 -150.948532104492 1.491661906242
23.163158416748 -69.808029174805 -150.820983886719 0.177782073617
-48.739398956299 -69.073501586914 -155.483291625977 1.521891713142
9.270997047424 -68.632385253906 -152.380126953125 0.174252048135
12.717457771301 -70.070434570313 -157.412124633789 0.677505373955
19.020313262939 -70.667106628418 -164.046249389648 0.970492303371
-45.903507232666 -69.859481811523 -161.177520751953 0.162116050720
-39.995960235596 -69.639465332031 -153.998184204102 0.487605899572
-44.694747924805 -68.456237792969 -159.280548095703 0.798111557961
-104.228431701660 -69.025779724121 -170.285842895508 0.151738405228
21.674253463745 -68.944908142090 -172.851989746094 1.810639739037
-36.210117340088 -68.449737548828 -172.831802368164 1.267858862877
15.451041221619 -69.968223571777 -178.329055786133 1.401108741760
-145.313079833984 -70.454475402832 -174.931594848633 0.146859630942
-33.168727874756 -68.337059020996 -173.315826416016 0.163402646780
-152.940185546875 -69.198539733887 -176.870788574219 0.252936303616
21.568567276001 -68.860908508301 -182.140014648438 2.227707862854
-31.092863082886 -68.653442382813 -173.099029541016 1.827895402908
-108.816307067871 -69.666336059570 -180.173919677734 1.521214485168
-107.308723449707 -69.612472534180 -182.220840454102 0.150366470218
-29.019634246826 -68.306587219238 -184.337921142578 0.484728604555
-22.600301742554 -70.214096069336 -182.003051757813 1.180810570717
16.269313812256 -68.842910766602 -189.690521240234 0.173143312335
18.447685241699 -68.919822692871 -194.832901000977 1.918117046356
14.848956108093 -68.077316284180 -186.280288696289 0.172939807177
-143.248840332031 -70.320617675781 -188.130691528320 0.145839899778
17.965778350830 -68.494667053223 -190.305801391602 0.614882230759
10.261048316956 -70.196350097656 -196.719451904297 1.662249207497
-140.044204711914 -68.911056518555 -195.656906127930 0.145323887467
-116.633377075195 -69.531990051270 -195.337371826172 0.148059085011
14.844521522522 -68.939460754395 -197.446350097656 2.081415414810
-113.035705566406 -69.767868041992 -196.378738403320 1.004415035248
-107.954627990723 -69.206207275391 -191.463684082031 2.280795812607
-163.183624267578 -70.168518066406 -197.385375976563 1.219138145447
-24.132251739502 -69.682373046875 -200.130477905273 2.260886669159
16.043125152588 -69.011138916016 -201.122589111328 2.021111249924
-139.992004394531 -68.872810363770 -203.264129638672 1.023525357246
-132.909622192383 -68.342048645020 -204.701049804688 0.145238429308
-17.632123947144 -68.957580566406 -206.339172363281 0.164298668504
-11.096853256226 -70.482055664063 -203.287948608398 0.832678616047
-16.170816421509 -68.588371276855 -206.035507202148 0.679974615574
-143.853820800781 -69.486450195313 -206.539947509766 0.144115313888
-15.298893928528 -70.531509399414 -212.895416259766 1.252541780472
-12.442008972168 -68.988891601563 -213.807586669922 0.164945468307
16.852418899536 -68.924232482910 -210.683837890625 0.911045372486
-11.589246749878 -68.923667907715 -211.005935668945 0.165296941996
10.827898979187 -67.958656311035 -211.474441528320 1.541612982750
-9.217289924622 -68.932571411133 -216.192016601563 0.412630081177
-17.429019927979 -69.375724792480 -212.482360839844 1.627790331841
14.193096160889 -69.180999755859 -221.455032348633 1.259103536606
-0.177289530635 -70.863265991211 -220.711563110352 0.673257589340
11.381752014160 -68.507034301758 -222.345336914063 1.113259434700
-5.226093769073 -69.007461547852 -224.732864379883 1.201606750488
-156.262435913086 -68.608413696289 -222.846420288086 1.375421762466
81.379776000977 -69.618240356445 -221.083892822266 0.188334971666
-134.434722900391 -69.054489135742 -224.790954589844 0.143607318401
-134.519714355469 -69.054458618164 -224.819961547852 0.143602520227
-8.895926475525 -69.658073425293 -225.434783935547 0.165068477392
11.488819122314 -69.686309814453 -231.631973266602 0.460884660482
-154.751968383789 -68.809158325195 -226.560333251953 0.940186977386
85.987472534180 -69.043830871582 -220.180953979492 0.094439528883
-2.897550821304 -69.009422302246 -224.734146118164 0.166430532932
0.600525259972 -70.023193359375 -225.463500976563 1.512557744980
74.230072021484 -69.897804260254 -227.226455688477 2.341685771942
1.319103360176 -69.056076049805 -232.766754150391 0.166936010122
-15.974365234375 -71.373283386230 -230.430541992188 1.510874629021
-124.826667785645 -71.033546447754 -234.749862670898 0.869673907757
-2.609787464142 -69.342926025391 -235.335662841797 0.313551992178
2.479038953781 -68.385879516602 -234.591857910156 0.762701392174
66.020919799805 -69.744331359863 -238.870727539063 1.387901425362
-158.333267211914 -68.216323852539 -239.250625610352 0.140206262469
-11.102869033813 -70.932350158691 -243.497924804688 0.347325623035
-167.149291992188 -69.583435058594 -237.968063354492 0.714703977108
8.998420715332 -70.604553222656 -243.132446289063 0.752515673637
-165.861373901367 -68.190773010254 -238.831909179688 1.343317389488
-161.623641967773 -68.990936279297 -244.179428100586 0.139668136835
55.662101745605 -68.142051696777 -246.047927856445 0.421428233385
64.290756225586 -68.741989135742 -243.730285644531 1.812701225281
57.260143280029 -68.867225646973 -242.876174926758 1.306753873825
52.414005279541 -69.057533264160 -248.563186645508 0.178962141275
-158.682830810547 -68.331657409668 -245.220077514648 0.139767155051
-156.696685791016 -69.702789306641 -250.615585327148 1.135056495667
-14.309576988220 -68.575469970703 -249.439346313477 0.559933304787
-152.131072998047 -69.318557739258 -245.348342895508 1.510990858078
22.104932785034 -72.036064147949 -251.611038208008 0.160923719406
-167.358489990234 -69.933090209961 -250.102035522461 0.138919964433
-165.493392944336 -68.176185607910 -245.002655029297 0.753427505493
-81.871574401855 -68.991333007813 -251.210678100586 1.554386973381
-167.451416015625 -69.797111511230 -262.008270263672 0.622575104237
-85.578254699707 -68.694602966309 -254.481796264648 1.560118675232
42.101833343506 -69.121688842773 -252.905563354492 1.353573799133
23.205615997314 -71.900138854980 -255.145919799805 1.853339672089
-159.522628784180 -68.812835693359 -259.447570800781 0.138825446367
-100.074455261230 -67.791122436523 -258.835357666016 1.852141380310
38.563579559326 -70.363853454590 -257.541412353516 1.724464774132
-101.448005676270 -70.394866943359 -259.966369628906 0.943203687668
-154.739044189453 -64.605216979980 -263.050231933594 0.527548968792
-106.850059509277 -68.090591430664 -260.826812744141 0.680950522423
-165.470138549805 -68.649917602539 -259.546722412109 0.875197172165
-112.814056396484 -70.287864685059 -262.179504394531 0.805909752846
-152.616012573242 -70.142234802246 -264.594085693359 0.477651000023
-157.130142211914 -70.161941528320 -264.330017089844 0.708990573883
-166.389175415039 -69.118942260742 -263.245697021484 0.789906084538
-162.013656616211 -68.021934509277 -261.950622558594 0.106463119388
-165.414749145508 -69.014976501465 -267.117919921875 0.441005021334
-161.220703125000 -69.149406433105 -266.329254150391 0.734863102436
24.653142929077 -70.212936401367 -264.998321533203 0.794110000134
-152.203170776367 -69.026008605957 -264.811126708984 0.139113396406
-147.088317871094 -68.310638427734 -282.340881347656 0.240540742874
20.135429382324 -71.560020446777 -277.866424560547 0.649060428143
-10.481799125671 -68.640541076660 -274.348754882813 2.323909521103
-126.475372314453 -70.362472534180 -283.523681640625 0.140914827585
-136.109603881836 -71.207946777344 -285.193695068359 0.156437620521
-135.605484008789 -67.896797180176 -286.781768798828 0.532330155373
-124.850746154785 -70.316551208496 -285.731445312500 0.140984252095
-116.306045532227 -68.755386352539 -286.669403076172 0.141896530986
-107.026679992676 -68.465621948242 -287.517150878906 0.356236904860
11.637497901917 -70.065734863281 -288.979095458984 0.166809767485
-85.893363952637 -69.070686340332 -288.620269775391 0.448258548975
-149.580078125000 -69.893135070801 -290.638885498047 0.633964538574
-100.583984375000 -68.291061401367 -290.034301757813 0.432781010866
-124.479225158691 -67.554344177246 -290.714660644531 0.754206001759
9.036767005920 -71.969459533691 -289.352783203125 0.250248223543
-113.509063720703 -68.579757690430 -291.653991699219 0.392185181379
0.804898858070 -69.491973876953 -292.228820800781 0.773438751698
-143.065490722656 -68.760253906250 -291.622100830078 0.177361369133
-153.756622314453 -70.424156188965 -296.750274658203 0.673291444778
-155.918777465820 -70.341262817383 -310.046905517578 0.431545794010
-154.145599365234 -70.743652343750 -312.505157470703 1.021112680435
50.276748657227 -69.907257080078 -24.369915008545 0.817652165890
21.466136932373 -70.944885253906 -33.143478393555 0.188591912389
33.946376800537 -70.880744934082 -36.883773803711 0.190991073847
-48.363311767578 -69.717674255371 -47.737861633301 2.144732713699
-15.042917251587 -69.249893188477 -60.966259002686 1.331989169121
93.711357116699 -71.087867736816 -69.344764709473 0.166532486677
69.447052001953 -68.722648620605 -70.881744384766 0.195904493332
-22.292839050293 -70.969650268555 -74.575019836426 1.799658894539
-94.429740905762 -71.681549072266 -83.195465087891 0.515137910843
-41.867191314697 -70.240669250488 -78.337577819824 1.612272977829
66.498657226563 -68.121383666992 -83.382575988770 0.245159894228
58.690971374512 -69.723320007324 -87.824417114258 0.811591506004
56.438888549805 -68.365325927734 -87.445533752441 0.191060379148
-57.923305511475 -68.195007324219 -89.323844909668 1.786593079567
66.025848388672 -68.170806884766 -89.550857543945 0.193274974823
45.050216674805 -70.269432067871 -96.909584045410 0.702483296394
67.522575378418 -68.846557617188 -94.214706420898 1.088546276093
-64.719459533691 -67.900634765625 -94.902069091797 1.171843051910
48.687248229980 -70.553314208984 -95.407882690430 1.793501138687
44.328083038330 -68.757995605469 -98.854072570801 1.048960089684
103.637344360352 -68.632591247559 -97.745460510254 0.658939957619
-68.348121643066 -69.188064575195 -99.443824768066 0.723481416702
109.257606506348 -68.679763793945 -101.427650451660 1.285098671913
-78.833671569824 -68.471023559570 -99.932861328125 0.162134081125
55.820167541504 -70.612434387207 -102.489601135254 0.189908012748
47.910171508789 -67.601745605469 -99.889640808105 0.844573676586
93.327949523926 -71.217658996582 -103.269561767578 0.684565544128
86.453330993652 -64.990882873535 -107.608200073242 0.658926606178
52.402389526367 -67.213249206543 -103.776779174805 1.102129578590
-75.051475524902 -69.263130187988 -108.851860046387 0.882878661156
-74.370529174805 -67.940429687500 -111.503562927246 0.393772333860
-79.070953369141 -70.312614440918 -118.726951599121 0.160467699170
-91.755249023438 -70.556442260742 -119.420860290527 0.595582127571
107.905303955078 -67.454116821289 -115.009109497070 0.435314953327
-85.092185974121 -69.325729370117 -119.511268615723 1.215279936790
-78.625625610352 -68.015983581543 -120.210319519043 0.308848619461
110.582809448242 -67.399101257324 -115.051528930664 0.093413084745
-63.958057403564 -65.470314025879 -118.927330017090 1.977806568146
114.468368530273 -68.805076599121 -131.237869262695 0.663881778717
110.400253295898 -68.505027770996 -128.970687866211 1.261934518814
110.386535644531 -67.769302368164 -122.829475402832 1.128682017326
-92.723358154297 -68.797615051270 -138.664215087891 0.156227633357
-49.028610229492 -68.591514587402 -141.286621093750 1.305594205856
-75.871292114258 -69.160583496094 -145.500717163086 1.318395376205
-69.109329223633 -69.095687866211 -149.479019165039 1.382458209991
-72.385925292969 -67.294609069824 -145.160232543945 2.246567010880
-55.190860748291 -68.185142517090 -142.989028930664 0.294596731663
-48.254840850830 -69.216346740723 -148.250717163086 0.750428318977
20.717016220093 -68.560569763184 -144.608215332031 0.520000576973
-94.488380432129 -68.896720886230 -145.009643554688 0.155379548669
-44.430458068848 -68.277214050293 -148.320632934570 0.163282215595
-53.556930541992 -68.310020446777 -148.804138183594 1.246244192123
-41.317024230957 -68.413162231445 -155.523635864258 0.387173503637
28.744655609131 -69.062355041504 -163.787078857422 2.944044351578
-48.395240783691 -67.208641052246 -149.569824218750 0.178941190243
-97.331962585449 -68.594360351563 -150.756240844727 1.218340754509
-41.857719421387 -68.115318298340 -159.300476074219 0.162817910314
26.647600173950 -67.811882019043 -151.506729125977 0.099838487804
-102.126533508301 -68.751556396484 -161.497558593750 1.125123739243
22.464689254761 -68.667938232422 -156.890884399414 2.653229236603
-106.603874206543 -68.812881469727 -171.131439208984 1.236474156380
-100.010185241699 -68.570709228516 -162.727752685547 2.668115139008
22.706123352051 -67.543342590332 -162.645492553711 2.592061281204
25.889015197754 -67.568511962891 -168.312194824219 0.720371305943
-104.375312805176 -68.817375183105 -174.061828613281 1.951012969017
-141.272705078125 -69.289329528809 -176.106628417969 0.172123253345
-22.015853881836 -68.522193908691 -187.184402465820 0.164651110768
-26.853704452515 -68.179870605469 -183.429290771484 0.884788155556
-112.476409912109 -68.481750488281 -186.971176147461 0.888409078121
-143.664001464844 -65.485862731934 -188.209121704102 1.310258507729
-105.965316772461 -68.181625366211 -181.942886352539 0.488877058029
-155.256134033203 -68.706085205078 -192.837417602539 0.750904381275
-131.224365234375 -69.816917419434 -194.543975830078 0.370212674141
-133.419403076172 -68.696136474609 -195.656295776367 0.757194399834
-20.356164932251 -67.437088012695 -192.395935058594 2.422287464142
-122.289955139160 -68.663421630859 -195.748352050781 0.451002031565
-114.283294677734 -67.816848754883 -196.636199951172 0.148022830486
-24.062616348267 -68.186630249023 -196.992141723633 1.532511591911
-154.075500488281 -67.771781921387 -201.223922729492 0.143424004316
-131.214340209961 -70.944343566895 -204.353897094727 0.192963391542
-124.674301147461 -68.256629943848 -205.480194091797 0.146106198430
17.627063751221 -67.545715332031 -201.837173461914 0.172538101673
-160.912750244141 -66.539161682129 -204.941055297852 1.155924558640
8.498433113098 -69.358879089355 -212.762649536133 0.831779479980
13.409138679504 -68.062263488770 -213.516006469727 1.501558065414
-19.245391845703 -67.614074707031 -206.801162719727 0.163762137294
-4.988994121552 -68.883277893066 -215.650604248047 0.929994165897
-166.190597534180 -67.851753234863 -209.178344726563 1.627661108971
-158.466781616211 -68.356979370117 -213.698883056641 1.227270483971
-94.211944580078 -69.193397521973 -217.476531982422 0.687327325344
-101.321022033691 -68.308517456055 -224.739974975586 1.176582455635
-160.791259765625 -67.319152832031 -222.426956176758 1.807345747948
-102.552368164063 -68.815757751465 -219.753326416016 1.789526343346
-12.452713012695 -67.885093688965 -217.939880371094 1.050101757050
-125.945648193359 -69.012435913086 -223.852569580078 0.144613102078
-140.368316650391 -69.665405273438 -225.584548950195 0.143007993698
-2.861497163773 -67.739433288574 -221.296157836914 0.535294115543
-134.243774414063 -68.311851501465 -225.698623657227 0.143469154835
-123.726913452148 -69.763168334961 -224.966354370117 0.280981153250
-114.218223571777 -67.846435546875 -226.260437011719 1.223885536194
3.467310905457 -68.348930358887 -226.411407470703 0.973298013210
-106.509346008301 -69.171852111816 -228.772857666016 0.704153716564
-158.339538574219 -67.402473449707 -223.391220092773 0.564641237259
-147.912643432617 -67.527519226074 -227.561569213867 0.141873702407
-165.983764648438 -67.992362976074 -223.920928955078 0.140717715025
-7.212352752686 -70.456115722656 -228.581192016602 1.228229403496
-8.707135200500 -67.915489196777 -230.880111694336 0.557776451111
78.664138793945 -68.299133300781 -226.263534545898 0.564546525478
2.031412363052 -68.314773559570 -230.392929077148 0.167163535953
-142.281127929688 -68.234634399414 -233.099472045898 0.556832671165
-13.486124038696 -68.843109130859 -228.685073852539 0.921736121178
74.491973876953 -68.331565856934 -228.858963012695 2.083076000214
75.786537170410 -68.522773742676 -232.996292114258 1.234284400940
-134.639724731445 -68.382278442383 -233.230529785156 0.491454780102
-158.925994873047 -67.502006530762 -228.267120361328 0.655967891216
-114.560577392578 -68.981376647949 -232.990463256836 0.231942638755
-123.482299804688 -67.336074829102 -234.105758666992 0.584274709225
-165.027465820313 -67.793899536133 -234.288024902344 0.662740588188
-158.611267089844 -67.993598937988 -236.036468505859 0.140395015478
-144.536788940430 -69.112106323242 -236.205902099609 0.193015411496
-9.128778457642 -70.274490356445 -236.718353271484 0.344896286726
-3.907480239868 -69.180747985840 -237.974487304688 0.411649197340
-161.113693237305 -67.081634521484 -237.644470214844 0.802731394768
5.387124061584 -69.636253356934 -239.931930541992 0.903252661228
6.198010921478 -67.835830688477 -234.338439941406 0.606538712978
-161.282012939453 -68.308441162109 -240.969604492188 0.824992835522
14.544098854065 -69.678932189941 -244.734771728516 0.175384715199
50.762649536133 -69.457588195801 -244.107131958008 0.890184521675
53.049049377441 -68.099693298340 -245.580810546875 0.820665180683
-13.909733772278 -69.460098266602 -246.510299682617 1.076621651649
49.681320190430 -67.417541503906 -248.198135375977 0.875143051147
-163.679306030273 -68.413406372070 -251.871200561523 0.138915419579
-162.398208618164 -68.015647888184 -248.605545043945 1.265102505684
-159.323608398438 -68.296287536621 -249.907150268555 1.289234519005
53.145141601563 -69.254966735840 -250.614944458008 0.179073885083
-89.657073974609 -68.277587890625 -252.784774780273 0.147601902485
-125.717346191406 -69.239486694336 -253.834243774414 0.668157398701
-105.104385375977 -69.472320556641 -255.135330200195 0.807591855526
29.267967224121 -69.393867492676 -257.127929687500 1.236476778984
43.758129119873 -68.293800354004 -250.577285766602 1.109095573425
-101.130264282227 -67.488037109375 -255.365615844727 0.379125684500
-94.381813049316 -67.341354370117 -255.140090942383 0.499553620815
45.142959594727 -68.824455261230 -252.903640747070 1.651158213615
44.172336578369 -68.287078857422 -256.025665283203 2.495879888535
-155.840240478516 -70.003250122070 -258.673339843750 0.139288902283
33.129173278809 -68.321296691895 -257.938323974609 0.363209456205
-141.806777954102 -70.924217224121 -263.146636962891 0.427056252956
-114.654167175293 -67.609214782715 -261.801452636719 0.683267235756
-135.265914916992 -70.336090087891 -263.225860595703 0.427401542664
28.722316741943 -69.397171020508 -262.502807617188 1.318156003952
-126.124038696289 -67.662994384766 -264.557373046875 0.141772389412
-10.909172058105 -68.355712890625 -260.492126464844 2.153031349182
23.528854370117 -70.296333312988 -270.765777587891 0.715720653534
-8.350552558899 -68.062942504883 -266.979339599609 0.812818646431
20.708543777466 -69.180328369141 -278.997711181641 0.899331986904
-151.488098144531 -68.027145385742 -282.332946777344 0.138089835644
-9.906903266907 -69.218460083008 -280.200714111328 0.161946132779
-154.097732543945 -70.868072509766 -283.798522949219 0.383542478085
-126.090034484863 -67.374366760254 -284.947509765625 0.764534652233
-155.977447509766 -71.057182312012 -286.381347656250 0.137719154358
-114.355979919434 -68.910614013672 -287.246429443359 0.142143711448
-105.953704833984 -67.991065979004 -288.341186523438 0.505149483681
-7.066069602966 -67.919090270996 -286.455749511719 0.757356762886
-109.424537658691 -68.099494934082 -290.456787109375 1.935599684715
-115.873619079590 -67.135803222656 -288.129943847656 0.461692869663
-116.557304382324 -67.453422546387 -290.991851806641 0.280589878559
-135.767913818359 -67.288360595703 -289.175506591797 0.449814289808
-124.906051635742 -69.544006347656 -292.206817626953 0.533907473087
-156.424987792969 -69.940795898438 -290.520080566406 0.712287068367
-146.364913940430 -69.693367004395 -294.788269042969 0.138071998954
-151.915969848633 -68.301589965820 -299.732055664063 0.137174382806
-153.730209350586 -67.617912292480 -311.243957519531 0.430492460728
-155.131820678711 -69.382667541504 -300.631805419922 0.234765902162
-145.345001220703 -69.042694091797 -311.143615722656 0.737308144569
-150.829528808594 -66.661010742188 -312.153472900391 0.785133123398
36.409805297852 -70.479690551758 -11.648276329041 0.730453908443
44.682731628418 -70.498878479004 -14.962626457214 1.051711797714
25.633926391602 -64.518852233887 -25.724559783936 1.999713778496
50.182342529297 -69.895301818848 -29.374725341797 0.195395469666
29.664293289185 -71.169136047363 -34.538982391357 1.303488612175
35.441413879395 -70.936134338379 -36.566238403320 0.397966057062
-57.382595062256 -66.909011840820 -45.042392730713 1.471157193184
84.700759887695 -67.859878540039 -63.562526702881 0.223905548453
79.368209838867 -69.100296020508 -65.369735717773 1.828978061676
-90.719108581543 -67.605751037598 -60.605724334717 2.177246809006
-11.381605148315 -67.322654724121 -63.702350616455 1.482768177986
-91.704353332520 -70.486145019531 -66.914756774902 1.454339385033
96.737541198730 -68.904541015625 -70.822311401367 0.203106597066
-15.632090568542 -66.368797302246 -68.662017822266 1.426262617111
68.337860107422 -69.474357604980 -74.649650573730 0.197739392519
-37.930969238281 -71.772544860840 -76.012191772461 0.707932591438
-28.022031784058 -72.744453430176 -77.860588073730 0.390192300081
57.638439178467 -69.228233337402 -85.251403808594 1.102524757385
-44.897033691406 -77.391021728516 -85.053939819336 0.528425037861
65.279670715332 -66.679306030273 -85.933273315430 1.137820005417
54.472732543945 -69.875289916992 -87.085922241211 0.504164576530
51.675884246826 -70.449829101563 -92.062141418457 1.269193053246
62.481735229492 -68.247047424316 -90.876449584961 0.824688196182
58.541473388672 -69.518226623535 -95.516349792480 0.896322131157
101.669555664063 -68.073356628418 -96.478340148926 0.968383431435
104.893722534180 -67.871513366699 -96.607780456543 0.203018575907
58.980831146240 -70.035758972168 -98.232398986816 1.260523557663
106.260498046875 -66.485221862793 -97.577331542969 1.008010506630
-74.887901306152 -68.500839233398 -99.302841186523 0.162810996175
-70.913200378418 -66.653167724609 -99.537841796875 0.391217350960
101.009567260742 -67.299339294434 -98.400604248047 0.682866692543
53.787330627441 -68.167938232422 -100.154151916504 0.682380974293
71.254638671875 -68.556396484375 -100.451217651367 0.954955101013
-73.657485961914 -68.055671691895 -104.289863586426 0.919779121876
-83.614982604980 -67.368606567383 -105.078033447266 1.331383347511
93.257057189941 -68.509536743164 -105.813903808594 1.048446297646
42.771968841553 -67.453193664551 -106.158134460449 0.185885146260
103.591026306152 -66.968711853027 -103.029434204102 1.226717710495
44.626152038574 -68.316993713379 -112.802368164063 0.991456270218
109.430961608887 -67.431320190430 -105.433242797852 1.053539752960
-79.506576538086 -66.605651855469 -108.525154113770 1.478542089462
107.428352355957 -66.522354125977 -107.898086547852 1.631311535835
-85.389663696289 -66.894836425781 -119.613975524902 0.486731559038
-58.449043273926 -69.311698913574 -128.531875610352 0.059934597462
-53.694393157959 -66.304222106934 -125.578529357910 0.650297701359
-73.825531005859 -67.509796142578 -128.206130981445 1.722063302994
-51.244514465332 -68.859367370605 -129.755981445313 0.163791149855
-83.850318908691 -68.945274353027 -130.161361694336 1.251145124435
-76.961250305176 -67.497093200684 -134.151580810547 1.111760616302
-82.197425842285 -66.775688171387 -127.367073059082 0.285304248333
-58.248985290527 -70.171981811523 -139.505493164063 0.861773669720
-72.650260925293 -66.608749389648 -138.588943481445 0.369838565588
-58.848987579346 -66.687789916992 -137.410079956055 0.161414995790
-60.451633453369 -68.931411743164 -139.547622680664 0.647462785244
23.009319305420 -66.960754394531 -140.732894897461 1.128139495850
-90.172599792480 -67.216400146484 -143.674713134766 1.522294759750
-46.153633117676 -67.883628845215 -142.574234008789 0.747659981251
-98.871788024902 -66.015594482422 -148.581115722656 1.419108867645
-99.177017211914 -67.401229858398 -151.021499633789 0.153949007392
17.813188552856 -68.138236999512 -151.639602661133 0.765385866165
13.128065109253 -68.766784667969 -156.304748535156 0.766934156418
-96.611244201660 -67.300941467285 -157.486709594727 1.299415349960
-102.244514465332 -66.880683898926 -157.308288574219 0.733149647713
-101.248184204102 -67.313240051270 -168.753875732422 0.152027860284
23.040050506592 -67.007423400879 -168.456909179688 1.549110174179
-107.966804504395 -67.385078430176 -170.905502319336 2.129847764969
19.677469253540 -68.426567077637 -168.358566284180 0.571642220020
-146.903625488281 -67.325256347656 -175.316009521484 0.624658167362
17.554262161255 -68.140449523926 -176.430557250977 1.039278984070
23.029954910278 -67.646362304688 -185.120422363281 2.041039705276
