-42.643791198730 -72.932647705078 -287.600189208984 1.125257968903
-142.147003173828 -67.609863281250 -227.001983642578 1.203761339188
-133.396286010742 -71.001708984375 -204.353302001953 1.446431159973
-161.068847656250 -70.277503967285 -209.868545532227 3.556190252304
37.199676513672 -73.781044006348 -106.253173828125 2.188453912735
26.611413955688 -67.520683288574 -141.127792358398 2.359067440033
20.880071640015 -65.994308471680 -14.391894340515 4.088208675385
-61.770671844482 -60.011814117432 -129.254013061523 2.239226818085
65.480659484863 -70.418930053711 -90.561080932617 1.389368772507
28.010061264038 -79.700897216797 -142.199371337891 0.883701920509
74.198692321777 -65.891365051270 -63.352512359619 2.113376617432
12.955280303955 -79.843414306641 -237.897094726563 2.175442218781
-88.142890930176 -62.876846313477 -119.780944824219 1.758490681648
-89.705558776855 -77.461021423340 -288.072937011719 3.040343761444
-22.254774093628 -77.456344604492 -203.014739990234 1.527100801468
-37.587524414063 -70.419593811035 -163.804672241211 2.157865524292
-62.192356109619 -62.789878845215 -82.969215393066 1.961594462395
-85.724632263184 -68.949829101563 -101.755897521973 3.810878753662
105.517311096191 -72.765998840332 -141.296249389648 4.500104904175
-61.497653961182 -80.265335083008 -170.189575195313 0.285746365786
-67.972640991211 -79.145927429199 -64.875549316406 1.665186882019
-2.659918069839 -70.218696594238 -222.617965698242 1.009259819984
0.951703011990 -76.004272460938 -227.912460327148 1.221866369247
-43.382331848145 -79.773300170898 -156.427520751953 2.101163864136
-62.843173980713 -70.456146240234 -136.348281860352 2.835243463516
-24.450283050537 -77.075180053711 -189.421127319336 2.123723506927
-64.405769348145 -73.227386474609 -168.031677246094 1.646395325661
-39.747192382813 -73.640419006348 -286.447326660156 0.653470039368
-60.051433563232 -75.433532714844 -141.384124755859 2.891885995865
102.323936462402 -69.495536804199 -119.325920104980 4.471976757050
-14.561361312866 -73.414848327637 -202.730224609375 1.852086544037
-156.890762329102 -85.380630493164 -255.472915649414 4.354531764984
-93.980720520020 -75.828269958496 -79.211181640625 3.189849138260
-33.502155303955 -71.975654602051 -168.702163696289 0.910882890224
-15.011982917786 -63.696029663086 -60.647106170654 4.079968452454
-60.523933410645 -71.489021301270 -142.591125488281 2.061820745468
-5.108126163483 -68.563888549805 -222.705474853516 1.614597916603
-82.060981750488 -61.624813079834 -122.141349792480 1.303362369537
98.451553344727 -57.899074554443 -98.606117248535 3.191520929337
-30.274900436401 -77.061744689941 -213.005676269531 1.286321640015
-152.897827148438 -81.340438842773 -306.461730957031 3.184087991714
-158.771820068359 -65.474868774414 -256.485961914063 3.271021842957
-44.294071197510 -81.368041992188 -82.678649902344 2.765964031219
70.943069458008 -74.426139831543 -83.302520751953 1.507185578346
12.038157463074 -64.038398742676 -143.820098876953 4.423431873322
41.587409973145 -67.699401855469 -112.104125976563 1.483870744705
30.480684280396 -69.517105102539 -142.335479736328 1.400516390800
32.383937835693 -67.750801086426 -118.165885925293 4.121774196625
-0.555869996548 -75.601318359375 -291.735412597656 1.697268962860
-20.246231079102 -77.038772583008 -239.738204956055 1.705942630768
24.667097091675 -58.583042144775 -12.314826011658 3.991386413574
-158.345336914063 -79.694526672363 -228.183593750000 4.125111103058
-76.177116394043 -74.122535705566 -54.726600646973 3.807182550430
-166.238906860352 -73.777793884277 -200.050735473633 3.194873094559
-5.218850135803 -72.802597045898 -162.756301879883 3.474178552628
-18.916343688965 -70.322120666504 -202.058074951172 1.977957010269
13.810968399048 -73.541007995605 -218.704330444336 2.463852405548
103.263244628906 -71.331573486328 -121.355232238770 3.959108352661
-23.427791595459 -75.537132263184 -226.116210937500 2.612204074860
-7.786785125732 -66.988044738770 -223.508895874023 2.442533254623
105.915748596191 -69.790359497070 -180.307022094727 0.801840960979
77.853187561035 -66.660430908203 -63.631404876709 1.028614878654
-39.338607788086 -77.301147460938 -179.894897460938 3.615699052811
11.519259452820 -71.092132568359 -237.880172729492 1.946777462959
72.992332458496 -65.103149414063 -62.691009521484 1.394690155983
-90.038703918457 -60.872505187988 -114.699035644531 3.200396776199
49.344112396240 -65.066345214844 -246.951171875000 2.429981470108
-36.717132568359 -80.892402648926 -209.334930419922 2.121169567108
44.720531463623 -70.489822387695 -111.457237243652 0.798555433750
-4.816329956055 -64.126792907715 -236.797180175781 2.701063632965
-155.469009399414 -69.772972106934 -220.295425415039 2.421561241150
-57.043331146240 -59.530288696289 -77.768211364746 1.998472690582
103.433570861816 -71.143066406250 -162.525344848633 4.951038837433
104.246070861816 -70.164970397949 -112.373161315918 1.374507188797
-44.996955871582 -62.475482940674 -78.530120849609 2.427105665207
-70.414764404297 -61.257369995117 -96.516632080078 2.028877019882
-81.162452697754 -75.969741821289 -252.839904785156 1.013924837112
26.159938812256 -67.762718200684 -262.072357177734 0.372769653797
-137.488433837891 -71.537620544434 -253.907546997070 2.565545558929
76.988632202148 -75.170791625977 -80.829498291016 1.266450405121
-159.774520874023 -66.729621887207 -287.878143310547 4.066034793854
-2.193402051926 -60.790435791016 -251.319854736328 1.445157527924
0.312736004591 -63.414890289307 -268.895202636719 3.198431491852
-53.199886322021 -79.758850097656 -67.761451721191 1.564988017082
-24.104549407959 -58.834815979004 -49.728691101074 2.083994626999
-17.864955902100 -76.469100952148 -228.835693359375 1.804765701294
74.565795898438 -72.963806152344 -226.776962280273 2.887396335602
-9.044454574585 -71.525184631348 -217.252532958984 2.720729827881
45.192852020264 -68.090919494629 -23.394136428833 2.407946825027
-55.569427490234 -84.910812377930 -81.216941833496 1.509976387024
-10.322174072266 -75.449287414551 -282.275787353516 3.392156362534
19.429811477661 -69.400199890137 -177.469375610352 0.876491606236
-160.981140136719 -72.776496887207 -290.075592041016 2.674860239029
47.196136474609 -71.841270446777 -90.890594482422 2.990839958191
-23.666162490845 -75.328025817871 -189.519821166992 3.658787488937
-156.287857055664 -83.338867187500 -198.025634765625 4.608634471893
-150.509979248047 -71.574981689453 -280.493499755859 2.602211236954
-24.491489410400 -70.268867492676 -206.874404907227 3.308581829071
107.559379577637 -66.031234741211 -116.622261047363 1.922029614449
-145.642395019531 -67.612884521484 -181.848526000977 1.974033951759
-94.377525329590 -68.233734130859 -142.123306274414 1.701858282089
-55.416984558105 -72.671798706055 -132.463562011719 1.163323402405
12.297518730164 -79.174072265625 -213.027175903320 1.804471969604
-107.269210815430 -68.994041442871 -171.366378784180 1.313246130943
-90.965553283691 -65.162483215332 -134.310379028320 1.242879033089
-32.610530853271 -85.374496459961 -186.131164550781 2.402461767197
-5.866351127625 -68.215492248535 -231.372940063477 2.384604215622
77.031341552734 -72.483535766602 -71.576110839844 2.039999008179
-38.979885101318 -77.946769714355 -174.661880493164 1.633468389511
-93.546249389648 -69.243331909180 -61.014038085938 3.746340990067
16.913516998291 -63.203762054443 -32.770118713379 4.496051311493
-34.772441864014 -80.452720642090 -212.197967529297 2.583957433701
36.125411987305 -70.323753356934 -127.910896301270 2.584352493286
-153.649337768555 -87.280288696289 -263.485870361328 4.418476581573
-7.589713096619 -74.728416442871 -213.938247680664 0.959503471851
-102.984397888184 -75.315902709961 -257.038848876953 3.069444417953
-80.660614013672 -67.137138366699 -121.978179931641 1.997947454453
-11.312481880188 -74.158370971680 -291.041381835938 1.422950387001
-80.487434387207 -63.579216003418 -109.770652770996 2.430274248123
36.876869201660 -59.456729888916 -120.723526000977 1.433271646500
20.573728561401 -67.455688476563 -152.929428100586 2.704801082611
-136.341979980469 -78.187370300293 -259.153259277344 1.630954265594
3.044091939926 -74.373023986816 -206.990066528320 4.214169979095
-12.396965980530 -80.099006652832 -174.270858764648 1.824481844902
-78.087921142578 -71.051856994629 -50.939590454102 1.566820979118
-29.560262680054 -74.958442687988 -174.136444091797 1.874950051308
15.941624641418 -75.651542663574 -245.522369384766 2.226017713547
7.034184932709 -79.038551330566 -221.085311889648 1.103010773659
84.488311767578 -69.745018005371 -67.399833679199 1.947389483452
-134.441574096680 -64.463661193848 -197.390991210938 1.561299324036
-78.948165893555 -82.259353637695 -79.509674072266 2.490763425827
-162.908493041992 -74.880104064941 -227.475952148438 2.451851606369
-135.848785400391 -68.468475341797 -286.992828369141 0.847222864628
-6.727073192596 -76.108970642090 -231.010299682617 1.422930240631
-82.023162841797 -76.060089111328 -248.379516601563 2.486429452896
104.943748474121 -72.580276489258 -129.566375732422 3.981999158859
-121.551719665527 -75.133163452148 -260.947814941406 2.692235946655
-102.893920898438 -74.700164794922 -286.175933837891 1.515794992447
-75.660224914551 -61.916793823242 -102.823425292969 1.362379908562
-100.373359680176 -69.427200317383 -147.725540161133 3.893059968948
-148.592025756836 -84.730133056641 -261.689239501953 0.470889747143
15.832766532898 -75.171569824219 -272.620208740234 4.144217967987
-156.369491577148 -83.808319091797 -262.160308837891 3.646172523499
-129.932571411133 -71.709815979004 -204.167205810547 1.518470764160
20.675563812256 -69.130668640137 -163.928558349609 2.252569913864
-168.319747924805 -68.622070312500 -205.810989379883 2.801683425903
-5.869132995605 -76.852134704590 -283.928619384766 2.806089878082
-129.585327148438 -64.735580444336 -196.459350585938 1.942045927048
-141.187194824219 -69.034118652344 -256.714050292969 1.224514484406
-135.717773437500 -67.350173950195 -232.987899780273 1.170476078987
45.191928863525 -60.922386169434 -25.274328231812 1.608978509903
-38.092189788818 -70.441909790039 -52.305103302002 2.582471132278
-171.494857788086 -72.690467834473 -249.594207763672 4.719116687775
-98.418594360352 -70.899078369141 -289.424346923828 2.558715820313
7.088197231293 -79.204391479492 -204.675537109375 3.665136814117
-0.793811023235 -76.564682006836 -234.536727905273 1.851832985878
36.624351501465 -57.773651123047 -32.916297912598 4.053750991821
30.439445495605 -68.500686645508 -138.020751953125 1.856864929199
102.237831115723 -66.444335937500 -95.770782470703 1.464150071144
78.417510986328 -75.511787414551 -224.146499633789 0.643000304699
44.887386322021 -74.533554077148 -111.888198852539 3.084697008133
-103.707000732422 -60.975627899170 -77.950660705566 4.767621040344
-62.132888793945 -71.909400939941 -143.471084594727 3.820913553238
4.437263965607 -73.179046630859 -225.813903808594 1.902462601662
-130.497192382813 -71.464065551758 -264.163208007813 1.125700235367
-57.768836975098 -73.461181640625 -136.255661010742 2.130523681641
-17.274070739746 -75.316459655762 -254.230361938477 3.734987735748
13.041358947754 -79.014808654785 -222.919769287109 1.562432646751
43.951843261719 -66.007072448730 -106.498931884766 1.816894888878
-12.427149772644 -67.129180908203 -218.034225463867 1.151004314423
102.411346435547 -66.454856872559 -114.802505493164 4.429224967957
-61.775962829590 -79.448837280273 -168.760101318359 1.531896710396
-152.775497436523 -77.549667358398 -212.726058959961 3.813717603683
-24.241418838501 -74.595893859863 -241.740066528320 0.828329980373
-158.997024536133 -70.182800292969 -230.698715209961 2.534842729568
-105.967437744141 -66.416671752930 -170.177566528320 2.192037820816
-121.376808166504 -73.003974914551 -255.568206787109 2.511817932129
-83.818481445313 -71.027633666992 -113.641143798828 3.303280591965
-68.623451232910 -76.063941955566 -159.976577758789 1.371126055717
-54.520584106445 -79.646835327148 -67.186309814453 2.197831153870
-74.193122863770 -82.192932128906 -76.216590881348 0.830100715160
21.220378875732 -68.455436706543 -264.694152832031 4.048188686371
-69.671829223633 -82.229927062988 -210.292938232422 1.017358899117
44.576335906982 -63.243835449219 -98.702613830566 3.427232503891
3.384561061859 -78.991989135742 -245.021820068359 1.269848465919
-0.635062992573 -76.986991882324 -226.061462402344 1.941730499268
30.504627227783 -60.468902587891 -123.775215148926 2.723872423172
49.986846923828 -72.519119262695 -98.177536010742 1.960812807083
4.214900016785 -70.696662902832 -227.441665649414 0.978306710720
104.848350524902 -67.648513793945 -127.098388671875 4.864223003387
30.723396301270 -69.736343383789 -11.838017463684 1.045290112495
-8.838477134705 -79.440963745117 -248.269821166992 3.079937696457
31.991250991821 -75.907409667969 -141.592056274414 3.011150360107
-151.391418457031 -68.847244262695 -281.784698486328 1.027667164803
-16.883737564087 -71.267875671387 -199.783370971680 1.713828802109
36.175548553467 -73.977973937988 -131.102416992188 2.726743221283
-46.123966217041 -79.133560180664 -150.965713500977 1.446722269058
47.729480743408 -60.587318420410 -91.424011230469 4.604774475098
-101.633712768555 -65.733489990234 -73.474441528320 5.102124214172
88.761573791504 -74.485603332520 -86.655944824219 2.992515802383
-19.189121246338 -72.637832641602 -241.378662109375 1.698500156403
-26.692342758179 -80.528816223145 -178.660858154297 0.940666913986
-85.953300476074 -69.778022766113 -53.891288757324 2.473070859909
17.754642486572 -68.686203002930 -177.771499633789 1.182607531548
-143.745666503906 -71.215087890625 -202.729110717773 2.013575553894
42.295570373535 -75.595619201660 -104.066871643066 1.947784543037
11.181928634644 -81.557533264160 -245.317520141602 1.573328495026
-26.977703094482 -73.112754821777 -222.592086791992 3.610189199448
-156.777175903320 -71.809867858887 -183.043930053711 4.587762355804
53.277862548828 -68.353454589844 -87.911415100098 1.174898743629
-53.486869812012 -80.439918518066 -199.786499023438 1.497476339340
-113.941902160645 -73.737968444824 -226.234436035156 2.673941373825
105.185745239258 -70.532844543457 -145.639068603516 5.235465526581
-44.784801483154 -75.828285217285 -172.186157226563 3.934873819351
23.093456268311 -75.909133911133 -168.289749145508 2.171391010284
109.185729980469 -72.233024597168 -142.171981811523 1.672520637512
105.303512573242 -65.673019409180 -118.930648803711 4.289428234100
109.672492980957 -71.582397460938 -145.992630004883 2.440443038940
-83.893463134766 -70.244499206543 -134.809616088867 2.998890876770
-13.888246536255 -77.672599792480 -175.406036376953 1.284184575081
-60.400043487549 -76.840347290039 -176.492340087891 2.465497970581
60.535701751709 -68.295005798340 -242.150039672852 2.153191804886
26.864000320435 -70.996330261230 -160.477462768555 1.570482492447
4.646269798279 -74.582389831543 -158.116394042969 1.128498554230
-58.672958374023 -76.692131042480 -185.315032958984 3.691998481750
-155.638534545898 -71.022369384766 -191.058792114258 2.866453170776
-60.485141754150 -72.514511108398 -130.095718383789 2.018463373184
-22.514820098877 -79.740989685059 -202.239242553711 2.187411785126
-76.031524658203 -77.282608032227 -210.889511108398 1.936100959778
-91.699958801270 -66.708702087402 -137.183898925781 2.237875223160
35.809398651123 -76.418251037598 -107.259239196777 3.247791528702
13.049369812012 -79.997474670410 -239.133895874023 1.128511786461
-151.214492797852 -87.737533569336 -264.628173828125 3.344888925552
-114.872123718262 -71.202125549316 -261.517974853516 1.545858860016
-63.641239166260 -76.755874633789 -290.023132324219 1.718171834946
-102.118011474609 -64.468536376953 -72.735740661621 5.163372516632
-77.431541442871 -68.136581420898 -106.030838012695 1.460486650467
7.387457847595 -84.683578491211 -261.921234130859 1.020556926727
-41.427055358887 -71.874267578125 -160.909729003906 1.797459602356
-85.060119628906 -79.936065673828 -76.936103820801 2.112856864929
89.911087036133 -72.495231628418 -205.714935302734 2.966166973114
105.207206726074 -68.690597534180 -163.409011840820 4.252776145935
-49.837539672852 -68.102722167969 -146.084869384766 1.360603809357
31.355846405029 -77.739166259766 -132.093170166016 1.126215815544
-82.609008789063 -66.208625793457 -47.974529266357 2.746310710907
-93.412117004395 -73.225151062012 -213.761428833008 1.760699033737
-16.680828094482 -73.871215820313 -198.787933349609 1.651442646980
-168.460159301758 -77.273345947266 -271.912261962891 3.757082223892
0.997958004475 -85.476753234863 -255.523635864258 1.638873100281
-95.720230102539 -67.452644348145 -119.362243652344 1.258639812469
-148.346511840820 -68.914764404297 -234.268890380859 3.365143060684
87.907402038574 -57.683692932129 -59.659275054932 2.043550729752
-79.808151245117 -65.679565429688 -123.529518127441 0.419487804174
-0.201425001025 -62.221229553223 -282.804107666016 2.712470769882
101.640472412109 -65.919898986816 -95.752128601074 1.787213683128
-40.785358428955 -80.609931945801 -163.920730590820 2.257379055023
-53.357994079590 -72.800102233887 -51.400684356689 2.080446004868
-111.799201965332 -66.808349609375 -188.929412841797 2.089978933334
-20.585216522217 -70.785400390625 -238.066238403320 1.330430865288
-150.548095703125 -80.548789978027 -307.113128662109 2.572258472443
-113.190673828125 -67.384635925293 -196.786392211914 1.143135428429
7.922227859497 -72.213577270508 -196.201141357422 2.787022352219
9.351634025574 -80.990791320801 -236.950210571289 0.574067890644
105.981460571289 -72.938545227051 -172.906799316406 0.701894402504
80.601066589355 -75.500213623047 -87.867713928223 3.561924934387
52.761177062988 -59.819667816162 -93.608016967773 2.016319990158
-35.163352966309 -78.493545532227 -214.415222167969 2.695530176163
-146.277572631836 -65.764244079590 -231.756607055664 2.213020086288
-154.475692749023 -80.592445373535 -219.151046752930 4.627986907959
-24.920927047729 -70.810256958008 -60.021034240723 2.569348812103
58.171264648438 -58.281631469727 -91.254364013672 0.385879993439
-46.295188903809 -65.883583068848 -46.636600494385 1.554143428802
36.037040710449 -78.394309997559 -126.750617980957 2.838777780533
36.223045349121 -73.840057373047 -131.022460937500 2.570353269577
-29.302555084229 -79.116348266602 -178.665267944336 0.835955262184
106.733573913574 -74.069702148438 -131.077163696289 2.611427545547
-83.842903137207 -76.061355590820 -62.655281066895 3.618199825287
-150.077117919922 -76.721641540527 -264.829284667969 0.931144893169
14.227370262146 -66.537849426270 -180.189117431641 3.523540973663
-149.545104980469 -78.532493591309 -210.143112182617 1.436158537865
-150.529815673828 -88.668350219727 -291.340515136719 2.878855466843
-153.911071777344 -74.726882934570 -181.297912597656 3.986055612564
-15.332139968872 -72.111167907715 -230.341384887695 1.775802493095
-16.002534866333 -80.072570800781 -213.677291870117 2.509334564209
-23.939813613892 -78.891624450684 -182.185943603516 1.086795806885
-110.729965209961 -76.632621765137 -289.452941894531 2.426461696625
-61.436004638672 -63.782169342041 -118.594314575195 0.829815030098
15.863550186157 -75.693481445313 -237.029769897461 2.026538848877
-80.580589294434 -73.043785095215 -134.317993164063 3.111131906509
33.389781951904 -63.784572601318 -253.936584472656 2.809213876724
13.209942817688 -65.344932556152 -151.500640869141 1.709154129028
-154.397735595703 -79.808433532715 -221.934539794922 3.481132030487
-82.053642272949 -71.864318847656 -286.671356201172 2.167784214020
-48.346916198730 -76.287071228027 -58.268337249756 1.934701800346
-167.150543212891 -77.545349121094 -280.493499755859 4.074989795685
-23.964401245117 -70.877769470215 -203.979782104492 1.305780053139
28.424785614014 -79.569549560547 -141.882125854492 0.922994613647
99.504180908203 -58.841022491455 -76.149200439453 5.064054489136
-8.830874443054 -67.493995666504 -267.899627685547 0.748732328415
6.206606864929 -80.081298828125 -211.693481445313 2.826133966446
-143.555557250977 -83.576965332031 -196.872421264648 1.241274476051
37.909210205078 -63.912384033203 -252.045898437500 0.889457702637
19.935440063477 -77.343429565430 -166.635894775391 1.689335107803
41.252624511719 -71.491409301758 -95.919311523438 4.176219940186
-87.427093505859 -77.575866699219 -108.329750061035 3.322524785995
8.601785659790 -78.114349365234 -210.045867919922 0.871688604355
-91.242675781250 -79.299942016602 -85.958267211914 4.021215438843
-113.567443847656 -71.092269897461 -183.647567749023 3.743997335434
-65.896400451660 -75.054183959961 -290.184356689453 1.908725380898
13.393135070801 -78.754005432129 -189.272567749023 2.256920814514
-8.403098106384 -69.426048278809 -225.232284545898 0.621186912060
85.272918701172 -75.542160034180 -210.537612915039 2.988064527512
-144.729141235352 -73.645538330078 -262.432922363281 1.920309066772
72.538116455078 -63.241546630859 -60.957885742188 1.592598080635
-65.865730285645 -73.118576049805 -247.083877563477 1.615241408348
-48.132457733154 -73.370033264160 -289.283416748047 3.476807355881
66.188926696777 -64.489616394043 -65.712577819824 2.363709211349
32.728256225586 -67.466308593750 -259.026641845703 0.844874382019
-24.712720870972 -77.560432434082 -286.037750244141 2.178157091141
-50.686489105225 -77.270507812500 -84.722961425781 3.752231121063
-170.557479858398 -74.152603149414 -232.060348510742 5.369352817535
-45.859474182129 -74.104598999023 -166.597824096680 1.768436431885
-119.512115478516 -69.954109191895 -290.311676025391 2.213405132294
68.035751342773 -60.727535247803 -61.441638946533 2.323060035706
-155.745254516602 -73.364044189453 -179.197998046875 5.063228607178
-45.469955444336 -71.187561035156 -169.722015380859 2.946552038193
-34.933448791504 -65.201789855957 -48.808639526367 1.706620097160
13.231446266174 -80.818275451660 -257.192382812500 2.458062887192
13.695269584656 -78.228668212891 -225.276870727539 1.565894246101
11.595794677734 -73.972557067871 -290.373626708984 3.034181118011
37.691284179688 -64.700012207031 -31.905094146729 4.341252326965
46.320442199707 -68.807540893555 -104.457664489746 2.233562469482
23.113088607788 -75.788566589355 -140.166687011719 2.020421504974
-70.156753540039 -60.370681762695 -89.899108886719 4.568448066711
54.175159454346 -61.496742248535 -94.600502014160 1.305832743645
109.246040344238 -67.690551757813 -153.116104125977 3.248144388199
23.006658554077 -70.901199340820 -133.856109619141 4.434962749481
-48.522308349609 -71.593421936035 -141.810409545898 2.171405553818
-102.389015197754 -64.298225402832 -110.651939392090 4.640114307404
-157.238204956055 -62.497638702393 -201.453048706055 3.296550989151
69.107978820801 -71.207771301270 -226.684020996094 3.710172891617
-67.616920471191 -66.922119140625 -121.850173950195 3.399054765701
-45.951412200928 -69.085906982422 -152.544372558594 1.937809944153
-66.378326416016 -78.968246459961 -161.395309448242 1.770893573761
-92.943916320801 -69.864791870117 -254.189544677734 2.728377342224
-59.675479888916 -73.942802429199 -285.389862060547 0.966369807720
20.524711608887 -70.872116088867 -262.343750000000 3.688208103180
79.024398803711 -73.232864379883 -221.843505859375 0.898487865925
-41.006492614746 -74.121086120605 -204.035629272461 1.781928062439
-156.838226318359 -84.670410156250 -228.063262939453 4.423444747925
-131.375640869141 -65.055000305176 -228.682800292969 2.311655521393
-82.874526977539 -72.002960205078 -252.839996337891 2.470040559769
-149.317382812500 -72.985511779785 -269.553100585938 2.646921157837
-136.650039672852 -76.987854003906 -261.815917968750 1.697808265686
-149.676040649414 -83.051849365234 -210.372268676758 1.179225683212
-130.246322631836 -64.657226562500 -196.474746704102 1.721972465515
-60.598064422607 -71.186203002930 -146.023330688477 3.445434093475
-37.938060760498 -74.146163940430 -290.169586181641 2.102506875992
-70.153404235840 -61.373626708984 -112.947555541992 1.189664483070
-44.286563873291 -86.356994628906 -194.744750976563 2.295544862747
-26.053401947021 -74.931922912598 -68.422866821289 2.286260128021
-69.736053466797 -76.151115417480 -290.226837158203 0.803968429565
-78.982200622559 -66.023529052734 -136.757873535156 1.477034687996
-54.575946807861 -83.602706909180 -203.408294677734 1.822063088417
21.122152328491 -69.626853942871 -37.165405273438 2.717328548431
87.527893066406 -70.795097351074 -70.902526855469 2.969921588898
-12.500907897949 -76.544357299805 -225.455398559570 0.999902963638
-128.429733276367 -74.056999206543 -254.394485473633 3.162888050079
26.393335342407 -64.481422424316 -34.821678161621 3.296868801117
-121.316833496094 -75.739982604980 -258.553680419922 3.334762096405
-59.537849426270 -59.816253662109 -132.390243530273 0.980936944485
48.262119293213 -70.692436218262 -102.785095214844 3.057725191116
100.113960266113 -70.306457519531 -194.939392089844 2.444043397903
1.949102044106 -76.182167053223 -242.883102416992 2.032403469086
-34.101306915283 -75.082176208496 -186.531478881836 1.779102444649
-87.073707580566 -66.445434570313 -114.247940063477 1.972151994705
56.558116912842 -66.822807312012 -83.033340454102 2.705607652664
107.631019592285 -72.679237365723 -163.659393310547 1.412551760674
-60.391338348389 -63.507198333740 -125.013519287109 3.404937982559
-33.516036987305 -66.985031127930 -75.823173522949 2.484575748444
9.951524734497 -65.992897033691 -287.328674316406 3.781516790390
-74.652900695801 -59.829280853271 -117.258224487305 3.296787261963
-5.147378921509 -82.062347412109 -249.805816650391 1.974530220032
-42.043491363525 -79.161636352539 -69.145149230957 1.540955901146
-29.619489669800 -65.781173706055 -51.279983520508 2.549317836761
-90.911560058594 -64.625976562500 -129.377395629883 1.996999621391
6.665116786957 -77.038963317871 -198.194305419922 3.858749628067
-151.278366088867 -80.679840087891 -302.891937255859 1.783232092857
-128.556777954102 -68.072280883789 -289.669067382813 3.212762117386
-76.469642639160 -70.104438781738 -100.034469604492 1.454290866852
-6.152771949768 -72.467315673828 -237.640655517578 1.879685521126
-0.030200999230 -63.192958831787 -275.858398437500 3.681801795959
1.546040058136 -74.955780029297 -235.689315795898 1.590870380402
-150.623580932617 -74.585281372070 -190.498703002930 2.974514245987
-100.202163696289 -71.207534790039 -106.029098510742 5.119554519653
102.898017883301 -72.462989807129 -189.906982421875 1.561353802681
-39.609756469727 -64.018898010254 -78.005271911621 1.531120657921
100.784690856934 -68.418548583984 -103.062469482422 2.953536510468
7.037807941437 -70.533287048340 -211.551101684570 1.716983079910
-151.914001464844 -68.101425170898 -199.081787109375 2.392167806625
51.005970001221 -61.342025756836 -89.334793090820 2.488396644592
-159.224792480469 -69.330833435059 -192.947692871094 2.386019945145
85.593681335449 -74.005714416504 -77.194770812988 1.172943711281
-111.140167236328 -73.344886779785 -223.073516845703 3.815328359604
41.580188751221 -69.775711059570 -115.286643981934 1.370133996010
-131.073699951172 -72.233871459961 -264.194763183594 0.239980712533
-71.916252136230 -74.410346984863 -245.529891967773 1.853031635284
21.541229248047 -77.239074707031 -166.233535766602 2.429093122482
-2.292874097824 -82.356048583984 -249.522979736328 2.335505008698
16.444101333618 -71.510734558105 -155.887329101563 1.125464677811
28.131103515625 -76.750183105469 -155.253875732422 2.075297355652
-152.696716308594 -75.664001464844 -230.126770019531 3.232846260071
76.486671447754 -68.665153503418 -227.441757202148 0.429886490107
-8.877902984619 -76.094985961914 -171.236389160156 1.465182304382
-75.704895019531 -72.888381958008 -52.620811462402 2.006869077682
-72.204597473145 -60.771976470947 -42.608081817627 2.485503911972
-155.023559570313 -82.147949218750 -278.449462890625 4.355578899384
-99.657531738281 -63.728179931641 -143.746307373047 3.595648050308
1.414461016655 -68.131683349609 -233.551193237305 1.112163662910
99.530815124512 -73.911399841309 -180.018569946289 5.003054141998
6.760233879089 -82.379440307617 -234.400390625000 3.422008752823
-33.844043731689 -68.733657836914 -182.873886108398 1.583791971207
-0.808188974857 -74.904090881348 -157.625610351563 3.113296270370
-94.655906677246 -77.079719543457 -89.180648803711 4.047082424164
-63.275825500488 -69.709732055664 -136.465225219727 2.621585369110
29.432239532471 -76.652580261230 -149.854553222656 2.087077140808
26.103841781616 -69.683670043945 -256.032470703125 2.293219089508
-152.401748657227 -69.697937011719 -308.278686523438 2.597490787506
86.014617919922 -71.814414978027 -212.505294799805 2.478233575821
39.510772705078 -75.299789428711 -105.310073852539 1.576711297035
96.687873840332 -57.510540008545 -67.006088256836 3.925046205521
12.589307785034 -76.361770629883 -207.110946655273 2.263991594315
-140.629898071289 -73.905113220215 -254.732284545898 2.225681304932
-93.005233764648 -73.699333190918 -218.079177856445 2.432858228683
-97.817832946777 -73.968872070313 -91.321022033691 4.220856189728
-116.394554138184 -71.260093688965 -225.386795043945 0.870231389999
-167.789306640625 -69.743125915527 -198.138122558594 3.502460241318
12.916952133179 -78.085884094238 -250.239685058594 1.226110339165
-25.842191696167 -73.932754516602 -290.309600830078 2.246015548706
106.340980529785 -74.823623657227 -154.653884887695 3.922603368759
93.366249084473 -68.696647644043 -73.378921508789 3.749751091003
20.471380233765 -75.345367431641 -178.931488037109 2.833369016647
-60.155532836914 -71.573532104492 -132.085189819336 0.820366084576
-21.258621215820 -63.029300689697 -66.396759033203 1.128816246986
99.838333129883 -59.247661590576 -90.878768920898 5.150170803070
-63.958053588867 -60.147834777832 -116.321044921875 2.640769004822
23.494085311890 -65.617195129395 -32.354747772217 4.089897632599
-31.168613433838 -76.440376281738 -190.614990234375 1.920032858849
-99.920379638672 -68.903701782227 -74.545814514160 4.266254901886
19.534849166870 -71.240524291992 -152.347381591797 2.525822401047
-50.280944824219 -74.860244750977 -193.510711669922 2.181158781052
107.978935241699 -75.098403930664 -148.887695312500 2.421779870987
-132.458755493164 -68.749664306641 -234.173309326172 1.871435880661
-101.031242370605 -69.457000732422 -148.912780761719 3.579459428787
7.773943901062 -72.184898376465 -243.580139160156 0.915700793266
13.014610290527 -83.418624877930 -245.324966430664 1.162275075912
-53.545738220215 -80.830924987793 -70.929794311523 0.956793010235
-30.581775665283 -80.421615600586 -188.039108276367 1.871232986450
-87.988700866699 -62.845916748047 -120.283386230469 2.097519636154
-152.270492553711 -64.172080993652 -246.622451782227 2.638688564301
5.426792144775 -72.965843200684 -290.110046386719 2.144643783569
-70.783187866211 -75.768371582031 -159.412582397461 1.382114410400
-141.187103271484 -86.486236572266 -259.620056152344 1.624724626541
-151.552886962891 -64.426986694336 -187.087585449219 0.391066879034
-127.314048767090 -74.771125793457 -261.278472900391 2.110928535461
-0.711960017681 -76.664390563965 -242.632827758789 1.962917923927
17.276239395142 -60.700984954834 -276.907836914063 4.392844200134
-68.828376770020 -72.513702392578 -155.608322143555 1.308449387550
104.863365173340 -70.519615173340 -152.886917114258 5.326126098633
15.804725646973 -78.518234252930 -236.281005859375 1.767960667610
11.154906272888 -68.381050109863 -285.463775634766 3.106436014175
-110.294349670410 -63.963142395020 -169.293746948242 4.824169158936
-164.765075683594 -74.318801879883 -211.899444580078 2.485265731812
22.878374099731 -67.161880493164 -152.248092651367 2.571001291275
-75.254539489746 -76.984703063965 -100.478401184082 1.459250926971
-150.917343139648 -85.658096313477 -296.421356201172 0.951231837273
103.110939025879 -68.701370239258 -180.079010009766 2.934112548828
-75.294754028320 -77.940010070801 -287.479187011719 2.640878915787
108.196678161621 -74.295455932617 -129.493682861328 0.860384404659
-99.538642883301 -67.864791870117 -140.771896362305 4.446754932404
-50.273845672607 -78.376892089844 -193.278015136719 1.557320594788
-29.124502182007 -75.854873657227 -74.429115295410 3.787145137787
39.932849884033 -67.332740783691 -250.019195556641 1.153368830681
21.687181472778 -68.090911865234 -22.798566818237 3.266883611679
-49.079059600830 -68.472946166992 -146.881393432617 1.300737023354
20.543842315674 -76.935165405273 -159.535339355469 1.502201199532
-153.417236328125 -64.016181945801 -234.090148925781 1.553976416588
37.891708374023 -74.782524108887 -121.799560546875 3.853508949280
-81.195236206055 -74.736877441406 -99.221679687500 2.792343139648
104.139854431152 -72.535110473633 -121.136016845703 2.914581775665
-103.098068237305 -75.640731811523 -218.464859008789 3.213098049164
-89.757919311523 -69.467864990234 -119.493591308594 1.712809205055
-73.157295227051 -73.997337341309 -144.209854125977 1.216631174088
92.508316040039 -66.978622436523 -70.303497314453 4.263365745544
30.116260528564 -62.523483276367 -39.959186553955 0.940287947655
-145.001632690430 -69.113479614258 -195.168792724609 2.655300140381
-148.129150390625 -65.218757629395 -193.710418701172 1.732448101044
-73.580329895020 -83.658607482910 -210.481460571289 2.090621709824
-168.779052734375 -73.863639831543 -204.061508178711 4.463070869446
-17.366323471069 -70.272354125977 -240.989669799805 1.619532346725
-170.870742797852 -71.902397155762 -227.090606689453 4.383271217346
-130.572662353516 -67.978332519531 -262.654846191406 3.008813142776
-65.621513366699 -61.752380371094 -133.713943481445 3.449002265930
13.107513427734 -71.414459228516 -206.324188232422 2.275575399399
-44.213935852051 -80.597976684570 -240.392349243164 1.511744976044
30.811513900757 -68.254722595215 -135.735580444336 0.698190152645
-76.086647033691 -60.457706451416 -99.473930358887 3.926173210144
-84.731773376465 -85.776748657227 -98.243484497070 3.027332067490
78.171936035156 -69.243621826172 -101.469711303711 2.633699178696
-155.050613403320 -78.919517517090 -274.791046142578 4.460397720337
-96.942985534668 -66.999664306641 -62.460571289063 4.184738636017
14.891287803650 -76.815650939941 -230.625762939453 2.546928882599
83.625564575195 -66.940818786621 -64.359565734863 1.466778159142
-145.645278930664 -80.401687622070 -201.242568969727 1.709326505661
40.285709381104 -75.012756347656 -116.596839904785 3.420836210251
-6.424658775330 -62.930294036865 -243.260910034180 3.081497192383
26.059835433960 -67.202079772949 -262.214324951172 0.623271405697
-18.536354064941 -68.888710021973 -65.655792236328 4.102966785431
-149.590377807617 -79.806297302246 -216.618530273438 1.066419005394
-97.829391479492 -74.637977600098 -110.703277587891 4.211119174957
-10.302720069885 -72.383178710938 -288.452911376953 2.261818885803
-170.395294189453 -73.623558044434 -222.142059326172 5.621941566467
29.208223342896 -71.888351440430 -116.200157165527 4.704374790192
8.183446884155 -72.196014404297 -242.997924804688 0.931501924992
30.304639816284 -63.681827545166 -257.906860351563 2.156898736954
-56.634239196777 -80.391807556152 -244.112854003906 2.335091352463
-21.642116546631 -77.884643554688 -209.110931396484 4.065806865692
-72.264953613281 -70.495452880859 -98.550781250000 2.811903476715
-43.070724487305 -75.454559326172 -155.375289916992 2.992742061615
-106.310195922852 -68.804267883301 -169.295547485352 0.696846604347
-37.764293670654 -70.929031372070 -170.072341918945 1.961229085922
40.618621826172 -71.073562622070 -253.028381347656 1.682456612587
-69.815246582031 -75.566970825195 -167.852386474609 3.855673074722
21.798221588135 -69.842628479004 -139.741638183594 3.011889457703
-147.438873291016 -86.665267944336 -258.357696533203 3.212499380112
-56.723663330078 -78.252571105957 -175.720230102539 0.103128306568
-25.117527008057 -74.357780456543 -219.902587890625 1.345428228378
-71.818183898926 -79.703933715820 -206.069442749023 2.228687047958
11.653861999512 -79.625175476074 -232.658920288086 1.459838509560
5.126912117004 -76.035430908203 -200.698806762695 4.316627025604
-152.046340942383 -74.768440246582 -229.177047729492 2.714734077454
26.257732391357 -72.388191223145 -156.566345214844 3.040815591812
30.773202896118 -69.759254455566 -129.192993164063 2.706874608994
-154.844375610352 -82.376174926758 -232.998123168945 3.136310815811
-11.649484634399 -68.676002502441 -283.283142089844 3.140455961227
67.917755126953 -70.186119079590 -232.491073608398 1.485424876213
-126.365859985352 -77.874259948730 -289.959838867188 0.639598906040
33.834842681885 -67.160148620605 -258.346343994141 1.271754145622
-111.480606079102 -69.766716003418 -188.711715698242 1.676186323166
-149.544830322266 -66.596191406250 -253.304824829102 1.729164600372
-64.113174438477 -66.228202819824 -122.853790283203 2.143146991730
-64.650382995605 -76.718925476074 -93.056579589844 1.777139425278
99.572380065918 -62.521945953369 -82.119529724121 5.260100364685
-148.223495483398 -74.830276489258 -182.221984863281 1.036820650101
-140.436096191406 -69.731529235840 -232.509124755859 0.911835312843
3.121077060699 -78.910209655762 -232.816711425781 1.857104897499
8.889845848083 -70.366073608398 -235.038772583008 0.916865170002
-15.193649291992 -71.014427185059 -202.838699340820 2.059828996658
-55.977695465088 -81.764999389648 -89.630195617676 3.645496368408
6.278724193573 -71.396492004395 -206.405639648438 2.241680622101
20.001796722412 -73.988006591797 -182.586227416992 2.918844461441
38.928443908691 -58.725646972656 -23.930873870850 4.430850505829
-28.025455474854 -72.331604003906 -220.351028442383 2.553074836731
15.923907279968 -71.382141113281 -158.337341308594 0.559368193150
8.490367889404 -81.259300231934 -221.508239746094 1.661780834198
-29.793901443481 -84.789840698242 -186.193191528320 1.001541972160
-96.721900939941 -63.427967071533 -140.942367553711 2.908088922501
106.736816406250 -68.036117553711 -166.031219482422 3.534749746323
-51.200386047363 -65.605384826660 -82.504348754883 1.850167274475
80.817131042480 -74.511268615723 -223.731658935547 1.996379971504
-100.322425842285 -65.484733581543 -66.823257446289 4.128552436829
-86.446624755859 -61.806297302246 -115.495147705078 1.161113619804
-9.906290054321 -77.039726257324 -215.821029663086 2.013782501221
-57.229049682617 -85.854301452637 -84.034660339355 2.538571834564
-82.629135131836 -78.107604980469 -101.546302795410 3.182894468307
19.113693237305 -64.640449523926 -144.122619628906 1.790851235390
-4.267172813416 -78.046127319336 -162.940994262695 2.089934587479
-153.724807739258 -74.850120544434 -206.418731689453 3.126201391220
54.092132568359 -67.414268493652 -239.436645507813 3.139492988586
-45.501026153564 -68.589576721191 -155.790481567383 0.914171397686
-42.115299224854 -69.434738159180 -171.982360839844 2.597464561462
1.203233003616 -72.810592651367 -226.516113281250 1.567253947258
24.522161483765 -79.085937500000 -158.756118774414 0.745192229748
108.629463195801 -74.169357299805 -129.875366210938 0.815498530865
16.648067474365 -77.110527038574 -195.382385253906 1.885041475296
31.811304092407 -70.403045654297 -253.488220214844 2.887997388840
-58.388244628906 -68.273323059082 -87.199592590332 2.569637775421
-63.157180786133 -83.922798156738 -202.158203125000 3.031428813934
-104.083793640137 -69.110076904297 -221.096603393555 1.487622141838
4.558897018433 -72.641273498535 -199.921447753906 4.238107204437
51.031200408936 -73.295318603516 -100.275039672852 3.053991556168
-43.485652923584 -71.636192321777 -51.778438568115 2.027517795563
-19.852445602417 -70.628540039063 -65.524757385254 3.398828506470
-88.693672180176 -73.744430541992 -214.567443847656 1.702786326408
39.601055145264 -67.495025634766 -24.787492752075 4.846090316772
-160.827285766602 -73.974685668945 -294.821472167969 2.279650211334
-43.262607574463 -77.833549499512 -167.716339111328 2.172252416611
-5.447179794312 -66.312995910645 -290.847198486328 1.942640662193
-118.442398071289 -71.742874145508 -201.914443969727 3.407052516937
-156.936370849609 -71.093345642090 -178.153625488281 4.534746646881
-1.815690994263 -70.089866638184 -239.448837280273 1.105019211769
61.223495483398 -60.850708007813 -93.281333923340 1.616212606430
14.340844154358 -80.293457031250 -258.821777343750 2.509443283081
-102.091293334961 -64.461524963379 -112.720169067383 4.530282974243
91.909980773926 -73.968368530273 -210.397628784180 0.710878789425
-77.782272338867 -70.977684020996 -143.247222900391 0.957221567631
-62.744094848633 -77.988449096680 -174.264160156250 1.280407667160
-43.249752044678 -65.460502624512 -46.774662017822 0.376268416643
-50.555686950684 -77.605224609375 -155.436401367188 2.549307584763
-53.306816101074 -77.729431152344 -185.987518310547 1.508274197578
19.691074371338 -71.556983947754 -143.757232666016 3.125220060349
35.722164154053 -68.049873352051 -33.722854614258 3.154360294342
11.972507476807 -79.333518981934 -207.115371704102 1.976343035698
-48.527740478516 -86.224205017090 -197.776153564453 1.435413002968
-149.030517578125 -84.203811645508 -221.745864868164 1.504623889923
76.752479553223 -58.211185455322 -57.882442474365 1.442825913429
-50.469944000244 -75.542167663574 -285.137115478516 1.325672507286
10.662453651428 -68.586845397949 -213.257644653320 0.721720337868
72.117729187012 -74.623641967773 -89.261909484863 2.489002466202
-137.713958740234 -76.727386474609 -255.939666748047 1.751739740372
-153.050125122070 -67.803039550781 -198.897018432617 1.290546417236
40.841861724854 -69.654251098633 -20.528944015503 1.170503616333
-138.866455078125 -68.055770874023 -257.723358154297 3.389843225479
-154.388397216797 -64.575386047363 -247.935134887695 4.750967979431
-161.414794921875 -72.754821777344 -265.151824951172 1.858834624290
-138.508102416992 -68.706604003906 -255.844940185547 3.185518741608
25.308771133423 -66.634140014648 -17.766757965088 2.224681615829
-149.182983398438 -75.192863464355 -186.675094604492 0.845989942551
91.261413574219 -69.145423889160 -207.715270996094 2.380132198334
-157.356384277344 -73.159843444824 -298.879302978516 2.440152645111
11.958993911743 -70.991867065430 -174.655288696289 4.753487110138
-11.865391731262 -67.409088134766 -215.836975097656 1.298219323158
-143.905273437500 -74.288734436035 -200.485916137695 2.117941856384
-62.083175659180 -73.757164001465 -135.945602416992 3.709535121918
-156.049453735352 -84.638229370117 -231.176437377930 4.000456333160
-102.929084777832 -64.091842651367 -82.170196533203 5.088680267334
105.008651733398 -74.625877380371 -160.868804931641 3.508864164352
-74.367317199707 -87.074676513672 -92.238342285156 1.823830008507
-136.849349975586 -76.962936401367 -256.003509521484 1.725494980812
-67.303512573242 -64.909912109375 -123.101203918457 2.254820346832
93.797607421875 -70.982620239258 -193.934585571289 4.608023166656
-73.579765319824 -73.542098999023 -148.661956787109 2.134258747101
-77.224868774414 -67.907440185547 -103.850517272949 1.787200808525
2.127765893936 -73.628555297852 -212.420745849609 4.285232067108
-79.260299682617 -63.978134155273 -109.544654846191 2.356705904007
-138.467880249023 -73.964912414551 -226.090576171875 2.851271152496
-151.711288452148 -80.874992370605 -300.375000000000 0.816529273987
-75.400032043457 -61.238666534424 -43.258853912354 2.336557865143
-58.144027709961 -61.874038696289 -125.537101745605 2.405171394348
35.009773254395 -65.154006958008 -11.903129577637 1.919678807259
-111.114486694336 -67.452758789063 -187.001861572266 1.737678885460
-132.844268798828 -63.941043853760 -199.271514892578 1.133548378944
-152.157608032227 -65.391738891602 -192.287124633789 2.113170146942
-54.591003417969 -79.335479736328 -88.837455749512 3.677523851395
-151.974243164063 -87.253242492676 -251.444137573242 4.235528469086
-66.315368652344 -63.291084289551 -129.385620117188 3.203354597092
-94.306854248047 -69.604064941406 -137.729141235352 2.114743709564
25.204992294312 -57.996967315674 -12.088914871216 3.528846502304
108.558067321777 -70.785552978516 -128.644317626953 0.797887802124
-35.145286560059 -78.207832336426 -207.875045776367 1.695092678070
42.283630371094 -70.017692565918 -110.524742126465 0.905590713024
108.151542663574 -71.571319580078 -130.501800537109 1.058158040047
-53.915569305420 -66.394889831543 -132.848770141602 2.251761436462
-150.727081298828 -79.091888427734 -215.567413330078 1.590432524681
-144.662399291992 -70.671875000000 -203.059738159180 2.195887565613
-94.011817932129 -76.566001892090 -82.576202392578 4.031311035156
-37.900058746338 -77.500991821289 -208.394119262695 1.546361327171
-27.909414291382 -63.768905639648 -68.375892639160 2.042548179626
80.692855834961 -74.967903137207 -83.136650085449 2.907693862915
-155.456619262695 -67.038444519043 -278.805908203125 4.350896835327
41.590450286865 -65.328117370605 -105.719551086426 2.526405572891
-38.996349334717 -64.879898071289 -47.298995971680 2.116285085678
35.460224151611 -77.634819030762 -119.051307678223 0.949900269508
99.242736816406 -61.462757110596 -77.073074340820 4.580331325531
-111.650177001953 -68.304443359375 -191.569564819336 1.646282315254
-149.517440795898 -85.332313537598 -237.280929565430 1.863462805748
-83.697334289551 -73.184860229492 -57.213405609131 3.477463483810
-78.871459960938 -75.211547851563 -57.753116607666 2.510542869568
108.920005798340 -74.768295288086 -138.682022094727 1.588927865028
74.807479858398 -73.294891357422 -96.299057006836 1.285891652107
102.293624877930 -69.148216247559 -119.619087219238 4.747852802277
-148.464019775391 -80.272483825684 -204.839187622070 1.505862116814
73.457427978516 -75.032432556152 -225.849624633789 3.307174205780
20.235416412354 -78.768997192383 -154.241683959961 3.579733133316
-27.731212615967 -73.740974426270 -181.733795166016 3.227707862854
-147.743316650391 -70.821784973145 -284.942901611328 3.020127773285
-4.412047863007 -75.353263854980 -240.035186767578 2.242891550064
12.397880554199 -73.998100280762 -246.445129394531 1.714680433273
105.901374816895 -65.418472290039 -115.483215332031 2.961665391922
-169.567291259766 -77.175041198730 -269.356018066406 4.726822853088
-16.753849029541 -68.095329284668 -249.175918579102 2.231594800949
23.904642105103 -73.418632507324 -166.832519531250 3.421368360519
-40.387237548828 -74.097206115723 -205.191802978516 1.309219002724
-50.097263336182 -63.515834808350 -80.896087646484 2.199796915054
-165.500656127930 -68.770339965820 -207.806533813477 1.030115842819
-137.728866577148 -74.713127136230 -293.880920410156 2.451968193054
-166.167007446289 -68.766883850098 -208.089401245117 0.880379796028
-94.949096679688 -67.863243103027 -60.689765930176 3.563796997070
-50.595157623291 -77.766906738281 -240.631973266602 2.433001756668
-151.753311157227 -82.165092468262 -275.383148193359 2.383393764496
-170.415756225586 -75.327659606934 -246.299499511719 4.774237632751
-145.452377319336 -76.101142883301 -291.901885986328 2.858908414841
-124.922874450684 -72.855598449707 -231.765808105469 1.168159365654
97.532234191895 -63.482604980469 -73.828369140625 4.913691520691
75.515960693359 -67.987220764160 -227.119384765625 0.892545759678
34.385402679443 -75.714965820313 -112.943229675293 2.799807071686
-53.139675140381 -82.727890014648 -85.759864807129 4.076820373535
-116.577301025391 -68.531593322754 -225.811096191406 0.423204511404
-100.288055419922 -68.625083923340 -75.769927978516 4.244348526001
54.940517425537 -67.230590820313 -239.013488769531 2.773949623108
40.631855010986 -69.875900268555 -33.041763305664 1.592871785164
-4.634531974792 -64.985046386719 -257.941802978516 2.151230812073
-85.356040954590 -71.143447875977 -116.694595336914 2.772229194641
13.741484642029 -78.590133666992 -271.870056152344 3.570546150208
-15.279500961304 -75.601119995117 -272.864044189453 3.263770103455
31.333730697632 -67.582534790039 -125.228736877441 3.561127424240
-154.561065673828 -67.153648376465 -286.476989746094 1.979977250099
-1.242781996727 -80.639747619629 -246.783737182617 2.945350646973
-130.554870605469 -74.091171264648 -233.419097900391 2.374063491821
-17.123519897461 -74.739974975586 -270.381195068359 3.666402101517
