-8.527114868164 -81.043601989746 -263.752349853516 2.850790023804
-72.321189880371 -72.839416503906 -156.139007568359 1.226405620575
-127.735153198242 -73.055061340332 -263.891510009766 2.116254568100
40.423866271973 -61.775047302246 -20.756759643555 1.835149884224
-47.899818420410 -82.387718200684 -81.062026977539 2.035746574402
83.097503662109 -73.347824096680 -220.881958007813 0.425139784813
-31.656558990479 -73.863113403320 -286.003356933594 1.021445393562
-107.672294616699 -70.062561035156 -229.116668701172 1.683160066605
76.012313842773 -69.556831359863 -63.645416259766 2.072114229202
-25.914766311646 -78.131294250488 -289.608642578125 2.184134960175
-0.342990994453 -77.074005126953 -286.704376220703 1.869711756706
-45.748771667480 -71.676055908203 -160.954513549805 1.844657301903
-147.847396850586 -77.038673400879 -309.083709716797 2.581315994263
-123.844497680664 -63.277568817139 -228.657379150391 1.758387565613
-71.446296691895 -79.854339599609 -74.788764953613 2.486961603165
-83.663902282715 -66.906623840332 -128.158554077148 1.578473925591
-56.965164184570 -64.804962158203 -139.195709228516 1.116230964661
-61.843746185303 -59.184936523438 -133.857284545898 1.512306213379
-6.626698017120 -63.900318145752 -245.428710937500 1.393932461739
8.374183654785 -78.896980285645 -210.872909545898 1.469430565834
62.287189483643 -61.493068695068 -88.361595153809 2.667356014252
22.701200485229 -79.216384887695 -156.950332641602 2.180305242538
20.656072616577 -79.462226867676 -172.415802001953 0.437184631824
-60.355327606201 -74.463294982910 -290.739349365234 1.474733948708
-138.682678222656 -78.564506530762 -232.034683227539 2.203163385391
26.093442916870 -73.754386901855 -132.309082031250 3.437081098557
-36.042659759521 -79.572074890137 -166.015640258789 1.270973682404
-153.223190307617 -60.363433837891 -226.941940307617 1.701974630356
-67.047103881836 -79.903831481934 -205.739593505859 0.932845115662
-53.648406982422 -74.045433044434 -285.569458007813 1.206933617592
-71.703773498535 -72.511421203613 -142.869903564453 1.699546217918
17.140886306763 -73.595695495605 -168.496322631836 1.047289609909
13.275794982910 -71.981918334961 -151.250839233398 1.750751495361
-23.218187332153 -71.950569152832 -216.616241455078 1.396221756935
26.862167358398 -79.659339904785 -137.906875610352 1.651408910751
-46.560451507568 -60.527900695801 -45.289146423340 1.163850784302
53.603969573975 -63.456596374512 -84.366737365723 2.745337486267
-45.403778076172 -66.896148681641 -47.877834320068 1.353672266006
-141.160339355469 -77.947257995605 -202.227996826172 1.115060091019
29.898719787598 -59.580604553223 -11.035341262817 3.557822704315
-6.236904144287 -63.845615386963 -238.242218017578 1.143445134163
-84.303932189941 -79.471343994141 -108.004745483398 1.976930618286
41.302043914795 -71.706741333008 -103.015922546387 1.799736142159
-17.597969055176 -65.246391296387 -68.220771789551 2.601314544678
-111.655166625977 -73.481338500977 -289.596099853516 1.831826210022
25.567863464355 -70.098846435547 -161.615249633789 0.658959805965
17.585683822632 -77.299613952637 -194.620742797852 1.836431980133
-90.868507385254 -72.925552368164 -219.863006591797 0.793125450611
-62.494300842285 -77.359527587891 -64.741531372070 3.515025377274
39.708194732666 -70.767890930176 -108.557334899902 1.232044935226
-102.484786987305 -62.574687957764 -170.752120971680 1.347267746925
95.655067443848 -74.724838256836 -196.169342041016 2.167032957077
-150.195159912109 -76.212577819824 -219.004455566406 2.216930150986
-19.468990325928 -76.472763061523 -216.745925903320 0.388231694698
-147.667404174805 -79.041755676270 -198.147048950195 1.447515606880
-93.553901672363 -65.684745788574 -137.030090332031 1.353251814842
51.254974365234 -70.897712707520 -245.550216674805 0.673748373985
-43.249603271484 -69.560897827148 -160.325683593750 1.521258592606
94.803199768066 -67.052726745605 -64.951232910156 0.527839004993
-12.850934982300 -73.276077270508 -198.361938476563 1.347285628319
32.153404235840 -68.549484252930 -130.670471191406 2.750348329544
53.315998077393 -73.662445068359 -243.381561279297 2.760016918182
-62.149345397949 -72.146736145020 -162.050720214844 1.771076679230
46.367965698242 -63.782035827637 -31.116155624390 4.074482917786
111.159965515137 -72.992370605469 -123.505653381348 1.670957446098
-23.080293655396 -68.398406982422 -56.933055877686 2.133508920670
-98.467605590820 -64.391418457031 -77.355583190918 0.992290258408
-50.537330627441 -77.915290832520 -246.655471801758 1.210438132286
113.886596679688 -70.619537353516 -140.438156127930 1.772503018379
-72.616661071777 -75.314674377441 -212.408706665039 1.671053647995
-80.169647216797 -80.070602416992 -83.863143920898 1.895855545998
47.648860931396 -65.080932617188 -24.061332702637 3.417742490768
-135.863311767578 -66.899795532227 -234.162872314453 1.865461349487
-65.306465148926 -64.470115661621 -125.270507812500 2.391655683517
-144.510650634766 -68.332466125488 -271.241302490234 4.278470516205
92.994247436523 -68.555923461914 -103.246597290039 2.099948883057
19.116497039795 -69.215209960938 -180.336273193359 2.551128864288
-154.864654541016 -70.532814025879 -234.899002075195 2.628071546555
-146.910888671875 -75.728805541992 -187.240936279297 1.075373768806
6.258452892303 -74.650672912598 -223.982330322266 2.757589340210
-113.692741394043 -66.194129943848 -258.154937744141 1.418430805206
110.333145141602 -77.529495239258 -141.376754760742 2.834370136261
-84.455093383789 -71.423103332520 -61.731231689453 4.006535053253
-160.631195068359 -66.271797180176 -252.127822875977 2.691576719284
-55.675655364990 -79.587020874023 -182.138442993164 1.430507063866
-101.316986083984 -62.763946533203 -154.402709960938 1.313563585281
-118.676139831543 -63.697662353516 -233.426391601563 1.541768550873
68.545913696289 -73.291587829590 -87.221527099609 1.498154997826
-111.667274475098 -68.420928955078 -193.190078735352 1.794477105141
-97.105072021484 -65.639541625977 -119.255645751953 0.926504254341
-165.625167846680 -72.025245666504 -271.472290039063 2.230067014694
-4.618309974670 -75.615478515625 -231.189239501953 1.415681004524
21.762687683105 -71.134017944336 -276.635223388672 1.595401167870
-42.077991485596 -67.613655090332 -164.326156616211 2.672658920288
-39.453296661377 -80.054550170898 -81.675201416016 2.740235567093
52.480949401855 -61.351840972900 -87.429885864258 2.432843208313
104.407188415527 -72.670692443848 -191.814437866211 1.366870880127
99.286560058594 -70.181007385254 -94.296783447266 1.600817441940
-60.811573028564 -63.723461151123 -122.192375183105 2.163312435150
111.903060913086 -76.966812133789 -125.114936828613 2.370540142059
-47.119132995605 -74.691986083984 -186.476730346680 2.509602069855
-91.074371337891 -65.122756958008 -59.522762298584 1.605883836746
-33.286293029785 -72.967086791992 -58.767448425293 2.380377531052
-31.989404678345 -71.192184448242 -56.188179016113 1.639214992523
-126.731903076172 -71.360443115234 -234.348526000977 1.951061129570
45.293014526367 -66.993209838867 -253.580169677734 1.571031332016
0.467074990273 -71.538711547852 -223.679824829102 1.455877780914
-149.443359375000 -74.962577819824 -242.289886474609 1.817144274712
-47.955081939697 -75.473991394043 -184.491409301758 0.382880240679
20.374711990356 -79.387748718262 -182.568084716797 1.213274717331
21.760339736938 -69.899787902832 -152.694152832031 1.493078827858
-36.365409851074 -74.602584838867 -240.264770507813 1.190866708755
67.314231872559 -66.933212280273 -97.975273132324 0.553536295891
-151.625320434570 -67.304336547852 -253.583786010742 1.203646898270
-145.248184204102 -61.937683105469 -288.887176513672 2.583178758621
43.751876831055 -60.255233764648 -113.668411254883 1.257997870445
-100.123741149902 -61.351402282715 -90.276763916016 2.709966659546
42.454814910889 -70.672348022461 -26.567163467407 2.210725069046
51.196521759033 -70.538162231445 -105.198455810547 1.070426940918
30.851512908936 -76.865158081055 -119.824707031250 2.070130109787
109.074188232422 -70.197822570801 -127.395156860352 1.287926673889
-162.422698974609 -63.932338714600 -204.583984375000 3.348180294037
-18.944198608398 -76.855720520020 -202.454223632813 0.701793670654
-5.416396141052 -70.072723388672 -229.253952026367 0.804121136665
-49.881084442139 -59.234638214111 -43.897388458252 1.590006589890
-30.017463684082 -75.819702148438 -186.418670654297 0.711193978786
17.312780380249 -74.750068664551 -238.405929565430 1.476137399673
21.572755813599 -77.945999145508 -241.037261962891 1.030984520912
110.234375000000 -72.947586059570 -106.656768798828 0.994781494141
43.007316589355 -74.990707397461 -98.168693542480 2.668806076050
60.137641906738 -68.335235595703 -90.088943481445 2.826289176941
10.869038581848 -71.009033203125 -212.178237915039 1.420053958893
38.185405731201 -68.881362915039 -17.416084289551 2.445057153702
-132.506378173828 -70.601440429688 -202.680374145508 1.272734284401
25.643676757813 -67.907875061035 -150.938171386719 1.209758877754
93.025962829590 -76.525367736816 -88.219665527344 0.746992111206
-82.214050292969 -83.598014831543 -102.460403442383 2.114270925522
3.241295099258 -83.352775573730 -250.181243896484 1.426515460014
-146.830612182617 -72.143714904785 -193.842315673828 1.552597403526
-143.744979858398 -82.595062255859 -260.092498779297 1.743256092072
113.112281799316 -76.674491882324 -168.004257202148 1.323758959770
-33.903167724609 -71.897468566895 -288.642395019531 2.977944612503
-160.695053100586 -68.931152343750 -293.228607177734 1.628077983856
-147.249298095703 -65.469741821289 -296.782348632813 2.038427114487
11.354711532593 -76.101730346680 -241.639648437500 1.521585583687
-16.580644607544 -69.732856750488 -199.250457763672 1.989725351334
-74.100654602051 -75.799736022949 -213.612197875977 1.388884186745
-14.251627922058 -70.696754455566 -261.678375244141 1.091669917107
-32.846359252930 -78.287857055664 -73.754821777344 2.302798032761
-153.153671264648 -65.445823669434 -226.309982299805 2.824365854263
-22.847049713135 -69.522872924805 -195.787750244141 1.494863510132
-149.624389648438 -75.691390991211 -217.834030151367 1.172299146652
83.498199462891 -77.120841979980 -78.405509948730 1.548444628716
-74.505241394043 -71.784194946289 -138.042755126953 1.660951733589
-148.544387817383 -77.905136108398 -257.990783691406 1.619182348251
-139.025329589844 -68.427055358887 -227.050064086914 2.262894630432
-150.205459594727 -63.334758758545 -207.464172363281 1.847108364105
-23.729785919189 -74.812423706055 -177.651748657227 0.660358607769
89.590316772461 -74.725669860840 -218.668869018555 1.490804433823
-130.390563964844 -62.429420471191 -204.625396728516 2.529683351517
-9.782149314880 -68.851875305176 -241.198547363281 1.292832255363
-136.853973388672 -65.073303222656 -204.367355346680 3.074614286423
-149.972412109375 -76.621856689453 -207.065246582031 1.699360847473
93.267013549805 -74.592338562012 -213.620132446289 2.126534938812
104.929069519043 -71.017547607422 -99.644378662109 1.777035832405
-15.446779251099 -72.887512207031 -220.499542236328 1.784559011459
-44.751087188721 -71.328483581543 -288.295776367188 1.628408551216
104.557044982910 -74.445373535156 -194.262969970703 1.794003486633
-78.939895629883 -63.423297882080 -135.732086181641 2.252015113831
12.637623786926 -75.012290954590 -194.618835449219 1.605556964874
-148.921264648438 -69.202819824219 -176.451965332031 2.575387954712
78.879081726074 -61.794841766357 -57.250881195068 3.257188320160
-23.472942352295 -72.118942260742 -215.626983642578 2.191968679428
-89.502540588379 -74.436737060547 -114.305702209473 1.880214929581
-26.297655105591 -74.038307189941 -173.552734375000 1.815837740898
-63.015369415283 -64.184852600098 -124.611358642578 1.595058798790
10.281506538391 -67.880043029785 -155.106719970703 0.734055399895
-59.134212493896 -79.055603027344 -171.459381103516 2.035166740417
14.973820686340 -74.130226135254 -288.804138183594 0.868129134178
-149.747207641602 -80.119483947754 -199.919601440430 1.996555447578
-104.672203063965 -65.287849426270 -226.068801879883 1.251042127609
-149.241088867188 -59.738475799561 -185.750381469727 2.913893699646
93.578430175781 -68.269386291504 -65.230155944824 1.899327754974
7.734570980072 -70.266571044922 -234.864913940430 1.517203330994
-14.609104156494 -71.259864807129 -260.047119140625 2.328236579895
23.096387863159 -67.646980285645 -179.461486816406 1.125432968140
-124.294929504395 -64.385223388672 -290.163726806641 1.400115609169
-83.292839050293 -62.798202514648 -127.221832275391 1.938277244568
19.721340179443 -78.568061828613 -194.219299316406 1.129094719887
-9.544543266296 -74.638870239258 -220.925537109375 2.126720666885
-0.020503999665 -66.327125549316 -290.867767333984 1.909820556641
-37.648090362549 -74.999626159668 -61.616252899170 2.198639631271
114.039237976074 -70.717224121094 -132.408493041992 1.560853362083
2.382630109787 -78.213439941406 -287.694458007813 2.400196075439
-84.869277954102 -73.533355712891 -109.164222717285 2.166384458542
4.253817081451 -83.699501037598 -273.900421142578 1.851510882378
77.228034973145 -77.871475219727 -86.467521667480 0.779863655567
98.602798461914 -66.506866455078 -68.300651550293 0.879053771496
22.312187194824 -60.372825622559 -139.010589599609 0.376413971186
-50.576904296875 -75.232429504395 -150.950973510742 2.277969837189
115.323486328125 -74.195915222168 -130.688323974609 2.104536533356
-43.918369293213 -76.868217468262 -84.480155944824 1.208416581154
-73.588081359863 -82.754493713379 -86.665840148926 3.867672681808
-10.867667198181 -76.384986877441 -207.167663574219 1.348770856857
77.330986022949 -72.576980590820 -66.823219299316 2.430438041687
-145.281616210938 -74.180305480957 -210.262542724609 1.181828856468
28.115959167480 -75.429626464844 -171.362228393555 1.733339786530
29.451578140259 -63.598979949951 -34.627315521240 2.144638299942
-66.295692443848 -58.659633636475 -106.537063598633 1.572731494904
-95.371620178223 -61.738029479980 -152.664108276367 1.070723652840
-145.979965209961 -72.376251220703 -201.060638427734 1.180759787560
-58.452156066895 -61.002593994141 -134.603393554688 2.111268520355
-55.282978057861 -64.400527954102 -45.160469055176 2.056200027466
-33.730377197266 -63.577095031738 -48.119533538818 1.490020990372
-39.287559509277 -78.223999023438 -200.514831542969 1.380735754967
45.801582336426 -71.007080078125 -28.600088119507 1.670798063278
101.698127746582 -68.293205261230 -88.203132629395 1.431049466133
-154.641448974609 -72.683647155762 -296.119323730469 1.229097127914
-146.632888793945 -62.733936309814 -276.712768554688 2.036328315735
-78.608406066895 -66.991020202637 -117.265594482422 1.065083742142
-16.569370269775 -74.116767883301 -236.344421386719 1.427236437798
12.721194267273 -77.864288330078 -204.317611694336 1.895104050636
15.931085586548 -73.088325500488 -213.510452270508 2.196355104446
-78.658485412598 -65.621246337891 -106.988319396973 1.485203146935
23.272277832031 -63.389884948730 -25.668617248535 2.746817350388
-147.129547119141 -74.521675109863 -187.339401245117 0.675673902035
-3.481820106506 -77.376853942871 -280.014556884766 0.713421821594
-37.754981994629 -79.976188659668 -205.037063598633 1.307860970497
-158.243301391602 -64.995643615723 -202.757080078125 3.051380872726
17.144817352295 -67.776748657227 -178.045806884766 0.622458934784
99.198440551758 -75.518218994141 -199.556732177734 1.447372794151
-153.518997192383 -72.175811767578 -268.657897949219 3.089205026627
-150.820373535156 -82.746040344238 -299.672943115234 1.971816182137
-138.521469116211 -68.034439086914 -197.120849609375 2.190745830536
80.044609069824 -72.365760803223 -99.537994384766 1.986221194267
36.521686553955 -67.117462158203 -11.099971771240 3.175735712051
-138.830856323242 -63.334739685059 -231.170440673828 3.185514688492
-152.169021606445 -72.396293640137 -272.753936767578 2.004362344742
-24.337318420410 -67.147834777832 -189.530349731445 1.530600428581
-18.667608261108 -76.120910644531 -204.254913330078 1.396032333374
22.793739318848 -64.592597961426 -135.863922119141 1.311883807182
77.476119995117 -75.516563415527 -222.596145629883 2.053510904312
-108.031097412109 -61.057144165039 -177.629714965820 2.029293298721
-151.900650024414 -60.890918731689 -182.244186401367 2.716337919235
-53.900234222412 -70.025405883789 -133.540115356445 1.814289093018
0.607097029686 -72.376693725586 -290.140106201172 1.826548218727
-77.722526550293 -83.465599060059 -101.464965820313 2.708054065704
-111.014404296875 -65.382728576660 -259.122955322266 1.453444361687
-57.547874450684 -77.843322753906 -245.933212280273 1.164885997772
-152.091751098633 -78.143127441406 -294.710784912109 1.108215451241
-139.987869262695 -70.326988220215 -227.415649414063 1.841850757599
-66.666236877441 -76.601272583008 -63.014556884766 2.657982349396
37.085700988770 -71.137664794922 -122.756843566895 0.612990856171
77.692749023438 -77.878089904785 -88.172920227051 1.632222771645
-36.954780578613 -74.436553955078 -175.571609497070 2.158645391464
9.664402961731 -76.206672668457 -207.300521850586 1.078182339668
-111.067695617676 -71.500770568848 -258.414520263672 2.027562379837
-86.406341552734 -74.461585998535 -111.784934997559 1.386099815369
-99.144424438477 -63.571838378906 -82.258049011230 2.179366350174
-146.985214233398 -66.323493957520 -313.432708740234 1.778016328812
-66.115386962891 -73.074676513672 -152.557128906250 2.323273181915
27.550930023193 -61.997592926025 -137.983337402344 2.316645383835
21.747323989868 -71.148651123047 -276.676055908203 1.625728845596
-17.314315795898 -77.214401245117 -239.352111816406 1.150725007057
-157.000152587891 -68.332405090332 -294.299743652344 2.304024934769
-57.496067047119 -65.021888732910 -139.109924316406 1.055999755859
-81.671119689941 -59.985435485840 -126.474143981934 2.136089801788
-17.656579971313 -71.080909729004 -238.216079711914 1.557237744331
115.349327087402 -75.557983398438 -136.250701904297 1.396371722221
-45.566375732422 -72.117736816406 -53.301578521729 2.280510187149
67.244956970215 -69.798324584961 -72.214485168457 2.293330907822
47.612697601318 -64.016921997070 -24.057771682739 3.127473592758
-4.062492847443 -83.622695922852 -266.503479003906 0.716247677803
49.630794525146 -68.861892700195 -105.059616088867 1.813666582108
-67.094993591309 -74.532943725586 -97.944236755371 1.416909337044
15.215362548828 -81.510894775391 -227.350860595703 0.760038614273
-97.738693237305 -62.252223968506 -146.356842041016 1.561879634857
34.608234405518 -80.635353088379 -131.933227539063 1.183122038841
-27.097188949585 -63.433231353760 -69.425422668457 1.959913730621
36.683254241943 -75.318695068359 -111.494857788086 1.580217719078
-83.068130493164 -60.135738372803 -47.794918060303 1.315347313881
-145.977676391602 -82.045455932617 -237.502929687500 2.980277061462
95.528839111328 -72.768211364746 -209.000350952148 2.189440727234
-165.716995239258 -67.151283264160 -266.225585937500 1.981968760490
79.838684082031 -76.935264587402 -76.114341735840 1.661168336868
-149.708816528320 -81.681152343750 -259.670806884766 1.462935805321
-45.694370269775 -79.605628967285 -243.086578369141 1.158186197281
12.832518577576 -68.683288574219 -215.954162597656 1.204528808594
-146.051620483398 -74.567794799805 -187.677352905273 0.868567824364
-18.528001785278 -77.948379516602 -222.453994750977 1.424316525459
3.739744901657 -85.008781433105 -254.365509033203 2.003290414810
7.111729145050 -78.271049499512 -216.742431640625 2.856130361557
-6.450926780701 -81.703605651855 -267.514801025391 2.270509719849
-59.253688812256 -74.894615173340 -57.160717010498 1.981323480606
1.475594043732 -61.147018432617 -250.227111816406 3.387263774872
-151.989746093750 -75.194023132324 -284.363250732422 1.871795415878
7.400570869446 -74.791076660156 -159.146377563477 1.769261121750
-12.027061462402 -79.369674682617 -215.387969970703 1.333639144897
-35.747058868408 -77.872962951660 -160.933151245117 1.115012049675
87.445434570313 -77.622596740723 -219.009933471680 2.286140203476
25.191972732544 -79.781455993652 -167.724243164063 1.207456707954
58.681697845459 -73.815711975098 -239.287704467773 2.629168987274
-150.062118530273 -75.830162048340 -206.909454345703 1.435421109200
-72.908393859863 -85.022842407227 -93.890983581543 2.089838027954
-91.275886535645 -76.817214965820 -104.845054626465 1.304826259613
-105.883666992188 -70.722770690918 -223.591110229492 1.678999066353
-66.840850830078 -75.656570434570 -166.937850952148 1.486390948296
-150.338882446289 -76.307449340820 -250.735656738281 1.622654914856
18.599758148193 -77.523681640625 -250.102584838867 1.611009478569
-93.701217651367 -71.123291015625 -221.332275390625 1.489890933037
108.454399108887 -71.393165588379 -130.567794799805 1.063429713249
5.990098953247 -75.598533630371 -238.223327636719 0.646886825562
-149.375244140625 -64.929023742676 -304.649566650391 3.152694702148
-155.201507568359 -64.347396850586 -291.549926757813 0.626862764359
58.561233520508 -72.838798522949 -88.814788818359 1.390121698380
13.916220664978 -76.064659118652 -281.845428466797 2.334634065628
89.060028076172 -71.162803649902 -214.979324340820 1.503908514977
-43.841152191162 -81.142166137695 -77.682785034180 1.995075225830
-94.310478210449 -73.059143066406 -105.462669372559 1.847221970558
83.222953796387 -73.374282836914 -220.577362060547 0.654012084007
-67.467033386230 -82.278961181641 -80.531051635742 2.420294046402
-67.433586120605 -78.820823669434 -99.427604675293 2.108841657639
-58.458343505859 -69.105552673340 -140.052780151367 0.940227627754
78.298332214355 -70.685379028320 -229.256195068359 1.163759708405
-91.962760925293 -70.924819946289 -252.668243408203 2.098026752472
-10.398200035095 -79.403930664063 -209.351791381836 0.623305618763
51.472072601318 -76.481590270996 -102.233467102051 1.884197115898
21.830245971680 -79.511222839355 -178.373107910156 1.407351255417
-134.144668579102 -65.947326660156 -256.944335937500 0.697863399982
39.957267761230 -73.797805786133 -101.428771972656 3.156412124634
44.441822052002 -71.084846496582 -94.310607910156 2.716274023056
-116.888290405273 -68.670005798340 -293.097412109375 0.966816842556
-64.697586059570 -70.042655944824 -287.499176025391 1.183877944946
101.599433898926 -68.914642333984 -95.356994628906 0.966103434563
-101.157150268555 -69.316368103027 -219.292495727539 0.400167256594
-165.343109130859 -67.514991760254 -277.850280761719 2.950632095337
-41.962783813477 -69.280990600586 -149.998428344727 2.716852664948
-82.364959716797 -75.001228332520 -288.189910888672 1.097115635872
-83.106346130371 -60.193351745605 -116.259391784668 1.552723050117
-149.516281127930 -71.023353576660 -214.309738159180 2.230260372162
8.249553680420 -63.618007659912 -241.768402099609 1.822449922562
-145.601150512695 -63.353218078613 -222.830642700195 0.610564470291
-150.592803955078 -80.051017761230 -266.111907958984 1.859045982361
-145.972473144531 -63.709049224854 -290.607574462891 0.394815295935
-94.375656127930 -60.144702911377 -58.476963043213 1.860686540604
-162.662261962891 -71.739082336426 -257.222747802734 3.486824274063
-119.244407653809 -70.795776367188 -256.033721923828 2.469595670700
-111.807144165039 -66.540748596191 -232.514694213867 1.987254142761
-99.766029357910 -57.001594543457 -67.612564086914 1.922143220901
-144.554122924805 -71.256828308105 -278.118194580078 2.115099906921
-63.756900787354 -74.884132385254 -157.444473266602 1.710175514221
107.016853332520 -71.839904785156 -97.100975036621 0.780104279518
-14.442285537720 -72.196670532227 -261.749633789063 1.255157947540
-67.363342285156 -61.107971191406 -112.600608825684 1.822185635567
-59.258796691895 -82.791419982910 -80.099769592285 2.091100931168
27.851297378540 -78.542526245117 -130.877655029297 2.516907930374
-107.245117187500 -63.945533752441 -168.065185546875 2.025238990784
-69.600807189941 -58.930835723877 -120.704299926758 2.895646095276
-86.416465759277 -70.934783935547 -256.211761474609 1.107559919357
-145.385696411133 -71.449645996094 -208.962646484375 2.078637599945
-11.540608406067 -73.795814514160 -223.777984619141 1.265141248703
41.082096099854 -65.676849365234 -13.184579849243 2.273833751678
-7.343380928040 -80.672882080078 -170.245819091797 0.736559331417
-125.674049377441 -60.142585754395 -199.976058959961 2.166244745255
-1.260926961899 -77.578720092773 -230.416885375977 0.789520442486
-97.432449340820 -63.942817687988 -119.318412780762 1.549733281136
18.107643127441 -76.600410461426 -222.923828125000 1.653621435165
-158.048370361328 -66.158348083496 -219.429321289063 2.737425088882
-69.042076110840 -70.497360229492 -247.682861328125 1.527589321136
12.619112014771 -83.489791870117 -241.958419799805 3.317546129227
-85.228027343750 -65.375076293945 -131.261993408203 1.179485321045
-55.363941192627 -63.282157897949 -141.495269775391 1.880174994469
65.749763488770 -71.833877563477 -235.701416015625 1.150750994682
-162.878143310547 -71.319480895996 -238.897781372070 2.412944316864
-42.316936492920 -80.384269714355 -198.812301635742 1.542175650597
-73.651435852051 -81.049324035645 -211.072189331055 1.543954491615
-75.048194885254 -71.656730651855 -149.889663696289 0.630890667439
-19.285667419434 -79.612205505371 -194.610931396484 1.234656572342
13.721918106079 -80.690032958984 -211.988647460938 2.961142063141
104.719718933105 -68.833457946777 -108.637161254883 1.122020959854
-32.878017425537 -69.760818481445 -174.321929931641 1.669216156006
42.335533142090 -76.545776367188 -117.861991882324 2.116893768311
0.275961011648 -77.460746765137 -220.896667480469 2.331786155701
-160.625061035156 -71.501831054688 -238.635177612305 2.735934495926
26.675144195557 -64.169273376465 -38.921894073486 1.879265546799
-22.684499740601 -76.489379882813 -185.425750732422 0.588903665543
113.342971801758 -76.844406127930 -166.064010620117 1.107141375542
-13.312177658081 -79.416900634766 -203.913391113281 2.371675014496
62.694919586182 -72.225204467773 -238.118637084961 2.329264640808
83.490829467773 -76.441459655762 -215.834304809570 1.911969184875
-151.108947753906 -76.415687561035 -311.968963623047 1.669804930687
-129.919723510742 -70.745201110840 -226.180603027344 3.106523752213
48.299896240234 -65.344978332520 -90.516548156738 2.651847124100
-22.012968063354 -73.248008728027 -66.575462341309 2.439475774765
81.386184692383 -71.529953002930 -219.036926269531 0.911662578583
-63.069816589355 -76.558052062988 -249.293930053711 1.448215842247
-148.926544189453 -64.890998840332 -304.066802978516 3.592101335526
29.263137817383 -72.322044372559 -131.165771484375 1.187776327133
31.926778793335 -75.258712768555 -147.448532104492 1.371153235435
53.604789733887 -73.718986511230 -94.073966979980 1.824652910233
20.057109832764 -64.514099121094 -146.326797485352 1.494453668594
48.073040008545 -72.330513000488 -110.577850341797 1.789392828941
-43.033752441406 -74.279449462891 -57.356803894043 2.401282787323
31.078212738037 -77.957511901855 -145.141143798828 1.518381357193
-31.033929824829 -74.145195007324 -206.320602416992 2.011098146439
-147.318023681641 -58.100360870361 -206.240203857422 2.132961750031
-10.640351295471 -71.669349670410 -207.206268310547 2.251693010330
12.043755531311 -69.892814636230 -226.946929931641 1.625655889511
-87.078407287598 -72.103134155273 -218.254257202148 1.055712580681
-30.308628082275 -67.854080200195 -176.007110595703 2.941609144211
-78.929924011230 -82.839714050293 -91.640098571777 1.935515403748
-2.844902992249 -76.039283752441 -283.922241210938 1.608127593994
112.862571716309 -71.097511291504 -158.119140625000 1.396230340004
-100.852638244629 -73.453941345215 -288.192230224609 1.750120759010
-65.167678833008 -62.367763519287 -115.072860717773 1.873413920403
-154.134735107422 -72.142364501953 -200.336166381836 0.724060773849
82.389122009277 -77.964691162109 -86.631614685059 1.379877448082
-85.745498657227 -65.117729187012 -132.917205810547 1.746231198311
-7.099562168121 -78.350448608398 -211.410644531250 2.254333972931
-69.402481079102 -58.569965362549 -95.848419189453 0.612711846828
28.972959518433 -70.472969055176 -163.120025634766 2.014405727386
102.388923645020 -77.967201232910 -183.967544555664 2.404846906662
-25.264179229736 -68.059547424316 -193.995391845703 1.890512943268
-103.543327331543 -69.851837158203 -220.848876953125 0.800867080688
-146.885498046875 -66.365661621094 -260.933197021484 2.342063188553
-14.592476844788 -66.640190124512 -61.854618072510 2.496666193008
-152.853927612305 -61.297798156738 -260.870880126953 2.147875785828
69.301757812500 -73.618362426758 -229.665695190430 1.794216871262
-29.650691986084 -77.420043945313 -189.290817260742 1.448889732361
-28.885820388794 -77.416511535645 -185.286712646484 2.130787611008
-159.589080810547 -68.692726135254 -281.642089843750 2.420581102371
-63.389316558838 -77.342903137207 -64.830215454102 3.433158397675
40.780662536621 -71.626747131348 -117.355102539063 2.974924087524
39.088237762451 -62.451831817627 -32.422874450684 3.018554449081
-79.643249511719 -71.725738525391 -249.100250244141 0.405202805996
28.007585525513 -68.320137023926 -152.537826538086 0.536799490452
-37.484394073486 -74.877388000488 -79.913238525391 1.269338250160
100.192291259766 -70.243614196777 -95.162643432617 1.990060925484
-148.298645019531 -59.202075958252 -225.700637817383 1.989481329918
-42.287761688232 -69.776695251465 -168.797744750977 2.110411882401
-149.184555053711 -59.511058807373 -236.529357910156 1.916554093361
-40.011463165283 -73.702919006348 -170.679763793945 1.070064783096
-86.441497802734 -67.704772949219 -131.865982055664 2.088171720505
99.799140930176 -66.154220581055 -70.376884460449 0.917684435844
4.242714881897 -76.318580627441 -238.236907958984 1.813118577003
7.300779819489 -62.760059356689 -240.603790283203 1.542287111282
-24.458169937134 -75.752037048340 -176.991073608398 0.834557533264
-39.239570617676 -66.633850097656 -48.819072723389 2.443851709366
14.870553016663 -83.511695861816 -262.149627685547 1.234395384789
-95.142303466797 -66.766029357910 -145.376037597656 2.287267446518
-148.584838867188 -75.007812500000 -199.140014648438 2.531661987305
-81.509201049805 -67.214103698730 -131.858154296875 1.310163259506
24.641010284424 -75.113006591797 -144.862655639648 1.593453407288
30.333526611328 -73.417510986328 -154.113174438477 1.953006625175
-145.604507446289 -72.298828125000 -216.589752197266 1.326897978783
93.049804687500 -73.623046875000 -201.178176879883 2.301838874817
-161.831039428711 -64.787460327148 -226.175064086914 2.001957654953
-148.706405639648 -75.726913452148 -231.209136962891 2.371635913849
40.870372772217 -77.559501647949 -103.657104492188 1.935751557350
-102.898017883301 -68.609893798828 -292.273498535156 2.875134229660
11.991884231567 -75.607925415039 -284.440612792969 2.450594902039
4.586434841156 -83.522331237793 -274.665069580078 1.335212588310
-149.585403442383 -74.164649963379 -219.915985107422 2.964421510696
-79.646278381348 -63.623390197754 -102.061683654785 2.535657644272
-24.146837234497 -73.197700500488 -238.416778564453 1.525850534439
100.894210815430 -75.990631103516 -196.107788085938 1.556648373604
-5.310585021973 -65.526542663574 -252.172729492188 1.113283634186
-76.880004882813 -66.178001403809 -124.898597717285 1.606889963150
-147.801788330078 -67.890388488770 -176.422515869141 1.062150359154
28.871761322021 -80.009147644043 -133.087524414063 2.823667287827
-71.116424560547 -66.981422424316 -143.552398681641 2.291583299637
3.971316099167 -78.226852416992 -230.187469482422 1.534991264343
23.082046508789 -75.234397888184 -152.188873291016 1.246932744980
83.317024230957 -66.478889465332 -60.681613922119 1.965135097504
-33.117828369141 -79.606185913086 -173.904693603516 1.305118560791
-146.626678466797 -82.760986328125 -290.959136962891 1.976151227951
-48.501434326172 -66.161712646484 -137.505035400391 2.639079570770
-26.675395965576 -68.443794250488 -192.380477905273 2.424842357635
7.631792068481 -84.463714599609 -252.259445190430 1.630082845688
19.866783142090 -75.959983825684 -234.436355590820 1.177474141121
-166.293136596680 -68.535820007324 -224.494277954102 0.753555655479
-25.674587249756 -69.695983886719 -189.160537719727 1.453283905983
-163.391983032227 -70.743560791016 -233.434234619141 2.832786798477
14.278607368469 -72.479003906250 -223.281387329102 1.036813020706
-153.329483032227 -82.412033081055 -290.173431396484 1.625918865204
50.258697509766 -67.574806213379 -250.633178710938 2.246777296066
8.698940277100 -70.753013610840 -241.574737548828 0.601431131363
70.796310424805 -71.208518981934 -228.816818237305 1.416109681129
-145.669464111328 -62.094928741455 -220.165817260742 1.115556836128
88.347198486328 -61.118328094482 -58.268760681152 1.995542168617
-6.878817081451 -80.823150634766 -269.131774902344 2.374956130981
-22.654920578003 -67.784400939941 -56.459442138672 2.040845870972
-2.912437915802 -66.791374206543 -287.987823486328 2.026761293411
23.085817337036 -67.624496459961 -159.530273437500 0.961551606655
-58.231330871582 -64.654251098633 -141.913055419922 2.306570529938
42.525444030762 -66.041175842285 -248.994262695313 2.166472196579
-49.277194976807 -81.962005615234 -83.348838806152 2.904793262482
31.058012008667 -68.521476745605 -138.899856567383 2.137176752090
-117.242164611816 -63.258174896240 -198.493835449219 1.998229503632
-152.452484130859 -75.012138366699 -304.624023437500 2.677547454834
71.294723510742 -70.893585205078 -228.692825317383 1.261119604111
24.436952590942 -71.266036987305 -176.494308471680 3.533266782761
-97.305099487305 -57.921401977539 -61.379055023193 1.393206119537
-150.110061645508 -62.365985870361 -248.194076538086 1.362074613571
-162.085815429688 -71.655647277832 -255.665420532227 2.607023954391
-142.568603515625 -72.220420837402 -294.006958007813 1.209623336792
113.577987670898 -77.495521545410 -135.993942260742 1.742961525917
-15.154877662659 -79.701004028320 -203.418014526367 1.393959045410
37.332847595215 -60.897510528564 -124.555679321289 2.039278268814
-88.545181274414 -65.005958557129 -139.135253906250 0.937187492847
28.435949325562 -63.668739318848 -34.232364654541 1.805389523506
13.118432044983 -70.777275085449 -212.918762207031 1.198686003685
-99.957733154297 -62.643363952637 -150.910537719727 3.092679262161
-38.222221374512 -74.491958618164 -240.591522216797 2.389634847641
-133.564987182617 -66.092010498047 -264.319396972656 1.374731659889
17.156612396240 -78.814971923828 -217.906707763672 1.007158279419
105.250610351563 -72.512626647949 -175.117813110352 1.745435595512
5.182258129120 -61.597778320313 -255.677963256836 2.569352865219
41.983085632324 -77.355758666992 -123.366645812988 1.956832885742
-16.905359268188 -74.434112548828 -190.413116455078 1.957862615585
-166.352279663086 -66.073127746582 -209.726684570313 2.395895957947
-70.661087036133 -63.939037322998 -101.643676757813 2.396031856537
15.708217620850 -70.079391479492 -285.196044921875 2.232218027115
-19.565586090088 -75.652015686035 -236.713714599609 2.130159854889
22.014560699463 -75.807945251465 -187.043807983398 2.239446878433
-33.372821807861 -73.769279479980 -204.803131103516 1.581320047379
50.324722290039 -67.033775329590 -98.407814025879 1.202904939651
-73.685470581055 -75.053581237793 -251.616226196289 1.047346591949
4.552659988403 -66.878143310547 -229.219375610352 1.130195856094
-41.969043731689 -79.167633056641 -162.699295043945 1.103715419769
-29.978796005249 -74.309524536133 -167.128814697266 1.454207658768
63.615234375000 -71.195846557617 -234.251052856445 1.551831722260
-55.978958129883 -72.087562561035 -138.965637207031 2.274647474289
-122.155746459961 -62.371723175049 -201.685592651367 2.191356182098
-118.127250671387 -70.708747863770 -228.988723754883 3.207598209381
-40.344753265381 -74.138740539551 -154.325942993164 1.606810808182
11.629513740540 -61.890766143799 -242.085357666016 1.279632449150
-35.736904144287 -71.305923461914 -76.747039794922 0.948685944080
-45.527397155762 -74.288307189941 -56.771472930908 3.005941867828
-8.662159919739 -73.718345642090 -233.959381103516 1.503495931625
12.457040786743 -68.689079284668 -192.313827514648 1.829393625259
-143.414489746094 -63.319953918457 -235.579650878906 1.462544083595
94.635284423828 -75.509849548340 -207.179718017578 1.379631519318
-34.670574188232 -65.242073059082 -48.827182769775 1.697848916054
-25.143810272217 -75.395774841309 -71.786209106445 2.590694904327
47.452472686768 -70.344200134277 -248.144210815430 1.514508605003
-142.258880615234 -83.474922180176 -288.230682373047 2.765171527863
27.284465789795 -60.611766815186 -33.537879943848 1.384749054909
-36.757427215576 -75.973854064941 -239.258163452148 0.981398403645
22.323524475098 -61.898746490479 -142.566528320313 1.757885932922
39.339298248291 -77.264602661133 -105.240509033203 2.809341669083
-59.364082336426 -76.464935302734 -174.225967407227 1.458522081375
2.137852907181 -73.341545104980 -240.399810791016 2.308327674866
-149.247360229492 -66.489547729492 -298.645233154297 2.301538228989
-49.367759704590 -59.275733947754 -44.094036102295 1.426360011101
2.193962097168 -72.253280639648 -162.994522094727 1.000417828560
-63.201095581055 -69.796188354492 -49.969726562500 2.055607080460
-19.993740081787 -71.068862915039 -63.428382873535 3.434970140457
-159.683486938477 -66.382286071777 -253.520889282227 3.051385164261
95.960746765137 -72.196525573730 -206.949493408203 2.857142448425
12.428511619568 -83.341293334961 -236.176101684570 1.437065124512
106.933715820313 -73.170234680176 -109.583114624023 1.615216732025
22.488130569458 -67.935592651367 -183.859573364258 1.878278732300
-140.140975952148 -77.085136413574 -288.129028320313 2.215070247650
-145.783081054688 -72.819458007813 -221.227996826172 1.046703338623
-146.829681396484 -70.879463195801 -193.689544677734 2.273317575455
-88.281356811523 -66.352943420410 -137.258255004883 1.740961909294
-68.802566528320 -58.690097808838 -114.753837585449 1.643231630325
-148.322448730469 -82.060363769531 -237.201004028320 2.682128667831
-9.482153892517 -67.175003051758 -252.419128417969 2.398584365845
-1.522791981697 -73.061981201172 -240.042434692383 1.185320615768
-144.409866333008 -66.954795837402 -238.400436401367 2.638100862503
-144.680664062500 -78.408798217773 -191.000946044922 2.949414253235
-4.437754154205 -77.722534179688 -246.946548461914 1.030010342598
-51.846233367920 -74.709190368652 -57.416725158691 2.535536527634
-79.231597900391 -72.474266052246 -100.203575134277 1.204805731773
14.142850875854 -83.754295349121 -240.995132446289 2.801726102829
89.330329895020 -68.254310607910 -104.844032287598 2.190804481506
107.575241088867 -73.686401367188 -128.016921997070 1.719678640366
40.434810638428 -60.388179779053 -20.786550521851 1.118257880211
25.521970748901 -71.735351562500 -183.596343994141 1.339195132256
56.044284820557 -71.835365295410 -243.679443359375 0.886315226555
15.653598785400 -71.126419067383 -233.400222778320 1.019705891609
110.609756469727 -77.604438781738 -137.556854248047 1.905109286308
-100.402023315430 -60.348247528076 -93.268463134766 0.922152519226
-155.657241821289 -68.996116638184 -197.412933349609 2.749198198318
-7.860988140106 -68.652389526367 -276.753936767578 1.875135064125
-62.384830474854 -63.179969787598 -116.962913513184 1.857475161552
-5.563056945801 -81.821586608887 -268.434600830078 1.232330799103
-118.006881713867 -72.253150939941 -256.261627197266 1.026469945908
6.188919067383 -73.702507019043 -220.331298828125 1.210495471954
17.918704986572 -73.772422790527 -219.788040161133 1.974223613739
22.630821228027 -77.165939331055 -244.459487915039 1.155343770981
38.256462097168 -68.555793762207 -116.757148742676 0.836946010590
-37.474765777588 -76.646392822266 -286.222930908203 0.946835875511
-88.651199340820 -57.408195495605 -50.056747436523 1.445957899094
17.725379943848 -76.327072143555 -200.630554199219 1.332911968231
92.294265747070 -73.887474060059 -72.265518188477 1.539530396461
30.438009262085 -72.244705200195 -161.143798828125 2.028173685074
18.062637329102 -67.849494934082 -142.334442138672 2.139150619507
31.843412399292 -75.856239318848 -123.314781188965 2.161517381668
4.581089973450 -75.794784545898 -240.339752197266 0.182717934251
-23.637277603149 -74.651763916016 -70.833999633789 2.771502256393
-147.277374267578 -64.959289550781 -229.293289184570 2.185472965240
9.757445335388 -67.094863891602 -151.754364013672 1.774577140808
24.782730102539 -78.624275207520 -142.633758544922 2.405615806580
36.697063446045 -65.459892272949 -252.283157348633 1.493190407753
1.276651024818 -71.337181091309 -224.613983154297 1.807289481163
24.887882232666 -66.725181579590 -30.737808227539 3.107939720154
-26.014410018921 -82.593032836914 -187.517944335938 2.380270719528
-58.012416839600 -75.440887451172 -168.145065307617 1.422700166702
-129.986572265625 -66.070800781250 -265.192230224609 3.383166313171
-33.034469604492 -78.174766540527 -73.226394653320 2.625043630600
113.013092041016 -74.498878479004 -147.534393310547 2.242750644684
-144.362884521484 -69.961570739746 -275.051147460938 1.522315740585
-85.579673767090 -65.505836486816 -132.521530151367 1.368765592575
-147.662963867188 -71.746711730957 -193.799880981445 1.710897684097
-130.655654907227 -63.030399322510 -204.955963134766 2.324497222900
-20.634035110474 -71.730667114258 -207.187606811523 1.885607481003
16.524284362793 -82.584236145020 -261.148193359375 2.231916189194
-40.365886688232 -77.526741027832 -193.943008422852 1.942128896713
-149.996795654297 -79.108505249023 -236.425415039063 1.836604952812
10.670517921448 -71.400817871094 -192.649749755859 2.138777256012
-38.182033538818 -71.669479370117 -288.265167236328 0.837808668613
97.336753845215 -76.659492492676 -201.039886474609 1.497837066650
66.846069335938 -71.566886901855 -237.261169433594 1.126081466675
-25.747497558594 -72.789390563965 -179.256942749023 1.606107711792
17.776695251465 -70.471435546875 -209.586639404297 1.469680428505
41.310325622559 -78.405380249023 -113.161018371582 1.400028467178
-76.857788085938 -61.659099578857 -122.997734069824 2.128687858582
-42.946815490723 -67.549766540527 -152.873596191406 2.243986845016
-63.765644073486 -72.561470031738 -170.998931884766 1.225682020187
-5.658268928528 -63.642395019531 -239.927902221680 1.407625436783
106.156539916992 -73.522636413574 -168.257446289063 0.698162078857
-154.575347900391 -68.036491394043 -287.317352294922 2.884267807007
-66.778144836426 -61.538299560547 -95.915481567383 1.715626716614
-132.025833129883 -71.548385620117 -255.706054687500 2.000188589096
2.475444078445 -63.494155883789 -285.857391357422 2.593496799469
-157.706222534180 -66.204322814941 -241.575469970703 2.639671087265
-132.711715698242 -74.645088195801 -292.978790283203 1.556920051575
34.091068267822 -78.690216064453 -123.925598144531 1.846500873566
86.628463745117 -70.899169921875 -218.322113037109 1.969365119934
32.392681121826 -74.835197448730 -121.090728759766 1.065554738045
-72.083671569824 -68.902839660645 -138.064407348633 1.612625241280
112.076980590820 -74.458168029785 -158.783477783203 1.607401132584
78.392898559570 -75.036979675293 -71.292465209961 1.665273785591
-94.030914306641 -65.819671630859 -138.146514892578 1.258141517639
-76.502548217773 -71.878707885742 -141.896408081055 1.715911149979
-81.409255981445 -72.550590515137 -213.343963623047 1.182985544205
47.686397552490 -67.475250244141 -94.949821472168 1.857331275940
24.098932266235 -77.857887268066 -170.490783691406 1.008235692978
7.333794116974 -81.799751281738 -247.847747802734 1.746188759804
-123.475921630859 -64.416122436523 -263.375854492188 1.928973078728
-53.260570526123 -77.412544250488 -188.795333862305 1.764927864075
-20.328153610229 -68.341133117676 -205.554168701172 1.942186713219
37.800434112549 -75.595718383789 -109.707687377930 1.084277391434
-165.729827880859 -69.864028930664 -233.403335571289 2.656801462173
37.583549499512 -70.041816711426 -11.626092910767 0.562716484070
-101.189620971680 -65.057945251465 -168.846801757813 1.352013349533
-12.635954856873 -73.234573364258 -286.523925781250 1.591832160950
-130.239913940430 -70.862030029297 -255.395629882813 3.048140048981
-144.334671020508 -70.385963439941 -279.733184814453 2.613699913025
-45.113201141357 -76.906959533691 -157.746566772461 1.360490798950
-29.033309936523 -61.409488677979 -48.557235717773 0.798280179501
-70.096252441406 -61.823047637939 -102.605819702148 1.072538137436
-143.611877441406 -60.417247772217 -225.990783691406 0.944056570530
-8.468353271484 -67.704063415527 -232.507949829102 1.373103976250
57.935138702393 -63.883396148682 -80.967468261719 3.175215721130
-53.505275726318 -83.509040832520 -204.774887084961 1.217248201370
-6.242049217224 -82.364982604980 -256.719024658203 0.409535944462
-69.048812866211 -76.674270629883 -63.694290161133 1.905631780624
70.881912231445 -68.186241149902 -101.448471069336 0.400664627552
-4.685893058777 -67.617141723633 -266.587707519531 0.856411755085
-148.545166015625 -59.789371490479 -177.185317993164 2.283649682999
-87.057044982910 -68.590057373047 -256.251892089844 1.275937914848
-96.922355651855 -72.466758728027 -217.588058471680 1.206979036331
-153.183715820313 -75.097862243652 -233.475738525391 1.565374255180
19.315467834473 -74.238586425781 -207.708312988281 1.715840220451
23.913652420044 -62.671878814697 -22.500627517700 2.981417417526
-19.304008483887 -72.709396362305 -286.856842041016 3.645970106125
-9.053812026978 -75.136535644531 -171.586685180664 1.522699236870
-15.235038757324 -74.074058532715 -229.702682495117 1.831588029861
-55.073909759521 -76.400588989258 -186.230194091797 3.402421474457
3.291501045227 -73.074089050293 -156.369964599609 1.881353855133
-83.198463439941 -69.616996765137 -102.918708801270 1.346263170242
-33.522365570068 -69.874740600586 -171.748413085938 1.381898403168
24.678865432739 -66.829078674316 -252.168258666992 1.455324053764
-40.663803100586 -78.805877685547 -71.183822631836 1.936731457710
-50.642276763916 -78.965789794922 -200.069198608398 1.831773877144
-71.591224670410 -67.512374877930 -140.708358764648 0.498844325542
-89.321655273438 -74.640777587891 -288.480834960938 2.156924486160
-77.987991333008 -77.929229736328 -72.804840087891 2.276076793671
-57.887474060059 -65.173820495605 -122.583396911621 0.560686945915
-62.236782073975 -59.512508392334 -133.703048706055 1.609528660774
45.529739379883 -66.850479125977 -105.480255126953 1.244784235954
-1.315297007561 -67.052871704102 -237.518493652344 1.724552869797
-94.395195007324 -71.396141052246 -85.631607055664 1.778707981110
-145.080474853516 -82.551506042480 -259.874481201172 1.841826438904
-51.540046691895 -76.730979919434 -62.880439758301 2.342780113220
-63.131202697754 -62.747402191162 -128.840179443359 2.149522304535
20.567129135132 -78.393966674805 -163.776336669922 2.295802831650
-134.543609619141 -74.380882263184 -291.022766113281 1.525603771210
41.159408569336 -67.667007446289 -29.181709289551 3.042934894562
-136.387466430664 -67.531661987305 -256.677429199219 1.175302028656
-124.791793823242 -63.021995544434 -234.113510131836 2.338254213333
-150.517181396484 -76.650245666504 -250.251449584961 1.979978203773
-149.382064819336 -78.101905822754 -195.056533813477 2.176040887833
-126.492469787598 -69.789077758789 -204.583099365234 1.642728805542
-152.844085693359 -62.733879089355 -181.354660034180 1.789297461510
34.219589233398 -68.640220642090 -124.550384521484 1.992410659790
0.228600993752 -82.659561157227 -250.116302490234 2.297075271606
-29.685411453247 -69.653221130371 -55.166927337646 2.222981214523
18.776750564575 -79.065071105957 -192.420837402344 2.544471025467
9.275716781616 -74.255462646484 -156.806396484375 1.275744199753
-149.808456420898 -65.285629272461 -296.739868164063 1.262733340263
65.340248107910 -69.527191162109 -240.936782836914 1.574630379677
-72.225532531738 -68.165275573730 -137.539840698242 2.203232288361
-65.686882019043 -82.077957153320 -206.194274902344 1.129384875298
-11.014652252197 -79.069068908691 -263.914855957031 2.146578788757
50.562011718750 -72.240394592285 -244.003723144531 1.534363865852
