104.716346740723 -71.966415405273 -114.271568298340 1.520664095879
-11.809293746948 -76.891334533691 -209.889694213867 1.862254858017
-88.572273254395 -80.985450744629 -93.063735961914 1.568037152290
4.956964969635 -62.118545532227 -258.273376464844 1.859349608421
-148.901657104492 -70.943977355957 -203.892333984375 2.131613969803
-52.286045074463 -76.887496948242 -151.027572631836 1.353312969208
-24.240581512451 -78.601768493652 -191.751480102539 1.220114231110
-0.465707004070 -69.945716857910 -231.896774291992 1.480612993240
-30.304664611816 -75.996284484863 -194.970672607422 3.074199199677
-23.084976196289 -68.605491638184 -204.843292236328 2.316368341446
21.994297027588 -76.139732360840 -260.882019042969 1.514450430870
-147.473190307617 -75.310546875000 -250.404800415039 2.336990356445
-67.770484924316 -76.157157897949 -252.949340820313 2.319458246231
-24.983207702637 -80.772346496582 -180.152038574219 2.029145717621
-98.898483276367 -73.029464721680 -225.209365844727 2.202388048172
-143.342605590820 -76.107124328613 -288.937530517578 1.257465839386
61.474105834961 -65.639411926270 -94.357124328613 2.099374771118
-103.975555419922 -59.948696136475 -76.903999328613 5.288416862488
-150.656051635742 -76.645225524902 -263.554992675781 1.893803238869
47.824012756348 -75.364189147949 -101.027961730957 0.966216444969
-39.034240722656 -76.605094909668 -66.591567993164 2.579321622849
-144.457916259766 -63.872604370117 -182.538925170898 1.521441698074
50.770816802979 -68.672126770020 -100.690467834473 2.404760360718
98.889335632324 -75.161323547363 -201.392807006836 0.932161033154
105.039588928223 -75.222869873047 -173.569824218750 2.260857582092
-104.878890991211 -65.288459777832 -158.706939697266 1.757584333420
-78.235824584961 -72.607261657715 -139.543869018555 0.971979081631
-88.984153747559 -61.071357727051 -118.027786254883 2.208344936371
-99.940933227539 -67.796699523926 -155.007659912109 1.760706186295
34.626846313477 -71.693771362305 -38.689548492432 1.581237554550
18.195507049561 -72.432044982910 -195.465637207031 2.623974561691
107.896362304688 -75.469963073730 -157.278732299805 1.300857543945
-60.685127258301 -79.437271118164 -69.902465820313 2.260941982269
-120.887046813965 -69.256889343262 -206.579742431641 3.451343297958
24.322561264038 -71.447044372559 -162.132751464844 2.502238512039
-58.632671356201 -85.424392700195 -89.586608886719 2.472926616669
-32.723449707031 -79.566299438477 -240.176849365234 1.329576253891
-30.813741683960 -85.223426818848 -189.821487426758 0.636919617653
68.740509033203 -67.274436950684 -62.725177764893 3.853775978088
-87.913024902344 -82.748397827148 -98.772689819336 3.123557806015
-51.746974945068 -72.957237243652 -288.330139160156 2.401135921478
37.246040344238 -72.159217834473 -100.954711914063 4.624669075012
-80.001884460449 -61.632320404053 -108.009864807129 2.652627706528
-163.430313110352 -74.975837707520 -292.619506835938 1.940711021423
-9.183200836182 -74.218521118164 -213.765365600586 2.371566534042
19.739824295044 -67.496177673340 -14.306117057800 5.530683040619
-61.985836029053 -79.086158752441 -180.484802246094 2.995139837265
-75.116012573242 -76.963996887207 -211.341262817383 1.758273243904
17.229627609253 -81.828041076660 -245.827987670898 1.830149054527
-11.398056983948 -73.509529113770 -232.288665771484 1.333548784256
-145.397323608398 -71.800163269043 -301.087463378906 1.674868345261
-88.862960815430 -63.414833068848 -111.403083801270 2.408731698990
-17.642604827881 -73.777893066406 -227.896453857422 1.176176786423
23.224699020386 -80.873985290527 -151.562927246094 2.952537536621
35.618862152100 -75.402275085449 -133.675399780273 3.029880523682
28.404769897461 -68.046760559082 -11.604962348938 3.608577966690
-82.009666442871 -72.706863403320 -59.242012023926 2.608334779739
-150.135864257813 -64.781723022461 -291.409301757813 0.526099443436
-72.186775207520 -81.144134521484 -214.553298950195 1.847664356232
-14.438250541687 -69.706657409668 -230.715423583984 0.996070981026
-36.072330474854 -72.271865844727 -58.369346618652 3.458446502686
92.445976257324 -74.734397888184 -198.877777099609 2.958550453186
-149.412734985352 -62.420509338379 -274.589691162109 3.689636707306
-86.873474121094 -63.450008392334 -51.534999847412 2.691836118698
-83.282066345215 -78.089599609375 -218.556991577148 2.370531558990
-153.316085815430 -64.126564025879 -258.143066406250 2.124607324600
-42.234378814697 -72.898071289063 -172.339431762695 1.000880599022
12.738153457642 -83.184982299805 -272.246215820313 1.610167860985
-83.322433471680 -63.266075134277 -126.509002685547 1.463459372520
47.907302856445 -66.422996520996 -248.290817260742 1.426698923111
-45.852794647217 -80.098175048828 -157.561904907227 2.258985519409
-50.904510498047 -77.141387939453 -150.514419555664 1.861009836197
-10.398974418640 -77.043540954590 -250.996429443359 1.525807023048
57.921314239502 -73.316848754883 -238.382858276367 3.752696275711
15.625772476196 -79.312866210938 -206.834976196289 1.577169537544
-150.413894653320 -84.862121582031 -265.745910644531 2.405094146729
10.345336914063 -80.786666870117 -248.691787719727 1.318911433220
16.930660247803 -82.126129150391 -262.905426025391 1.926442623138
-31.207199096680 -72.438453674316 -176.643142700195 3.209327697754
9.208591461182 -70.499481201172 -149.259643554688 2.041571378708
-137.014785766602 -70.253692626953 -207.112670898438 5.076863288879
-42.960010528564 -81.390342712402 -203.036987304688 2.881032466888
-53.160739898682 -70.237106323242 -135.053588867188 2.021181821823
38.114528656006 -74.733299255371 -121.555404663086 3.903433084488
29.223398208618 -77.504714965820 -124.322631835938 1.972752451897
9.176712989807 -63.251823425293 -243.365570068359 1.604281187057
-53.871974945068 -75.320938110352 -244.740142822266 1.799146533012
-160.431945800781 -67.164520263672 -208.514389038086 0.779489159584
-15.236515045166 -79.257705688477 -172.257659912109 2.216785907745
104.605575561523 -79.364997863770 -181.222229003906 2.419888257980
102.373191833496 -73.559898376465 -174.721328735352 2.762159347534
-11.791104316711 -74.806022644043 -205.450714111328 2.110918045044
16.224367141724 -78.062530517578 -169.954315185547 2.980465173721
-52.009185791016 -76.075538635254 -60.474971771240 1.845947265625
100.566757202148 -77.053817749023 -180.461639404297 4.294352054596
-64.107536315918 -77.487541198730 -291.144775390625 2.695388793945
-126.476173400879 -73.181602478027 -287.784545898438 2.318164587021
-80.887832641602 -63.525405883789 -106.391227722168 1.945072174072
-1.350288987160 -75.488960266113 -221.061950683594 0.813131511211
-103.700973510742 -61.864101409912 -84.020912170410 4.718842029572
-85.851066589355 -80.653511047363 -86.615539550781 2.517653465271
27.896253585815 -64.472854614258 -260.581573486328 1.921697378159
18.912551879883 -67.281707763672 -140.462188720703 1.978986620903
15.856236457825 -70.675109863281 -34.597499847412 5.848185539246
-162.794815063477 -68.391937255859 -268.401641845703 2.129890918732
62.568492889404 -69.741157531738 -75.535713195801 5.045185089111
-37.193092346191 -73.902107238770 -79.785491943359 2.228237152100
-26.994623184204 -80.903984069824 -190.628524780273 1.147012233734
37.940555572510 -80.168174743652 -122.052627563477 2.799602985382
-16.469577789307 -60.581802368164 -56.979465484619 4.406636714935
-54.556102752686 -75.677154541016 -89.547966003418 1.584958791733
25.349426269531 -67.501823425293 -266.865234375000 0.936840176582
21.287353515625 -72.086723327637 -150.576202392578 1.982980489731
24.471599578857 -74.189781188965 -136.069808959961 1.721645832062
-105.887580871582 -72.943992614746 -227.788406372070 1.226977825165
13.820267677307 -80.909492492676 -233.527847290039 1.272713303566
92.122978210449 -69.335823059082 -69.098564147949 1.761770367622
7.902740955353 -71.902328491211 -233.672988891602 1.383011341095
-11.132126808167 -70.238395690918 -208.704345703125 2.819319486618
98.326850891113 -71.792228698730 -194.278945922852 2.509438753128
-64.872772216797 -68.045951843262 -92.381042480469 1.091427564621
95.568359375000 -65.840118408203 -99.323982238770 4.075363159180
-158.233444213867 -72.014297485352 -231.841018676758 3.830433607101
13.569463729858 -67.894233703613 -29.378593444824 7.436409950256
13.668393135071 -67.395286560059 -288.475494384766 2.055120944977
-145.420593261719 -73.397727966309 -301.836975097656 2.058891057968
-148.328628540039 -72.801033020020 -233.449539184570 2.771613121033
-90.582748413086 -62.151657104492 -53.281764984131 0.974623024464
56.123607635498 -65.860923767090 -94.107162475586 1.938822984695
-111.438003540039 -71.293708801270 -290.325347900391 3.176248550415
-146.660430908203 -79.200325012207 -213.960159301758 2.173009395599
-71.807685852051 -82.936035156250 -211.941848754883 1.718472957611
21.685281753540 -77.885284423828 -140.183303833008 4.224139690399
36.984992980957 -68.705871582031 -22.312051773071 5.484931945801
-9.226543426514 -78.498458862305 -211.359771728516 1.720396757126
-30.577224731445 -80.577239990234 -180.671691894531 2.365407705307
-88.991607666016 -72.275840759277 -111.409736633301 3.535357713699
-157.290191650391 -71.021888732910 -290.025848388672 1.223219990730
-150.227523803711 -65.572235107422 -265.328704833984 1.681627869606
57.435363769531 -73.400688171387 -245.812271118164 1.341313838959
-41.479946136475 -78.494041442871 -246.855545043945 1.696809172630
-22.232093811035 -78.306098937988 -224.641845703125 2.678262948990
-58.373760223389 -73.650878906250 -142.790283203125 1.553085327148
-155.313369750977 -77.082572937012 -202.208984375000 2.625600337982
-146.538131713867 -66.778030395508 -299.190979003906 2.285250425339
-6.479213237762 -78.969367980957 -221.116134643555 1.241222381592
-50.769912719727 -86.051040649414 -201.842361450195 1.929886460304
-46.554817199707 -79.618576049805 -163.503570556641 2.759027719498
15.163660049438 -82.457481384277 -233.523895263672 1.409564495087
-151.672454833984 -63.875659942627 -217.095886230469 3.903623104095
35.902050018311 -77.261817932129 -131.879226684570 1.896357297897
62.593669891357 -71.428489685059 -238.226425170898 1.760297060013
-24.950759887695 -79.037147521973 -181.486221313477 0.692557930946
-166.772613525391 -72.579750061035 -244.886047363281 2.317920207977
7.662943840027 -76.019165039063 -244.395278930664 0.856909871101
-52.784393310547 -77.899192810059 -146.371078491211 1.966713905334
-155.638504028320 -66.904937744141 -184.765304565430 3.460278272629
-45.456226348877 -78.148956298828 -168.949020385742 3.268195152283
98.523712158203 -73.912162780762 -100.141586303711 2.871818542480
34.047630310059 -81.085395812988 -127.821784973145 2.952636957169
21.663589477539 -78.782249450684 -143.426879882813 4.147504806519
-36.997303009033 -69.047714233398 -178.712600708008 2.069199323654
60.048980712891 -69.757362365723 -237.240112304688 1.646236777306
66.242210388184 -74.731582641602 -80.786010742188 4.544144630432
-148.739913940430 -79.312904357910 -291.070922851563 1.830122709274
69.228324890137 -73.168701171875 -238.116775512695 1.532653331757
109.142509460449 -73.615806579590 -141.739227294922 1.909583926201
-53.641254425049 -80.358322143555 -201.347686767578 1.604394316673
59.610382080078 -72.684112548828 -245.187133789063 1.231895327568
25.198682785034 -59.937721252441 -12.177780151367 3.211535215378
-101.931541442871 -68.404434204102 -227.161926269531 1.607489109039
-64.833137512207 -63.458389282227 -137.964782714844 4.557759284973
-95.548278808594 -71.456062316895 -289.736572265625 2.407459259033
-67.165336608887 -82.376808166504 -79.122817993164 1.835428118706
-144.768066406250 -85.907714843750 -291.195709228516 1.468920111656
-63.156772613525 -74.744522094727 -57.543678283691 2.311953783035
23.710762023926 -75.840507507324 -182.422378540039 1.580248832703
-77.242568969727 -69.441131591797 -140.748260498047 1.975134730339
-57.803688049316 -82.094306945801 -208.796371459961 1.544261693954
14.090461730957 -71.980606079102 -236.411041259766 1.944333434105
-53.992748260498 -75.644035339355 -59.658309936523 2.818373203278
-68.412025451660 -84.346656799316 -85.725761413574 2.839707136154
43.193992614746 -61.948196411133 -26.969655990601 1.934177994728
8.158294677734 -77.590042114258 -208.854629516602 1.413756132126
-147.521636962891 -64.934097290039 -248.066787719727 2.578992128372
68.787368774414 -73.229476928711 -97.185691833496 3.207093954086
-151.934295654297 -76.906860351563 -194.227508544922 0.618886291981
-25.595048904419 -79.976837158203 -240.537170410156 2.086581707001
21.423873901367 -68.208213806152 -175.736053466797 1.878927946091
36.895626068115 -79.233573913574 -127.373527526855 2.380483865738
-101.792503356934 -69.528602600098 -294.059906005859 3.514184236526
6.451511859894 -74.745704650879 -241.547363281250 1.703984856606
-42.013645172119 -77.141548156738 -201.660293579102 1.457521438599
-79.641159057617 -63.708477020264 -126.198410034180 1.444911241531
-9.686803817749 -78.086570739746 -274.337066650391 1.873794317245
78.815437316895 -78.143234252930 -223.861831665039 2.882473945618
96.549156188965 -79.141151428223 -201.949356079102 1.992145538330
25.109729766846 -80.651664733887 -158.671844482422 1.758220195770
-41.907287597656 -85.147445678711 -193.179687500000 0.867066621780
-154.622711181641 -62.944335937500 -184.701431274414 3.803739070892
33.925178527832 -65.931541442871 -34.199310302734 2.691958904266
-153.755187988281 -67.639480590820 -194.339111328125 1.691899299622
38.910442352295 -63.164131164551 -36.879898071289 2.455449819565
0.173957005143 -86.842079162598 -261.464080810547 2.205800294876
-41.279907226563 -77.667671203613 -161.666015625000 2.726374864578
-66.998214721680 -80.700889587402 -213.137435913086 2.073564052582
16.340658187866 -71.604568481445 -20.527856826782 4.851344585419
-52.772384643555 -68.219711303711 -143.968627929688 1.412261366844
-38.616889953613 -74.441955566406 -209.011474609375 1.922844290733
-32.532146453857 -78.773193359375 -216.619873046875 2.840835809708
63.300384521484 -70.186119079590 -73.943664550781 5.144586563110
-154.828399658203 -74.001335144043 -273.984252929688 2.423095703125
56.350154876709 -66.374389648438 -83.303306579590 2.931586265564
-160.081985473633 -70.418380737305 -297.171722412109 3.764625310898
-52.016895294189 -74.104408264160 -56.457660675049 3.166779518127
-74.394424438477 -75.779312133789 -156.174041748047 3.239729642868
21.953990936279 -70.273277282715 -185.190505981445 1.592341899872
-59.395786285400 -65.463996887207 -144.752624511719 3.116511344910
-22.225999832153 -78.451217651367 -206.117538452148 2.612986087799
15.508290290833 -77.846778869629 -198.631988525391 1.260571479797
7.497221946716 -67.263000488281 -242.221099853516 1.491844296455
87.072082519531 -77.500602722168 -85.483306884766 1.946797013283
-34.385898590088 -76.916397094727 -287.748504638672 0.865044891834
-93.654594421387 -69.238838195801 -64.980316162109 1.783097624779
-152.155136108398 -67.170555114746 -250.777725219727 2.117351055145
-153.843078613281 -74.755462646484 -300.312377929688 1.185537576675
-129.471862792969 -75.123863220215 -260.244293212891 1.722872018814
24.825059890747 -67.619354248047 -35.425380706787 2.918073892593
-61.091983795166 -72.956909179688 -92.806144714355 1.840720176697
-59.152778625488 -61.626968383789 -82.022445678711 0.905740618706
16.466760635376 -79.822174072266 -191.630935668945 3.327961683273
-148.640670776367 -74.469360351563 -195.704116821289 2.423701524734
-82.037673950195 -80.578132629395 -81.633750915527 1.948355913162
73.878280639648 -77.462661743164 -229.649444580078 2.116684436798
-34.079143524170 -78.504478454590 -175.630111694336 2.058021783829
-103.124862670898 -63.660102844238 -84.299186706543 4.542917728424
-49.636577606201 -77.064025878906 -158.841171264648 1.448022484779
-151.391281127930 -80.715393066406 -197.664260864258 1.107031822205
-139.122451782227 -85.083244323730 -294.558197021484 3.686766386032
-149.696182250977 -81.672393798828 -234.844131469727 1.950429201126
-81.521606445313 -67.907508850098 -119.187110900879 3.115804195404
11.060791015625 -84.207534790039 -243.572052001953 2.658099889755
-46.671791076660 -79.794258117676 -162.627883911133 3.219440937042
44.982337951660 -64.344566345215 -97.300064086914 2.721089363098
14.843642234802 -69.830688476563 -186.221374511719 1.183565378189
-154.235260009766 -82.183776855469 -264.458587646484 2.899334192276
-0.370736002922 -66.592193603516 -268.163879394531 1.880432844162
-151.812667846680 -82.296073913574 -287.914154052734 1.448427200317
24.311712265015 -61.722251892090 -17.923885345459 2.642265796661
28.335891723633 -74.833129882813 -163.259796142578 1.363525390625
-46.043918609619 -73.959602355957 -151.366256713867 3.954568862915
83.744323730469 -66.042480468750 -60.489791870117 2.152555227280
-144.870697021484 -78.555847167969 -297.828857421875 3.399617195129
-148.626510620117 -74.081085205078 -264.449127197266 2.230629205704
-80.396621704102 -63.090549468994 -105.406394958496 0.906944632530
23.949522018433 -78.365959167480 -133.697143554688 4.401687145233
72.484512329102 -63.721027374268 -58.633594512939 3.322627782822
16.510114669800 -75.642845153809 -225.386276245117 1.727022171021
-31.990146636963 -73.206367492676 -170.030120849609 1.870193362236
-148.622375488281 -68.276359558105 -301.859954833984 2.014471530914
76.055374145508 -70.033828735352 -102.796913146973 1.068746209145
-146.088882446289 -82.348426818848 -298.020660400391 2.717023372650
-3.390897989273 -63.507999420166 -245.107589721680 1.135759115219
-49.087833404541 -79.598060607910 -157.590545654297 3.278145551682
-90.785247802734 -63.389507293701 -132.191482543945 1.859846472740
35.896991729736 -66.676017761230 -13.624039649963 3.293266534805
-130.319488525391 -69.390815734863 -297.943847656250 4.825391292572
26.562044143677 -67.924301147461 -16.984775543213 3.594905138016
19.606616973877 -63.914024353027 -23.648889541626 1.515416979790
-47.028297424316 -73.210243225098 -168.621276855469 3.162395715714
-81.023200988770 -58.737716674805 -110.524589538574 2.715395689011
-42.648731231689 -62.280998229980 -48.429935455322 2.469017028809
-32.177009582520 -80.995277404785 -211.700942993164 0.983486473560
-15.573348045349 -73.738937377930 -259.266113281250 2.863262176514
-74.875999450684 -58.965599060059 -45.543701171875 1.988042235374
-132.016998291016 -65.899971008301 -259.810699462891 1.885563969612
22.739665985107 -74.722282409668 -177.894577026367 2.632779359818
97.718467712402 -60.826240539551 -70.228721618652 4.141281127930
9.142118453979 -75.014457702637 -191.485198974609 2.401750802994
10.911355972290 -72.993873596191 -156.745849609375 1.612444043159
-99.148796081543 -65.832054138184 -69.001388549805 3.525167703629
-30.890827178955 -68.740982055664 -181.117355346680 0.864886343479
2.094147920609 -65.227531433105 -263.388763427734 1.801191210747
-61.497104644775 -64.175971984863 -46.494079589844 3.043317317963
16.999471664429 -77.778091430664 -189.175888061523 1.148389816284
108.331352233887 -74.711967468262 -139.925628662109 1.893963098526
-57.600666046143 -75.719200134277 -175.468505859375 1.253103256226
-142.225372314453 -76.518997192383 -263.803283691406 3.345474243164
86.761955261230 -78.387260437012 -210.813827514648 3.245444297791
38.537208557129 -70.638168334961 -257.821960449219 1.654585003853
-150.455749511719 -66.709869384766 -233.535507202148 2.164314746857
16.033996582031 -80.022613525391 -228.204833984375 1.338310003281
25.447301864624 -68.757949829102 -146.171356201172 2.392222404480
-7.893292903900 -76.018646240234 -211.449371337891 1.257174372673
53.001201629639 -60.556297302246 -83.647506713867 4.523308753967
29.237987518311 -75.374671936035 -158.387832641602 1.753508448601
-32.610122680664 -60.712703704834 -50.102130889893 3.095785856247
98.769493103027 -65.896644592285 -91.592201232910 4.924077510834
16.171979904175 -67.495742797852 -183.517395019531 2.541279077530
-88.940513610840 -76.534347534180 -75.623367309570 1.582404971123
23.109964370728 -76.032669067383 -184.819595336914 1.956178545952
-102.704421997070 -64.349029541016 -103.218460083008 4.302178382874
-20.912992477417 -70.577552795410 -211.059036254883 2.874771118164
-8.671262741089 -73.014694213867 -233.974212646484 2.049499988556
-60.897399902344 -59.772308349609 -44.895915985107 2.853304624557
-29.227399826050 -73.221527099609 -214.876480102539 0.892303526402
-165.302536010742 -66.992416381836 -236.129714965820 1.449948430061
-79.387290954590 -61.905075073242 -109.506385803223 2.354046821594
-150.742675781250 -68.102462768555 -304.385559082031 3.125301122665
4.230507850647 -79.916809082031 -246.296524047852 2.060235500336
-160.774566650391 -67.265220642090 -218.804275512695 1.862881422043
-0.539967000484 -76.308349609375 -222.496307373047 1.611515641212
-15.894925117493 -74.003875732422 -202.934112548828 2.807294845581
-101.473907470703 -63.241237640381 -118.984298706055 4.982879161835
-33.760395050049 -81.156784057617 -242.877273559570 1.033953428268
-72.846839904785 -70.969970703125 -250.889556884766 1.451592326164
-78.271713256836 -78.595802307129 -71.077980041504 1.936593890190
-83.785934448242 -71.757148742676 -58.866725921631 2.437995672226
-21.793758392334 -78.526229858398 -199.081680297852 1.587358593941
-58.025699615479 -67.211387634277 -144.315994262695 1.532590150833
16.920146942139 -69.594947814941 -166.057495117188 2.478577613831
56.702247619629 -71.151298522949 -244.428359985352 0.652820050716
-54.465381622314 -76.787452697754 -155.122314453125 3.806144475937
-100.264915466309 -68.471992492676 -119.553619384766 4.669759273529
-4.524156093597 -75.925987243652 -235.252334594727 2.154436826706
-3.967195987701 -71.130455017090 -238.821578979492 1.150370478630
35.967578887939 -64.940811157227 -13.797088623047 2.923996210098
-119.994934082031 -66.438148498535 -292.381011962891 2.109468936920
-153.763229370117 -64.529472351074 -209.086914062500 4.227703094482
-16.590526580811 -64.105041503906 -64.899681091309 2.934024095535
89.003456115723 -74.437797546387 -204.652709960938 3.232584953308
-144.203338623047 -70.188026428223 -268.686340332031 2.840789079666
-147.282119750977 -72.303504943848 -211.702072143555 2.438946962357
-21.361425399780 -69.690742492676 -70.946937561035 2.560398340225
-165.759094238281 -71.867004394531 -224.786865234375 0.293916821480
7.083175182343 -73.486907958984 -223.374816894531 2.596369981766
-79.913833618164 -64.075897216797 -48.688682556152 2.089128971100
-18.546091079712 -78.399108886719 -180.955917358398 1.784416198730
-16.430372238159 -63.711635589600 -64.632408142090 2.788439035416
-30.395610809326 -73.432136535645 -217.599349975586 1.422101020813
8.349955558777 -74.258995056152 -242.599517822266 1.064288854599
-144.679443359375 -81.501731872559 -266.078796386719 2.407429695129
-105.390068054199 -62.840061187744 -172.189605712891 1.694253325462
-154.133010864258 -82.625389099121 -261.085571289063 1.446786880493
-146.628021240234 -78.743888854980 -269.198883056641 1.844637274742
42.152435302734 -70.892082214355 -22.184167861938 1.409698009491
-74.229057312012 -69.934173583984 -142.239135742188 0.271006077528
-80.318458557129 -77.277206420898 -103.818679809570 1.843428850174
-16.673814773560 -78.669891357422 -208.490417480469 2.311097860336
-71.317543029785 -86.753623962402 -96.409896850586 0.460973471403
-81.818969726563 -65.073333740234 -127.005187988281 1.080545902252
-52.941581726074 -70.096466064453 -86.618980407715 2.480851888657
39.275726318359 -74.174293518066 -123.379188537598 2.248934030533
-88.718093872070 -69.809722900391 -130.093551635742 1.550837397575
-101.500038146973 -64.327972412109 -150.651855468750 2.197916746140
-150.353469848633 -79.034545898438 -190.593154907227 3.402515411377
-86.158515930176 -81.935943603516 -92.002517700195 1.535487413406
87.662178039551 -77.343330383301 -85.061676025391 1.701936006546
-31.219810485840 -67.526794433594 -54.623550415039 3.589266061783
84.964797973633 -60.408611297607 -58.245479583740 1.720930218697
8.566729545593 -78.259201049805 -209.649322509766 1.081822991371
-145.148132324219 -75.025230407715 -298.528442382813 1.423965454102
107.290046691895 -75.474540710449 -182.477020263672 0.571929574013
11.022462844849 -76.162719726563 -186.119827270508 2.811071395874
20.089097976685 -70.609207153320 -162.594268798828 2.154045581818
-14.736573219299 -75.420227050781 -265.574890136719 1.708963632584
28.942516326904 -65.312927246094 -256.854125976563 1.821452379227
-63.032032012939 -78.744636535645 -96.025535583496 2.022921323776
-12.649451255798 -67.441612243652 -248.596710205078 1.957681775093
-63.480773925781 -63.336067199707 -118.873184204102 1.069352388382
102.440292358398 -72.191177368164 -189.487274169922 2.208855867386
-166.771011352539 -68.166229248047 -256.206237792969 2.932303428650
-77.187843322754 -84.970184326172 -92.537353515625 1.331328988075
-30.066478729248 -68.542289733887 -187.154159545898 1.554747223854
-4.617945194244 -77.066505432129 -221.024963378906 2.099163532257
-84.458183288574 -84.795600891113 -105.638061523438 1.736254096031
-155.234939575195 -72.341087341309 -309.108428955078 1.514082551003
-145.699172973633 -69.398040771484 -243.374450683594 1.247776389122
13.439976692200 -72.904449462891 -215.313659667969 2.575145244598
66.641563415527 -75.250526428223 -84.615272521973 4.367939949036
-51.665672302246 -78.410377502441 -290.744903564453 1.886284828186
18.746694564819 -69.922096252441 -180.427429199219 2.980725526810
14.125793457031 -74.154495239258 -214.159759521484 3.169912576675
-71.267967224121 -74.418457031250 -100.774612426758 1.737425684929
-78.594825744629 -68.456306457520 -102.621536254883 2.551516532898
-151.579376220703 -80.396080017090 -243.695770263672 2.997149944305
18.226318359375 -74.417793273926 -196.636901855469 2.540064334869
-74.321601867676 -77.432083129883 -103.028282165527 1.888519167900
-8.106687545776 -80.799797058105 -217.476226806641 1.824759483337
-150.133117675781 -60.281585693359 -228.198730468750 2.019659996033
46.178363800049 -63.554248809814 -92.276222229004 3.585463047028
-149.190216064453 -71.122848510742 -205.059539794922 1.336488366127
20.907487869263 -76.518325805664 -255.507568359375 0.968580484390
-151.396484375000 -74.992828369141 -246.296661376953 1.837348699570
-75.206848144531 -84.524238586426 -90.018508911133 0.702768862247
106.204650878906 -76.305122375488 -143.811065673828 4.582411289215
17.460609436035 -75.395072937012 -234.530838012695 1.850447416306
39.699218750000 -78.403335571289 -111.001281738281 0.858410537243
29.057096481323 -69.941658020020 -145.853240966797 0.633277893066
15.095328330994 -73.059921264648 -177.377914428711 0.291957169771
-57.855735778809 -83.914733886719 -82.378936767578 3.180290937424
42.169658660889 -74.243431091309 -117.425209045410 3.159378290176
-56.033771514893 -62.151374816895 -83.842895507813 1.900717258453
41.643993377686 -74.516304016113 -99.429824829102 4.056948661804
-151.613067626953 -63.804943084717 -248.117248535156 2.568793296814
-82.122352600098 -84.789375305176 -96.906509399414 2.339580774307
-15.647484779358 -59.706436157227 -57.192234039307 4.603584289551
-42.440402984619 -73.621070861816 -172.552566528320 1.165798068047
37.403110504150 -78.857711791992 -119.106079101563 2.702599763870
-133.055130004883 -72.277153015137 -200.781341552734 0.368987917900
103.547760009766 -74.761138916016 -181.277984619141 2.527246952057
-86.322944641113 -67.509124755859 -130.298034667969 2.776407480240
-152.266220092773 -69.093635559082 -303.777465820313 3.658343076706
11.250455856323 -80.039985656738 -220.635437011719 2.245807409286
-94.804779052734 -68.209289550781 -138.511611938477 1.655956864357
-53.201175689697 -70.967422485352 -135.537551879883 2.118202447891
-122.380279541016 -63.994537353516 -205.857589721680 1.630098938942
-159.176940917969 -73.812530517578 -269.261291503906 2.567805528641
28.657396316528 -71.323089599609 -261.387878417969 2.640475034714
15.671807289124 -77.199028015137 -182.775604248047 1.122341513634
-153.934432983398 -70.426383972168 -280.876190185547 0.619321346283
-34.307853698730 -66.244949340820 -52.163967132568 4.166528224945
-13.985013008118 -75.188980102539 -222.425338745117 2.226833581924
6.388039112091 -80.110054016113 -215.548202514648 3.217526197433
-109.905784606934 -68.417823791504 -176.835037231445 1.773641824722
-145.464645385742 -67.924827575684 -193.913604736328 2.613526105881
-153.207489013672 -65.956108093262 -288.085357666016 2.047193050385
-13.300960540771 -70.806236267090 -234.370834350586 2.182458162308
-64.737411499023 -59.344295501709 -44.704692840576 3.340821981430
-151.309249877930 -79.497901916504 -283.536987304688 1.601083755493
-14.360415458679 -77.630798339844 -177.655487060547 1.124120473862
8.136696815491 -69.053459167480 -157.026565551758 0.784167289734
-145.645111083984 -70.070915222168 -243.795196533203 0.983663797379
60.237419128418 -75.355064392090 -242.294967651367 2.043727397919
-49.170104980469 -77.504745483398 -158.291870117188 1.501745462418
-63.523555755615 -78.802444458008 -167.484497070313 0.814455211163
-161.724029541016 -65.603385925293 -205.042266845703 1.950637221336
-48.393692016602 -77.483337402344 -200.166717529297 2.691808938980
34.529029846191 -62.235599517822 -33.775817871094 3.416367530823
4.512981891632 -86.543579101563 -269.428131103516 2.655545473099
109.954254150391 -75.834251403809 -150.718688964844 0.615540385246
52.268398284912 -72.123397827148 -86.847999572754 3.026402950287
-146.668350219727 -67.002471923828 -240.534164428711 0.728463172913
7.871435165405 -77.475822448730 -209.753875732422 0.521077215672
-144.380905151367 -78.250679016113 -200.218307495117 2.110905885696
9.800669670105 -72.141670227051 -289.960113525391 0.880141675472
8.097013473511 -61.349681854248 -275.076324462891 3.013355970383
-56.161869049072 -84.438537597656 -83.673728942871 2.024621963501
-42.550239562988 -78.913261413574 -246.981475830078 1.955339074135
76.983367919922 -71.372261047363 -229.678436279297 1.199882149696
-164.536026000977 -74.084350585938 -266.206512451172 2.565262317657
-84.584182739258 -69.643936157227 -103.298805236816 2.438850164413
18.982086181641 -61.621124267578 -26.373805999756 1.373915910721
-149.446868896484 -63.797111511230 -296.131072998047 1.605108857155
-60.574657440186 -73.299827575684 -146.437942504883 3.830841541290
-79.619873046875 -71.664947509766 -103.586853027344 3.063306093216
89.870735168457 -72.226837158203 -206.299942016602 2.608640432358
-63.561470031738 -59.986766815186 -115.013984680176 2.447310209274
-77.426177978516 -68.084701538086 -51.066986083984 2.247798204422
-1.263010978699 -72.444442749023 -161.279022216797 2.152422428131
70.771430969238 -73.129394531250 -99.003807067871 2.049227476120
-156.596267700195 -71.690612792969 -223.499801635742 2.586957931519
-145.896408081055 -68.892593383789 -242.076461791992 1.088782668114
-92.031272888184 -80.538177490234 -104.976371765137 2.911596536636
8.651412963867 -75.141494750977 -193.236434936523 2.994065046310
-99.441116333008 -67.511352539063 -157.093139648438 1.773653149605
-101.888793945313 -64.825836181641 -113.444816589355 4.647356510162
45.842967987061 -76.351951599121 -103.851615905762 1.379039287567
54.462112426758 -64.569625854492 -83.785957336426 2.265548944473
75.211875915527 -77.095100402832 -76.325538635254 2.570749998093
84.152709960938 -78.630661010742 -217.768066406250 3.149168491364
-39.048957824707 -80.390075683594 -244.898025512695 1.329348802567
-5.484470844269 -83.048896789551 -270.785919189453 1.662337064743
37.788986206055 -70.933372497559 -37.409595489502 1.575597882271
-27.723318099976 -63.716175079346 -52.863628387451 3.541960954666
-48.117801666260 -72.923316955566 -167.025253295898 3.821685552597
40.876323699951 -73.095474243164 -118.793464660645 3.401655435562
17.042003631592 -67.310249328613 -36.145053863525 6.446082592010
-147.902343750000 -78.642898559570 -309.182189941406 2.452872037888
-38.174873352051 -78.522285461426 -171.638793945313 0.849865674973
-143.928207397461 -70.609161376953 -257.514434814453 3.221259117126
-48.956439971924 -75.093513488770 -197.069610595703 2.092513322830
68.398078918457 -70.102218627930 -100.227203369141 2.127003192902
2.461914062500 -77.971061706543 -243.164047241211 2.565714359283
-28.513042449951 -73.559844970703 -289.078857421875 2.034979343414
-9.807921409607 -81.922058105469 -265.275878906250 2.150201320648
-74.943267822266 -73.970474243164 -158.449951171875 3.809370279312
-129.047637939453 -74.590042114258 -266.864379882813 3.903643131256
36.093280792236 -62.161373138428 -21.725238800049 4.595630645752
-51.379829406738 -83.315292358398 -83.073799133301 2.509562969208
81.247718811035 -73.682647705078 -221.308288574219 2.040410757065
-32.705593109131 -74.889427185059 -287.811981201172 1.692299485207
-109.423675537109 -71.455238342285 -231.852432250977 2.950224876404
72.240180969238 -69.786460876465 -64.172737121582 3.153273582458
-26.897245407104 -79.129249572754 -291.343383789063 3.119911670685
-1.368669033051 -77.928520202637 -288.131164550781 3.222668647766
-48.321334838867 -72.665260314941 -162.944931030273 1.627892851830
-148.589523315430 -78.725776672363 -312.292541503906 1.146427392960
-125.637283325195 -64.758956909180 -231.595413208008 1.168687105179
-75.014045715332 -80.905830383301 -77.088218688965 1.794452428818
-86.656066894531 -68.074546813965 -130.614562988281 2.155474185944
-59.837711334229 -65.836059570313 -141.330108642578 3.124254226685
-64.811317443848 -60.238082885742 -136.056610107422 4.123155117035
-8.223520278931 -64.751770019531 -246.947479248047 1.793596982956
6.440392971039 -79.633911132813 -212.198089599609 2.155683755875
58.770965576172 -61.821060180664 -89.060997009277 2.153337240219
20.115581512451 -79.824966430664 -158.105926513672 2.793484210968
18.259075164795 -80.096244812012 -173.594726562500 2.215825319290
-61.341239929199 -75.651939392090 -292.894073486328 2.935913562775
-140.349319458008 -80.130447387695 -235.136840820313 3.702390909195
23.179424285889 -74.321762084961 -133.430847167969 4.282537937164
-38.511474609375 -80.512367248535 -167.880538940430 1.376978158951
-155.050140380859 -62.005031585693 -230.238220214844 0.826166570187
-69.030807495117 -81.051246643066 -207.976150512695 1.821276426315
-54.699745178223 -75.192420959473 -287.643890380859 2.154074430466
-74.488235473633 -73.626907348633 -145.174682617188 1.438608884811
14.664554595947 -74.245567321777 -169.723831176758 3.437105655670
10.582313537598 -72.637275695801 -152.527938842773 1.640975475311
-25.117874145508 -72.866798400879 -218.329849243164 1.324371457100
24.048236846924 -80.227523803711 -139.013122558594 3.199290990829
-50.593433380127 -61.415626525879 -47.308872222900 4.304262161255
50.050971984863 -63.828697204590 -85.169502258301 4.650584697723
-49.370559692383 -67.779777526855 -49.877113342285 3.454757213593
-143.190734863281 -79.499496459961 -205.362930297852 1.892422556877
25.439407348633 -60.015991210938 -12.133969306946 3.165773630142
-7.920998096466 -64.688331604004 -239.756866455078 0.992277801037
-87.470817565918 -80.624099731445 -110.457603454590 1.857799053192
38.021060943604 -72.163551330566 -103.957946777344 2.307481288910
-21.330173492432 -65.995635986328 -69.883941650391 2.839251041412
-112.655776977539 -74.951370239258 -292.372222900391 2.137256622314
22.988334655762 -70.696060180664 -162.744796752930 2.278947830200
15.445696830750 -77.970947265625 -195.837295532227 1.529111504555
-92.717582702637 -74.217185974121 -222.393447875977 2.384414672852
-66.198081970215 -78.352561950684 -66.935935974121 1.708534479141
36.489234924316 -71.238571166992 -109.519149780273 1.489224314690
-104.983825683594 -63.885372161865 -173.436828613281 1.417293548584
93.512779235840 -74.967842102051 -196.444290161133 3.130296945572
-152.031326293945 -77.829978942871 -222.249099731445 1.772225618362
-21.342594146729 -77.368400573730 -218.409729003906 1.792853713036
-149.740585327148 -80.626060485840 -201.359893798828 2.290981054306
-96.444580078125 -66.915275573730 -139.606216430664 1.842378616333
49.692955017090 -71.430511474609 -246.362182617188 1.808967828751
-45.841617584229 -70.535804748535 -162.287994384766 1.008579730988
91.031448364258 -67.180145263672 -65.253707885742 1.302509665489
-14.965082168579 -74.118469238281 -199.950225830078 1.211742997169
29.190433502197 -69.082077026367 -131.724197387695 1.391952514648
51.742752075195 -74.181861877441 -244.166030883789 2.991164922714
-64.704612731934 -73.227233886719 -164.238922119141 1.669388532639
42.173206329346 -64.145111083984 -32.010021209717 0.668170213699
108.127754211426 -73.083366394043 -123.600173950195 2.811312437057
-26.931249618530 -69.167434692383 -58.660251617432 3.404894828796
-102.086868286133 -65.594268798828 -79.996810913086 5.399695396423
-52.038440704346 -79.009384155273 -248.691329956055 1.583360075951
111.045944213867 -70.711097717285 -140.500793457031 1.685074806213
-74.544410705566 -76.498947143555 -214.716644287109 1.451277971268
-83.625663757324 -81.178436279297 -86.267204284668 3.060924530029
43.375778198242 -65.430465698242 -24.938951492310 1.393082380295
-137.568527221680 -68.452346801758 -237.242279052734 5.055783748627
-68.348571777344 -65.534370422363 -127.507133483887 5.271977901459
-145.758682250977 -69.966613769531 -274.421112060547 1.158767580986
89.694183349609 -68.728416442871 -103.566635131836 2.595983028412
16.759155273438 -69.865135192871 -181.543319702148 1.787201404572
-156.539337158203 -72.190597534180 -238.204528808594 2.557746410370
-149.134262084961 -77.298988342285 -190.448699951172 2.965152025223
4.460110187531 -75.411346435547 -225.336303710938 0.826577007771
-115.113563537598 -67.646644592285 -260.965148925781 1.133966565132
107.542129516602 -77.641365051270 -141.475494384766 3.910958528519
-88.225967407227 -72.534362792969 -64.197250366211 1.898017406464
-162.120361328125 -67.977195739746 -255.505996704102 3.858112573624
-57.947612762451 -80.650184631348 -184.239547729492 2.634581327438
-104.012870788574 -64.053199768066 -157.074325561523 2.115569353104
-120.409385681152 -65.154968261719 -236.301162719727 3.574821472168
65.080162048340 -73.583900451660 -87.833724975586 3.370536088943
-113.861938476563 -69.802658081055 -195.978408813477 0.947410345078
-100.210708618164 -66.873313903809 -121.876083374023 4.472148895264
-166.848266601563 -73.775794982910 -274.903778076172 1.510916590691
-6.323208808899 -76.442626953125 -232.673248291016 2.303945064545
20.580615997314 -71.857696533203 -277.801300048828 0.948445677757
-44.632411956787 -68.585807800293 -166.275939941406 3.675753355026
-42.939453125000 -80.936225891113 -83.587089538574 1.714260816574
48.953544616699 -61.732967376709 -88.248069763184 4.020394802094
102.200157165527 -72.861541748047 -191.985900878906 0.587923645973
95.886596679688 -70.310623168945 -94.539802551270 3.488550424576
-63.895420074463 -64.760147094727 -124.375610351563 1.521863102913
108.912086486816 -77.055130004883 -125.196441650391 2.016796350479
-49.366260528564 -75.712097167969 -188.478866577148 1.471209645271
-94.905998229980 -66.268531799316 -62.075183868408 3.274911880493
-37.089057922363 -73.793907165527 -60.613426208496 2.736202955246
-35.833236694336 -72.009529113770 -58.020408630371 3.236200571060
-128.411178588867 -72.862823486328 -237.313095092773 3.584370613098
43.807212829590 -67.566261291504 -254.467483520508 2.029032230377
-1.351513981819 -72.331039428711 -225.106903076172 2.235301494598
-151.004776000977 -76.597221374512 -245.524963378906 1.196195244789
-50.221851348877 -76.496879577637 -186.503036499023 1.222723364830
18.100145339966 -80.032630920410 -183.749740600586 1.625281572342
19.072132110596 -70.509780883789 -153.870605468750 3.173985481262
-37.963283538818 -75.612854003906 -242.132995605469 1.675750136375
63.943752288818 -67.242271423340 -98.607826232910 3.800009250641
-153.091979980469 -68.961479187012 -256.851959228516 2.166555166245
-146.317825317383 -63.592185974121 -292.080932617188 1.135409474373
40.536632537842 -60.708507537842 -114.591300964355 2.728317022324
-103.603240966797 -62.575271606445 -92.940055847168 4.409780502319
38.243225097656 -71.052680969238 -27.501901626587 6.364217281342
47.934650421143 -70.942520141602 -106.021827697754 1.838398694992
27.803134918213 -77.394836425781 -120.886787414551 4.262226581573
106.073860168457 -70.303916931152 -127.517364501953 2.699196815491
-164.499710083008 -65.604019165039 -207.989639282227 1.133799552917
-20.988636016846 -77.735351562500 -204.112365722656 0.946634948254
-7.175086021423 -70.902580261230 -230.753204345703 1.489626884460
-53.937713623047 -60.139389038086 -45.958641052246 3.331294536591
-32.260604858398 -76.745597839355 -188.212905883789 1.171044707298
15.688493728638 -75.463119506836 -239.625061035156 2.183235645294
19.997484207153 -78.637954711914 -242.201538085938 2.208222150803
106.998168945313 -73.028221130371 -106.763763427734 1.425109624863
39.685588836670 -75.433624267578 -99.087226867676 5.442983150482
56.680091857910 -68.676544189453 -90.807479858398 3.209301948547
8.907484054565 -71.733543395996 -213.480911254883 1.762396216393
33.853649139404 -69.276840209961 -18.404884338379 2.299642324448
-134.572418212891 -72.106567382813 -205.717849731445 3.363190650940
22.922939300537 -68.494911193848 -152.069747924805 1.719685435295
89.587898254395 -76.683769226074 -88.532592773438 2.432901144028
-85.425521850586 -84.734115600586 -104.884338378906 1.947402715683
1.807961940765 -84.153953552246 -251.561203002930 1.283007502556
-148.993835449219 -73.719573974609 -197.052139282227 1.485684514046
-145.049606323242 -84.214546203613 -263.249847412109 0.981229662895
110.638435363770 -76.795516967773 -168.068252563477 0.800614356995
-34.930877685547 -72.938606262207 -290.479949951172 1.496712803841
-161.672393798828 -70.674568176270 -296.601898193359 3.714008808136
-148.203842163086 -67.142448425293 -299.996215820313 1.153000235558
9.777496337891 -76.850517272949 -242.929260253906 1.340468645096
-18.703180313110 -70.596649169922 -200.887268066406 2.699275970459
-76.011047363281 -76.993270874023 -215.937500000000 1.676824688911
-15.613862037659 -71.604980468750 -263.281463623047 0.978163123131
-36.438621520996 -79.125923156738 -75.589141845703 2.821576118469
-154.960357666016 -67.086380004883 -229.600463867188 2.080359697342
-25.012075424194 -70.417991638184 -197.500793457031 0.758026242256
-151.477630615234 -77.304580688477 -221.072372436523 2.376130342484
79.945518493652 -77.322685241699 -78.833786010742 2.094074487686
-77.351844787598 -72.910690307617 -140.382492065430 1.046419143677
-149.899780273438 -79.549186706543 -261.210937500000 3.633515357971
-140.807937622070 -69.990463256836 -230.166717529297 2.898477077484
-152.251983642578 -64.941825866699 -210.722473144531 2.306034803391
-26.085069656372 -75.695678710938 -179.371582031250 1.471686124802
87.720756530762 -75.022697448730 -219.015502929688 2.148826599121
-132.478149414063 -63.924816131592 -207.645187377930 3.703895568848
-11.402664184570 -69.716735839844 -242.750915527344 1.429878830910
-138.929595947266 -66.604003906250 -207.462722778320 4.321931362152
-151.950790405273 -78.227066040039 -210.307678222656 2.233018159866
91.335319519043 -74.864494323730 -213.922790527344 1.268358349800
101.597900390625 -71.120986938477 -99.817939758301 1.293544054031
-17.295026779175 -73.764503479004 -222.117950439453 1.409384489059
-45.785160064697 -72.429031372070 -290.265075683594 2.347507953644
102.389373779297 -74.637619018555 -194.430694580078 1.162005305290
-81.859992980957 -64.572219848633 -138.133834838867 4.357474803925
10.485484123230 -75.710899353027 -195.897460937500 0.945458710194
-151.310836791992 -70.774276733398 -179.691238403320 2.230393171310
74.986694335938 -62.002944946289 -57.751647949219 2.288773536682
-25.383647918701 -73.035667419434 -217.343566894531 1.226611852646
-92.620407104492 -75.623977661133 -116.825912475586 1.887558341026
-28.706552505493 -74.931953430176 -175.304702758789 1.343827366829
-66.067222595215 -65.235885620117 -126.820610046387 3.539336681366
7.612401008606 -68.555473327637 -156.423782348633 0.807816624641
-61.537975311279 -80.128021240234 -173.603607177734 2.329752683640
13.956020355225 -74.902397155762 -290.048461914063 1.592872262001
-151.792831420898 -81.716842651367 -203.156402587891 2.476188898087
-106.486953735352 -66.661285400391 -228.773208618164 1.869934558868
-151.570129394531 -61.320369720459 -189.002166748047 3.422104597092
89.816848754883 -68.403785705566 -65.546211242676 1.574537158012
6.043662071228 -71.029167175293 -236.204544067383 2.041097640991
-15.987947463989 -72.168556213379 -261.654083251953 1.039637327194
20.719499588013 -68.274223327637 -180.622009277344 1.294416785240
-125.337532043457 -65.925506591797 -293.101593017578 1.815114974976
-86.318939208984 -63.963287353516 -129.677459716797 0.724118471146
17.583276748657 -79.227241516113 -195.408798217773 2.556239604950
-11.378536224365 -75.483741760254 -222.470840454102 2.561784029007
-1.054885029793 -67.183853149414 -292.300903320313 1.402966380119
-41.404838562012 -75.853042602539 -63.512763977051 2.521279096603
111.101974487305 -70.800575256348 -132.469772338867 1.209148049355
1.374948978424 -79.053840637207 -289.087066650391 2.862730264664
-88.054710388184 -74.690383911133 -111.629676818848 2.349225282669
3.109239101410 -84.516868591309 -275.266052246094 2.036180019379
73.777557373047 -78.115226745605 -86.970283508301 2.383172273636
94.868232727051 -66.616447448730 -68.557464599609 2.417210102081
19.406057357788 -60.967376708984 -140.190750122070 1.588623404503
-53.250522613525 -76.238983154297 -152.997009277344 1.494603514671
112.384407043457 -74.270561218262 -130.730789184570 1.285541296005
-47.387706756592 -77.777099609375 -86.448966979980 0.825569629669
-76.996025085449 -83.828636169434 -88.987464904785 0.687650859356
-12.858384132385 -77.224487304688 -208.728256225586 2.812727451324
73.613769531250 -72.802223205566 -67.331390380859 2.984684705734
-147.235153198242 -75.762664794922 -213.450424194336 1.679790019989
25.683403015137 -76.021675109863 -172.455001831055 1.225140929222
25.299779891968 -64.058410644531 -35.725658416748 2.236497879028
-69.596260070801 -59.712230682373 -108.792755126953 1.682085871696
-98.094696044922 -62.992969512939 -155.264953613281 2.086919069290
-148.054656982422 -73.954040527344 -204.259414672852 2.640255689621
-61.401012420654 -62.037727355957 -136.759857177734 1.365781068802
-59.295471191406 -65.336097717285 -47.281867980957 2.897532939911
-37.713497161865 -64.396736145020 -49.980907440186 3.087800502777
-41.346145629883 -79.213821411133 -202.417770385742 2.307711839676
41.616127014160 -71.370857238770 -29.493877410889 2.546294927597
98.213867187500 -68.403976440430 -88.419288635254 3.775023221970
-155.563735961914 -74.396331787109 -299.415527343750 1.944620728493
-147.845306396484 -64.384880065918 -279.923339843750 1.923275947571
-81.732330322266 -68.121109008789 -119.661186218262 3.143998146057
-18.219083786011 -75.014465332031 -237.974044799805 1.003336429596
10.702043533325 -78.571289062500 -205.591720581055 1.762527823448
13.996623039246 -73.786163330078 -214.749771118164 2.949580669403
-81.914260864258 -66.742210388184 -109.386619567871 1.909521698952
19.011501312256 -63.875118255615 -26.842544555664 2.474843263626
-149.358337402344 -76.093170166016 -190.550979614258 2.353784799576
-4.586485862732 -78.242515563965 -281.479461669922 2.198765993118
-39.749370574951 -80.961700439453 -206.919403076172 2.021738529205
-160.336944580078 -66.642623901367 -206.111282348633 2.288195610046
14.752039909363 -68.435447692871 -179.278289794922 2.084042787552
97.101181030273 -75.744812011719 -199.787811279297 1.745711803436
-154.776382446289 -73.857131958008 -271.943054199219 2.699226856232
-151.644729614258 -84.440788269043 -302.912780761719 2.216863393784
-140.668334960938 -69.567619323730 -200.233993530273 2.703752756119
76.721755981445 -72.606079101563 -100.011146545410 1.191041111946
