-38.212089538574 -74.042907714844 -204.899856567383 1.153835296631
-153.787887573242 -81.463638305664 -231.220687866211 1.357701897621
-127.755302429199 -62.603080749512 -231.497039794922 2.352993965149
-78.994789123535 -71.197570800781 -254.578445434570 0.609419584274
-145.082778930664 -70.417182922363 -272.653808593750 1.930442929268
-132.698532104492 -74.708190917969 -264.618743896484 1.774813652039
-146.944244384766 -79.877067565918 -213.401153564453 1.422139167786
-127.272895812988 -61.916496276855 -199.277679443359 1.545570135117
-58.890247344971 -69.960868835449 -147.335800170898 3.269181013107
-33.387126922607 -75.017662048340 -290.947753906250 2.083091259003
-68.828147888184 -59.544971466064 -114.558609008789 1.030224800110
-42.037597656250 -86.084968566895 -195.564376831055 1.781020164490
-26.061992645264 -73.932662963867 -69.004943847656 3.134641647339
-65.222358703613 -76.098838806152 -291.644592285156 2.386178255081
-77.300979614258 -64.174186706543 -138.501922607422 1.970579624176
-52.062961578369 -83.119735717773 -204.464614868164 0.864677965641
20.600275039673 -69.687744140625 -36.828540802002 3.014061212540
87.618690490723 -73.120895385742 -69.170921325684 1.945681214333
-9.358002662659 -77.506835937500 -225.701065063477 1.797190189362
-124.549339294434 -71.943275451660 -257.056518554688 1.447141885757
25.970682144165 -64.674392700195 -34.424594879150 3.333842515945
-117.405220031738 -73.873580932617 -261.051544189453 2.288934707642
-57.776702880859 -58.490859985352 -133.791076660156 1.708950638771
49.032058715820 -72.196571350098 -101.859260559082 3.832393169403
102.744384765625 -74.237251281738 -192.919662475586 1.493262410164
5.449356079102 -77.738555908203 -242.828445434570 0.852715075016
-31.696905136108 -75.029182434082 -187.248214721680 2.123143911362
-85.859428405762 -64.136024475098 -116.161384582520 2.768481969833
57.032508850098 -68.372337341309 -81.977180480957 2.989972114563
109.548423767090 -76.514678955078 -161.469818115234 1.980434060097
-58.888233184814 -62.081577301025 -126.399269104004 3.075677633286
-33.136379241943 -65.846748352051 -76.632492065430 1.856425166130
14.652376174927 -68.230537414551 -287.192504882813 1.120955944061
-73.191589355469 -57.913761138916 -118.975837707520 3.622010469437
-1.673151969910 -83.479049682617 -249.841079711914 2.377600193024
-42.150833129883 -77.703254699707 -70.018409729004 3.128098249435
-29.708385467529 -64.511390686035 -52.026275634766 3.557720184326
-89.332633972168 -62.357139587402 -131.383483886719 1.683388829231
9.224590301514 -78.285400390625 -198.045516967773 2.332105398178
-146.586563110352 -78.384025573730 -305.952331542969 0.709435582161
-123.780860900879 -66.310127258301 -292.380798339844 2.305218696594
-75.659385681152 -67.959236145020 -101.697654724121 2.469587326050
-2.645822048187 -73.737808227539 -237.790008544922 1.344828248024
4.524593830109 -65.027458190918 -275.958190917969 3.647469758987
4.935481071472 -76.429168701172 -235.656387329102 1.039193391800
-148.049530029297 -71.188423156738 -193.631881713867 1.896349310875
-99.286636352539 -68.432518005371 -108.171791076660 2.396744728088
105.360839843750 -76.423339843750 -187.810638427734 1.629914999008
-39.094932556152 -62.726852416992 -78.968063354492 1.825399518013
101.593383789063 -71.451751708984 -101.070358276367 1.278626918793
10.060063362122 -71.927070617676 -211.452239990234 1.605284094810
-148.974243164063 -64.755897521973 -202.300354003906 2.622972965240
51.772846221924 -62.795864105225 -88.443443298340 1.091070532799
-156.441619873047 -65.711135864258 -196.307678222656 1.642686724663
85.720344543457 -76.336700439453 -75.471435546875 2.009029150009
-107.889648437500 -71.420639038086 -225.392333984375 1.261575818062
42.636508941650 -71.211143493652 -114.504554748535 0.975669026375
-126.938156127930 -70.142143249512 -266.926147460938 2.388788938522
-68.263168334961 -73.849006652832 -247.020706176758 1.784982442856
23.432621002197 -78.598091125488 -165.783096313477 2.345880508423
1.165174961090 -83.852676391602 -249.496475219727 2.814822435379
18.294912338257 -72.621063232422 -155.598922729492 2.594627618790
29.808349609375 -78.191093444824 -154.674423217773 0.672668159008
-149.343521118164 -72.602355957031 -233.282485961914 2.405345678329
79.843940734863 -72.235343933105 -225.918258666992 1.102353453636
-6.831540107727 -76.621170043945 -171.425292968750 1.894930481911
-75.944908142090 -70.290344238281 -54.254283905029 3.284977674484
-72.297065734863 -58.181266784668 -44.285461425781 1.770932435989
-150.871505737305 -79.498481750488 -281.579956054688 0.901052355766
-97.753318786621 -61.349349975586 -145.938201904297 2.438327312469
4.959845066071 -69.583106994629 -233.585632324219 1.680127143860
101.751464843750 -77.674484252930 -177.980911254883 4.504584312439
9.902976036072 -83.987869262695 -234.190109252930 2.961745500565
-31.328884124756 -68.654586791992 -183.645874023438 1.953108429909
0.989874005318 -75.529190063477 -157.662124633789 2.601731777191
-94.259719848633 -74.294662475586 -91.157707214355 3.502295255661
-61.718349456787 -68.311843872070 -137.849487304688 1.682372689247
31.001234054565 -78.077377319336 -149.250473022461 1.498365521431
30.047311782837 -72.075942993164 -255.535278320313 2.995004177094
-147.278106689453 -67.428504943848 -311.464111328125 0.648790359497
88.968688964844 -75.510566711426 -210.758804321289 1.216973423958
40.203132629395 -76.572845458984 -104.521530151367 1.965139508247
97.081687927246 -60.069675445557 -65.210578918457 1.629834175110
15.346929550171 -77.869651794434 -206.843536376953 1.779387116432
-136.730407714844 -71.440544128418 -257.648284912109 2.385422468185
-89.878608703613 -72.251647949219 -220.020462036133 1.125032424927
-97.284957885742 -71.114845275879 -93.392219543457 4.035966873169
-113.032485961914 -69.207359313965 -227.833404541016 2.172790050507
-164.906738281250 -65.926391601563 -201.670242309570 1.712253808975
16.504821777344 -80.033378601074 -249.938140869141 3.077310562134
-21.289852142334 -75.157012939453 -290.839263916016 2.242983579636
108.012573242188 -78.530616760254 -152.473205566406 4.016730308533
93.565269470215 -71.217720031738 -71.545486450195 0.871430277824
22.678165435791 -76.801071166992 -178.517700195313 1.663722634315
-58.743995666504 -70.221611022949 -133.388473510742 1.329023122787
-20.963623046875 -62.154647827148 -66.991859436035 1.007491469383
100.666931152344 -62.135982513428 -88.995536804199 3.860906839371
-62.531993865967 -58.533374786377 -117.814445495605 3.199791669846
22.989683151245 -65.700790405273 -32.007671356201 4.453042507172
-28.722385406494 -76.512702941895 -191.257202148438 2.004295349121
-99.580688476563 -65.823394775391 -76.712455749512 2.053634881973
21.319292068481 -72.405364990234 -151.998428344727 1.360567688942
-47.717220306396 -74.407241821289 -194.562759399414 1.319914579391
109.523681640625 -78.795227050781 -146.672012329102 3.608740568161
-128.833618164063 -66.319412231445 -236.973846435547 3.270923376083
-99.188140869141 -67.087196350098 -151.077987670898 0.361909419298
11.401606559753 -73.919288635254 -243.442230224609 1.539986014366
16.346117019653 -85.317337036133 -244.972595214844 2.691146135330
-53.658126831055 -79.055564880371 -72.025093078613 2.873849391937
-28.304935455322 -80.483367919922 -188.632446289063 1.212267160416
-86.545318603516 -60.571933746338 -122.248016357422 3.161885738373
-148.244644165039 -61.293041229248 -249.873016357422 1.575467944145
9.983447074890 -75.096595764160 -290.001373291016 2.592123270035
-68.929405212402 -74.378875732422 -160.889450073242 1.714222669601
-137.555282592773 -84.048393249512 -262.428161621094 1.732864022255
-148.750915527344 -60.973842620850 -190.336288452148 3.017869234085
-123.314643859863 -72.758247375488 -263.908935546875 1.936663985252
2.770775079727 -78.140777587891 -242.628814697266 2.121791601181
21.914325714111 -63.049713134766 -276.672393798828 1.774632573128
-66.958374023438 -71.144508361816 -157.076278686523 1.674876689911
106.625656127930 -74.168083190918 -150.777725219727 3.037753582001
19.093023300171 -80.409919738770 -235.919204711914 2.747249603271
15.747076988220 -70.633880615234 -285.280761718750 2.263514518738
-107.868461608887 -61.530563354492 -171.697082519531 2.100446224213
-161.737152099609 -70.725227355957 -215.322418212891 2.820109128952
24.777919769287 -68.424743652344 -151.868240356445 2.089414596558
-74.637153625488 -74.875968933105 -102.051689147949 1.536696195602
-146.503479003906 -83.305778503418 -299.429199218750 2.294177770615
105.482887268066 -72.571487426758 -178.016143798828 0.985392570496
-70.885948181152 -77.698020935059 -288.995941162109 2.238463401794
109.368659973145 -77.805206298828 -127.286064147949 2.670358657837
-97.816207885742 -65.457740783691 -142.923263549805 2.223123073578
-47.817699432373 -77.920112609863 -194.296951293945 1.566096425056
-29.035453796387 -74.826004028320 -75.064559936523 3.661185741425
43.813449859619 -70.067626953125 -249.259292602539 2.027393102646
20.916421890259 -68.025390625000 -22.468145370483 3.167110443115
-47.281707763672 -67.591972351074 -147.980621337891 2.049567222595
22.307947158813 -78.198440551758 -159.110137939453 0.625554561615
-149.642074584961 -60.978702545166 -237.369155883789 1.289160251617
38.937000274658 -76.173561096191 -121.045135498047 3.776522636414
-80.534027099609 -72.444137573242 -100.939422607422 0.319809615612
105.195182800293 -75.844383239746 -119.031089782715 3.316858768463
-100.013916015625 -73.902900695801 -220.596786499023 1.414636254311
-88.523162841797 -67.131492614746 -121.432876586914 2.575276613235
-71.560729980469 -72.387847900391 -145.756454467773 1.427533268929
92.695297241211 -69.444862365723 -68.504760742188 1.443458914757
29.853418350220 -62.876823425293 -39.502075195313 1.103177070618
-142.175796508789 -65.929115295410 -198.235733032227 1.921390771866
-145.217224121094 -61.930835723877 -196.879074096680 1.349368572235
-70.912429809570 -82.694404602051 -211.928939819336 1.970727682114
-165.895355224609 -70.075401306152 -207.573898315430 1.370988965034
-13.719663619995 -71.251701354980 -241.390960693359 1.984275817871
-167.458023071289 -68.284423828125 -230.658767700195 2.036078453064
-126.344451904297 -65.887779235840 -265.416229248047 1.970901966095
-63.886074066162 -60.262634277344 -135.222229003906 3.024509906769
15.993390083313 -72.931861877441 -206.092712402344 2.601685047150
-40.864315032959 -80.786849975586 -241.252746582031 1.658005833626
32.336807250977 -69.582466125488 -135.185470581055 1.945944905281
-75.006019592285 -58.322570800781 -101.219932556152 3.298359632492
-84.411087036133 -83.366325378418 -99.931022644043 3.098325967789
78.938354492188 -71.603866577148 -99.938499450684 2.366549253464
-150.878875732422 -76.234230041504 -277.953369140625 2.362574815750
-96.796348571777 -63.885978698730 -64.586578369141 1.619274139404
18.114444732666 -78.625106811523 -230.300338745117 1.678684234619
83.697906494141 -69.089736938477 -62.746654510498 1.972136259079
-143.025024414063 -77.253990173340 -204.215255737305 0.795371830463
41.216487884521 -76.421226501465 -115.792030334473 2.575818061829
-2.523895025253 -64.253540039063 -243.504013061523 1.086958169937
30.202150344849 -69.656005859375 -261.739776611328 1.362989783287
-18.429542541504 -68.082939147949 -66.139686584473 4.180188655853
-146.636169433594 -76.697937011719 -219.674530029297 2.167316198349
-96.920211791992 -71.976951599121 -112.763412475586 3.257342338562
-5.752872943878 -74.040870666504 -288.675842285156 2.195222854614
-167.134277343750 -69.969139099121 -225.685485839844 2.473945379257
30.229299545288 -72.972640991211 -115.654167175293 4.407006263733
11.798632621765 -73.936477661133 -242.851593017578 1.182060599327
34.459209442139 -66.217643737793 -257.378570556641 1.299361705780
-53.194705963135 -80.257270812988 -245.231414794922 1.299413800240
-18.866409301758 -78.417732238770 -209.537521362305 1.750200629234
-71.499107360840 -68.457336425781 -100.123611450195 1.559824705124
-41.307846069336 -74.829635620117 -156.282318115234 3.213093042374
-104.028350830078 -66.485115051270 -171.570922851563 2.128315210342
-35.572292327881 -70.607177734375 -170.908203125000 2.394906282425
44.450870513916 -73.856666564941 -252.218368530273 2.293161869049
-67.783813476563 -74.290008544922 -169.308929443359 2.618933916092
23.364639282227 -70.947906494141 -139.362213134766 2.746861696243
-143.834091186523 -84.033180236816 -261.293914794922 0.895792365074
-54.618385314941 -77.433120727539 -176.878433227539 1.221905350685
-22.016078948975 -74.899429321289 -220.431488037109 0.965655088425
-69.125892639160 -78.748687744141 -207.518707275391 1.233101725578
14.838456153870 -81.359611511230 -232.373626708984 0.949118673801
7.767857074738 -77.262702941895 -200.590637207031 2.191250562668
-148.686767578125 -71.716613769531 -232.327957153320 1.924733757973
28.090515136719 -73.789871215820 -156.066314697266 3.197257280350
32.120903015137 -71.019805908203 -128.631240844727 1.489490270615
-151.627426147461 -79.277687072754 -236.134536743164 1.989863395691
-7.095975875854 -70.244682312012 -283.570098876953 1.871491670609
71.339134216309 -73.557197570801 -231.129440307617 1.003532290459
-121.871994018555 -76.174011230469 -292.534088134766 2.803820133209
37.894439697266 -69.801231384277 -257.712188720703 1.242167234421
-108.827056884766 -67.490959167480 -191.080093383789 2.802399396896
-145.455123901367 -63.861923217773 -256.474456787109 1.238191604614
-62.731372833252 -64.671638488770 -124.291610717773 1.872056245804
-64.183563232422 -74.844108581543 -94.414710998535 0.804999709129
100.126510620117 -65.313484191895 -80.213317871094 3.645443916321
-145.827194213867 -71.420303344727 -185.305313110352 2.980093717575
-136.868576049805 -67.052528381348 -235.466064453125 3.314387321472
6.335224151611 -80.398773193359 -232.714782714844 1.685854673386
12.395528793335 -72.048385620117 -234.897048950195 1.892953634262
-12.349270820618 -71.675346374512 -203.197906494141 1.153916716576
-55.733909606934 -80.105422973633 -90.762237548828 2.787421226501
9.171131134033 -72.716415405273 -206.315719604492 1.421413183212
22.323213577271 -75.467231750488 -182.193969726563 1.682320475578
38.443679809570 -59.176532745361 -23.331106185913 4.470907211304
-24.853755950928 -72.794242858887 -220.959045410156 2.615927219391
17.828845977783 -72.501899719238 -158.060272216797 2.096317052841
11.401450157166 -82.789688110352 -221.276000976563 3.064807176590
-27.682985305786 -84.853973388672 -186.729660034180 2.620246171951
-94.868041992188 -61.106513977051 -143.077026367188 2.271980047226
108.838996887207 -71.871482849121 -163.903152465820 1.500561475754
-50.632686614990 -64.020950317383 -83.691078186035 1.203510761261
83.924949645996 -78.167388916016 -222.064559936523 1.924945950508
-100.040237426758 -62.317211151123 -69.032333374023 2.723529100418
-85.071632385254 -59.529743194580 -117.438858032227 0.903213143349
-6.976293087006 -77.981048583984 -216.010803222656 0.557690501213
-57.218318939209 -84.100547790527 -85.155654907227 3.052648544312
-82.018089294434 -75.794860839844 -103.261474609375 1.389476895332
20.923398971558 -65.713996887207 -143.846496582031 2.732896804810
-2.450217008591 -78.622406005859 -163.018234252930 2.111943483353
-150.831390380859 -71.522132873535 -209.609512329102 3.025606870651
57.745204925537 -70.454566955566 -238.385528564453 2.883060455322
-43.527397155762 -67.901466369629 -156.812210083008 1.935777783394
-39.837829589844 -69.006317138672 -172.921844482422 2.490260124207
4.468260765076 -74.183387756348 -226.512817382813 1.084616065025
26.204936981201 -80.455932617188 -158.228546142578 2.639456748962
109.812652587891 -77.695549011230 -127.659866333008 2.412875175476
19.141670227051 -78.618736267090 -195.026931762695 1.705578923225
35.678146362305 -72.935302734375 -252.866744995117 3.033666133881
-57.798088073730 -66.525817871094 -88.508888244629 1.882862448692
-60.673629760742 -83.178001403809 -203.389526367188 0.980440497398
-100.754310607910 -67.372985839844 -223.309585571289 1.735046625137
7.283567905426 -73.845878601074 -199.857116699219 1.659215569496
51.672004699707 -74.853569030762 -99.268074035645 1.950103044510
-43.726741790771 -69.965957641602 -52.756732940674 3.425672531128
-19.798343658447 -69.782424926758 -66.019599914551 4.016465663910
-85.642837524414 -72.386848449707 -216.419921875000 0.964963316917
38.876949310303 -67.969863891602 -24.091215133667 5.223853588104
-156.098205566406 -71.324111938477 -298.144653320313 2.520521879196
-41.317108154297 -77.325233459473 -168.601821899414 1.815491795540
-0.674033999443 -68.138473510742 -291.025970458984 1.797545671463
-115.572547912598 -69.395927429199 -204.404998779297 2.065251827240
-154.508346557617 -67.391464233398 -181.453506469727 1.957925200462
1.794947028160 -71.505493164063 -239.530242919922 2.191079616547
62.078845977783 -62.640922546387 -92.182006835938 0.989207506180
18.038545608521 -82.366996765137 -258.467773437500 1.772328376770
-100.840667724609 -61.701683044434 -114.963607788086 3.371920347214
94.754280090332 -77.813644409180 -208.509368896484 0.367551475763
-76.114128112793 -69.225692749023 -144.918212890625 1.944954276085
-60.657005310059 -76.979751586914 -175.549880981445 2.451447725296
-43.412620544434 -63.750041961670 -47.807369232178 2.125055313110
-48.849685668945 -76.762535095215 -156.478210449219 2.590644598007
-50.978717803955 -77.112037658691 -187.077224731445 1.323426723480
21.290719985962 -72.640388488770 -143.404296875000 2.651101589203
35.166801452637 -68.501083374023 -33.099372863770 3.694613695145
14.643720626831 -80.822128295898 -206.832824707031 2.329262733459
-46.210281372070 -85.859367370605 -198.684066772461 1.517329096794
-146.100524902344 -81.160873413086 -224.747619628906 1.833432316780
76.952140808105 -60.099922180176 -56.495513916016 2.406317472458
-46.054645538330 -75.998809814453 -286.162963867188 3.540764093399
13.774170875549 -70.103851318359 -213.101562500000 0.897660255432
72.481353759766 -76.683570861816 -87.808685302734 2.323080539703
-133.874176025391 -74.358230590820 -258.768493652344 1.593791246414
-150.104705810547 -64.422821044922 -202.141967773438 3.066612720490
39.966861724854 -70.121559143066 -19.787797927856 1.476203083992
-134.735961914063 -65.675056457520 -260.657012939453 0.941603660583
-150.346191406250 -61.647773742676 -251.225418090820 1.557963490486
-157.255630493164 -69.791320800781 -268.506347656250 2.782630681992
-134.435226440430 -66.317222595215 -258.765533447266 0.919514238834
24.475532531738 -66.624206542969 -17.376329421997 1.698842644691
-146.705718994141 -71.799346923828 -189.773727416992 2.124739170074
94.192352294922 -72.947341918945 -205.886444091797 2.843596458435
-152.522796630859 -70.650985717773 -302.137237548828 3.179374217987
14.211146354675 -72.159706115723 -174.459762573242 3.216800212860
-8.652234077454 -68.298225402832 -216.157760620117 1.109894871712
-141.122848510742 -71.186889648438 -203.480178833008 0.784817874432
-60.655414581299 -72.386802673340 -137.267288208008 1.333647251129
-152.935089111328 -81.485481262207 -234.317016601563 3.169993877411
-102.291069030762 -61.002616882324 -84.442359924316 3.021880388260
106.813812255859 -78.356376647949 -158.715972900391 4.174703598022
-74.213821411133 -84.904624938965 -93.700630187988 2.235291242599
-133.015701293945 -74.619415283203 -258.812194824219 1.553709149361
-65.876083374023 -63.263793945313 -124.617401123047 1.903450965881
96.391761779785 -74.719642639160 -192.039566040039 2.813584566116
-71.878677368164 -71.965034484863 -150.220428466797 0.987029790878
-76.271949768066 -65.779464721680 -105.548988342285 1.402621865273
5.080402851105 -74.886985778809 -212.394256591797 1.984080433846
-78.074905395508 -61.849792480469 -111.320701599121 1.164550304413
-135.156478881836 -71.276939392090 -228.968658447266 2.568795204163
-147.076324462891 -78.541374206543 -303.443176269531 1.657698154449
-75.490821838379 -58.561443328857 -44.997848510742 1.308856844902
-56.583908081055 -60.519680023193 -126.891525268555 0.842645645142
34.093883514404 -65.367897033691 -11.327243804932 1.301228880882
-108.428436279297 -65.171638488770 -189.384826660156 1.842286944389
-129.791122436523 -61.153148651123 -202.134231567383 3.048542499542
-149.277252197266 -61.972530364990 -195.537948608398 1.563905835152
-54.293251037598 -77.709388732910 -89.963806152344 2.316627502441
-148.524963378906 -84.420104980469 -254.470535278320 0.933695852757
-64.712875366211 -61.737216949463 -130.894943237305 1.889958143234
-92.700744628906 -67.317718505859 -139.756622314453 1.785108804703
24.508396148682 -57.931362152100 -11.783223152161 4.089072704315
109.815093994141 -74.298965454102 -126.462394714355 1.483224272728
-32.395687103271 -78.336296081543 -208.578536987305 1.619324922562
43.235172271729 -71.425865173340 -109.727043151855 2.005330085754
109.423789978027 -75.091117858887 -128.320419311523 1.607334613800
-52.340988159180 -65.234245300293 -134.071273803711 1.237182497978
-147.772720336914 -75.940353393555 -218.653930664063 2.005347967148
-141.721160888672 -67.575469970703 -206.102981567383 1.952659964561
-93.735908508301 -73.733901977539 -84.546463012695 2.066553354263
-35.117435455322 -77.554969787598 -209.161148071289 1.988818526268
-27.591390609741 -62.720539093018 -69.101249694824 1.295283794403
80.915855407715 -77.215484619141 -81.504211425781 0.932805061340
-150.855239868164 -64.387084960938 -282.087158203125 0.742778897285
42.581409454346 -66.670364379883 -104.981491088867 1.571877717972
-39.134239196777 -63.298465728760 -48.248947143555 2.940204858780
36.367538452148 -78.926445007324 -118.321151733398 1.558722734451
99.724975585938 -64.194801330566 -75.184944152832 3.148414134979
-108.895393371582 -66.053001403809 -193.954437255859 1.302731275558
-146.302841186523 -82.429908752441 -240.278167724609 1.504320502281
-83.847137451172 -70.400474548340 -59.008399963379 1.802128195763
-79.072563171387 -72.571746826172 -59.429008483887 2.188541173935
110.265365600586 -78.390632629395 -136.452606201172 3.187206745148
75.351974487305 -75.503860473633 -94.800796508789 0.952002704144
103.418182373047 -72.390312194824 -117.584594726563 3.154592752457
-145.764739990234 -77.078926086426 -207.870513916016 2.400095939636
76.597938537598 -78.495742797852 -224.329483032227 4.030915737152
21.837980270386 -79.969558715820 -153.807022094727 2.468494415283
-25.389635086060 -73.825660705566 -182.332473754883 2.455936431885
-143.132125854492 -68.453948974609 -288.027343750000 0.987414956093
-0.941680014133 -76.696861267090 -240.120773315430 2.440725803375
16.028100967407 -75.894538879395 -246.193710327148 2.348893165588
107.048210144043 -68.725776672363 -113.410110473633 1.172088980675
-165.446319580078 -74.014717102051 -272.836730957031 1.835261940956
-12.876729011536 -69.175285339355 -249.582870483398 1.859881043434
25.918468475342 -74.854064941406 -166.368865966797 3.905876159668
-37.568916320801 -74.048568725586 -206.043121337891 2.316618442535
-49.502017974854 -61.948356628418 -82.080024719238 0.581080615520
-162.393630981445 -65.117118835449 -211.297897338867 2.658976316452
-133.055252075195 -72.723571777344 -296.719116210938 2.573652505875
-163.053695678711 -65.097145080566 -211.594512939453 2.287999868393
-94.865142822266 -64.789360046387 -62.766830444336 1.922751784325
-47.153808593750 -77.774200439453 -241.651031494141 1.316014885902
-147.666473388672 -79.579940795898 -278.446563720703 1.833758950233
-166.711151123047 -71.913208007813 -249.821090698242 2.060558557510
-140.854858398438 -73.866867065430 -294.887481689453 2.966856479645
-121.471748352051 -70.618194580078 -234.372375488281 2.951750278473
97.890235900879 -66.131607055664 -71.957527160645 2.872437477112
78.887084960938 -71.526313781738 -225.622451782227 1.584952354431
35.224781036377 -76.915252685547 -112.254943847656 2.787970542908
-53.004894256592 -81.111602783203 -86.825103759766 4.207561969757
-113.126678466797 -66.479080200195 -228.287002563477 1.263413310051
-99.914985656738 -65.546463012695 -77.946487426758 2.509772539139
58.589778900146 -70.291381835938 -237.946640014648 3.065622806549
40.006069183350 -70.462020874023 -32.299644470215 2.246089696884
-0.495139986277 -66.505989074707 -258.124755859375 2.948905467987
-84.230247497559 -68.906150817871 -118.527717590332 0.373849779367
17.755868911743 -80.777442932129 -271.541107177734 1.719085097313
-11.138968467712 -76.957015991211 -273.163818359375 1.638359546661
32.663753509521 -68.820785522461 -124.676834106445 1.860520720482
-149.806945800781 -64.604881286621 -289.736663818359 1.723626732826
2.208834886551 -82.140319824219 -246.752304077148 2.048202991486
-127.102531433105 -71.706146240234 -236.130264282227 2.638415813446
-13.007346153259 -76.017921447754 -270.727874755859 2.792559623718
27.311098098755 -61.188861846924 -35.041599273682 1.927550077438
6.760647773743 -84.038597106934 -248.929855346680 2.455330610275
24.254758834839 -79.628356933594 -139.170242309570 2.605212211609
70.127746582031 -71.623649597168 -235.825942993164 1.346410989761
-56.196281433105 -75.534698486328 -286.337707519531 3.019021511078
71.440490722656 -71.516296386719 -227.917785644531 1.198199272156
-145.819488525391 -60.884433746338 -184.976379394531 2.853228330612
31.531002044678 -72.538269042969 -119.536437988281 1.000249385834
-145.469604492188 -71.343116760254 -249.406463623047 1.278491258621
93.264846801758 -67.248680114746 -65.988594055176 1.700842261314
15.785864830017 -82.800460815430 -240.916625976563 1.179580807686
-54.616989135742 -82.831565856934 -87.390045166016 3.925669193268
-139.986389160156 -69.663108825684 -294.624969482422 3.528491020203
-144.008483886719 -62.402912139893 -182.771850585938 0.869521856308
-98.465454101563 -69.505363464355 -219.244033813477 1.525751829147
-22.191253662109 -78.477844238281 -193.023727416992 2.282089471817
-70.235069274902 -83.059738159180 -208.848144531250 1.686300277710
15.330291748047 -81.940162658691 -251.089553833008 2.184332370758
-11.706293106079 -71.109893798828 -234.071655273438 1.214862942696
-102.715080261230 -58.663986206055 -76.195960998535 4.059269905090
-40.272876739502 -61.988063812256 -47.623718261719 3.010409832001
-7.524044990540 -68.263198852539 -254.783218383789 2.953179359436
-143.595916748047 -75.813423156738 -307.577789306641 0.947452187538
-32.782230377197 -76.086647033691 -185.119003295898 0.555185317993
-161.445831298828 -65.549255371094 -212.587905883789 2.274101495743
-13.726935386658 -70.398864746094 -228.133056640625 1.338946819305
-77.676864624023 -64.934646606445 -141.095504760742 2.303369045258
-37.400291442871 -71.212097167969 -175.688659667969 2.285795450211
-147.071350097656 -59.995109558105 -196.613006591797 1.063920974731
-1.650043964386 -76.598983764648 -218.966201782227 1.020920157433
-161.807952880859 -72.938133239746 -256.067016601563 2.164255619049
23.658533096313 -75.010604858398 -260.904327392578 1.120191693306
-6.293813228607 -80.650993347168 -216.587081909180 1.946545600891
4.334142208099 -86.070854187012 -272.309356689453 2.059359073639
12.320679664612 -81.156082153320 -289.418060302734 4.098557472229
11.514573097229 -86.450691223145 -259.956420898438 2.123707056046
-57.532077789307 -73.770446777344 -248.318847656250 1.332612395287
0.606848001480 -72.844543457031 -234.127838134766 2.369456291199
94.872077941895 -77.592994689941 -203.496337890625 1.729721903801
-36.535182952881 -79.645523071289 -210.091522216797 1.278525233269
99.598434448242 -61.946052551270 -71.648254394531 2.831707954407
-140.444625854492 -63.885627746582 -205.010452270508 3.154415130615
-112.714050292969 -70.650787353516 -294.124511718750 2.274422645569
-10.736520767212 -78.340957641602 -219.105163574219 1.202192902565
46.446018218994 -67.224830627441 -92.793060302734 2.652637481689
-147.719070434570 -63.750400543213 -280.898742675781 1.093862652779
-60.456836700439 -68.896453857422 -144.789916992188 2.870024919510
-41.711158752441 -79.412452697754 -287.923339843750 2.851602554321
-17.055639266968 -82.689727783203 -174.939437866211 1.344741702080
-19.390787124634 -71.584487915039 -223.675323486328 2.075284957886
34.881671905518 -74.245155334473 -131.848968505859 3.632586956024
101.789169311523 -77.648696899414 -177.697586059570 4.672673702240
9.163279533386 -76.830772399902 -195.512222290039 2.183510065079
111.099563598633 -74.719528198242 -137.156845092773 1.877466440201
97.997253417969 -70.976364135742 -99.293136596680 1.292176127434
-87.560462951660 -81.528488159180 -106.371131896973 1.368868947029
70.445838928223 -70.522773742676 -66.169296264648 3.781195640564
93.734237670898 -72.429222106934 -74.574409484863 2.579478979111
94.954444885254 -72.893554687500 -90.761970520020 2.568683624268
65.763671875000 -69.699485778809 -70.715515136719 3.909058094025
-30.114755630493 -68.835052490234 -186.837905883789 1.130381822586
-60.309337615967 -61.582862854004 -118.963432312012 1.533953666687
-4.842259883881 -76.297370910645 -245.532318115234 1.547953248024
-144.987960815430 -60.720214843750 -230.563034057617 1.201522827148
-153.777755737305 -71.229583740234 -225.798324584961 1.313057899475
24.449508666992 -79.201805114746 -136.757354736328 3.087827444077
51.391506195068 -71.230033874512 -86.054939270020 3.580384016037
34.237243652344 -69.015693664551 -113.467964172363 2.653574705124
-2.100035905838 -67.618522644043 -285.233489990234 2.775759220123
-33.620223999023 -73.909347534180 -209.909957885742 2.172294855118
-22.777561187744 -81.231018066406 -177.866851806641 1.744149684906
91.341400146484 -72.149009704590 -70.233947753906 1.599462270737
12.962039947510 -70.739250183105 -180.777908325195 2.424109697342
7.263292789459 -77.617362976074 -217.300247192383 2.073555469513
92.951766967773 -76.975181579590 -203.540298461914 1.323574304581
-52.546749114990 -68.215423583984 -49.761043548584 2.988103389740
-26.285112380981 -78.500595092773 -242.914138793945 2.535742282867
75.569282531738 -76.063865661621 -73.953773498535 2.396708965302
90.982185363770 -73.955505371094 -94.752593994141 2.358008861542
94.177047729492 -73.419212341309 -89.122001647949 3.315235376358
-44.628471374512 -70.099807739258 -161.302215576172 1.237703800201
64.775077819824 -66.377021789551 -67.647766113281 3.760146379471
-13.686147689819 -69.894996643066 -249.889892578125 1.450210332870
40.802131652832 -58.731494903564 -15.974701881409 4.121222972870
-55.819759368896 -74.967231750488 -59.726985931396 3.380745172501
-19.675640106201 -61.083312988281 -66.072074890137 1.426112890244
67.393318176270 -71.684997558594 -71.844711303711 3.660248279572
10.404344558716 -73.013252258301 -197.554733276367 1.508790135384
22.672574996948 -70.421562194824 -274.318725585938 1.936138749123
6.629189968109 -76.266380310059 -203.832656860352 3.527609348297
-13.079561233521 -71.610458374023 -270.115264892578 1.583909511566
0.482872992754 -74.421005249023 -157.497955322266 2.692139148712
-101.606430053711 -62.768997192383 -102.135513305664 2.943018198013
-144.595138549805 -61.931644439697 -187.983627319336 1.567268013954
-66.413238525391 -64.986686706543 -122.578926086426 2.272989273071
-148.488662719727 -77.691879272461 -229.537246704102 1.786043763161
41.148387908936 -72.763610839844 -114.582618713379 2.513502836227
-70.223144531250 -59.046554565430 -115.432380676270 0.986360371113
33.668827056885 -65.305747985840 -11.209300041199 1.148793697357
-44.127216339111 -72.267593383789 -166.761947631836 1.108385324478
-157.413406372070 -66.702682495117 -211.714569091797 2.053858518600
5.278626918793 -73.877532958984 -222.019851684570 1.070219278336
-106.456169128418 -67.302001953125 -224.293609619141 0.942719936371
-53.862339019775 -82.636772155762 -205.530868530273 0.824677705765
-59.916667938232 -77.726211547852 -67.540626525879 2.881955385208
-160.148696899414 -72.998100280762 -257.676788330078 1.768372535706
-15.816496849060 -76.541427612305 -237.375289916992 1.393246531487
-3.183018922806 -80.079833984375 -288.112213134766 3.303301572800
14.542343139648 -68.717193603516 -181.864288330078 0.812093794346
-93.539794921875 -67.198303222656 -140.975982666016 1.932292938232
-144.374435424805 -76.905334472656 -307.037292480469 1.905324935913
-150.187255859375 -79.808822631836 -191.408737182617 2.766939640045
-13.126997947693 -74.939018249512 -204.881286621094 1.857284784317
-66.419548034668 -71.422080993652 -166.807708740234 1.995108962059
-32.399646759033 -76.709068298340 -209.004104614258 1.020081996918
-73.035964965820 -59.745662689209 -103.571975708008 1.924555778503
36.758949279785 -80.195716857910 -125.681098937988 1.045848727226
-88.503547668457 -72.090629577637 -257.814483642578 1.039112567902
15.795734405518 -63.697067260742 -239.449127197266 0.604543626308
-14.728725433350 -75.502830505371 -257.719146728516 2.388197422028
-148.023590087891 -72.010910034180 -185.387847900391 2.603089332581
-3.407958984375 -73.395744323730 -163.530548095703 1.693328976631
-150.998901367188 -64.866394042969 -276.900238037109 2.703668594360
-5.402831077576 -70.593269348145 -221.465438842773 2.263314485550
-86.352630615234 -76.777214050293 -290.244659423828 2.656723022461
-87.200553894043 -60.140659332275 -119.460815429688 0.856604993343
-100.723640441895 -65.455772399902 -93.711288452148 2.795796632767
-68.854705810547 -77.758361816406 -208.094253540039 1.391834259033
19.657661437988 -68.936782836914 -160.208374023438 1.620419025421
14.625137329102 -79.716690063477 -247.693664550781 2.030835151672
-85.674346923828 -75.633148193359 -292.259979248047 2.835709810257
-44.645557403564 -58.213382720947 -46.927982330322 1.641510486603
15.530486106873 -68.253791809082 -181.187438964844 1.599953293800
-10.984148025513 -71.366737365723 -242.908935546875 1.020406126976
-64.388282775879 -56.598182678223 -43.267200469971 1.324402332306
-16.482038497925 -75.689376831055 -199.356842041016 1.505041599274
-99.546005249023 -63.665260314941 -70.530105590820 2.021251201630
-109.124092102051 -70.861160278320 -288.793609619141 2.601635694504
76.371498107910 -76.351860046387 -230.905899047852 2.210982084274
-43.452121734619 -73.608139038086 -81.181762695313 2.293195724487
-68.874137878418 -73.383827209473 -252.085510253906 1.068570971489
10.832145690918 -66.030967712402 -149.743316650391 2.865639448166
42.215702056885 -67.846916198730 -95.210838317871 4.073805809021
-79.992004394531 -72.681190490723 -211.861465454102 1.065539956093
14.630031585693 -80.962181091309 -211.233047485352 2.227100372314
46.602943420410 -66.999755859375 -92.741500854492 2.616096973419
-34.779380798340 -78.564712524414 -165.635925292969 1.623174905777
-8.025229454041 -79.971687316895 -287.582031250000 3.427271366119
-146.027435302734 -67.633079528809 -306.249359130859 1.015655875206
-26.206060409546 -61.001174926758 -67.101158142090 2.597026109695
-149.993484497070 -61.852764129639 -201.098251342773 1.095340728760
60.035938262939 -66.895606994629 -80.010917663574 3.415995121002
-102.986671447754 -57.736236572266 -77.578681945801 4.795957565308
-145.756546020508 -76.671165466309 -195.481307983398 2.798720598221
-20.877552032471 -76.698112487793 -203.648208618164 1.645852565765
-112.823783874512 -62.948837280273 -198.942535400391 1.339146494865
-154.288543701172 -64.492401123047 -189.802902221680 3.680919170380
89.889030456543 -75.698249816895 -93.613616943359 2.460926055908
-151.226562500000 -77.839828491211 -193.851745605469 1.093310356140
93.796485900879 -73.637855529785 -90.110687255859 2.759363412857
10.523595809937 -83.154365539551 -225.926452636719 2.434515476227
-117.054763793945 -64.332283020020 -206.505310058594 2.565670490265
-160.379302978516 -67.469528198242 -250.731674194336 1.586696982384
-65.978569030762 -64.273361206055 -120.264755249023 0.253503769636
-31.428571701050 -75.060340881348 -290.943145751953 1.410436391830
-144.073898315430 -80.850807189941 -203.199539184570 1.019130468369
-2.708240032196 -79.057205200195 -163.587997436523 2.320415735245
40.598621368408 -78.694099426270 -103.700904846191 2.452249288559
-159.619201660156 -66.505401611328 -210.241073608398 2.046897888184
-142.004577636719 -65.164779663086 -205.809478759766 2.046569585800
-150.399215698242 -77.669548034668 -219.224960327148 1.892892003059
113.309471130371 -72.180007934570 -137.586868286133 1.151426315308
33.720539093018 -71.374237060547 -259.675170898438 2.548125267029
62.766304016113 -69.162483215332 -82.785255432129 1.409945487976
-0.741890013218 -68.220207214355 -291.047943115234 1.772262811661
-145.914413452148 -63.808654785156 -192.149459838867 1.021568059921
-144.985595703125 -68.752525329590 -195.863830566406 3.304203033447
52.878696441650 -68.378662109375 -83.553840637207 3.551969528198
-69.804313659668 -61.648441314697 -121.758308410645 3.428751945496
35.603462219238 -81.049652099609 -120.310607910156 1.997997403145
-153.084701538086 -61.331180572510 -182.107498168945 2.750336170197
-56.595855712891 -71.856208801270 -147.846710205078 2.304543256760
-51.363132476807 -76.458259582520 -182.140380859375 1.995187878609
-48.262222290039 -75.926750183105 -147.761718750000 1.967394351959
-142.895401000977 -65.188392639160 -187.293624877930 1.711773991585
6.220559120178 -73.105751037598 -241.316375732422 1.711242198944
39.389270782471 -71.067733764648 -119.817031860352 0.931327462196
-146.305923461914 -68.368225097656 -278.815246582031 2.240557909012
100.825630187988 -61.107707977295 -86.333106994629 4.030766487122
-78.440849304199 -65.439720153809 -142.910247802734 3.288666486740
-153.711120605469 -70.555305480957 -282.612152099609 1.664282321930
-122.971504211426 -64.808639526367 -199.375335693359 0.866622865200
-129.578643798828 -69.739585876465 -206.586807250977 2.280164241791
-158.425201416016 -71.025695800781 -220.763320922852 2.904673099518
-150.270263671875 -82.709800720215 -260.554870605469 1.082735300064
-34.724666595459 -70.818107604980 -164.588989257813 2.167118310928
-150.603668212891 -71.660194396973 -195.294677734375 2.113739967346
83.460189819336 -72.664421081543 -67.051231384277 1.648900985718
50.901760101318 -64.845558166504 -87.056869506836 2.844501972198
64.267509460449 -66.470535278320 -68.292678833008 4.037638187408
-65.066833496094 -67.012802124023 -133.704879760742 3.199218511581
-69.759353637695 -58.803390502930 -108.135848999023 1.266674876213
-75.479187011719 -81.502975463867 -210.524887084961 0.870989501476
-60.270622253418 -72.144920349121 -288.511230468750 2.169642448425
-146.418701171875 -65.565803527832 -178.033966064453 2.850836753845
-152.445632934570 -62.951839447021 -265.216644287109 1.756893992424
-83.107902526855 -64.285972595215 -110.566734313965 1.694672226906
-16.215541839600 -65.308853149414 -64.141998291016 3.708823442459
71.745994567871 -76.445541381836 -86.403854370117 1.688189625740
-143.627182006836 -76.765014648438 -227.502670288086 2.378536939621
14.146696090698 -78.100822448730 -193.364593505859 2.549048185349
2.664568901062 -66.342536926270 -266.439941406250 2.864739418030
64.292274475098 -69.412651062012 -72.939056396484 4.367692470551
19.914930343628 -62.608146667480 -241.395111083984 1.920638918877
82.874168395996 -69.083213806152 -102.959602355957 1.323695659637
-147.369537353516 -82.536460876465 -223.328201293945 1.654115796089
-65.167633056641 -81.625038146973 -205.161239624023 0.825655281544
-98.056335449219 -70.025566101074 -90.079101562500 2.670593023300
-73.609596252441 -67.440612792969 -50.076629638672 2.925911188126
-73.618675231934 -67.820556640625 -140.797653198242 2.007701396942
-165.323974609375 -65.207359313965 -203.119827270508 1.975287199020
-97.755294799805 -64.983871459961 -68.422256469727 1.856984734535
-151.908416748047 -68.931022644043 -277.849945068359 2.285855054855
-64.783020019531 -64.567131042480 -129.005218505859 1.592192173004
-12.403985977173 -73.946846008301 -205.966369628906 1.928186058998
-69.459381103516 -73.893943786621 -150.886352539063 0.675910174847
-152.498474121094 -64.252738952637 -192.699737548828 2.867397069931
-166.366058349609 -72.042266845703 -247.303741455078 0.544892847538
-151.735000610352 -82.745857238770 -286.612579345703 2.043148517609
75.091819763184 -60.517910003662 -56.691997528076 2.312049150467
80.088249206543 -63.992225646973 -59.524211883545 0.746176004410
-24.575777053833 -78.658821105957 -237.777191162109 1.954861044884
29.733005523682 -61.026870727539 -36.994113922119 1.818156957626
56.912647247314 -64.437965393066 -92.974380493164 1.428046703339
27.100072860718 -76.635261535645 -130.645980834961 2.246210336685
-148.780258178711 -67.731658935547 -263.438934326172 2.910203218460
-58.020420074463 -67.581367492676 -89.003440856934 1.720728158951
-13.491476058960 -76.442939758301 -239.527786254883 1.392503738403
-151.860610961914 -72.319023132324 -244.712738037109 1.142963171005
-109.256736755371 -62.163341522217 -182.203796386719 1.798624873161
-89.733909606934 -71.980247497559 -114.137680053711 2.012232542038
-37.610290527344 -61.828868865967 -48.083209991455 1.876556873322
91.173629760742 -75.307823181152 -79.959808349609 2.074149131775
-150.200790405273 -84.169540405273 -266.971130371094 2.379755258560
-87.780937194824 -73.667716979980 -111.770256042480 1.949655175209
-60.629886627197 -78.758163452148 -248.525588989258 1.508558630943
-48.487785339355 -72.374359130859 -163.879150390625 2.563991785049
-103.710433959961 -69.041793823242 -221.761947631836 1.778521418571
-154.427795410156 -69.127883911133 -196.934097290039 2.675187826157
3.871357917786 -76.052368164063 -226.210327148438 1.059828519821
16.916692733765 -76.423782348633 -175.854461669922 0.337911784649
-149.823593139648 -61.909355163574 -178.393417358398 0.911411046982
-148.272903442383 -83.583190917969 -258.863891601563 1.624090671539
-44.702392578125 -86.174804687500 -196.664794921875 0.824664890766
-133.826660156250 -64.860610961914 -260.956115722656 0.696626722813
-8.528431892395 -73.822334289551 -231.826980590820 1.748128652573
-141.864273071289 -70.056953430176 -199.219772338867 3.161623477936
-30.305299758911 -78.212402343750 -185.720581054688 1.282974362373
-69.884216308594 -77.196830749512 -211.493545532227 1.368993878365
-135.522750854492 -63.000957489014 -203.949050903320 3.153965711594
-17.026659011841 -73.607856750488 -215.900085449219 1.440721154213
-22.931470870972 -72.514091491699 -222.849349975586 0.829161643982
-26.452932357788 -73.999900817871 -200.100326538086 1.612198114395
19.523839950562 -77.453895568848 -187.702087402344 0.900254487991
-158.081756591797 -73.083580017090 -259.814880371094 2.283628940582
-15.740210533142 -73.809501647949 -288.779235839844 2.245460033417
25.528497695923 -78.745880126953 -143.990478515625 0.922400653362
-138.627487182617 -75.372329711914 -229.894989013672 2.446092128754
-125.732070922852 -63.796649932861 -206.873809814453 2.337545394897
101.384002685547 -70.137748718262 -98.620567321777 1.296802878380
-19.944875717163 -74.653968811035 -211.109954833984 1.413352131844
-160.515670776367 -68.025611877441 -260.095214843750 1.426193237305
-45.212043762207 -67.949966430664 -152.219848632813 2.554563045502
38.249187469482 -77.259689331055 -127.462005615234 2.472307920456
-90.837371826172 -64.589813232422 -113.645904541016 2.562519073486
-157.183670043945 -64.741683959961 -201.502365112305 3.220759153366
2.111356019974 -69.841377258301 -232.637664794922 1.127617239952
-40.936229705811 -57.878871917725 -47.333885192871 1.092525482178
25.922040939331 -72.601295471191 -173.604324340820 1.192386984825
87.215621948242 -76.984245300293 -90.626838684082 1.450797080994
-3.757441043854 -79.610633850098 -167.449859619141 0.620014011860
-149.373840332031 -66.241508483887 -290.110321044922 1.932826519012
10.321917533875 -76.631477355957 -199.046173095703 1.581479430199
-147.388092041016 -76.489952087402 -314.958465576172 2.526296138763
11.613219261169 -66.095024108887 -150.451965332031 2.220506668091
-97.370803833008 -72.304565429688 -293.509582519531 2.783072233200
22.620792388916 -71.945884704590 -188.101257324219 2.115944385529
6.059741020203 -72.732612609863 -159.865524291992 2.578697443008
14.781657218933 -60.635475158691 -25.736566543579 5.563601970673
-48.351619720459 -70.970863342285 -140.306579589844 0.781936526299
-8.341520309448 -70.592895507813 -217.302352905273 2.156275749207
-166.386764526367 -73.914916992188 -280.746826171875 2.731073141098
-99.981536865234 -60.961971282959 -155.047775268555 2.087172508240
-36.724437713623 -78.246582031250 -239.364166259766 0.487112492323
-68.417358398438 -76.704856872559 -98.843032836914 1.224095821381
95.935813903809 -72.075775146484 -83.968551635742 2.146186828613
99.740867614746 -66.177116394043 -79.251235961914 3.542468070984
-146.102569580078 -70.504905700684 -315.224548339844 3.042423725128
4.074088096619 -85.919937133789 -272.659027099609 2.189970016479
-14.304889678955 -77.346305847168 -260.328704833984 1.305316448212
-148.918441772461 -73.211524963379 -190.082412719727 2.333506107330
-27.584138870239 -77.650115966797 -196.063735961914 2.556423902512
-64.193061828613 -75.591819763184 -175.624893188477 2.132861375809
-54.132450103760 -71.570274353027 -155.154754638672 2.883570194244
17.970497131348 -74.623550415039 -208.483444213867 0.594281792641
17.742950439453 -75.292114257813 -168.619400024414 1.667046427727
95.002052307129 -77.100540161133 -200.150787353516 2.209336280823
19.746156692505 -76.342575073242 -241.529373168945 1.564819574356
-57.872989654541 -72.913825988770 -290.815551757813 1.257280707359
-154.095672607422 -71.735198974609 -206.056991577148 0.862413227558
-16.612634658813 -67.621505737305 -203.250503540039 1.449753403664
-134.176162719727 -70.414031982422 -256.953430175781 1.792273759842
89.745903015137 -78.718437194824 -205.291564941406 4.365141391754
54.330963134766 -69.597396850586 -240.884170532227 2.006453752518
-94.444702148438 -58.251014709473 -55.284557342529 1.616471767426
-84.166381835938 -72.788177490234 -63.558658599854 2.632288217545
-37.708217620850 -70.378669738770 -169.843566894531 2.058474779129
-4.958541870117 -79.954299926758 -287.527496337891 2.727166891098
-166.029876708984 -65.076705932617 -210.200225830078 2.481225013733
-62.760768890381 -76.275726318359 -250.797912597656 1.692843437195
-91.099105834961 -66.091270446777 -59.607734680176 1.372145056725
23.657648086548 -68.296241760254 -156.633377075195 2.385390281677
15.991859436035 -77.086860656738 -205.716491699219 0.982856154442
10.369866371155 -81.897033691406 -214.352279663086 2.008327007294
-5.155078887939 -69.047859191895 -280.896484375000 3.338011741638
4.373684883118 -66.645324707031 -235.710311889648 0.760660052299
-165.315750122070 -67.704605102539 -257.592895507813 2.598656415939
-121.696517944336 -70.912109375000 -234.257369995117 2.673509359360
-28.710262298584 -71.561828613281 -179.335128784180 1.812817454338
-62.487239837646 -63.620853424072 -119.291473388672 0.448482424021
-21.332752227783 -79.250968933105 -220.411636352539 1.694137692451
-82.037155151367 -57.097381591797 -46.198066711426 2.414614915848
-18.438182830811 -79.713760375977 -195.811813354492 1.062298178673
29.932144165039 -60.342918395996 -36.227630615234 1.666003942490
-36.224708557129 -69.925422668457 -180.695968627930 1.479336500168
-11.530217170715 -74.387832641602 -249.936538696289 2.217632532120
-145.252120971680 -64.296722412109 -267.410980224609 2.545011043549
-129.050933837891 -73.616256713867 -234.381530761719 1.997657895088
-39.738372802734 -68.011131286621 -168.154617309570 2.194583892822
2.987812995911 -88.333450317383 -263.187438964844 3.031976461411
67.182823181152 -59.532009124756 -59.516128540039 4.467900753021
102.891487121582 -79.613868713379 -180.152709960938 3.550257682800
93.559158325195 -72.600540161133 -204.917068481445 1.723952174187
-149.635299682617 -81.019065856934 -192.875717163086 0.893459975719
88.907325744629 -74.194862365723 -71.759284973145 1.097953319550
-64.557159423828 -67.881599426270 -128.960769653320 1.756453394890
11.801000595093 -85.768287658691 -253.900634765625 2.417542457581
-154.493499755859 -64.432655334473 -185.747665405273 2.861474037170
