53.760368347168 -61.209728240967 -89.079727172852 2.103463172913
104.879913330078 -71.618850708008 -193.955963134766 3.039621353149
100.564651489258 -69.685646057129 -96.386756896973 1.548595309258
-59.802642822266 -64.160575866699 -122.902694702148 1.721488833427
112.966255187988 -76.221061706543 -127.345924377441 1.931711196899
-46.579113006592 -74.692230224609 -187.358032226563 3.412887811661
-89.526191711426 -66.099586486816 -59.989856719971 2.569935321808
-31.682445526123 -73.557289123535 -59.761878967285 2.153174877167
-30.375804901123 -71.787498474121 -57.184020996094 2.460035085678
-126.613052368164 -71.642463684082 -234.541412353516 1.988307237625
45.210563659668 -66.010421752930 -255.191909790039 1.054013013840
0.669681012630 -71.018554687500 -224.941497802734 1.250113964081
-149.365936279297 -75.355400085449 -242.311294555664 1.953860640526
-47.393032073975 -75.490478515625 -185.370040893555 1.317115664482
20.975282669067 -78.952789306641 -184.041305541992 1.579073548317
22.548912048340 -69.615669250488 -154.129196166992 1.468743920326
-36.279880523682 -74.242385864258 -241.233139038086 0.995378315449
68.541381835938 -66.634269714355 -99.779235839844 1.765970826149
-151.694335937500 -67.651756286621 -253.544921875000 1.307659864426
-145.651092529297 -62.053321838379 -288.871032714844 2.694550037384
44.803333282471 -60.031734466553 -115.237770080566 1.222475171089
-98.859504699707 -62.224945068359 -90.645996093750 2.818253040314
44.310245513916 -70.923278808594 -28.186317443848 1.948064684868
52.387920379639 -70.309310913086 -106.886306762695 1.204158067703
31.963289260864 -76.695243835449 -121.375328063965 0.487655550241
110.072906494141 -69.459236145020 -129.565689086914 1.218657493591
-162.100814819336 -64.615005493164 -204.438735961914 2.592043161392
-18.525926589966 -76.580062866211 -203.582839965820 0.760953962803
-5.270259857178 -69.562538146973 -230.458068847656 1.032641172409
-48.243114471436 -60.017021179199 -44.679065704346 1.500636696815
-29.470375061035 -75.704689025879 -187.449584960938 1.855391383171
17.411865234375 -74.037200927734 -239.825592041016 1.010495424271
21.670867919922 -77.190155029297 -242.509811401367 1.718825101852
111.426246643066 -72.312026977539 -108.852943420410 1.651924252510
44.288307189941 -74.854621887207 -99.812255859375 1.688716292381
61.441070556641 -68.126914978027 -91.840660095215 1.461108684540
11.164413452148 -70.480163574219 -213.524917602539 0.847381532192
40.106178283691 -69.210174560547 -18.990188598633 1.816761732101
-132.125411987305 -71.091949462891 -202.822296142578 1.286535859108
26.433456420898 -67.606994628906 -152.395111083984 1.007914900780
94.398200988770 -76.104576110840 -90.291717529297 0.788774788380
-80.904243469238 -84.284553527832 -103.099601745605 1.350432634354
3.299686908722 -82.671630859375 -251.528762817383 1.004190325737
-146.364013671875 -72.778221130371 -193.872817993164 1.300081372261
-143.766708374023 -82.853843688965 -260.202087402344 1.516992568970
113.812019348145 -75.691101074219 -170.241668701172 1.608289122581
-34.243606567383 -71.261878967285 -289.614410400391 2.883280038834
-161.086730957031 -69.127647399902 -293.120452880859 1.514589548111
-147.694915771484 -65.556518554688 -296.768127441406 1.672203183174
11.435960769653 -75.411750793457 -243.016464233398 1.204264163971
-16.183307647705 -69.458641052246 -200.360565185547 1.060467600822
-73.780311584473 -75.837013244629 -214.271743774414 1.855584979057
-14.374033927917 -70.072731018066 -262.810089111328 1.143893599510
-31.333129882813 -78.794700622559 -74.780967712402 1.465641140938
-153.005249023438 -65.949569702148 -226.249603271484 2.409147024155
-22.421579360962 -69.309524536133 -196.844299316406 1.112981319427
-149.335998535156 -76.216262817383 -217.859085083008 1.227798819542
84.957687377930 -76.816902160645 -80.401329040527 1.713640451431
-73.575004577637 -72.228706359863 -138.680984497070 1.678683400154
-148.579589843750 -78.207763671875 -258.034851074219 1.887432336807
-138.863952636719 -68.831291198730 -227.124313354492 2.212780714035
-149.912551879883 -63.919506072998 -207.418060302734 1.374166369438
-23.115938186646 -74.701881408691 -178.730407714844 1.800744652748
89.851394653320 -73.630149841309 -220.695846557617 1.266254425049
-130.080963134766 -62.895538330078 -204.740783691406 2.021978855133
-9.744609832764 -68.307312011719 -242.358825683594 0.632976830006
-136.524078369141 -65.584365844727 -204.442810058594 2.627743244171
-149.587005615234 -77.206665039063 -207.092941284180 1.907203674316
93.569526672363 -73.499000549316 -215.677490234375 1.987747192383
106.167388916016 -70.455413818359 -101.785949707031 0.978047251701
-15.207403182983 -72.491821289063 -221.635147094727 0.968368828297
-45.091796875000 -70.768051147461 -289.173675537109 1.672218322754
105.021041870117 -73.379356384277 -196.415237426758 0.836161136627
-78.046028137207 -63.910442352295 -136.288009643555 1.816621184349
13.107730865479 -74.565284729004 -196.002868652344 0.522856295109
-148.327713012695 -69.944610595703 -176.449890136719 2.450931310654
80.414268493652 -61.635868072510 -59.126125335693 2.266150951385
-23.197198867798 -71.803573608398 -216.691329956055 1.380463719368
-88.353607177734 -75.109474182129 -114.833610534668 0.748051643372
-25.654312133789 -73.967079162598 -174.605865478516 1.587551712990
-62.023597717285 -64.623901367188 -125.305564880371 2.180097103119
11.036860466003 -67.660636901855 -156.434402465820 0.940343558788
-58.437667846680 -79.217208862305 -172.264221191406 1.752682924271
14.644178390503 -73.163505554199 -290.198303222656 1.078731417656
-149.278121948242 -80.740875244141 -199.968460083008 1.509682536125
-104.525604248047 -65.465385437012 -226.414367675781 1.238965034485
-148.789382934570 -60.433029174805 -185.694000244141 2.338099718094
95.088973999023 -67.968177795410 -67.263343811035 2.103025436401
7.833964824677 -69.637519836426 -236.180145263672 2.531836032867
-14.713964462280 -70.646965026855 -261.178955078125 1.117831468582
23.644201278687 -67.210700988770 -180.894210815430 1.406674742699
-124.693382263184 -64.352394104004 -290.336578369141 1.313297510147
-82.331199645996 -63.360313415527 -127.738265991211 2.145802021027
20.218263626099 -78.075202941895 -195.682022094727 1.238400340080
-9.297347068787 -74.200965881348 -222.120117187500 2.663331985474
-0.419028997421 -65.450950622559 -292.093811035156 1.195947527885
-36.054355621338 -75.603973388672 -62.584934234619 1.560927867889
114.998916625977 -69.918251037598 -134.623245239258 1.718872785568
2.090465068817 -77.337562561035 -289.005096435547 1.741722226143
-83.683341979980 -74.202339172363 -109.726379394531 1.775307655334
4.114596843719 -82.884590148926 -275.257110595703 1.191010832787
78.624984741211 -77.566726684570 -88.414382934570 2.154674530029
100.075347900391 -66.155349731445 -70.366317749023 0.710516035557
23.152112960815 -60.158554077148 -140.399429321289 1.140885949135
-49.733684539795 -75.446098327637 -151.807968139648 2.495246410370
116.320922851563 -73.397338867188 -132.932754516602 0.870511770248
-42.504409790039 -77.392517089844 -85.405189514160 1.620756983757
-72.151329040527 -83.467308044434 -87.373634338379 2.243023395538
-10.492740631104 -76.029571533203 -208.361282348633 1.006282448769
78.857948303223 -72.376846313477 -68.743293762207 1.754319906235
-144.939804077148 -74.716415405273 -210.316238403320 1.219740033150
28.783954620361 -75.002487182617 -172.879562377930 1.641108036041
31.192371368408 -63.894889831543 -36.098712921143 2.335191249847
-65.188491821289 -59.217754364014 -107.174774169922 1.618418097496
-94.630798339844 -62.245639801025 -153.072174072266 1.426792025566
-145.572677612305 -72.966384887695 -201.099182128906 1.897826194763
-57.566200256348 -61.357467651367 -135.318176269531 1.540737867355
-53.620677947998 -65.212455749512 -45.924690246582 3.372037172318
-32.099781036377 -64.227622985840 -49.059997558594 2.287030696869
-38.842586517334 -78.096092224121 -201.480255126953 1.735329151154
47.641933441162 -71.224517822266 -30.249032974243 1.676632761955
103.014762878418 -67.814224243164 -90.303436279297 1.151808977127
-155.032653808594 -72.823646545410 -296.082092285156 1.481440663338
-146.927764892578 -62.924041748047 -276.689910888672 1.740983605385
-77.535003662109 -67.574600219727 -117.844505310059 0.444548547268
-16.455205917358 -73.643836975098 -237.476470947266 0.966749906540
13.128702163696 -77.364723205566 -205.717285156250 2.017541885376
16.228893280029 -72.518058776855 -214.910781860352 1.980247735977
-77.507667541504 -66.260208129883 -107.559913635254 1.911558985710
25.087520599365 -63.775482177734 -27.087482452393 2.129535913467
-146.592163085938 -75.192909240723 -187.380599975586 1.099417448044
-3.714541912079 -76.581726074219 -281.271850585938 1.511060714722
-37.336448669434 -79.813667297363 -206.024597167969 0.808873534203
-157.899124145508 -65.659812927246 -202.652725219727 2.483373880386
17.705774307251 -67.388244628906 -179.429367065430 1.374291062355
99.625335693359 -74.460037231445 -201.669570922852 1.066547989845
-153.682250976563 -72.455184936523 -268.628723144531 2.970573425293
-151.174224853516 -82.840835571289 -299.722015380859 1.707656025887
-138.110534667969 -68.595420837402 -197.198699951172 2.381846427917
81.294311523438 -71.972251892090 -101.478065490723 1.869151949883
38.483943939209 -67.491371154785 -12.650894165039 2.500616312027
-138.738372802734 -63.715801239014 -231.218566894531 3.027335643768
-152.365386962891 -72.644615173340 -272.737091064453 1.751636266708
-23.874967575073 -66.978126525879 -190.561859130859 1.324831366539
-18.269458770752 -75.833778381348 -205.381790161133 2.265642642975
23.688467025757 -64.391754150391 -137.279769897461 1.122989296913
77.710098266602 -74.481842041016 -224.525558471680 1.567309856415
-107.504493713379 -61.516712188721 -177.926635742188 1.437694072723
-151.411514282227 -61.622154235840 -182.171890258789 1.956195592880
-52.945041656494 -70.354888916016 -134.341949462891 1.429050564766
0.255261003971 -71.499946594238 -291.404174804688 0.546160399914
-76.405479431152 -84.127128601074 -102.141174316406 1.701962471008
-111.145347595215 -65.426239013672 -259.414154052734 1.357223391533
-57.487144470215 -77.595764160156 -246.741088867188 1.576877593994
-152.434585571289 -78.273231506348 -294.724548339844 0.905639767647
-139.816772460938 -70.735694885254 -227.492080688477 2.115295648575
-65.071861267090 -77.394104003906 -63.748344421387 2.019952774048
38.133975982666 -70.910163879395 -124.328659057617 0.880514740944
79.075340270996 -77.561080932617 -90.123634338379 0.577496051788
-36.325164794922 -74.426498413086 -176.537368774414 1.943938016891
10.035828590393 -75.711853027344 -208.665435791016 0.884549438953
-111.151611328125 -71.548202514648 -258.738403320313 2.239292144775
-85.236175537109 -75.126892089844 -112.339088439941 1.464826822281
-97.797775268555 -64.481590270996 -82.647903442383 1.525876641273
-147.565429687500 -66.319366455078 -313.424499511719 1.734516263008
-65.299285888672 -73.384803771973 -153.272003173828 2.396351575851
28.410112380981 -61.753368377686 -139.424957275391 2.459000587463
21.499486923218 -70.201187133789 -278.111541748047 1.656893014908
-17.204668045044 -76.730285644531 -240.494491577148 0.328067153692
-157.405090332031 -68.498229980469 -294.219299316406 2.202067613602
-56.621177673340 -65.346038818359 -139.854232788086 1.309829354286
-80.722152709961 -60.540695190430 -126.989006042480 2.291438102722
-17.578495025635 -70.605415344238 -239.322494506836 0.603187143803
116.309036254883 -74.729423522949 -138.502441406250 3.327677488327
-43.921455383301 -72.820175170898 -54.188652038574 1.763813376427
68.708419799805 -69.637580871582 -74.034637451172 0.826450407505
49.444316864014 -64.246688842773 -25.684343338013 3.155507326126
-4.139413833618 -82.903549194336 -267.790344238281 1.981168031693
50.812210083008 -68.644432067871 -106.725273132324 0.928220272064
-65.808822631836 -75.141853332520 -98.661499023438 0.745255172253
15.453095436096 -80.871093750000 -228.790023803711 1.016390800476
-96.941131591797 -62.809555053711 -146.748153686523 0.752076506615
35.643051147461 -80.375137329102 -133.535140991211 0.935323834419
-25.647483825684 -63.924953460693 -70.419700622559 1.074995636940
37.854511260986 -75.154014587402 -113.086463928223 1.467237234116
-81.455039978027 -61.121421813965 -48.302806854248 1.315369367599
-145.812606811523 -82.440216064453 -237.591964721680 2.690952062607
95.857910156250 -71.684387207031 -211.067047119141 1.445284247398
-165.892761230469 -67.526252746582 -266.067016601563 1.705569982529
81.316452026367 -76.668312072754 -78.078567504883 0.780003309250
-149.732772827148 -81.982521057129 -259.725433349609 1.160864710808
-45.598510742188 -79.293167114258 -244.003585815430 1.019440174103
13.080354690552 -68.121047973633 -217.304550170898 2.155548095703
-145.516830444336 -75.229942321777 -187.727813720703 0.172326281667
-18.270959854126 -77.562858581543 -223.591003417969 0.838452517986
3.773960113525 -84.301818847656 -255.725952148438 1.578404664993
7.417586803436 -77.742874145508 -218.096618652344 1.681062698364
-6.549109935760 -80.995246887207 -268.771209716797 2.098468780518
-57.621868133545 -75.668762207031 -57.947769165039 2.195340871811
1.384701013565 -60.478385925293 -251.439743041992 3.492492675781
-152.265182495117 -75.378913879395 -284.362426757813 1.752341508865
8.168420791626 -74.569259643555 -160.487045288086 1.678030729294
-11.701312065125 -78.977996826172 -216.587570190430 1.888538718224
-34.971096038818 -77.932945251465 -161.928359985352 1.386272072792
87.723190307617 -76.539634704590 -221.034561157227 2.804562091827
25.919996261597 -79.393371582031 -169.240753173828 1.677443861961
58.764694213867 -72.818702697754 -241.049392700195 1.288645982742
-149.680709838867 -76.416442871094 -206.932128906250 1.343399167061
-71.517349243164 -85.692321777344 -94.616394042969 1.639348268509
-90.031150817871 -77.552467346191 -105.371429443359 0.855029761791
-105.679649353027 -70.921546936035 -223.956024169922 1.683652877808
-66.128562927246 -75.894554138184 -167.659881591797 0.516462564468
-150.323577880859 -76.661079406738 -250.756408691406 1.462568640709
18.618812561035 -76.739425659180 -251.547454833984 1.134818911552
-93.476181030273 -71.251838684082 -221.801696777344 1.551711797714
109.434448242188 -70.641746520996 -132.739425659180 0.563784062862
6.097071170807 -74.963096618652 -239.552581787109 1.196957111359
-149.890670776367 -64.988090515137 -304.614196777344 2.958779335022
-155.610092163086 -64.515937805176 -291.463165283203 0.810879290104
59.905712127686 -72.647773742676 -90.577690124512 1.766032218933
13.658260345459 -75.142250061035 -283.241516113281 1.248486638069
89.328315734863 -70.090744018555 -216.982757568359 1.363777160645
-42.341236114502 -81.702156066895 -78.631912231445 2.450280427933
-93.095985412598 -73.811721801758 -105.943229675293 2.119251966476
83.459243774414 -72.311614990234 -222.543502807617 1.376643657684
-65.982131958008 -82.983268737793 -81.287948608398 2.660945415497
-66.131126403809 -79.423919677734 -100.165130615234 1.891890883446
-57.563941955566 -69.431007385254 -140.811065673828 0.801491379738
78.443733215332 -69.609642028809 -231.166046142578 0.821766257286
-92.003219604492 -70.873962402344 -253.149612426758 2.199549436569
-10.021449089050 -79.033538818359 -210.565551757813 1.449964046478
52.728324890137 -76.266525268555 -103.955909729004 1.919570803642
22.466911315918 -79.088874816895 -179.859420776367 1.077544093132
-134.252136230469 -66.158721923828 -257.044647216797 0.897524595261
41.202953338623 -73.664932250977 -103.040130615234 1.775647759438
45.729030609131 -70.959869384766 -95.945281982422 1.049307823181
-117.283142089844 -68.571289062500 -293.355407714844 1.423383831978
-65.039054870605 -69.621276855469 -288.202789306641 1.876292228699
102.859962463379 -68.398025512695 -97.459472656250 0.725325644016
-100.926620483398 -69.506263732910 -219.689682006836 0.728459000587
-165.614425659180 -67.825225830078 -277.696258544922 2.619979143143
-41.151969909668 -69.441787719727 -150.895568847656 2.766261339188
-82.677963256836 -74.695312500000 -288.772094726563 1.728738427162
-82.069816589355 -60.812953948975 -116.763854980469 1.611860871315
-149.229522705078 -71.566528320313 -214.310623168945 2.159270524979
8.246130943298 -62.948783874512 -243.051651000977 1.686631202698
-145.437881469727 -63.824638366699 -222.822494506836 0.850095808506
-150.681945800781 -80.323951721191 -266.149993896484 1.970800042152
-146.377944946289 -63.820308685303 -290.594848632813 0.295486599207
-92.851875305176 -61.149616241455 -58.889488220215 1.586748480797
-162.731552124023 -72.141426086426 -257.115081787109 3.170011997223
-119.312522888184 -70.911209106445 -256.285308837891 2.518742084503
-111.706047058105 -66.731948852539 -232.806838989258 2.052532911301
-98.340011596680 -57.994155883789 -67.962409973145 1.299979090691
-144.803787231445 -71.425048828125 -278.158782958984 1.978065729141
-62.969978332520 -75.152107238770 -158.188674926758 1.103767991066
108.282005310059 -71.277252197266 -99.264640808105 2.502597093582
-14.555217742920 -71.573509216309 -262.887847900391 1.019068956375
-66.290756225586 -61.640766143799 -113.242294311523 0.887188315392
-57.767295837402 -83.442565917969 -80.928337097168 2.745965719223
28.881359100342 -78.333679199219 -132.411621093750 1.939418554306
-106.618583679199 -64.450859069824 -168.384811401367 2.036309957504
-68.610984802246 -59.435466766357 -121.315032958984 1.911910057068
-86.487045288086 -70.827499389648 -256.739532470703 1.415675520897
-145.051239013672 -71.993515014648 -209.000778198242 1.712055206299
-11.322990417480 -73.356163024902 -224.951110839844 0.806558191776
43.016857147217 -66.008850097656 -14.765873908997 2.247014284134
-6.628746986389 -80.491050720215 -171.494033813477 1.155611872673
-125.340873718262 -60.601799011230 -200.118881225586 1.613192915916
-1.074465036392 -77.033958435059 -231.696395874023 2.189407110214
-96.395713806152 -64.642692565918 -119.722785949707 1.411589980125
18.349565505981 -75.964942932129 -224.360931396484 1.111228585243
-157.836898803711 -66.731948852539 -219.332061767578 2.504259824753
-69.044715881348 -70.318359375000 -248.354492187500 1.826051115990
12.747176170349 -82.789299011230 -243.385772705078 2.648691654205
-84.283027648926 -65.928543090820 -131.775924682617 1.023996710777
-54.520950317383 -63.579208374023 -142.247955322266 1.367993116379
65.849273681641 -70.808380126953 -237.511871337891 0.514570415020
-162.795822143555 -71.821342468262 -238.786926269531 2.010260343552
-41.842948913574 -80.285858154297 -199.764068603516 1.347928881645
-73.274490356445 -81.096961975098 -211.764022827148 1.061507463455
-74.218612670898 -72.041526794434 -150.522048950195 1.414239048958
-18.782785415649 -79.380722045898 -195.751983642578 1.091436505318
14.083685874939 -80.142547607422 -213.411621093750 2.312718153000
105.867614746094 -68.224708557129 -110.764717102051 1.531120419502
-32.269477844238 -69.730079650879 -175.296676635742 2.443190813065
43.461040496826 -76.308799743652 -119.507339477539 1.502700805664
0.541769027710 -76.956550598145 -222.188903808594 2.143149137497
-160.539428710938 -71.989875793457 -238.544235229492 2.295191049576
28.383735656738 -64.460937500000 -40.372863769531 1.956715345383
-22.124973297119 -76.330116271973 -186.521850585938 1.607527017593
114.060188293457 -75.869827270508 -168.304367065430 1.502570033073
-12.889342308044 -79.095298767090 -205.103042602539 1.666432857513
62.776863098145 -71.207389831543 -239.905441284180 1.703745484352
83.787658691406 -75.402252197266 -217.819519042969 1.768917798996
-151.608871459961 -76.446876525879 -311.980773925781 1.398183703423
-129.735977172852 -71.092491149902 -226.343826293945 3.055308103561
49.580341339111 -65.214447021484 -92.152748107910 1.267279863358
-20.473682403564 -73.720268249512 -67.665611267090 1.638006448746
81.623184204102 -70.488006591797 -220.977752685547 0.966824710369
-63.045711517334 -76.329864501953 -250.048355102539 1.456078171730
-149.437332153320 -64.950149536133 -304.035003662109 3.514907121658
30.248949050903 -72.102348327637 -132.677932739258 0.722414493561
32.794929504395 -74.933792114258 -148.998107910156 0.942834496498
54.911140441895 -73.533271789551 -95.799781799316 1.803886771202
20.863300323486 -64.275756835938 -147.718734741211 1.361456155777
49.231315612793 -72.093910217285 -112.248916625977 0.848017454147
-41.408645629883 -74.942993164063 -58.276615142822 1.966903209686
31.983963012695 -77.650566101074 -146.698303222656 1.649502873421
-30.665729522705 -73.930625915527 -207.332931518555 2.085483551025
-147.050094604492 -58.672344207764 -206.190078735352 1.708957076073
-10.297406196594 -71.312362670898 -208.376281738281 2.217115163803
12.207117080688 -69.277030944824 -228.296691894531 2.284169673920
-86.821235656738 -72.203376770020 -218.784683227539 1.202991843224
-29.727231979370 -67.797035217285 -176.993011474609 1.973607301712
-77.534210205078 -83.561988830566 -92.303291320801 2.177122354507
-3.119566917419 -75.218986511230 -285.177459716797 0.599620461464
113.608200073242 -70.168907165527 -160.324798583984 1.789765477180
-101.174972534180 -73.272964477539 -288.610900878906 1.718465924263
-64.107589721680 -62.872455596924 -115.739662170410 1.851795911789
-153.722427368164 -72.791465759277 -200.305053710938 1.399510025978
83.785018920898 -77.624191284180 -88.622276306152 1.382558465004
-84.816146850586 -65.665847778320 -133.425308227539 1.020663261414
-6.747419834137 -77.946800231934 -212.646286010742 2.178412437439
-68.205635070801 -59.206268310547 -96.460105895996 1.438920021057
29.677103042603 -70.084327697754 -164.618148803711 2.362815618515
102.963432312012 -76.970779418945 -186.121170043945 2.825792312622
-24.833284378052 -67.872169494629 -195.023849487305 1.233888268471
-103.322174072266 -70.049507141113 -221.228851318359 1.136317610741
-147.023040771484 -66.641769409180 -260.928649902344 2.057432889938
-13.058176994324 -67.087829589844 -62.971538543701 1.873467445374
-153.024581909180 -61.614746093750 -260.788848876953 1.785947442055
69.463897705078 -72.601104736328 -231.515899658203 1.783453583717
-29.117088317871 -77.287124633789 -190.333297729492 1.711300015450
-28.318542480469 -77.299850463867 -186.335800170898 1.635332584381
-159.884765625000 -68.943756103516 -281.542510986328 2.154321908951
-61.805461883545 -78.103851318359 -65.595420837402 2.316805124283
41.877525329590 -71.403167724609 -118.960838317871 2.049655914307
40.839355468750 -62.694480895996 -33.969036102295 1.543021321297
-79.648979187012 -71.610725402832 -249.689498901367 0.958824753761
28.786514282227 -67.994720458984 -154.016738891602 1.658706903458
-36.045680999756 -75.382736206055 -80.881721496582 1.735305786133
101.463455200195 -69.737487792969 -97.260513305664 1.452951550484
-148.187255859375 -59.676517486572 -225.647247314453 1.555202960968
-41.632022857666 -69.839080810547 -169.693893432617 1.856333851814
-149.162292480469 -59.933532714844 -236.469680786133 1.511928319931
-39.345371246338 -73.739715576172 -171.616149902344 2.164786815643
-85.485885620117 -68.263122558594 -132.382293701172 1.419989109039
101.251762390137 -65.783531188965 -72.450584411621 1.857580542564
4.354504108429 -75.694847106934 -239.555389404297 0.711809933186
7.301468849182 -62.103507995605 -241.874496459961 1.372686743736
-23.832408905029 -75.649917602539 -178.068725585938 0.990021526814
-37.594039916992 -67.317733764648 -49.729804992676 1.658637523651
14.828483581543 -82.687950134277 -263.595001220703 1.192923188210
-94.306335449219 -67.310897827148 -145.813598632813 1.751017093658
-148.143554687500 -75.625717163086 -199.171020507813 2.033989191055
-80.557098388672 -67.739189147949 -132.413192749023 1.383212804794
25.530393600464 -74.851142883301 -146.350448608398 1.815191388130
31.133251190186 -73.067756652832 -155.639099121094 1.976572751999
-145.328613281250 -72.803329467773 -216.630249023438 1.044615268707
93.450675964355 -72.597793579102 -203.229095458984 0.642034590244
-161.685394287109 -65.350570678711 -226.038314819336 1.407381892204
-148.530532836914 -76.174018859863 -231.241409301758 2.501194000244
42.122470855713 -77.408393859863 -105.296348571777 0.188271999359
-103.287132263184 -68.421073913574 -292.648590087891 3.407598018646
11.709100723267 -74.684646606445 -285.817962646484 1.811049461365
4.439564228058 -82.701087951660 -276.023559570313 0.902201354504
-149.324798583984 -74.678176879883 -219.933013916016 2.673691511154
-78.467285156250 -64.295463562012 -102.614433288574 2.107856512070
-24.055866241455 -72.764900207520 -239.480178833008 0.492316871881
101.353240966797 -74.939422607422 -198.237579345703 1.344735622406
-5.388095855713 -64.893180847168 -253.352005004883 1.667108654976
-75.876480102539 -66.709091186523 -125.487228393555 1.602119922638
-147.216857910156 -68.624824523926 -176.422744750977 1.234892249107
29.892980575562 -79.781524658203 -134.637863159180 2.673977375031
-70.265037536621 -67.373741149902 -144.192810058594 1.552523851395
4.163756847382 -77.647949218750 -231.514389038086 2.078301668167
23.910594940186 -74.943862915039 -153.663864135742 0.910815358162
84.854469299316 -66.271400451660 -62.619251251221 1.749688625336
-32.439697265625 -79.578941345215 -174.930679321289 2.210017204285
-146.907241821289 -82.874069213867 -291.043914794922 1.832880258560
-47.605888366699 -66.433647155762 -138.331069946289 2.368943214417
-26.228231430054 -68.274581909180 -193.399246215820 2.595772981644
7.679872989655 -83.741752624512 -253.649703979492 1.425732254982
20.007291793823 -75.251060485840 -235.884185791016 2.038908958435
-166.107925415039 -69.137924194336 -224.340438842773 1.144200086594
-25.191944122314 -69.537185668945 -190.194625854492 0.603163599968
-163.267456054688 -71.278152465820 -233.316223144531 2.365006446838
14.490082740784 -71.867637634277 -224.664062500000 1.757946133614
-153.605377197266 -82.574615478516 -290.200134277344 1.337315320969
50.204696655273 -66.574218750000 -252.289871215820 2.446227788925
8.744999885559 -70.081520080566 -242.900360107422 0.591635286808
70.949348449707 -70.185791015625 -230.666564941406 1.696045517921
-145.492187500000 -62.581115722656 -220.150405883789 1.033353686333
89.868721008301 -60.889976501465 -60.219741821289 2.025794506073
-6.996509075165 -80.109069824219 -270.379760742188 2.393866062164
-21.067010879517 -68.315322875977 -57.515171051025 1.255205154419
-3.283411979675 -65.950126647949 -289.192291259766 1.758959293365
23.801437377930 -67.294937133789 -160.963790893555 1.529651999474
-57.382484436035 -64.968383789063 -142.649078369141 1.541499137878
42.475410461426 -65.101654052734 -250.577850341797 1.808734655380
-47.819213867188 -82.528373718262 -84.256500244141 1.780898809433
31.953042984009 -68.248420715332 -140.406143188477 1.177931189537
-116.876083374023 -63.668247222900 -198.724334716797 1.633036851883
-152.899856567383 -75.091751098633 -304.617340087891 2.467348814011
71.446670532227 -69.868164062500 -230.545074462891 1.632256627083
25.033975601196 -70.836448669434 -177.957992553711 2.595161437988
-95.820518493652 -58.930656433105 -61.754833221436 1.914023280144
-150.166900634766 -62.732189178467 -248.141479492188 1.603399395943
-162.142578125000 -72.062423706055 -255.562194824219 2.211334705353
-142.945816040039 -72.290176391602 -294.068634033203 0.831160485744
114.552963256836 -76.680229187012 -138.241302490234 2.658207654953
-14.725854873657 -79.394485473633 -204.593765258789 1.934033155441
38.297237396240 -60.659095764160 -126.074104309082 2.495321035385
-87.668823242188 -65.539718627930 -139.618957519531 1.710310339928
30.180599212646 -63.973621368408 -35.695636749268 2.291925907135
13.405880928040 -70.229263305664 -214.283020019531 1.068942070007
-99.195793151855 -63.191303253174 -151.285125732422 2.635742902756
-38.140079498291 -74.142555236816 -241.543701171875 1.528100132942
-133.733657836914 -66.260025024414 -264.424987792969 1.273375511169
17.455728530884 -78.212692260742 -219.348068237305 1.586269259453
105.862930297852 -71.544433593750 -177.266403198242 1.663104534149
5.048241138458 -60.874923706055 -256.923858642578 1.337798714638
43.067665100098 -77.091674804688 -125.013145446777 0.908888459206
-16.401985168457 -74.209205627441 -191.546340942383 1.422481775284
-166.059143066406 -66.754745483398 -209.559783935547 2.136710166931
-69.476974487305 -64.552635192871 -102.273544311523 1.371071577072
15.381756782532 -69.127174377441 -286.574645996094 1.619576454163
-19.444059371948 -75.197288513184 -237.828903198242 1.949407815933
22.553298950195 -75.338096618652 -188.511215209961 2.497377395630
-32.994220733643 -73.578636169434 -205.793884277344 1.131852388382
51.549880981445 -66.847274780273 -100.069740295410 0.915351331234
-73.690422058105 -74.884727478027 -252.273330688477 0.938704073429
4.677076816559 -66.300918579102 -230.489852905273 0.601003646851
-41.198917388916 -79.260154724121 -163.649200439453 1.947993516922
-29.279287338257 -74.297523498535 -168.152832031250 1.505742192268
63.722812652588 -70.192558288574 -236.040206909180 1.282002449036
-55.055530548096 -72.401977539063 -139.760894775391 1.458578586578
-121.822227478027 -62.797939300537 -201.869903564453 2.009651422501
-117.968101501465 -70.961357116699 -229.250549316406 2.904127120972
-39.537902832031 -74.265274047852 -155.262710571289 2.267037391663
11.611635208130 -61.197078704834 -243.387603759766 1.038213491440
-34.295574188232 -71.816543579102 -77.711029052734 1.760505795479
-43.897159576416 -74.971832275391 -57.670436859131 2.086128711700
-8.531025886536 -73.204772949219 -235.155731201172 2.496467113495
12.904152870178 -68.255867004395 -193.662277221680 0.624114811420
-143.359008789063 -63.708389282227 -235.589019775391 1.675806403160
94.998146057129 -74.441703796387 -209.253845214844 0.996862769127
-33.034713745117 -65.895103454590 -49.768722534180 2.320479869843
-23.633842468262 -75.861228942871 -72.861442565918 1.425064921379
47.438190460205 -69.375778198242 -249.792449951172 1.754782676697
-142.511917114258 -83.573074340820 -288.356109619141 2.673449993134
29.014520645142 -60.928256988525 -34.974994659424 1.732974290848
-36.654190063477 -75.621635437012 -240.230712890625 1.373985052109
23.143720626831 -61.665317535400 -143.963531494141 1.867229938507
40.576164245605 -77.115379333496 -106.865234375000 2.148979663849
-58.708221435547 -76.613388061523 -175.014739990234 1.292507290840
2.211560964584 -72.720565795898 -241.684417724609 1.482087254524
-149.701705932617 -66.579818725586 -298.619659423828 2.449926614761
-47.731201171875 -60.053596496582 -44.880229949951 1.075533986092
2.912656068802 -72.046142578125 -164.277587890625 0.697166025639
-61.542659759521 -70.635673522949 -50.696445465088 1.941278219223
-18.442674636841 -71.544403076172 -64.523849487305 1.848306417465
-159.757705688477 -66.784507751465 -253.409423828125 2.721011638641
96.303237915039 -71.120780944824 -209.016830444336 2.770316600800
12.604317665100 -82.673027038574 -237.601333618164 0.555079221725
108.102607727051 -72.541305541992 -111.752655029297 0.676217794418
23.000852584839 -67.479881286621 -185.288543701172 1.884184241295
-140.436141967773 -77.169769287109 -288.237670898438 1.963172435760
-145.542785644531 -73.300331115723 -221.269577026367 0.799783051014
-146.370269775391 -71.514823913574 -193.713241577148 1.679548621178
-87.380149841309 -66.894920349121 -137.751556396484 1.120295047760
-67.764259338379 -59.221187591553 -115.370262145996 1.119817495346
-148.154602050781 -82.472579956055 -237.270462036133 2.335824728012
-9.550438880920 -66.568435668945 -253.572296142578 2.138341188431
-1.447736978531 -72.467658996582 -241.294845581055 1.155233383179
-144.353713989258 -67.334724426270 -238.420974731445 2.641411542892
-144.148193359375 -79.043754577637 -191.083511352539 3.343553543091
-4.389439105988 -77.110786437988 -248.199356079102 1.252768158913
-50.218242645264 -75.431930541992 -58.264915466309 2.476966381073
-77.977584838867 -73.153144836426 -100.807754516602 1.961321830750
14.280718803406 -83.048652648926 -242.436752319336 3.326412200928
90.507194519043 -67.769836425781 -106.839523315430 0.863814890385
108.592216491699 -72.954483032227 -130.193710327148 1.020952105522
42.270061492920 -60.684074401855 -22.333436965942 1.738484501839
26.062232971191 -71.260406494141 -185.071319580078 2.208148479462
56.077136993408 -70.832740783691 -245.408065795898 1.230154871941
15.770648956299 -70.451675415039 -234.786621093750 2.069857835770
111.572456359863 -76.800827026367 -139.779815673828 1.639426946640
-99.169708251953 -61.207702636719 -93.629791259766 1.068994045258
-155.241333007813 -69.671264648438 -197.352188110352 2.230611085892
-8.124521255493 -67.904609680176 -277.927490234375 1.552326202393
-61.335388183594 -63.655719757080 -117.657356262207 1.625060677528
-5.668251991272 -81.102310180664 -269.699066162109 1.328683853149
-118.067207336426 -72.358955383301 -256.531463623047 1.272958636284
6.433931827545 -73.161537170410 -221.652862548828 1.523097634315
18.168087005615 -73.155113220215 -221.208435058594 1.097467780113
22.694797515869 -76.384658813477 -245.936538696289 1.971653819084
39.337902069092 -68.352584838867 -118.325126647949 1.120649933815
-37.762744903564 -76.047698974609 -287.190765380859 0.912846505642
-87.075157165527 -58.419593811035 -50.502929687500 1.863714814186
18.153356552124 -75.813484191895 -202.064102172852 1.834205389023
93.783294677734 -73.557090759277 -74.317962646484 2.173345327377
31.170612335205 -71.856674194336 -162.663909912109 0.745146572590
18.924966812134 -67.645866394043 -143.727874755859 1.537607073784
32.918949127197 -75.660987854004 -124.868095397949 1.050742030144
4.671624183655 -75.157531738281 -241.658142089844 1.527965307236
-22.124364852905 -75.112159729004 -71.917900085449 2.455094814301
-147.157684326172 -65.407394409180 -229.279434204102 1.881168961525
10.535810470581 -66.896965026855 -153.073562622070 0.372032642365
25.714447021484 -78.373252868652 -144.141830444336 0.903156638145
36.615749359131 -64.542167663574 -253.814544677734 0.942155957222
1.469985961914 -70.806556701660 -225.881332397461 2.333801269531
26.682693481445 -67.072616577148 -32.188011169434 0.875586390495
-25.431365966797 -82.444839477539 -188.619018554688 1.991094589233
-57.312259674072 -75.612777709961 -168.939941406250 0.985320091248
-130.162948608398 -66.209976196289 -265.327667236328 3.626632452011
-31.517536163330 -78.685714721680 -74.250373840332 1.398100137711
113.870735168457 -73.625762939453 -149.760238647461 0.283387750387
-144.595413208008 -70.144958496094 -275.086517333984 1.275588870049
-84.644393920898 -66.054939270020 -133.033157348633 0.444336771965
-147.198623657227 -72.387084960938 -193.821258544922 1.666747212410
-130.344787597656 -63.496513366699 -205.072372436523 1.887788176537
-20.289943695068 -71.441291809082 -208.274093627930 1.736504554749
16.484334945679 -81.754714965820 -262.602478027344 1.635497570038
-39.870151519775 -77.441307067871 -194.895935058594 2.121542215347
-149.842117309570 -79.536293029785 -236.464889526367 2.189792156219
11.133098602295 -70.977767944336 -193.997848510742 1.178870201111
-38.520576477051 -71.064819335938 -289.200042724609 1.789354920387
97.758911132813 -75.605903625488 -203.143188476563 2.102788925171
66.930587768555 -70.525650024414 -239.079299926758 0.947949230671
-25.160636901855 -72.683967590332 -180.307662963867 2.550566911697
18.089904785156 -69.909790039063 -210.988494873047 1.846288323402
42.487987518311 -78.200416564941 -114.808059692383 0.322428375483
-75.868568420410 -62.200386047363 -123.562217712402 1.539533019066
-42.171787261963 -67.701896667480 -153.752975463867 1.884801030159
-63.108528137207 -72.757064819336 -171.729827880859 1.016217708588
-5.645215988159 -63.076972961426 -241.094680786133 2.309095859528
106.833396911621 -72.584991455078 -170.419433593750 2.064286231995
-154.923553466797 -68.223304748535 -287.256011962891 2.851535797119
-65.562095642090 -62.156406402588 -96.565238952637 0.813963949680
-132.085403442383 -71.751884460449 -255.854476928711 2.149356603622
2.099987983704 -62.628032684326 -287.089324951172 1.152578830719
-157.681076049805 -66.657112121582 -241.480224609375 2.345900058746
-133.064559936523 -74.653671264648 -293.136352539063 1.274643421173
35.180343627930 -78.476409912109 -125.513069152832 2.023715972900
86.866950988770 -69.825653076172 -220.303558349609 1.102809190750
33.480075836182 -74.648178100586 -122.643241882324 1.556360125542
-71.173088073730 -69.330986022949 -138.707366943359 0.461127847433
112.839614868164 -73.531188964844 -161.000686645508 1.677700757980
79.898643493652 -74.805664062500 -73.234535217285 2.308925390244
-93.140441894531 -66.395751953125 -138.588638305664 1.114945650101
-75.604034423828 -72.316085815430 -142.518188476563 1.450091838837
-81.108032226563 -72.638793945313 -213.924636840820 1.273452162743
48.943813323975 -67.325065612793 -96.592170715332 2.262917280197
24.790798187256 -77.462455749512 -171.987579345703 0.813254892826
7.401194095612 -81.103507995605 -249.221313476563 0.792252182961
-123.648468017578 -64.521095275879 -263.557067871094 1.834534764290
-52.721481323242 -77.441772460938 -189.639709472656 0.898738920689
-19.993057250977 -68.058555603027 -206.624969482422 0.968467533588
38.988544464111 -75.433052062988 -111.310256958008 2.299484252930
-165.610809326172 -70.414611816406 -233.260955810547 2.427865982056
39.560935974121 -70.405632019043 -13.201711654663 1.346006274223
-100.562561035156 -65.518142700195 -169.223205566406 1.480099439621
-12.950797080994 -72.466606140137 -287.681701660156 1.797872543335
-130.301574707031 -71.055152893066 -255.555343627930 3.183555364609
-144.603805541992 -70.544097900391 -279.770843505859 2.443189144135
-44.316326141357 -77.047302246094 -158.658126831055 1.728994488716
-27.421216964722 -62.026023864746 -49.525367736816 1.879080533981
-68.934478759766 -62.427761077881 -103.228942871094 0.525204777718
-143.495056152344 -60.858428955078 -225.983276367188 0.629610717297
-8.365354537964 -67.197174072266 -233.673492431641 0.580850660801
59.285690307617 -63.738925933838 -82.677093505859 2.063025951385
-53.059921264648 -83.454193115234 -205.649368286133 0.802432715893
-6.244831085205 -81.712959289551 -257.981323242188 0.786824285984
-67.459541320801 -77.479560852051 -64.408447265625 2.059556722641
72.087997436523 -67.844566345215 -103.288963317871 1.628120899200
-4.870885848999 -66.902343750000 -267.782806396484 1.156663894653
-148.020980834961 -60.525051116943 -177.135467529297 2.041997194290
-87.143661499023 -68.486976623535 -256.761627197266 1.444308757782
-96.656562805176 -72.637046813965 -218.037902832031 1.556523084641
-153.030899047852 -75.563110351563 -233.466934204102 1.448908090591
19.669694900513 -73.676460266113 -209.143539428711 2.261719942093
25.750736236572 -63.070121765137 -23.921150207520 0.629842877388
-19.624795913696 -71.984703063965 -287.955810546875 2.915176391602
-8.387528419495 -74.959289550781 -172.790542602539 2.433081150055
-15.065269470215 -73.627655029297 -230.846023559570 2.275797605515
-54.519889831543 -76.455825805664 -187.054016113281 3.222685813904
4.071463108063 -72.894950866699 -157.667007446289 1.656979322433
-81.986274719238 -70.308258056641 -103.474021911621 1.593689203262
-32.891338348389 -69.862121582031 -172.718490600586 1.402756810188
24.608400344849 -65.993103027344 -253.606201171875 1.154105305672
-39.124980926514 -79.379264831543 -72.147308349609 1.683174848557
-50.187919616699 -78.916946411133 -200.943374633789 1.340224862099
-70.712272644043 -67.923095703125 -141.347793579102 0.685547828674
-89.639122009277 -74.380317687988 -289.002655029297 2.670240879059
-76.466560363770 -78.746109008789 -73.450325012207 2.297063589096
-56.872272491455 -65.589035034180 -123.326080322266 1.775011062622
-61.353019714355 -59.897819519043 -134.378067016602 1.943830490112
46.694347381592 -66.658538818359 -107.100601196289 2.052423477173
-1.259305953979 -66.470870971680 -238.740280151367 1.833328127861
-93.024742126465 -72.255470275879 -86.103454589844 1.775193572044
-145.100585937500 -82.820480346680 -259.972656250000 1.784825682640
-49.944549560547 -77.422348022461 -63.741855621338 2.142224788666
-62.184703826904 -63.164657592773 -129.525436401367 1.402074456215
21.319377899170 -78.058296203613 -165.246734619141 2.417627573013
-134.881637573242 -74.412315368652 -291.163604736328 1.316660881042
42.972713470459 -67.912818908691 -30.773612976074 1.408742904663
-136.481903076172 -67.759582519531 -256.767486572266 1.360214471817
-124.727027893066 -63.292480468750 -234.277603149414 2.339955568314
-150.495483398438 -77.007659912109 -250.272583007813 1.906878829002
-148.885559082031 -78.746932983398 -195.097793579102 1.738522410393
-126.133346557617 -70.228813171387 -204.770996093750 2.098526000977
-152.335037231445 -63.476181030273 -181.284454345703 1.229198932648
35.236156463623 -68.422576904297 -126.084556579590 2.262956857681
0.283062994480 -81.999145507813 -251.434799194336 2.450040817261
-28.073665618896 -70.238487243652 -56.173835754395 1.378974437714
19.292221069336 -78.588203430176 -193.878417968750 1.613799810410
10.059583663940 -74.033515930176 -158.160034179688 0.741223394871
-150.254806518555 -65.389930725098 -296.703155517578 1.564512133598
65.380187988281 -68.476531982422 -242.731063842773 0.770339667797
-71.315467834473 -68.597206115723 -138.177642822266 1.174920558929
-65.262382507324 -82.097854614258 -206.958740234375 1.505835294724
-11.099913597107 -78.410903930664 -265.118896484375 1.010885834694
50.595165252686 -71.273056030273 -245.688522338867 0.710352540016
17.618501663208 -80.885566711426 -262.289978027344 0.682349026203
-10.287166595459 -71.602485656738 -208.178253173828 2.190941572189
-39.366107940674 -74.963790893555 -151.999267578125 1.941760897636
-116.591056823730 -66.772033691406 -292.394805908203 1.583608031273
-38.268215179443 -67.990699768066 -160.083267211914 2.977185249329
-38.751110076904 -64.518310546875 -47.690399169922 2.180758476257
-39.431686401367 -61.337673187256 -46.912925720215 2.330721855164
47.211021423340 -69.973464965820 -97.669631958008 1.180723667145
-76.266586303711 -64.270576477051 -104.474403381348 1.720703125000
-145.097396850586 -81.569740295410 -236.944366455078 3.312422752380
-33.456401824951 -71.426536560059 -180.238601684570 2.123360633850
11.579439163208 -79.928619384766 -278.910614013672 1.791172742844
15.798382759094 -69.716407775879 -245.607330322266 1.433438658714
84.815750122070 -70.144081115723 -66.841407775879 1.569167613983
21.126964569092 -71.916481018066 -29.488210678101 1.230261564255
-63.483325958252 -77.645286560059 -95.303123474121 0.978833675385
36.549076080322 -67.607170104980 -255.113952636719 1.300533294678
-15.647684097290 -70.890235900879 -199.020431518555 0.840333461761
-0.650587022305 -68.997970581055 -292.073028564453 0.834621727467
-73.160285949707 -65.201942443848 -138.494338989258 1.490238547325
-135.965820312500 -78.930610656738 -291.297454833984 0.921018779278
71.670867919922 -71.814117431641 -73.523857116699 0.734909594059
111.057510375977 -77.973258972168 -172.658569335938 1.939040064812
-54.519386291504 -62.685516357422 -140.751464843750 2.109848737717
22.105745315552 -67.204757690430 -167.679138183594 0.652855396271
-60.683181762695 -65.400619506836 -133.073974609375 0.909000635147
-142.966293334961 -73.073295593262 -264.292877197266 1.315994620323
-152.815063476563 -68.904098510742 -282.644287109375 0.644477307796
103.978523254395 -72.497955322266 -197.869628906250 0.374216616154
-158.523773193359 -69.446296691895 -283.322082519531 2.705765724182
-136.256454467773 -74.220809936523 -288.706237792969 1.705843567848
-3.975950002670 -66.393211364746 -225.720336914063 1.754697799683
31.907293319702 -78.404266357422 -155.276214599609 1.116476893425
-32.642002105713 -67.798233032227 -171.748886108398 1.040771842003
19.593559265137 -72.818183898926 -244.405242919922 1.365175724030
100.842910766602 -62.228569030762 -68.674514770508 0.975160300732
37.137329101563 -70.122535705566 -135.774856567383 2.282861232758
-119.082550048828 -62.858512878418 -204.209045410156 2.649518728256
-61.044570922852 -71.364990234375 -168.133514404297 1.073991179466
70.493217468262 -74.894493103027 -237.316009521484 2.142280340195
-22.007223129272 -76.393470764160 -186.884521484375 1.782904028893
46.559238433838 -62.113658905029 -18.344711303711 1.406470537186
-142.628326416016 -66.889274597168 -189.159118652344 1.086253404617
34.514366149902 -80.612899780273 -126.274604797363 1.901905059814
-47.937610626221 -64.349395751953 -84.127136230469 1.153214097023
9.809734344482 -71.655761718750 -198.287322998047 0.605753362179
-5.281284809113 -65.252403259277 -254.452529907227 2.728475570679
36.226303100586 -70.428428649902 -41.333431243896 0.430144667625
18.491569519043 -68.936996459961 -182.372268676758 1.513114094734
-20.171438217163 -72.860847473145 -183.556823730469 0.701551914215
-6.561582088470 -69.259254455566 -230.155227661133 1.045593619347
-68.090080261230 -69.794342041016 -159.912368774414 1.301702618599
-6.765289783478 -77.374893188477 -289.014770507813 1.786207199097
21.856708526611 -67.924209594727 -250.092071533203 2.134804487228
-61.597579956055 -60.946556091309 -130.936752319336 1.107921719551
32.175533294678 -73.523582458496 -119.637809753418 0.757832944393
-76.894104003906 -65.280189514160 -130.287841796875 1.003165483475
17.083503723145 -81.191802978516 -247.035812377930 1.476215243340
93.915802001953 -74.319015502930 -76.057205200195 1.891333222389
17.891836166382 -65.256523132324 -285.225067138672 1.387682795525
28.579172134399 -72.221481323242 -165.415817260742 2.412338972092
-84.681785583496 -74.751739501953 -289.672912597656 1.840313553810
23.298685073853 -61.803028106689 -276.473449707031 1.473108410835
-150.810623168945 -79.900306701660 -281.702423095703 0.794447481632
-146.425872802734 -61.324970245361 -244.231002807617 1.600033164024
-38.681583404541 -74.648849487305 -81.021087646484 1.353754281998
-10.265109062195 -67.174705505371 -209.533828735352 2.410847902298
94.480812072754 -77.906570434570 -206.318313598633 1.777126312256
-23.056116104126 -75.326515197754 -223.857971191406 1.010328173637
88.600898742676 -76.874153137207 -219.652862548828 1.760445356369
20.210416793823 -61.561756134033 -142.610305786133 1.582067608833
-15.922488212585 -72.981971740723 -197.316680908203 1.140388965607
-18.214355468750 -71.806388854980 -219.944778442383 2.582134485245
-10.319075584412 -70.425552368164 -208.994583129883 2.606858730316
-67.389877319336 -85.261993408203 -97.755569458008 1.678423881531
18.256120681763 -68.508071899414 -173.742126464844 2.259097099304
13.485890388489 -67.095344543457 -203.841415405273 1.769725918770
-49.399074554443 -80.460830688477 -185.083312988281 1.416261315346
-76.998146057129 -77.833404541016 -102.682510375977 1.609599590302
-68.904228210449 -80.101272583008 -212.706130981445 1.177666664124
18.336849212646 -77.421783447266 -238.149841308594 1.094808459282
101.001556396484 -77.163856506348 -190.950363159180 1.229502201080
-76.402099609375 -69.143936157227 -250.271682739258 1.875440835953
78.538795471191 -73.696372985840 -229.101119995117 1.992987751961
111.824180603027 -69.564247131348 -112.022872924805 1.603294372559
6.951796054840 -70.372093200684 -234.043121337891 0.689820289612
23.764194488525 -78.802932739258 -155.725875854492 2.101002216339
-3.648114919662 -69.110588073730 -237.097183227539 0.664470791817
40.552562713623 -69.867332458496 -104.780639648438 1.244764447212
33.648315429688 -77.834945678711 -149.675582885742 1.224337458611
-32.073158264160 -60.514839172363 -72.334068298340 1.461145281792
-161.076736450195 -66.906799316406 -257.140655517578 3.502334117889
-149.804840087891 -61.361282348633 -243.780395507813 2.589433908463
14.376195907593 -68.126419067383 -213.175750732422 1.494753718376
-98.025909423828 -63.682567596436 -163.128677368164 2.050225496292
