-26.683624267578 -63.867942810059 -70.386520385742 1.615428328514
36.657150268555 -75.637626647949 -113.147048950195 1.840752720833
-82.417381286621 -60.707637786865 -48.132171630859 0.826420843601
-147.392059326172 -83.270332336426 -237.065948486328 1.483901858330
94.388282775879 -73.117294311523 -211.317245483398 1.016984224319
-167.504852294922 -68.509422302246 -265.597656250000 1.771060466766
80.214797973633 -77.027053833008 -78.253143310547 1.759260416031
-151.374649047852 -82.970230102539 -259.190979003906 1.699476361275
-47.187103271484 -80.507446289063 -243.788711547852 1.277126550674
11.605374336243 -69.325782775879 -217.344924926758 2.494790315628
-146.928268432617 -75.676818847656 -187.260009765625 1.040923714638
-19.795101165771 -78.711051940918 -223.468475341797 1.157099366188
2.134363889694 -85.771163940430 -255.613449096680 1.775942444801
5.908463001251 -78.934471130371 -218.046463012695 2.537098884583
-8.215334892273 -82.530830383301 -268.654235839844 2.303862094879
-58.660579681396 -75.408401489258 -57.732761383057 2.095911264420
-0.163466006517 -61.907550811768 -251.504455566406 1.602544069290
-153.956329345703 -76.548377990723 -283.870880126953 2.118910789490
6.836315155029 -75.319259643555 -160.465499877930 2.657448053360
-13.209973335266 -80.094070434570 -216.473159790039 2.588287591934
-36.318073272705 -78.549903869629 -161.757217407227 1.334332227707
86.208732604980 -78.022064208984 -221.223632812500 1.870920777321
24.546405792236 -80.269966125488 -169.232513427734 2.727062702179
57.205032348633 -74.358901977539 -241.183547973633 2.642856121063
-151.151535034180 -76.997451782227 -206.442596435547 2.136167049408
-72.695144653320 -85.667945861816 -94.282951354980 1.488459229469
-91.212837219238 -77.549499511719 -105.047431945801 0.631789147854
-107.181907653809 -71.780937194824 -223.634353637695 0.612529575825
-67.485023498535 -76.451744079590 -167.415039062500 1.802917838097
-151.921859741211 -77.577850341797 -250.261642456055 2.656833171844
17.016222000122 -78.226387023926 -251.535980224609 1.121876597404
-94.973442077637 -72.135353088379 -221.512512207031 0.317060261965
108.194511413574 -71.516059875488 -133.039215087891 0.984434545040
4.535168170929 -76.315826416016 -239.519363403320 0.958894848824
-151.605911254883 -66.322006225586 -304.208953857422 2.945960283279
-157.285705566406 -65.729370117188 -291.045623779297 1.337231278419
58.781490325928 -73.031547546387 -90.721557617188 2.276843547821
11.969417572021 -76.857086181641 -283.227081298828 2.809958934784
87.846939086914 -71.547523498535 -217.226348876953 1.815740346909
-43.459899902344 -81.652099609375 -78.413398742676 2.005495309830
-94.266891479492 -73.803062438965 -105.639312744141 1.754183888435
81.954490661621 -73.791595458984 -222.752944946289 0.898604214191
-67.112480163574 -82.874710083008 -80.991729736328 2.312211513519
-67.304222106934 -79.460540771484 -99.895324707031 2.665843963623
-58.821453094482 -69.809997558594 -140.641555786133 1.139033794403
76.923072814941 -71.139450073242 -231.381683349609 1.235208630562
-93.589836120605 -72.004119873047 -252.866500854492 0.621501684189
-11.512907981873 -80.108787536621 -210.455734252930 1.554994344711
51.553508758545 -76.729354858398 -104.050827026367 1.102694153786
21.063676834106 -80.035835266113 -179.843276977539 2.267539501190
-135.833923339844 -67.178016662598 -256.676757812500 0.547441482544
40.039535522461 -74.082313537598 -103.122146606445 1.510605096817
44.595043182373 -71.337753295898 -96.061386108398 1.146661043167
-118.978057861328 -69.927131652832 -293.016296386719 1.969742059708
-66.723114013672 -71.111801147461 -288.005401611328 1.946971178055
101.729499816895 -68.978431701660 -97.758956909180 1.164608359337
-102.411903381348 -70.348678588867 -219.392700195313 1.623048782349
-167.261108398438 -68.898979187012 -277.224975585938 2.301903724670
-42.438835144043 -69.953338623047 -150.772659301758 2.167129755020
-84.380302429199 -76.131149291992 -288.484985351563 2.660373210907
-83.228996276855 -60.925010681152 -116.591506958008 2.009920597076
-150.705596923828 -72.206115722656 -213.859573364258 1.291362524033
6.713942050934 -64.336097717285 -243.117233276367 2.770208597183
-146.912902832031 -64.542793273926 -222.441772460938 1.647242903709
-152.336868286133 -81.358085632324 -265.625396728516 2.452868461609
-148.048828125000 -65.057891845703 -290.209167480469 0.773042857647
-93.844787597656 -60.779407501221 -58.685626983643 1.276220560074
-164.333099365234 -73.065956115723 -256.619445800781 2.517505407333
-120.908042907715 -71.974357604980 -255.923568725586 3.048650741577
-113.219924926758 -67.639610290527 -232.499969482422 2.077247858047
-99.348617553711 -57.675689697266 -67.766883850098 1.744190931320
-146.463958740234 -72.571731567383 -277.719329833984 1.648905277252
-64.296630859375 -75.646835327148 -157.958923339844 1.528676033020
107.136718750000 -71.889579772949 -99.557357788086 2.281537294388
-16.173105239868 -73.037330627441 -262.820861816406 1.676239728928
-67.442665100098 -61.778327941895 -113.108879089355 1.604794502258
-58.898208618164 -83.358642578125 -80.652114868164 1.880991220474
27.617694854736 -78.936233520508 -132.421295166016 3.290459394455
-107.938758850098 -64.878852844238 -168.112304687500 2.132654190063
-69.778884887695 -59.627605438232 -121.191719055176 2.684206724167
-88.083938598633 -72.003761291504 -256.472473144531 0.970180869102
-146.513427734375 -72.606086730957 -208.558578491211 2.147675752640
-12.837181091309 -74.538192749023 -224.880905151367 1.292114019394
42.133937835693 -65.751907348633 -14.915191650391 2.048251867294
-8.012152671814 -81.276313781738 -171.384002685547 1.580013632774
-126.739807128906 -61.212108612061 -199.821380615234 1.736296176910
-2.620455980301 -78.302093505859 -231.626922607422 0.903020799160
-97.575996398926 -64.729591369629 -119.479736328125 1.262671470642
16.828119277954 -77.241409301758 -224.355606079102 2.113037586212
-159.311355590820 -67.381683349609 -218.893508911133 1.970266103745
-70.615875244141 -71.488220214844 -248.141586303711 2.254002094269
11.148168563843 -84.193504333496 -243.311065673828 2.678805351257
-85.502532958984 -66.148780822754 -131.557235717773 1.540871024132
-55.763236999512 -63.979652404785 -142.132308959961 1.011481165886
64.306427001953 -72.345024108887 -237.681961059570 1.358247756958
-164.343338012695 -72.604354858398 -238.294204711914 1.006424069405
-43.307010650635 -81.171531677246 -199.553802490234 0.169025063515
-74.775596618652 -81.970176696777 -211.457046508789 0.402248114347
-75.512680053711 -72.439697265625 -150.284347534180 1.617618441582
-20.232490539551 -80.312477111816 -195.614883422852 1.257608056068
12.580073356628 -81.320190429688 -213.362182617188 2.038385152817
104.699241638184 -68.917762756348 -111.073699951172 1.547457456589
-33.627914428711 -70.459434509277 -175.196151733398 1.725612640381
42.241233825684 -76.860603332520 -119.574851989746 1.264430761337
-0.976504027843 -78.156768798828 -222.124984741211 1.416584849358
-162.086837768555 -72.778541564941 -238.056686401367 1.823496460915
27.432094573975 -64.352638244629 -40.491344451904 2.146695613861
-23.537847518921 -77.179656982422 -186.399047851563 0.887517213821
112.700073242188 -77.033630371094 -168.575836181641 1.189923644066
-14.365187644958 -80.118850708008 -204.984725952148 2.287075519562
61.225811004639 -72.752227783203 -240.063568115234 1.843495965004
82.286300659180 -76.846786499023 -218.006195068359 3.372906208038
-153.383392333984 -77.831443786621 -311.481903076172 1.034373879433
-131.245468139648 -71.889968872070 -225.951858520508 1.758176565170
48.476329803467 -65.576156616211 -92.324363708496 1.190080165863
-21.534406661987 -73.658943176270 -67.571731567383 2.092709779739
80.129028320313 -71.949844360352 -221.196075439453 2.401502847672
-64.641761779785 -77.532608032227 -249.806182861328 0.575470149517
-151.150772094727 -66.281112670898 -303.631378173828 2.665694952011
29.005168914795 -72.711738586426 -132.739624023438 1.006726861000
31.494562149048 -75.677421569824 -149.044677734375 1.867600679398
53.768939971924 -73.940597534180 -95.922325134277 1.987226366997
19.602106094360 -64.970062255859 -147.813446044922 1.737815856934
48.046409606934 -72.609161376953 -112.365745544434 1.275775194168
-42.446071624756 -74.739334106445 -58.113643646240 1.788385868073
30.681241989136 -78.373664855957 -146.721664428711 1.973240256310
-32.130706787109 -74.912200927734 -207.203475952148 1.687252044678
-148.459945678711 -59.257049560547 -205.845077514648 1.196178317070
-11.756924629211 -72.370086669922 -208.325347900391 2.919976949692
10.696542739868 -70.563575744629 -228.325271606445 1.632674336433
-88.312995910645 -73.085815429688 -218.507324218750 0.676549136639
-31.084188461304 -68.548027038574 -176.914642333984 3.084684610367
-78.698188781738 -83.499771118164 -91.969139099121 1.962416768074
-4.814085006714 -76.892730712891 -285.114318847656 2.330438375473
112.290061950684 -71.269874572754 -160.639251708984 2.057638883591
-102.871940612793 -74.645843505859 -288.281768798828 0.929464578629
-65.270828247070 -63.036514282227 -115.602905273438 2.169689893723
-155.162033081055 -73.308006286621 -199.832153320313 2.185863256454
82.649696350098 -78.072441101074 -88.796188354492 0.996017873287
-86.039543151855 -65.897033691406 -133.207061767578 1.683451890945
-8.241321563721 -79.049064636230 -212.554153442383 2.296257734299
-69.300941467285 -59.208118438721 -96.340568542480 0.385996848345
28.347709655762 -70.938163757324 -164.692703247070 2.823243141174
101.548286437988 -78.234878540039 -186.351745605469 3.385611534119
-26.242650985718 -68.778526306152 -194.958297729492 1.281763911247
-104.813690185547 -70.895774841309 -220.920776367188 1.370714426041
-148.617523193359 -67.648353576660 -260.520324707031 1.019367218018
-14.083412170410 -67.015312194824 -62.950260162354 2.314012050629
-154.601943969727 -62.600391387939 -260.402160644531 1.292390584946
67.932403564453 -74.103523254395 -231.682708740234 3.337080240250
-30.544082641602 -78.142677307129 -190.182952880859 1.793643474579
-29.734033584595 -78.127243041992 -186.187774658203 1.130833983421
-161.546340942383 -70.066261291504 -281.078887939453 1.094977140427
-62.874309539795 -77.888412475586 -65.349372863770 3.184982776642
40.675590515137 -71.945648193359 -119.061706542969 2.445167541504
39.911952972412 -62.578453063965 -34.137054443359 1.765765428543
-81.228172302246 -72.755424499512 -249.436203002930 0.689360022545
27.494701385498 -68.763908386230 -154.105239868164 1.387270092964
-37.149951934814 -75.371269226074 -80.729949951172 1.097155809402
100.329139709473 -70.311653137207 -97.545661926270 1.018612623215
-149.656677246094 -60.407417297363 -225.290588378906 1.620243430138
-42.974529266357 -70.493965148926 -169.565902709961 1.921038150787
-150.663818359375 -60.744613647461 -236.107864379883 1.376476526260
-40.706394195557 -74.416915893555 -171.464523315430 1.353234052658
-86.714874267578 -68.483932495117 -132.142105102539 1.420100331306
100.202262878418 -66.165824890137 -72.766494750977 1.980868339539
2.790184974670 -77.041748046875 -239.511535644531 1.222428083420
5.775496006012 -63.478618621826 -241.943939208984 2.219725847244
-25.218580245972 -76.428596496582 -177.946578979492 1.993581891060
-38.581512451172 -67.061187744141 -49.636920928955 2.536375284195
13.171381950378 -84.254936218262 -263.526336669922 1.978298783302
-95.570892333984 -67.605857849121 -145.555053710938 1.794168591499
-149.589340209961 -76.152046203613 -198.692260742188 1.568298578262
-81.784492492676 -67.976715087891 -132.191177368164 1.366532087326
24.238029479980 -75.550109863281 -146.376937866211 1.211955904961
29.819898605347 -73.857116699219 -155.695098876953 2.247115612030
-146.815536499023 -73.473777770996 -216.180740356445 1.781638145447
92.000686645508 -73.962196350098 -203.465591430664 2.487269163132
-163.174606323242 -66.039207458496 -225.599166870117 1.861050128937
-150.070816040039 -76.946319580078 -230.756210327148 2.197891950607
40.940105438232 -77.846107482910 -105.352020263672 1.301295757294
-104.979652404785 -69.818214416504 -292.350769042969 2.719878673553
10.014349937439 -76.412857055664 -285.801422119141 2.549205541611
2.746606111526 -84.329223632813 -275.924621582031 2.266829490662
-150.827438354492 -75.360687255859 -219.457458496094 3.138607740402
-79.597160339355 -64.310317993164 -102.426002502441 1.889069557190
-25.609954833984 -74.016464233398 -239.377563476563 1.638253569603
99.909835815430 -76.291641235352 -198.478820800781 2.131086111069
-6.956361770630 -66.314323425293 -253.363159179688 0.839472651482
-77.080490112305 -66.908882141113 -125.286811828613 1.005217313766
-148.573699951172 -68.979087829590 -176.001449584961 2.030258893967
28.618070602417 -80.404563903809 -134.639190673828 2.914210557938
-71.525367736816 -67.736473083496 -144.002700805664 2.000387191772
2.616202116013 -78.932144165039 -231.455184936523 1.142489671707
22.596803665161 -75.693801879883 -153.684753417969 1.591736197472
83.831947326660 -66.523124694824 -62.884757995605 1.632722735405
-33.829742431641 -80.304542541504 -174.753646850586 1.094971299171
-148.642608642578 -84.112670898438 -290.509613037109 1.247952938080
-48.846397399902 -66.826873779297 -138.213317871094 2.418309450150
-27.634223937988 -69.163742065430 -193.326644897461 2.424940347672
6.048093795776 -85.208145141602 -253.552764892578 0.957205414772
18.454891204834 -76.621932983398 -235.888717651367 0.969224095345
-167.604751586914 -69.798576354980 -223.859451293945 1.956547737122
-26.592872619629 -70.405052185059 -190.115356445313 1.086599469185
-164.797363281250 -72.017417907715 -232.826538085938 1.450532793999
12.981389999390 -73.133697509766 -224.679306030273 2.478268623352
-155.337249755859 -83.784355163574 -289.648986816406 1.087227940559
48.633350372314 -68.172737121582 -252.447341918945 1.148982405663
7.189585208893 -71.469078063965 -242.912307739258 0.303848236799
69.428298950195 -71.686714172363 -230.856307983398 1.948209047318
-146.955368041992 -63.278526306152 -219.779235839844 1.160101652145
88.870925903320 -61.140132904053 -60.541240692139 2.068517446518
-8.664439201355 -81.655586242676 -270.268280029297 3.355523109436
-22.080465316772 -68.173950195313 -57.461662292480 1.632618188858
-4.958788871765 -67.654609680176 -289.200103759766 2.174123764038
22.491918563843 -68.101074218750 -161.043167114258 1.127619028091
-58.630512237549 -65.362312316895 -142.514495849609 2.098593711853
40.913974761963 -66.661209106445 -250.724609375000 1.677973508835
-48.956817626953 -82.503356933594 -84.015724182129 2.222939968109
30.699691772461 -68.923225402832 -140.502212524414 1.451645135880
-118.281242370605 -64.295959472656 -198.427459716797 2.453979730606
-154.648574829102 -76.415283203125 -304.125457763672 2.150382280350
69.927017211914 -71.369819641113 -230.738693237305 1.871270418167
23.663581848145 -71.777610778809 -178.012985229492 2.604206800461
-96.814323425293 -58.572708129883 -61.559501647949 1.874389886856
-151.711425781250 -63.629817962646 -247.754791259766 2.300865411758
-163.739379882813 -72.976951599121 -255.068908691406 1.329760313034
-144.654861450195 -73.565704345703 -293.627258300781 1.716913223267
113.277038574219 -77.613845825195 -138.508956909180 2.248454093933
-16.201202392578 -80.407966613770 -204.467895507813 1.709264636040
37.110412597656 -61.244850158691 -126.247421264648 1.766352534294
-88.909667968750 -65.809143066406 -139.393310546875 1.702471971512
29.244073867798 -63.835269927979 -35.823188781738 2.509230852127
11.932637214661 -71.411712646484 -214.308151245117 1.125957250595
-100.462448120117 -63.512275695801 -151.044189453125 2.301491498947
-39.704551696777 -75.362953186035 -241.390045166016 2.037684679031
-135.337127685547 -67.337959289551 -264.057556152344 1.257549881935
15.941324234009 -79.447433471680 -219.322982788086 1.994601607323
104.491348266602 -72.750122070313 -177.547485351563 0.768890380859
3.482871055603 -62.358596801758 -256.995819091797 1.978471517563
41.829353332520 -77.684593200684 -125.073303222656 1.178712368011
-17.822406768799 -75.116668701172 -191.456146240234 1.980749487877
-167.505340576172 -67.301673889160 -209.097824096680 2.147724151611
-70.606803894043 -64.594871520996 -102.108894348145 2.120306253433
13.703213691711 -70.873680114746 -286.611511230469 0.925574958324
-21.001491546631 -76.451438903809 -237.720779418945 1.859456896782
21.137498855591 -76.352188110352 -188.523986816406 1.282870054245
-34.453556060791 -74.540580749512 -205.660522460938 1.265243053436
50.417552947998 -67.276542663574 -100.234123229980 1.090480923653
-75.287994384766 -76.069137573242 -252.011734008789 1.113912820816
3.170111894608 -67.579330444336 -230.519760131836 1.318154335022
-42.555206298828 -79.869537353516 -163.449920654297 1.251793742180
-30.632257461548 -74.981613159180 -168.025863647461 1.499681711197
62.186286926270 -71.710777282715 -236.209014892578 1.798502445221
-56.319889068604 -72.781135559082 -139.575683593750 1.912423849106
-123.233543395996 -63.433422088623 -201.565475463867 1.171890020370
-119.485671997070 -71.820533752441 -228.893203735352 3.821800947189
-40.853404998779 -74.815711975098 -155.107040405273 2.353753566742
10.084250450134 -62.598278045654 -243.476348876953 1.253194689751
-35.378875732422 -71.786598205566 -77.591911315918 1.092652916908
-44.932903289795 -74.755187988281 -57.500137329102 2.987442016602
-10.074236869812 -74.474815368652 -235.094345092773 2.405631780624
11.497056961060 -69.277709960938 -193.701904296875 0.602484405041
-144.870574951172 -64.531921386719 -235.214721679688 1.839885830879
93.524620056152 -75.857658386230 -209.480346679688 1.188752770424
-34.017627716064 -65.654129028320 -49.699882507324 2.706313371658
-24.716651916504 -75.829338073730 -72.741806030273 1.943005442619
45.864795684814 -70.945701599121 -249.920455932617 0.926097571850
-144.241882324219 -84.805603027344 -287.829071044922 1.576754212379
28.090190887451 -60.780567169189 -35.122741699219 1.884161591530
-38.219791412354 -76.836822509766 -240.069931030273 1.656230449677
21.902015686035 -62.338375091553 -144.085067749023 2.907845973969
39.390251159668 -77.560035705566 -106.918685913086 1.777275800705
-60.088397979736 -77.252037048340 -174.785339355469 1.596057057381
0.650976002216 -74.076835632324 -241.657318115234 1.393526315689
-151.404907226563 -67.868087768555 -298.202880859375 1.790594577789
-48.680458068848 -59.726062774658 -44.814556121826 1.626273870468
1.578017950058 -72.807914733887 -164.260330200195 1.709624409676
-62.543682098389 -70.306488037109 -50.509311676025 1.679505825043
-19.487121582031 -71.465713500977 -64.452690124512 2.715139150620
-161.330810546875 -67.690589904785 -252.963790893555 2.623391151428
94.841392517090 -72.539382934570 -209.272705078125 1.498500347137
11.022415161133 -84.032157897949 -237.527313232422 1.955040335655
106.917045593262 -73.249282836914 -112.034683227539 1.329755425453
21.620426177979 -68.470901489258 -185.363372802734 0.550534427166
-142.144546508789 -78.408538818359 -287.766021728516 0.953214704990
-147.044754028320 -74.005821228027 -220.815460205078 1.687213301659
-147.786666870117 -72.005134582520 -193.271469116211 1.128043651581
-88.620101928711 -67.150856018066 -137.516326904297 2.135432243347
-68.914276123047 -59.370319366455 -115.251228332520 1.070402860641
-149.733215332031 -83.292396545410 -236.737503051758 2.376958847046
-11.124854087830 -67.977317810059 -253.558593750000 2.414917469025
-3.006319046021 -73.808715820313 -241.259231567383 0.963907837868
-145.885482788086 -68.176643371582 -238.015731811523 2.613315820694
-145.581985473633 -79.520942687988 -190.590072631836 3.488641977310
-5.983345985413 -78.495094299316 -248.119232177734 1.011516928673
-51.257164001465 -75.198745727539 -58.072933197021 2.115884780884
-79.131614685059 -73.155395507813 -100.552406311035 1.421006560326
12.683577537537 -84.450653076172 -242.364471435547 3.827846050262
89.351837158203 -68.381347656250 -107.108146667480 1.650596857071
107.351974487305 -73.806274414063 -130.473327636719 1.992804408073
41.382938385010 -60.483177185059 -22.521467208862 2.383645534515
24.669862747192 -72.259841918945 -185.125747680664 1.988522887230
54.511493682861 -72.397651672363 -245.549713134766 2.554757833481
14.237383842468 -71.800117492676 -234.816116333008 1.305456042290
110.291725158691 -77.736351013184 -140.037933349609 2.707769632339
-100.263153076172 -61.084266662598 -93.406204223633 0.944595217705
-156.662048339844 -70.160079956055 -196.899108886719 1.675367355347
-9.773774147034 -69.506004333496 -277.906738281250 1.293604612350
-62.506786346436 -63.843795776367 -117.522430419922 1.627440690994
-7.337522029877 -82.647979736328 -269.583709716797 2.407784938812
-119.668258666992 -73.428108215332 -256.162109375000 1.802518248558
4.929735183716 -74.377426147461 -221.635131835938 0.912103176117
16.665073394775 -74.406761169434 -221.224380493164 1.650373935699
21.109558105469 -77.841979980469 -245.939682006836 1.158112645149
38.147945404053 -68.881782531738 -118.442291259766 1.092420697212
-39.465473175049 -77.621261596680 -287.021911621094 2.015861988068
-88.034835815430 -58.004104614258 -50.336978912354 1.939973592758
16.696855545044 -76.917373657227 -202.060134887695 1.705545306206
92.702697753906 -73.928573608398 -74.552398681641 1.273430585861
29.840972900391 -72.700363159180 -162.729125976563 0.916036903858
17.664150238037 -68.302810668945 -143.791152954102 0.637328386307
31.685909271240 -76.218948364258 -124.910224914551 1.251096129417
3.103007078171 -76.521728515625 -241.619277954102 1.516943454742
-23.201978683472 -75.078063964844 -71.808395385742 2.185307025909
-148.656616210938 -66.169532775879 -228.881347656250 1.688547492027
9.250552177429 -67.597984313965 -153.118286132813 1.180690050125
24.416782379150 -79.055671691895 -144.141723632813 1.379747390747
35.046875000000 -66.107139587402 -253.948715209961 2.031485319138
-0.038570001721 -72.038566589355 -225.867416381836 2.172136306763
25.746063232422 -66.895431518555 -32.281738281250 1.786021351814
-26.870550155640 -83.299293518066 -188.439468383789 2.800915718079
-58.671577453613 -76.209289550781 -168.722473144531 1.626255989075
-131.768890380859 -67.306785583496 -264.970855712891 1.903403997421
-32.613647460938 -78.638114929199 -74.086296081543 1.864640951157
112.571662902832 -74.646026611328 -150.049118041992 1.665284991264
-146.242462158203 -71.268692016602 -274.657623291016 1.001962184906
-85.867950439453 -66.283653259277 -132.812408447266 1.385835528374
-148.618209838867 -72.875427246094 -193.370376586914 0.994375586510
-131.767593383789 -64.128204345703 -204.738021850586 1.186503410339
-21.749490737915 -72.464859008789 -208.193557739258 1.807327389717
14.833180427551 -83.319610595703 -262.545806884766 1.356176018715
-41.310733795166 -78.296127319336 -194.713439941406 1.180428266525
-151.408645629883 -80.344367980957 -235.949798583984 2.646492958069
9.716021537781 -71.996192932129 -194.011383056641 1.136134505272
-40.212574005127 -72.651527404785 -289.067443847656 1.463157057762
96.299156188965 -76.983917236328 -203.368820190430 1.422045469284
65.384132385254 -72.078010559082 -239.254623413086 0.478590279818
-26.543428421021 -73.475585937500 -180.204513549805 2.421623706818
16.627193450928 -71.082496643066 -211.029617309570 2.547953367233
41.275497436523 -78.712669372559 -114.858337402344 1.127083301544
-77.052062988281 -62.385517120361 -123.396690368652 1.834194421768
-43.461132049561 -68.232131958008 -153.640472412109 1.375504732132
-64.466377258301 -73.355827331543 -171.517715454102 1.813921332359
-7.172029018402 -64.402801513672 -241.119552612305 0.789939761162
105.478141784668 -73.741096496582 -170.695495605469 1.317811727524
-156.599304199219 -69.406455993652 -286.811981201172 1.845959305763
-66.667518615723 -62.167785644531 -96.430496215820 1.862861037254
-133.682327270508 -72.769035339355 -255.449691772461 1.317698240280
0.441650986671 -64.334396362305 -287.138275146484 2.599232435226
-159.219299316406 -67.478149414063 -241.041946411133 1.545265316963
-134.778854370117 -75.954917907715 -292.705078125000 0.942403316498
33.936077117920 -79.046791076660 -125.539924621582 2.256370782852
85.376884460449 -71.299827575684 -220.542022705078 1.123131990433
32.256820678711 -75.190887451172 -122.694877624512 2.309961318970
-72.424049377441 -69.648315429688 -138.499725341797 1.511746644974
111.508377075195 -74.634681701660 -161.286956787109 0.852421283722
78.817176818848 -75.122390747070 -73.419593811035 1.734703898430
-94.381095886230 -66.638923645020 -138.340744018555 0.826390624046
-76.875862121582 -72.647903442383 -142.274688720703 1.578400850296
-82.587249755859 -73.502815246582 -213.660446166992 0.561822056770
47.819980621338 -67.718803405762 -96.745521545410 1.647474646568
23.415685653687 -78.356536865234 -171.990921020508 1.167329668999
5.790966987610 -82.534919738770 -249.144104003906 1.503670454025
-125.243766784668 -65.626068115234 -263.231994628906 0.654562890530
-54.146736145020 -78.213150024414 -189.420578002930 1.986463308334
-21.436622619629 -69.070518493652 -206.571456909180 1.546611189842
37.795383453369 -75.906738281250 -111.371994018555 1.817431449890
-167.137649536133 -71.145652770996 -232.771224975586 2.322378396988
38.667991638184 -70.124923706055 -13.307238578796 1.506641626358
-101.888763427734 -65.972778320313 -168.959777832031 1.518676280975
-14.643321990967 -74.126930236816 -287.611572265625 2.016470193863
-131.895355224609 -72.075981140137 -255.161041259766 1.946470975876
-146.265716552734 -71.703910827637 -279.338684082031 2.767838001251
-45.650817871094 -77.607872009277 -158.467163085938 1.052980899811
-28.390653610229 -61.802051544189 -49.502483367920 1.328449487686
-70.060028076172 -62.479251861572 -103.082214355469 0.898607194424
-144.969406127930 -61.607547760010 -225.630920410156 1.202686548233
-9.884358406067 -68.456550598145 -233.659011840820 1.586709499359
58.213855743408 -64.060028076172 -82.888229370117 2.024752378464
-54.551387786865 -84.347671508789 -205.382308959961 0.646799147129
-7.882255077362 -83.166336059570 -257.860015869141 1.894029140472
-68.522827148438 -77.236106872559 -64.151062011719 1.586168527603
70.942840576172 -68.367202758789 -103.504371643066 1.694241404533
-6.487527847290 -68.436416625977 -267.779449462891 1.679559230804
-149.352996826172 -60.882415771484 -176.774383544922 1.426465153694
-88.732849121094 -69.661300659180 -256.510742187500 1.023126959801
-98.147499084473 -73.480873107910 -217.729034423828 1.098528742790
-154.575546264648 -76.337562561035 -232.973480224609 2.631340265274
18.199804306030 -74.840080261230 -209.160186767578 1.326528310776
24.851284027100 -62.826221466064 -24.043388366699 1.462077975273
-21.316444396973 -73.624877929688 -287.870269775391 2.683061838150
-9.756314277649 -75.748870849609 -172.718139648438 1.589158415794
-16.597358703613 -74.842628479004 -230.762802124023 2.253101348877
-55.934383392334 -77.201301574707 -186.837417602539 3.731272459030
2.753103017807 -73.609588623047 -157.646743774414 1.179161667824
-83.138534545898 -70.317779541016 -103.229064941406 1.782916545868
-34.242755889893 -70.569511413574 -172.615264892578 0.313399285078
23.035440444946 -67.516319274902 -253.694793701172 1.268321037292
-40.217235565186 -79.290023803711 -71.956153869629 1.570710778236
-51.650764465332 -79.783897399902 -200.719726562500 0.711635947227
-71.966201782227 -68.262382507324 -141.152252197266 0.894820034504
-91.341018676758 -75.794700622559 -288.698028564453 2.057255029678
-77.560089111328 -78.542251586914 -73.157051086426 1.776926279068
-58.066516876221 -65.835655212402 -123.188812255859 0.947418928146
-62.560283660889 -60.214900970459 -134.271530151367 1.981127977371
45.542373657227 -67.125816345215 -107.252296447754 1.742149114609
-2.790617942810 -67.793075561523 -238.751586914063 0.212264567614
-94.133140563965 -72.094123840332 -85.812438964844 2.348813533783
-146.745986938477 -83.825538635254 -259.444976806641 0.667380690575
-51.005905151367 -77.232238769531 -63.535106658936 1.853006601334
-63.388771057129 -63.441425323486 -129.391464233398 1.742577910423
19.961807250977 -78.888786315918 -165.235763549805 3.115772962570
-136.589416503906 -75.692298889160 -290.729064941406 1.042267084122
42.037216186523 -67.779083251953 -30.907562255859 1.802518606186
-138.068191528320 -68.769241333008 -256.380889892578 3.219698429108
-126.233612060547 -64.168128967285 -233.959930419922 0.970564961433
-152.093521118164 -77.920112609863 -249.774673461914 2.594653844833
-150.329925537109 -79.239265441895 -194.592941284180 1.302284240723
-127.577651977539 -70.872009277344 -204.396743774414 1.679124474525
-153.688796997070 -63.851024627686 -180.888076782227 2.557699441910
34.023586273193 -68.997909545898 -126.189163208008 1.767663598061
-1.336457014084 -83.423828125000 -251.330215454102 1.569609999657
-29.089550018311 -70.063308715820 -56.085453033447 1.704702973366
17.850162506104 -79.632675170898 -193.856567382813 3.307816267014
8.735960006714 -74.771911621094 -158.148117065430 1.120219111443
-151.948501586914 -66.661621093750 -296.294036865234 1.963481426239
63.830001831055 -70.051940917969 -242.917633056641 1.848210215569
-72.562461853027 -68.910011291504 -137.975280761719 2.049917697906
-66.753013610840 -82.960739135742 -206.667160034180 0.353959172964
-12.746964454651 -79.903221130371 -265.008941650391 1.888271808624
49.027305603027 -72.821807861328 -245.811065673828 2.357513904572
15.971120834351 -82.451873779297 -262.243255615234 2.118184566498
-11.747076034546 -72.658706665039 -208.125122070313 2.822523117065
-40.674495697021 -75.489616394043 -151.838806152344 1.802195906639
-118.277236938477 -68.122848510742 -292.071594238281 1.126912593842
-39.576854705811 -68.582771301270 -159.979507446289 2.253337621689
-39.723392486572 -64.242271423340 -47.615882873535 3.079292058945
-40.391166687012 -61.053478240967 -46.861042022705 2.585786342621
46.075305938721 -70.369628906250 -97.797531127930 1.333979725838
-77.401771545410 -64.307121276855 -104.292411804199 1.924521207809
-146.672103881836 -82.397285461426 -236.427139282227 2.541477441788
-34.834735870361 -72.189971923828 -180.121414184570 1.318448543549
9.887258529663 -81.602951049805 -278.853424072266 1.401047348976
14.236282348633 -71.148399353027 -245.642211914063 1.666219592094
83.768173217773 -70.428092956543 -67.076766967773 2.449176788330
20.182128906250 -71.699760437012 -29.528717041016 0.721021413803
-64.636497497559 -77.653320312500 -95.054801940918 0.922320306301
34.966278076172 -69.181831359863 -255.224227905273 1.827248096466
-17.078706741333 -71.857971191406 -198.957748413086 1.411522746086
-2.344427108765 -70.733345031738 -292.064758300781 1.717583179474
-74.396919250488 -65.511146545410 -138.312896728516 1.163519501686
-137.688964843750 -80.207839965820 -290.824920654297 1.035779118538
70.598579406738 -72.105705261230 -73.708435058594 1.821165919304
109.677871704102 -79.160530090332 -172.905059814453 2.223414421082
-55.754383087158 -63.074459075928 -140.642776489258 2.174868345261
20.777133941650 -68.057014465332 -167.754135131836 1.324898958206
-61.904933929443 -65.709686279297 -132.926925659180 1.276233315468
-144.591888427734 -74.119140625000 -263.846435546875 0.917949497700
-154.479751586914 -70.058700561523 -282.201202392578 1.903364658356
102.544250488281 -73.856185913086 -198.137237548828 1.749262452126
-160.192169189453 -70.587043762207 -282.858428955078 1.330065250397
-137.956466674805 -75.477264404297 -288.269317626953 2.405651092529
-5.469346046448 -67.605957031250 -225.724899291992 1.184276461601
30.577281951904 -79.193222045898 -155.293243408203 1.488691210747
-33.983776092529 -68.499053955078 -171.662322998047 1.937222123146
18.024606704712 -74.253463745117 -244.427078247070 2.021917104721
99.816123962402 -62.580509185791 -69.016822814941 1.822426319122
35.891090393066 -70.778877258301 -135.871459960938 0.956669569016
-120.500862121582 -63.521179199219 -203.911911010742 2.409297704697
-62.387428283691 -71.942970275879 -167.938186645508 1.301823973656
68.937339782715 -76.444992065430 -237.467864990234 2.066397905350
-23.421358108521 -77.246200561523 -186.761550903320 0.754683017731
45.678859710693 -61.896274566650 -18.534126281738 2.110805511475
-144.016250610352 -67.357131958008 -188.763931274414 1.165465593338
33.260818481445 -81.186851501465 -126.283027648926 2.771322965622
-49.014541625977 -64.323638916016 -84.026374816895 1.429368019104
8.378026008606 -72.702819824219 -198.291687011719 2.111839056015
-6.853923797607 -66.682373046875 -254.461181640625 1.773126602173
35.252014160156 -70.353507995605 -41.428272247314 0.408054381609
17.114786148071 -69.890426635742 -182.423019409180 2.063102006912
-21.564258575439 -73.694168090820 -183.466506958008 1.205217957497
-8.077274322510 -70.497459411621 -230.130111694336 2.133710622787
-69.403900146484 -70.285461425781 -159.709259033203 1.986579775810
-8.478011131287 -79.065979003906 -288.924438476563 2.715085983276
20.287528991699 -69.411071777344 -250.157989501953 1.734957814217
-62.798374176025 -61.236244201660 -130.821533203125 1.105634212494
30.964708328247 -74.038803100586 -119.694496154785 1.177781939507
-78.107238769531 -65.513648986816 -130.095367431641 0.934043169022
15.479200363159 -82.638687133789 -246.985733032227 0.629605591297
92.827644348145 -74.704322814941 -76.286087036133 1.242144703865
16.230005264282 -67.001144409180 -285.299011230469 1.681860923767
27.240394592285 -73.077720642090 -165.470687866211 3.023998498917
-86.386901855469 -76.187828063965 -289.379608154297 1.720358848572
21.673545837402 -63.498344421387 -276.589874267578 1.997328400612
-152.509094238281 -81.053955078125 -281.180206298828 1.706307530403
-147.954483032227 -62.204986572266 -243.866027832031 1.267211794853
-39.783794403076 -74.629676818848 -80.867424011230 2.035731315613
-11.714249610901 -68.241607666016 -209.514892578125 1.793330073357
93.004280090332 -79.298042297363 -206.516693115234 3.111188888550
-24.573560714722 -76.460868835449 -223.738983154297 2.150153398514
87.089309692383 -78.348854064941 -219.841903686523 3.172114849091
18.972993850708 -62.214588165283 -142.724288940430 2.130677700043
-17.355522155762 -73.935577392578 -197.237121582031 1.471168160439
-19.708864212036 -72.926856994629 -219.866973876953 1.819967985153
-11.777440071106 -71.487998962402 -208.950424194336 3.326983928680
-68.575363159180 -85.275619506836 -97.437164306641 2.021927356720
16.905704498291 -69.394180297852 -173.795822143555 1.977791190147
12.053217887878 -68.197662353516 -203.891311645508 1.907683134079
-50.821208953857 -81.208068847656 -184.850555419922 0.814025044441
-78.173126220703 -77.853210449219 -102.393768310547 2.062036514282
-70.404800415039 -80.996383666992 -212.419326782227 0.896914601326
16.770719528198 -78.804473876953 -238.132766723633 1.807423710823
99.571838378906 -78.458625793457 -191.173675537109 2.253880023956
-77.974822998047 -70.304061889648 -250.046707153320 0.947276651859
77.010543823242 -75.210433959961 -229.285552978516 0.807501316071
110.647666931152 -70.286842346191 -112.338531494141 1.647689700127
5.421034812927 -71.685356140137 -234.047988891602 1.378901958466
22.431646347046 -79.568153381348 -155.716476440430 2.709900617599
-5.183407783508 -70.412048339844 -237.081314086914 1.498575329781
39.396713256836 -70.296104431152 -104.890045166016 1.708408594131
32.336360931396 -78.586540222168 -149.702178955078 1.067362666130
-33.103454589844 -60.451259613037 -72.308753967285 1.595986366272
-162.661010742188 -67.837242126465 -256.690185546875 3.344989538193
-151.332229614258 -62.226539611816 -243.405471801758 3.156653881073
12.913116455078 -69.303649902344 -213.219940185547 1.413536071777
-99.328437805176 -64.098747253418 -162.886886596680 1.609059572220
-8.137605667114 -74.369743347168 -291.839385986328 1.005157470703
-146.384078979492 -67.796096801758 -246.991317749023 0.812146604061
-59.276168823242 -75.531570434570 -174.079147338867 1.189365029335
48.051696777344 -78.230529785156 -109.039115905762 1.867766380310
-8.614344596863 -83.277915954590 -264.633941650391 3.291529893875
-166.707336425781 -67.188476562500 -238.746170043945 2.013734102249
-141.639938354492 -67.485420227051 -290.172088623047 0.608610987663
46.934623718262 -63.134502410889 -33.469333648682 2.301414728165
-163.313415527344 -65.854080200195 -216.018600463867 1.796299099922
-111.650962829590 -69.863655090332 -196.165847778320 2.170082330704
14.270162582397 -82.938392639160 -232.756759643555 0.881147205830
-31.598230361938 -74.310928344727 -62.086612701416 3.129073143005
-129.916961669922 -63.917152404785 -226.714553833008 0.586222708225
-58.618690490723 -60.432304382324 -116.850524902344 1.543877005577
-74.074874877930 -69.461647033691 -101.461738586426 1.561744809151
35.917022705078 -62.168796539307 -36.418003082275 1.018158435822
34.543319702148 -67.662536621094 -12.257023811340 2.547369003296
-149.197219848633 -81.416763305664 -196.674819946289 1.663144588470
-82.809150695801 -66.163490295410 -103.481254577637 2.182729721069
-60.896297454834 -78.889038085938 -177.694305419922 2.097420454025
-150.727310180664 -81.430252075195 -223.460571289063 0.828521013260
-92.777122497559 -75.336189270020 -97.802604675293 2.477063894272
-17.491340637207 -76.744331359863 -193.062286376953 1.560840129852
16.713951110840 -76.227989196777 -249.074356079102 0.964766502380
-63.708209991455 -77.130981445313 -63.012157440186 2.878549814224
-93.424560546875 -74.309318542480 -287.384887695313 1.397258281708
-148.079681396484 -66.155052185059 -278.456939697266 2.183874130249
-132.750732421875 -63.700557708740 -227.336242675781 1.225133776665
108.851425170898 -74.717559814453 -171.976272583008 0.655957996845
-146.984405517578 -73.336158752441 -219.724090576172 2.165700435638
-61.993003845215 -75.541633605957 -94.193420410156 2.771450996399
29.805183410645 -69.543861389160 -258.798461914063 1.491302967072
-9.137953758240 -74.910476684570 -207.711303710938 1.197520732880
-56.264236450195 -72.462944030762 -290.674255371094 0.558978259563
13.963726997375 -82.337318420410 -242.555084228516 3.338126897812
-68.263618469238 -76.345581054688 -165.798950195313 1.539523601532
-30.116319656372 -73.638839721680 -287.532501220703 1.741075992584
-114.959022521973 -66.965042114258 -258.584136962891 1.356289744377
39.857440948486 -72.243255615234 -121.203514099121 1.669568657875
-151.801239013672 -80.436126708984 -288.914459228516 1.707057237625
13.469684600830 -78.704223632813 -279.822967529297 0.837577044964
78.430503845215 -70.041931152344 -65.830368041992 1.454167366028
42.488777160645 -61.019577026367 -28.941244125366 1.586028099060
14.162000656128 -67.640876770020 -194.186019897461 1.024004578590
-162.688308715820 -71.749229431152 -229.505065917969 1.662950515747
-77.971687316895 -77.619354248047 -102.049591064453 1.783987164497
-152.176055908203 -78.248313903809 -311.366302490234 0.817089259624
46.262817382813 -63.892368316650 -34.682216644287 3.157150983810
-70.419380187988 -76.913482666016 -209.652435302734 0.971586108208
81.700828552246 -73.761421203613 -217.754028320313 1.797517061234
4.587069034576 -76.898429870605 -292.946502685547 2.055337667465
108.953071594238 -71.865394592285 -175.785842895508 1.704905390739
-25.708398818970 -78.512779235840 -187.098495483398 1.465242981911
-160.074630737305 -70.800582885742 -211.373809814453 3.187561035156
45.175041198730 -79.691986083984 -108.367729187012 0.949270129204
-156.956634521484 -69.745239257813 -295.142028808594 0.819549143314
40.950370788574 -63.170837402344 -14.426825523376 0.999291002750
-146.385223388672 -69.121612548828 -266.441009521484 1.612449884415
105.043655395508 -74.721366882324 -193.563781738281 1.346482038498
42.416412353516 -59.544719696045 -26.691551208496 2.652121305466
27.300792694092 -60.672687530518 -20.192050933838 1.385569810867
45.984050750732 -65.821731567383 -101.844924926758 1.532217979431
-159.794158935547 -72.387855529785 -294.247131347656 0.940325200558
5.051694869995 -72.432456970215 -155.418624877930 1.341815710068
104.816665649414 -67.852203369141 -97.652496337891 0.872422993183
19.632808685303 -64.217620849609 -147.246017456055 1.416605353355
-17.822479248047 -73.652526855469 -224.600219726563 1.934080004692
-20.563444137573 -67.209548950195 -197.571380615234 1.586058378220
3.229815959930 -65.211631774902 -238.258026123047 1.626779317856
25.466922760010 -68.124206542969 -257.552368164063 1.410480380058
-111.830139160156 -71.183425903320 -262.317291259766 1.362976312637
6.990773200989 -79.249252319336 -289.418090820313 2.140567302704
25.579994201660 -68.532630920410 -165.713043212891 1.547225117683
-49.456970214844 -76.971466064453 -286.615020751953 0.909741103649
-9.137271881104 -69.897430419922 -210.416793823242 1.794735074043
-75.115913391113 -72.149223327637 -291.463378906250 2.321994066238
-56.465217590332 -73.505897521973 -177.053878784180 0.658423602581
-55.828571319580 -81.798385620117 -200.612686157227 1.426588177681
5.154172897339 -87.267288208008 -264.410522460938 2.312404632568
87.449775695801 -72.866973876953 -211.520843505859 1.682149410248
1.441884040833 -64.819007873535 -279.331939697266 2.279893636703
-71.474624633789 -67.765983581543 -100.444999694824 1.661003708839
35.732963562012 -75.675445556641 -136.056015014648 1.803369879723
-24.459814071655 -73.722961425781 -241.176559448242 1.322638511658
107.705398559570 -73.010810852051 -134.498458862305 2.799346685410
-39.260169982910 -68.124717712402 -166.169036865234 2.899597883224
-38.453567504883 -78.838264465332 -288.786651611328 1.289065837860
-19.883213043213 -82.398811340332 -177.547424316406 1.858279228210
-41.694034576416 -60.985340118408 -80.040496826172 0.192347228527
31.997623443604 -75.989044189453 -147.019256591797 1.520078301430
-52.713470458984 -68.047668457031 -146.177398681641 1.153996706009
-2.334630966187 -67.015586853027 -272.063934326172 2.570312976837
-87.210609436035 -63.101791381836 -111.406898498535 1.511871814728
8.131366729736 -74.417907714844 -231.431442260742 1.573276638985
-54.250926971436 -72.039756774902 -132.498840332031 1.420106768608
-69.455909729004 -59.759078979492 -108.686187744141 1.584973454475
3.799024105072 -64.295524597168 -265.860321044922 1.149599552155
-9.116563796997 -76.729751586914 -223.934188842773 0.615641653538
-4.546638011932 -78.847526550293 -288.521148681641 1.550352096558
49.624008178711 -73.749412536621 -249.940780639648 1.681912541389
5.911180019379 -85.017807006836 -253.166564941406 0.892105340958
-85.327941894531 -77.100456237793 -110.566108703613 1.416706323624
7.496574878693 -61.291999816895 -261.997467041016 2.515423059464
38.765426635742 -72.627418518066 -255.857757568359 1.924609184265
65.453857421875 -60.135334014893 -66.986610412598 1.627182841301
-15.313772201538 -72.679611206055 -253.707275390625 2.237347364426
25.839910507202 -77.240188598633 -178.102050781250 1.615046381950
-149.038116455078 -83.027244567871 -290.240264892578 1.769439339638
12.919380187988 -79.955146789551 -198.157577514648 1.753906130791
-14.968726158142 -77.011459350586 -198.704757690430 2.127465248108
27.435935974121 -72.209892272949 -131.249145507813 1.957332849503
-99.215530395508 -60.374748229980 -112.062919616699 2.014466047287
2.816924095154 -64.898979187012 -268.063568115234 2.842063903809
52.523075103760 -75.899505615234 -103.396240234375 1.838148355484
-8.964280128479 -75.062248229980 -281.282440185547 2.791656732559
-42.584999084473 -79.981613159180 -158.189208984375 1.608058214188
-119.521728515625 -72.271377563477 -256.058166503906 2.040420055389
-50.724357604980 -72.196922302246 -288.890411376953 1.795808672905
-44.166194915771 -66.850296020508 -79.879196166992 1.072853088379
-152.193618774414 -63.980422973633 -279.144165039063 3.490347385406
-26.203020095825 -75.788780212402 -199.593231201172 1.771839618683
-83.661155700684 -60.185218811035 -114.635231018066 1.726073622704
30.635072708130 -59.912998199463 -12.711272239685 2.570846557617
31.903972625732 -73.976715087891 -154.384704589844 1.497766733170
-151.755081176758 -65.713821411133 -247.428680419922 2.209985494614
19.310346603394 -78.981666564941 -267.784393310547 0.868582367897
12.502189636230 -82.877975463867 -253.835144042969 0.503604054451
-6.066410064697 -70.114601135254 -221.553665161133 2.573280572891
109.772781372070 -71.020790100098 -142.332290649414 0.659625113010
-51.490631103516 -61.596672058105 -82.852333068848 2.186279773712
-31.235168457031 -75.270919799805 -64.806327819824 3.604116201401
-56.420803070068 -66.410240173340 -145.643722534180 2.240963697433
-141.258178710938 -76.936332702637 -258.597717285156 0.949679493904
-15.776309967041 -72.573860168457 -214.603149414063 1.531964540482
110.884147644043 -75.155342102051 -151.095993041992 0.758020460606
18.293052673340 -71.256530761719 -205.495666503906 1.838145136833
-57.009098052979 -77.465225219727 -180.503799438477 1.399946212769
16.409992218018 -73.313209533691 -233.095016479492 1.229656457901
20.293272018433 -69.117370605469 -193.087356567383 1.597376704216
-40.251655578613 -81.399154663086 -81.866767883301 1.801078677177
17.554500579834 -78.326148986816 -173.259002685547 1.715749382973
17.223939895630 -79.086845397949 -230.419937133789 1.811071038246
13.065320014954 -81.407279968262 -235.200408935547 0.951686799526
-65.370094299316 -76.830513000488 -62.382617950439 2.006842136383
-35.746227264404 -59.250232696533 -76.162269592285 1.372437715530
-60.855186462402 -75.985023498535 -244.446517944336 1.137358427048
-24.727266311646 -64.481239318848 -70.254684448242 0.926649391651
-78.723236083984 -82.459106445313 -88.834014892578 1.658542394638
-57.419036865234 -83.869827270508 -206.863052368164 2.624938249588
-103.973739624023 -64.005447387695 -173.830657958984 1.228805661201
-90.645263671875 -68.073013305664 -137.528961181641 1.931282162666
-54.369438171387 -77.484413146973 -184.156524658203 2.317452430725
18.614414215088 -72.178314208984 -205.408477783203 1.845215559006
46.821960449219 -73.070236206055 -110.881309509277 2.684567928314
-13.073366165161 -79.247985839844 -204.719863891602 1.832350373268
-151.877822875977 -62.778991699219 -194.337860107422 1.368841767311
8.188935279846 -72.686561584473 -221.190002441406 0.546612679958
-167.055252075195 -66.775329589844 -221.646102905273 2.450086832047
-79.218513488770 -82.066879272461 -88.023658752441 1.765038967133
-13.374249458313 -78.496482849121 -213.714355468750 1.356275558472
-28.301391601563 -76.303657531738 -213.159561157227 1.312668919563
-6.119469165802 -68.645935058594 -233.239456176758 1.377963066101
23.278469085693 -71.126533508301 -154.724441528320 0.922398269176
6.250202178955 -71.590934753418 -217.659423828125 2.514479398727
-92.108459472656 -66.016204833984 -132.561630249023 1.059805154800
29.154289245605 -74.802375793457 -159.706542968750 2.476969003677
-63.511058807373 -61.947887420654 -44.278675079346 3.453310489655
-19.509386062622 -67.858154296875 -196.284927368164 1.857549428940
74.123085021973 -66.839225769043 -106.452964782715 1.236132144928
-90.360122680664 -74.352958679199 -79.894294738770 2.526105165482
-10.987108230591 -70.338279724121 -237.301864624023 1.444216966629
91.687477111816 -71.663978576660 -69.655342102051 2.097037553787
-124.648635864258 -72.340621948242 -231.718978881836 1.074384927750
97.201316833496 -72.825447082520 -95.713500976563 1.480220198631
101.641395568848 -79.252540588379 -195.674835205078 2.113848686218
-34.364952087402 -76.749877929688 -286.815765380859 1.285243511200
42.622135162354 -71.327720642090 -33.187622070313 1.444445490837
-154.516296386719 -70.542221069336 -205.741653442383 1.829475522041
2.179164886475 -64.180076599121 -281.148864746094 1.295192480087
-99.239364624023 -63.151721954346 -80.534301757813 3.341201305389
-62.858245849609 -71.848915100098 -168.089660644531 1.801027417183
-109.201873779297 -66.519783020020 -197.256820678711 1.257797360420
-48.432518005371 -80.456886291504 -73.707481384277 1.573834419250
