-51.244361877441 -74.576797485352 -87.670478820801 1.981077790260
25.572795867920 -67.869361877441 -266.408508300781 0.969960987568
23.529533386230 -71.542274475098 -150.034118652344 1.725921988487
26.963659286499 -73.535385131836 -135.569259643555 0.808136224747
-104.969703674316 -72.868827819824 -225.014877319336 0.663223803043
14.612921714783 -81.004348754883 -232.771881103516 1.174531936646
95.773910522461 -68.229804992676 -69.824157714844 1.700905084610
8.701985359192 -71.992393493652 -232.884582519531 1.078809142113
-9.894251823425 -70.113685607910 -207.602615356445 1.936888813972
99.797592163086 -71.669616699219 -195.070419311523 2.521082639694
-61.601779937744 -66.957130432129 -90.383392333984 2.536480188370
98.696304321289 -64.973709106445 -100.131317138672 2.393663883209
-157.377258300781 -71.915924072266 -228.164077758789 2.190330743790
17.924381256104 -66.395919799805 -28.757152557373 5.268531322479
13.517806053162 -67.919235229492 -287.812622070313 2.144752979279
-145.784912109375 -73.859031677246 -298.359252929688 1.496008276939
-147.502639770508 -72.725578308105 -229.938339233398 0.873913168907
-86.622505187988 -60.730915069580 -50.890392303467 2.294324398041
59.348236083984 -64.912460327148 -94.229598999023 2.058620214462
-111.605354309082 -71.700859069824 -287.456878662109 2.066084146500
-145.501602172852 -78.974311828613 -210.431442260742 1.549474716187
-70.628501892090 -82.772605895996 -209.685470581055 1.581359505653
24.102855682373 -77.259963989258 -139.604675292969 2.071862697601
41.458515167236 -67.176925659180 -22.092586517334 2.742192506790
-8.042673110962 -78.396217346191 -210.226074218750 1.025641918182
-28.858320236206 -80.213043212891 -179.156158447266 1.503024816513
-86.051742553711 -71.310119628906 -108.956283569336 0.906497061253
-157.445129394531 -71.378646850586 -286.362518310547 1.529185175896
-149.949066162109 -65.743812561035 -261.835266113281 1.517477273941
58.014617919922 -73.637367248535 -245.870986938477 1.443334460258
-40.908489227295 -78.635025024414 -245.154769897461 1.210058569908
-21.277065277100 -78.293891906738 -223.281143188477 2.436064958572
-55.985530853271 -72.962120056152 -140.852615356445 1.893608093262
-153.946914672852 -76.755836486816 -198.548538208008 0.761005818844
-146.850219726563 -67.217720031738 -295.746063232422 1.468645930290
-5.465860843658 -78.946136474609 -220.024734497070 1.776680111885
-49.421119689941 -85.830741882324 -199.929153442383 0.646527230740
-44.534046173096 -79.103675842285 -161.720901489258 1.925153970718
15.954767227173 -82.553665161133 -232.779174804688 1.785340189934
-150.553405761719 -63.669338226318 -213.599334716797 2.627705812454
38.462451934814 -76.586601257324 -131.554122924805 1.045704841614
63.305866241455 -71.611427307129 -238.391616821289 1.767641425133
-23.245468139648 -78.685256958008 -180.080383300781 0.976695537567
-166.142517089844 -72.574226379395 -241.053878784180 0.777890622616
8.271997451782 -76.192527770996 -243.568557739258 0.569494545460
-50.463157653809 -77.244110107422 -144.496688842773 2.302334308624
-153.959365844727 -66.442039489746 -181.181991577148 1.151888132095
-43.528980255127 -77.677757263184 -167.195968627930 2.334588050842
101.629631042480 -73.054992675781 -100.937011718750 2.830075025558
36.675388336182 -80.376449584961 -127.435264587402 1.633896350861
24.023939132690 -78.182189941406 -142.840255737305 2.640351295471
-35.232837677002 -68.661857604980 -177.175994873047 1.447633981705
60.780239105225 -69.929985046387 -237.374313354492 0.919700026512
69.688880920410 -73.689483642578 -81.017379760742 1.473132371902
-148.921890258789 -79.686523437500 -287.491180419922 1.067891478539
69.939834594727 -73.357688903809 -238.383697509766 1.816834211349
111.523658752441 -73.094421386719 -142.714004516602 1.472402095795
-52.278228759766 -80.131332397461 -199.429183959961 0.968778848648
60.200836181641 -72.918205261230 -245.289382934570 1.618148684502
29.858236312866 -58.317604064941 -11.823851585388 2.470529079437
-100.999229431152 -68.328666687012 -224.492782592773 1.580070018768
-62.350711822510 -62.725513458252 -135.995407104492 2.137337207794
-95.707954406738 -71.875267028809 -287.143157958984 2.471592426300
-63.676490783691 -81.181663513184 -76.975624084473 2.708914995193
-144.958831787109 -86.286270141602 -287.633392333984 1.153750181198
-59.286293029785 -73.385398864746 -55.529788970947 2.438633441925
25.395313262939 -75.547027587891 -181.887283325195 1.238129973412
-74.812126159668 -68.716789245605 -138.515884399414 1.306798338890
-56.571155548096 -81.921035766602 -206.790573120117 1.595054864883
14.841078758240 -72.098518371582 -235.729080200195 2.126246213913
-50.161254882813 -74.310989379883 -57.796298980713 2.801417112350
-65.039619445801 -83.201683044434 -83.540290832520 2.554531812668
47.591735839844 -60.462318420410 -26.910133361816 2.822088003159
9.383925437927 -77.486495971680 -208.030700683594 1.910387754440
-146.942794799805 -64.973808288574 -244.628494262695 1.495847463608
71.949821472168 -72.318084716797 -97.470077514648 0.998425602913
-150.429397583008 -76.521385192871 -190.628631591797 2.737775087357
-24.917469024658 -80.085105895996 -239.102066040039 1.435610771179
23.232015609741 -67.860389709473 -175.222122192383 1.036908984184
39.532436370850 -78.524169921875 -127.051086425781 1.515151143074
-102.024658203125 -69.975059509277 -291.372222900391 2.255611896515
7.111439228058 -74.895614624023 -240.710067749023 1.741238355637
-40.654884338379 -76.929283142090 -199.969009399414 1.141598224640
-76.952079772949 -62.868240356445 -123.971817016602 1.718067049980
-9.597723007202 -78.475372314453 -273.187133789063 1.508368372917
79.768859863281 -78.230857849121 -224.259094238281 3.079103231430
97.880065917969 -79.076309204102 -202.651062011719 2.590659618378
27.202726364136 -80.174140930176 -158.127746582031 2.518591880798
-40.408363342285 -84.868858337402 -191.429183959961 1.807630300522
-152.938995361328 -62.482124328613 -181.166763305664 2.073352336884
38.194965362549 -64.492256164551 -33.946197509766 2.690631628036
-152.243499755859 -67.253250122070 -190.781051635742 2.768109321594
43.135379791260 -61.751075744629 -36.734603881836 2.731519222260
0.477429986000 -87.140480041504 -260.419403076172 1.911661028862
-39.226196289063 -77.144027709961 -159.990646362305 2.083925724030
-65.838508605957 -80.551902770996 -210.981918334961 1.669045209885
20.845693588257 -70.039978027344 -19.927175521851 1.054974675179
-50.400543212891 -67.546188354492 -142.170593261719 1.761184096336
-37.384025573730 -74.290710449219 -207.399032592773 1.359456419945
-31.436471939087 -78.687568664551 -215.077941894531 1.215471744537
66.870643615723 -69.087677001953 -74.160690307617 1.644046187401
-154.707458496094 -74.235382080078 -270.343322753906 2.757321596146
59.762172698975 -65.341827392578 -83.427635192871 0.676683664322
-160.360229492188 -70.828002929688 -293.463287353516 1.114878416061
-48.128631591797 -72.748512268066 -54.642623901367 2.890577316284
-72.238464355469 -75.178146362305 -153.938796997070 2.136143684387
23.595746994019 -69.999732971191 -184.667922973633 2.585025310516
-57.034057617188 -64.789733886719 -142.860855102539 1.350034236908
-20.948949813843 -78.294441223145 -204.759185791016 0.898310840130
16.910354614258 -77.671150207520 -197.935653686523 1.653622508049
8.152099609375 -67.419494628906 -241.460372924805 0.856556296349
90.431381225586 -76.516906738281 -86.054252624512 1.851288676262
-34.525245666504 -77.384017944336 -286.175933837891 1.669970631599
-89.903800964355 -67.905967712402 -62.477985382080 1.586293339729
-151.624786376953 -67.226501464844 -247.240890502930 1.895914793015
-154.180847167969 -75.195999145508 -296.677886962891 1.262884736061
-129.116851806641 -75.277221679688 -257.037841796875 2.119828701019
29.073362350464 -66.180046081543 -35.000652313232 2.001970052719
-57.833435058594 -71.875213623047 -90.835723876953 1.983081579208
-55.696647644043 -60.463493347168 -80.176307678223 1.266201138496
17.988634109497 -79.592849731445 -190.937088012695 1.932077527046
-147.159729003906 -74.098930358887 -192.181289672852 1.470001578331
-78.588607788086 -79.387054443359 -79.241645812988 2.254925727844
74.732429504395 -77.590301513672 -229.965164184570 2.152137517929
-32.270137786865 -78.097335815430 -174.070831298828 2.280000209808
-99.703521728516 -62.468246459961 -81.672355651855 3.374493598938
-47.531925201416 -76.509590148926 -157.025772094727 2.123013734818
-149.949707031250 -80.357192993164 -194.044403076172 0.592732906342
-139.371795654297 -85.493980407715 -291.099853515625 1.335199475288
-148.902328491211 -81.606117248535 -231.239517211914 1.415718436241
-78.714149475098 -67.010452270508 -116.896263122559 1.390678524971
11.676176071167 -84.377784729004 -242.740509033203 3.137923002243
-44.635932922363 -79.272399902344 -160.841979980469 2.780388116837
48.154514312744 -63.409389495850 -97.240112304688 2.675890445709
16.468954086304 -69.557746887207 -185.578460693359 1.146691203117
-153.956207275391 -82.343849182129 -260.765686035156 1.556163311005
-0.165224000812 -66.942932128906 -267.266937255859 2.130134344101
-151.942016601563 -82.641738891602 -284.258239746094 1.712110638618
28.869840621948 -60.145996093750 -17.539535522461 1.870050668716
30.353918075562 -74.394973754883 -162.816452026367 1.622708916664
-43.806983947754 -73.350685119629 -149.638946533203 1.541142702103
87.549247741699 -64.860595703125 -61.097057342529 1.272260546684
-145.170089721680 -78.986289978027 -294.321075439453 2.601309061050
-148.340759277344 -74.247215270996 -260.917083740234 0.571227848530
-77.345275878906 -62.087268829346 -103.175285339355 1.941586136818
26.479114532471 -77.692375183105 -133.155288696289 3.411526203156
76.325538635254 -62.512924194336 -59.063621520996 1.207593679428
17.448755264282 -75.677139282227 -224.719741821289 1.239183187485
-30.079235076904 -72.757873535156 -168.549606323242 1.160818815231
-148.981933593750 -68.734649658203 -298.366607666016 1.657769441605
79.122055053711 -69.173950195313 -103.231613159180 1.613660216331
-146.394897460938 -82.778976440430 -294.462005615234 1.014099121094
-2.781142950058 -63.675727844238 -244.186447143555 1.143419981003
-46.963825225830 -79.034362792969 -155.765090942383 2.189892053604
-88.198425292969 -62.584373474121 -129.772567749023 2.313354492188
40.523624420166 -65.078193664551 -13.403115272522 1.727848052979
-130.614730834961 -69.837692260742 -294.760650634766 2.870518684387
31.130504608154 -66.342880249023 -16.591203689575 1.474920630455
24.063896179199 -62.377449035645 -23.164567947388 2.591520071030
-45.090610504150 -72.734985351563 -166.879592895508 0.984241008759
-78.056800842285 -57.773860931396 -108.315696716309 2.235923767090
-38.611495971680 -60.872627258301 -46.871681213379 1.406052708626
-30.997871398926 -80.871566772461 -210.148696899414 1.950149536133
-15.217310905457 -74.004081726074 -258.050598144531 3.082246541977
-70.780654907227 -57.501026153564 -43.451686859131 1.013416290283
-131.645629882813 -66.047561645508 -256.632232666016 2.510572433472
24.504129409790 -74.392486572266 -177.352172851563 2.239004373550
101.356658935547 -59.735168457031 -71.117935180664 1.566272497177
10.672019958496 -74.776466369629 -190.701660156250 1.676171898842
13.046984672546 -72.486663818359 -156.015182495117 0.875257849693
-95.463996887207 -64.524909973145 -66.429466247559 2.029687404633
-29.168827056885 -68.380310058594 -179.688858032227 2.111667394638
2.383574962616 -65.543632507324 -262.546203613281 2.069252014160
-57.425075531006 -62.732677459717 -44.593711853027 1.767801284790
18.565824508667 -77.530220031738 -188.507736206055 0.681984484196
110.743164062500 -74.175544738770 -140.878067016602 0.948985815048
-55.782745361328 -75.286231994629 -173.522155761719 1.128421068192
-141.931579589844 -76.686714172363 -260.363586425781 1.014327645302
87.940872192383 -78.381370544434 -211.349700927734 2.487116098404
38.912986755371 -70.948852539063 -257.571594238281 2.103581428528
-149.625381469727 -66.633041381836 -230.034957885742 1.390576601028
16.919696807861 -80.078269958496 -227.495254516602 1.429577350616
27.768491744995 -68.183586120605 -145.728439331055 2.349024534225
-6.708920001984 -75.918579101563 -210.358215332031 2.174902915955
56.413047790527 -59.523090362549 -83.759056091309 1.926817536354
31.340110778809 -74.899414062500 -157.956832885742 2.464590549469
-28.602056503296 -59.327953338623 -48.730342864990 2.669324874878
102.031364440918 -64.973243713379 -92.456146240234 2.005001306534
17.846244812012 -67.203163146973 -182.916320800781 2.246296405792
-85.382179260254 -75.289253234863 -73.143989562988 3.312882423401
24.752742767334 -75.757263183594 -184.272109985352 2.306229829788
-99.612792968750 -63.305252075195 -100.590118408203 2.352087497711
-19.714895248413 -70.460960388184 -209.784194946289 1.687663793564
-7.875761032104 -73.089706420898 -232.888946533203 1.652602314949
-56.793647766113 -58.317306518555 -43.040702819824 2.973582506180
-28.096841812134 -73.125930786133 -213.435729980469 0.817813098431
-164.515289306641 -66.920265197754 -232.368392944336 1.018855571747
-76.406326293945 -60.934886932373 -107.301338195801 2.498791456223
-151.145690917969 -68.578247070313 -300.856262207031 1.265976071358
4.803462028503 -80.101295471191 -245.379302978516 2.463019132614
-159.686950683594 -67.062583923340 -215.122680664063 1.827178239822
0.450910001993 -76.302200317383 -221.528717041016 2.407063245773
-14.559413909912 -73.829025268555 -201.721176147461 1.084638953209
-98.655639648438 -62.321830749512 -116.383140563965 1.828717470169
-33.123352050781 -81.274726867676 -241.290573120117 1.271922588348
-72.333915710449 -71.109794616699 -248.701629638672 0.903600394726
-74.637832641602 -77.326347351074 -68.768760681152 2.321531772614
-79.932617187500 -70.386825561523 -56.517360687256 2.819431543350
-20.394479751587 -78.314987182617 -197.731521606445 0.765385806561
-55.658180236816 -66.535095214844 -142.434448242188 1.631319403648
18.896026611328 -69.166824340820 -165.456176757813 1.563671946526
57.307735443115 -71.376472473145 -244.492187500000 0.757607638836
-52.295066833496 -76.198936462402 -153.225799560547 1.044258356094
-97.461502075195 -67.558128356934 -116.932472229004 2.627996921539
-3.754164934158 -76.015220642090 -234.216156005859 1.778787016869
-3.254987955093 -71.248283386230 -237.831939697266 1.293222069740
40.592773437500 -63.344459533691 -13.590932846069 0.637321770191
-120.192314147949 -66.852516174316 -289.401428222656 1.926116347313
-152.505172729492 -64.258430480957 -205.550369262695 2.934704542160
-12.845327377319 -62.852462768555 -63.777145385742 2.118030786514
90.292785644531 -74.386291503906 -205.259552001953 2.049419879913
-143.988403320313 -70.391983032227 -265.260894775391 1.431731939316
-146.077636718750 -72.059425354004 -208.216903686523 2.426582098007
-17.725765228271 -68.480194091797 -69.696678161621 1.885045170784
-164.778961181641 -71.705696105957 -220.981536865234 1.772044181824
8.060192108154 -73.495689392090 -222.561645507813 1.607679247856
-75.877090454102 -62.630428314209 -46.468551635742 1.529849648476
-16.831966400146 -78.049819946289 -179.666503906250 1.231032967567
-12.680191040039 -62.457153320313 -63.515781402588 1.865798592567
-29.312421798706 -73.356559753418 -216.136154174805 0.457385390997
8.991741180420 -74.419120788574 -241.798843383789 1.431186079979
-144.429397583008 -81.684486389160 -262.557037353516 2.008566617966
-103.496131896973 -62.331806182861 -169.513854980469 0.673470377922
-153.795730590820 -82.759231567383 -257.391601562500 1.655223131180
-146.429428100586 -78.949035644531 -265.664276123047 1.200676202774
46.625404357910 -69.367492675781 -22.037452697754 2.934890508652
-71.825447082520 -69.224609375000 -140.055023193359 1.445713520050
-77.252456665039 -76.261177062988 -101.478248596191 1.560350060463
-15.439070701599 -78.537445068359 -207.226440429688 2.206365585327
-68.132705688477 -85.688911437988 -94.153160095215 2.341492414474
-79.144844055176 -64.237068176270 -124.729911804199 0.341148018837
-49.574058532715 -68.975112915039 -84.813735961914 0.452903598547
41.986255645752 -73.436370849609 -123.138420104980 1.597580432892
-86.100952148438 -68.990180969238 -127.660743713379 2.184741973877
-99.233489990234 -63.655658721924 -148.035995483398 1.333400845528
-148.787551879883 -78.622291564941 -187.005783081055 1.904738306999
-82.890388488770 -80.821426391602 -89.526275634766 1.916385054588
91.028861999512 -76.356971740723 -85.644195556641 1.777857899666
-27.296802520752 -66.178573608398 -53.221813201904 3.311062097549
88.813697814941 -59.210659027100 -58.918434143066 1.441861271858
9.777868270874 -78.162269592285 -208.827102661133 1.202818751335
-145.456451416016 -75.460945129395 -295.043304443359 0.871572732925
108.961318969727 -75.269104003906 -183.397659301758 1.086836695671
12.644342422485 -75.884788513184 -185.360977172852 1.777460455894
22.123800277710 -70.157341003418 -162.040740966797 2.211635828018
-14.491911888123 -75.735427856445 -264.359649658203 1.791824340820
29.341442108154 -65.606170654297 -256.478790283203 1.759798407555
-59.834457397461 -77.685859680176 -93.975540161133 1.743299961090
-12.102560997009 -67.626747131348 -247.483230590820 2.023273944855
-60.666416168213 -62.455612182617 -116.931755065918 1.048436999321
103.993370056152 -72.035461425781 -190.348022460938 0.918000102043
-166.333770751953 -68.249183654785 -252.406570434570 1.409180641174
-73.933143615723 -83.869148254395 -90.193214416504 2.142586231232
-28.449407577515 -68.229598999023 -185.740463256836 1.080793499947
-3.601552963257 -77.044570922852 -219.980819702148 2.240577936172
-81.430053710938 -83.789199829102 -103.166534423828 1.900070905685
-155.723266601563 -72.848892211914 -305.467010498047 0.835760414600
-145.043075561523 -69.402900695801 -239.933761596680 1.800278544426
14.556753158569 -72.857002258301 -214.617019653320 1.909675955772
70.021110534668 -74.238716125488 -84.848831176758 0.977631866932
-51.855873107910 -78.883224487305 -288.859741210938 1.731961846352
20.472093582153 -69.608024597168 -179.852691650391 1.348261475563
15.261392593384 -74.098716735840 -213.465454101563 1.930164933205
-68.147789001465 -73.388236999512 -98.614418029785 2.694704532623
-75.500213623047 -67.433013916016 -100.380279541016 1.576458573341
-150.938003540039 -80.396949768066 -240.066787719727 2.252061843872
19.665796279907 -74.229545593262 -196.014999389648 1.123980760574
-71.242897033691 -76.416168212891 -100.791030883789 1.767594456673
-7.031457901001 -80.746391296387 -216.342880249023 1.256287336349
-149.204116821289 -60.163642883301 -224.755035400391 1.061392664909
49.438446044922 -62.581142425537 -92.244148254395 2.485552787781
-147.868835449219 -70.824966430664 -201.551635742188 1.193890690804
21.320825576782 -76.792289733887 -254.905166625977 1.350042939186
-150.795455932617 -75.014350891113 -242.712646484375 1.364009141922
-71.908233642578 -83.405632019043 -87.712753295898 2.116094589233
108.547767639160 -75.796752929688 -144.713363647461 2.422655582428
18.240299224854 -75.501739501953 -233.881103515625 1.783600926399
42.621093750000 -77.569122314453 -110.737037658691 1.673951506615
31.382192611694 -69.368553161621 -145.463851928711 1.003802299500
16.871452331543 -72.718124389648 -176.715713500977 1.667158722878
-54.426334381104 -82.754714965820 -80.380958557129 1.981888055801
44.983234405518 -73.462074279785 -117.235282897949 1.673007011414
-52.610252380371 -61.005363464355 -82.046554565430 2.845381975174
44.770355224609 -73.593940734863 -99.231895446777 1.708238720894
-151.033462524414 -63.840797424316 -244.616638183594 2.378453254700
-78.942718505859 -83.717277526855 -94.477210998535 2.047694921494
-11.764375686646 -58.394832611084 -56.121898651123 2.497257232666
-40.572154998779 -73.181297302246 -170.886703491211 1.356870532036
40.183963775635 -78.084335327148 -118.796897888184 1.333132863045
-131.662841796875 -71.962760925293 -197.545669555664 1.300275802612
105.241096496582 -74.542434692383 -182.139373779297 1.462231278419
-83.707626342773 -66.693763732910 -127.924819946289 1.573396086693
-152.659332275391 -69.563041687012 -300.214019775391 1.480732917786
12.268504142761 -80.031555175781 -219.843948364258 1.432554960251
-92.331649780273 -67.449119567871 -135.983978271484 1.564594626427
-50.685150146484 -70.227561950684 -133.712112426758 1.380331277847
-121.070343017578 -63.731201171875 -202.871337890625 2.219069719315
-158.973022460938 -74.005165100098 -265.547088623047 2.137269496918
28.972034454346 -71.651229858398 -260.959747314453 3.076986551285
17.350196838379 -76.899833679199 -182.090072631836 1.388022542000
-153.930236816406 -70.715270996094 -277.277496337891 2.504434823990
-30.340435028076 -64.874343872070 -50.719024658203 2.135145902634
-12.989843368530 -75.168212890625 -221.232803344727 2.327540397644
7.495232105255 -80.056823730469 -214.672576904297 2.210241317749
-108.097038269043 -67.940925598145 -174.036300659180 1.291212081909
-143.947082519531 -67.543960571289 -190.497497558594 2.533608436584
-153.324676513672 -66.302154541016 -284.532958984375 1.867198109627
-12.509640693665 -70.879554748535 -233.222290039063 1.768814563751
-60.629360198975 -57.883789062500 -42.786109924316 1.559106945992
-151.360000610352 -79.810020446777 -279.912475585938 2.108127832413
-12.588825225830 -77.260162353516 -176.445449829102 1.669753909111
10.271459579468 -68.545661926270 -156.278427124023 1.339900970459
-144.996963500977 -70.079093933105 -240.350112915039 1.114354491234
60.875637054443 -75.567161560059 -242.387741088867 2.509109020233
-47.056369781494 -76.946502685547 -156.481231689453 2.194085597992
-61.568702697754 -78.300857543945 -165.412521362305 1.610303044319
-160.395401000977 -65.292404174805 -201.359664916992 2.440965414047
-47.008300781250 -77.252716064453 -198.362136840820 1.436918735504
38.809463500977 -60.793750762939 -33.562187194824 1.908826589584
4.677567005157 -86.908683776855 -268.459777832031 2.225682020187
112.177101135254 -75.383728027344 -151.688598632813 1.487413883209
55.614143371582 -71.114044189453 -86.855758666992 1.577386498451
-145.960525512695 -66.984230041504 -237.095886230469 1.445944786072
9.081575393677 -77.379005432129 -208.925674438477 1.804015994072
-142.982559204102 -77.919837951660 -196.739135742188 1.357552528381
9.620519638062 -72.673011779785 -289.192626953125 0.682203590870
8.185811042786 -61.763408660889 -274.366302490234 2.557493925095
-52.755718231201 -83.290382385254 -81.700859069824 2.155018568039
-41.981193542480 -79.054092407227 -245.258773803711 0.187006890774
77.842094421387 -71.503562927246 -230.095764160156 0.682501137257
-164.278427124023 -74.247520446777 -262.397583007813 1.385730266571
-81.501525878906 -68.619613647461 -100.944015502930 2.646755218506
23.394163131714 -60.105232238770 -25.896068572998 2.977428674698
-149.702590942383 -64.209960937500 -292.659484863281 1.129020452499
-58.249210357666 -72.637237548828 -144.464080810547 1.128224492073
-76.544830322266 -70.648010253906 -101.302505493164 2.422378301620
91.133300781250 -72.189170837402 -206.938858032227 2.552006483078
-60.676933288574 -59.076210021973 -113.098045349121 1.412702322006
-73.434822082520 -66.660285949707 -48.858310699463 2.699020624161
0.796127974987 -71.959877014160 -160.340194702148 1.233254432678
73.902053833008 -72.234275817871 -99.323127746582 0.531927406788
-155.594985961914 -71.528869628906 -219.855361938477 3.173430681229
-145.217254638672 -68.887130737305 -238.636535644531 2.597592830658
-88.986602783203 -79.518806457520 -102.406616210938 3.301758050919
10.150818824768 -74.916648864746 -192.443054199219 1.334174752235
-97.289802551270 -66.891365051270 -154.487014770508 2.244519710541
-98.975570678711 -63.862712860107 -110.825065612793 1.380825042725
48.890117645264 -75.468437194824 -103.711517333984 1.242303729057
57.867668151855 -63.538909912109 -83.891487121582 1.841469526291
78.732604980469 -76.027519226074 -76.695152282715 0.492184877396
85.210861206055 -78.676300048828 -218.255401611328 2.651634693146
-38.445552825928 -80.518272399902 -243.225021362305 1.723465323448
-5.338797092438 -83.414237976074 -269.670898437500 1.280904889107
41.997795104980 -69.523040771484 -37.183940887451 2.665851116180
-23.766757965088 -62.358005523682 -51.552795410156 3.537260532379
-46.151931762695 -72.434471130371 -165.267150878906 2.675800323486
43.667346954346 -72.323471069336 -118.589782714844 1.828601241112
21.279253005981 -65.868408203125 -35.587318420410 3.544697046280
-148.398818969727 -79.158767700195 -305.618927001953 0.828521192074
-36.295848846436 -78.079696655273 -170.008895874023 2.059579610825
-143.519393920898 -70.726196289063 -254.092514038086 1.310622334480
-47.514923095703 -74.838211059570 -195.274505615234 1.234040617943
71.510543823242 -69.214248657227 -100.528724670410 1.396489262581
3.091387987137 -78.129302978516 -242.231872558594 1.844704747200
-28.673353195190 -74.044105529785 -287.634399414063 2.110432386398
-9.564738273621 -82.239891052246 -264.095520019531 3.044618844986
-72.825157165527 -73.386550903320 -156.218902587891 1.195374965668
-128.807327270508 -74.795524597168 -263.668273925781 1.893259882927
40.583114624023 -60.627120971680 -21.541568756104 1.819781661034
-47.962947845459 -82.167503356934 -81.192962646484 2.268831253052
82.249252319336 -73.753028869629 -221.783187866211 1.102090954781
-32.844448089600 -75.359367370605 -286.284484863281 0.751755654812
-108.574584960938 -71.408126831055 -229.028335571289 0.243516817689
75.979377746582 -68.621147155762 -64.550071716309 1.264089941978
-27.102264404297 -79.632705688477 -289.883056640625 3.725400209427
-1.520596981049 -78.433708190918 -287.124572753906 3.036785364151
-46.284236907959 -72.144371032715 -161.186050415039 1.532370924950
-149.140045166016 -79.265197753906 -308.716125488281 2.698687553406
-124.775154113770 -64.693061828613 -228.541900634766 1.363118529320
-71.487281799316 -79.686630249023 -74.816467285156 2.561601400375
-84.046714782715 -67.261291503906 -128.231063842773 1.989344358444
-57.416736602783 -65.134605407715 -139.428375244141 1.123730778694
-62.292770385742 -59.490436553955 -134.113159179688 1.960968494415
-7.646164894104 -64.928749084473 -245.932266235352 2.494677543640
7.606274127960 -79.554595947266 -211.327697753906 2.195445299149
62.086639404297 -60.836112976074 -89.261970520020 1.612288355827
22.219930648804 -79.337814331055 -157.481567382813 1.808467984200
20.094093322754 -79.728027343750 -172.933181762695 1.097697138786
-61.564834594727 -76.131507873535 -290.861907958984 1.041259407997
-139.560562133789 -80.076293945313 -231.706710815430 2.623501300812
25.717453002930 -73.645416259766 -132.907287597656 2.936761379242
-36.568855285645 -80.040031433105 -166.229904174805 0.691847741604
-154.157440185547 -61.897800445557 -226.695190429688 0.906709432602
-67.781356811523 -80.859840393066 -205.783493041992 1.898779988289
-54.832622528076 -75.637985229492 -285.731719970703 1.963271379471
-72.138999938965 -72.939872741699 -142.956649780273 1.475443363190
16.572772979736 -73.843544006348 -169.046249389648 1.811692953110
12.791670799255 -72.096817016602 -151.795104980469 1.683940052986
-24.047672271729 -72.802474975586 -216.962677001953 1.497439980507
26.483665466309 -79.595474243164 -138.457458496094 2.204203128815
-46.534706115723 -59.990207672119 -45.619487762451 1.174843192101
53.433811187744 -62.804176330566 -85.203895568848 3.032324552536
-45.362487792969 -66.375488281250 -48.158740997314 1.658650875092
-141.883178710938 -79.210006713867 -201.893737792969 1.115712523460
30.099613189697 -58.395782470703 -11.783620834351 2.592252731323
-7.218579769135 -64.809509277344 -238.748718261719 0.871733963490
-84.522247314453 -79.652282714844 -107.965461730957 1.857489943504
41.071372985840 -71.272804260254 -103.714614868164 1.212399601936
-17.672660827637 -64.776939392090 -68.663330078125 2.787225961685
-112.861877441406 -75.373107910156 -289.453582763672 1.876325130463
25.019901275635 -70.248405456543 -162.240951538086 1.387578964233
16.896261215210 -77.773429870605 -195.139419555664 1.991033196449
-91.709045410156 -74.113677978516 -219.839874267578 1.378624439240
-62.493778228760 -77.063438415527 -64.839248657227 3.702710390091
39.443904876709 -70.389648437500 -109.255416870117 1.781055808067
-103.112594604492 -63.387245178223 -170.759735107422 1.208756208420
94.943687438965 -74.856979370117 -197.126861572266 1.603572010994
-151.014572143555 -77.663063049316 -218.636230468750 1.412368059158
-20.278461456299 -77.308517456055 -217.072967529297 1.007329463959
-148.363449096680 -80.298431396484 -197.768768310547 1.316563248634
-93.989059448242 -66.161972045898 -137.060012817383 1.262117505074
50.265617370605 -71.663421630859 -246.301620483398 1.380916595459
-43.791526794434 -70.012443542480 -160.589004516602 1.803112626076
94.751373291016 -66.043037414551 -65.977882385254 0.974253714085
-13.577922821045 -73.921302795410 -198.753097534180 1.529435873032
31.762010574341 -68.398872375488 -131.346420288086 2.483939409256
52.350788116455 -74.399703979492 -244.119979858398 3.382911205292
-62.688053131104 -72.699249267578 -162.190612792969 1.825845003128
46.481445312500 -62.697437286377 -31.914655685425 3.062638759613
110.824996948242 -72.419364929199 -124.564773559570 1.014345407486
-23.080591201782 -67.855163574219 -57.319499969482 2.464117765427
-98.592620849609 -64.369865417480 -77.373680114746 1.102477192879
-51.497779846191 -79.153610229492 -246.802642822266 0.723025143147
113.450996398926 -70.182136535645 -141.531600952148 1.668780326843
-73.407188415527 -76.354507446289 -212.462524414063 1.318003416061
-80.257476806641 -80.021842956543 -83.841957092285 1.847907662392
47.805633544922 -63.928821563721 -24.855720520020 3.033683538437
-136.806167602539 -68.417900085449 -233.951431274414 2.326369524002
-65.685638427734 -64.716125488281 -125.462326049805 2.849023818970
-145.643035888672 -70.213706970215 -270.969299316406 3.615425825119
92.746604919434 -67.888877868652 -104.248497009277 2.007302522659
18.465501785278 -69.557693481445 -180.934280395508 2.880774497986
-155.794250488281 -72.143661499023 -234.554504394531 2.860477924347
-147.564422607422 -76.886940002441 -186.896118164063 0.858153462410
5.401658058167 -75.432624816895 -224.462127685547 2.042403697968
-114.766426086426 -67.820907592773 -258.066650390625 1.311045527458
109.924438476563 -77.116127014160 -142.391006469727 2.175756216049
-84.465385437012 -71.200965881348 -61.763648986816 4.084352016449
-161.671463012695 -68.059570312500 -251.788772583008 2.022498369217
-56.286674499512 -80.285148620605 -182.247009277344 1.313688516617
-101.857376098633 -63.428382873535 -154.415756225586 1.895481228828
-119.630241394043 -65.131263732910 -233.334579467773 1.703970551491
68.405494689941 -72.595619201660 -88.052589416504 1.530098199844
-112.386779785156 -69.470970153809 -193.096603393555 1.016552686691
-97.446235656738 -65.977684020996 -119.267951965332 1.259514093399
-166.741287231445 -74.004425048828 -271.055480957031 0.456961959600
-5.508564949036 -76.509834289551 -231.602218627930 1.858805537224
20.610544204712 -72.305450439453 -277.225616455078 1.498649954796
-42.650081634521 -68.094909667969 -164.612487792969 2.630330085754
-39.530609130859 -79.801361083984 -81.871482849121 2.876219511032
52.284923553467 -60.731388092041 -88.279228210449 2.599460840225
103.709213256836 -72.725059509277 -192.836761474609 1.480499386787
99.093620300293 -69.407073974609 -95.318565368652 2.793930530548
-61.177989959717 -63.922157287598 -122.414840698242 1.945691108704
111.577827453613 -76.404289245605 -126.143318176270 1.179307818413
-47.775840759277 -75.389297485352 -186.673355102539 2.299839735031
-91.101776123047 -64.911766052246 -59.574859619141 1.664387822151
-33.275047302246 -72.486091613770 -59.059555053711 2.785507678986
-31.972692489624 -70.682853698730 -56.502796173096 2.232627391815
-127.655464172363 -72.838386535645 -234.146926879883 1.499269485474
44.243331909180 -67.856376647949 -254.333358764648 2.380139350891
-0.402285993099 -72.344535827637 -224.155838012695 1.852701783180
-150.391845703125 -76.613082885742 -241.935348510742 1.639776229858
-48.597660064697 -76.157737731934 -184.676864624023 0.717922091484
19.758640289307 -79.743499755859 -183.084075927734 1.015479683876
21.258792877197 -69.988769531250 -153.301742553711 1.867678880692
-37.307601928711 -75.720756530762 -240.516723632813 1.775268077850
67.087669372559 -66.337081909180 -98.854583740234 1.202823996544
-152.668762207031 -69.063789367676 -253.283721923828 0.712080955505
-146.503402709961 -63.976715087891 -288.666046142578 1.352271199226
43.412086486816 -59.903736114502 -114.479370117188 0.560196757317
-100.331108093262 -61.450389862061 -90.311820983887 2.749247789383
42.624156951904 -69.565490722656 -27.285009384155 1.967754960060
50.948677062988 -70.078308105469 -105.960006713867 1.396669626236
30.555812835693 -76.625335693359 -120.421844482422 1.897123098373
108.705825805664 -69.668426513672 -128.467285156250 0.409043610096
-163.221939086914 -65.313125610352 -204.258239746094 2.977855920792
-19.676246643066 -77.564239501953 -202.781478881836 0.992916464806
-6.321867942810 -70.954078674316 -229.711059570313 0.985622286797
-49.853832244873 -58.699966430664 -44.221347808838 2.125465869904
-30.669097900391 -76.438621520996 -186.696716308594 0.885490894318
16.379796981812 -75.607681274414 -238.943069458008 1.825614929199
20.640430450439 -78.807052612305 -241.569152832031 1.839017510414
109.988441467285 -72.231636047363 -107.712211608887 0.970817029476
42.817371368408 -74.506507873535 -98.848136901855 2.876202344894
59.959457397461 -67.702827453613 -90.918167114258 2.494611740112
10.057888984680 -71.667076110840 -212.714965820313 1.325529456139
38.395072937012 -67.714103698730 -18.127229690552 3.506053447723
-133.265594482422 -71.829116821289 -202.456237792969 0.241832092404
25.142173767090 -67.963943481445 -151.583923339844 1.603207707405
92.894531250000 -75.726539611816 -89.153106689453 0.736770451069
-82.384078979492 -83.720817565918 -102.396614074707 1.988189220428
2.285859107971 -84.376861572266 -250.567779541016 2.195029497147
-147.535598754883 -73.359321594238 -193.528793334961 1.418285369873
-144.752777099609 -84.374748229980 -259.700958251953 1.108337044716
112.558578491211 -76.481086730957 -169.039382934570 1.626989841461
-35.114013671875 -73.427093505859 -288.928558349609 2.399298429489
-161.940719604492 -71.078063964844 -292.863922119141 1.674507975578
-148.530029296875 -67.586669921875 -296.519378662109 1.402558088303
10.410966873169 -77.014633178711 -242.133056640625 0.918317914009
-17.328536987305 -70.402984619141 -199.652526855469 2.155355691910
-74.895294189453 -76.856803894043 -213.653808593750 1.215952157974
-15.325702667236 -71.901489257813 -262.081207275391 0.372306674719
-32.890018463135 -77.935508728027 -74.002151489258 2.592069149017
-154.061218261719 -66.974105834961 -226.019378662109 1.125754475594
-23.577419281006 -70.191291809082 -196.158401489258 1.509271740913
-150.440032958984 -77.129081726074 -217.473449707031 0.533963024616
83.421699523926 -76.279632568359 -79.283447265625 1.809813141823
-74.918190002441 -72.183265686035 -138.121139526367 1.529144883156
-149.562500000000 -79.688537597656 -257.614593505859 3.229436397552
-139.923431396484 -69.897354125977 -226.808822631836 1.181679368019
-151.022994995117 -64.685127258301 -207.208663940430 1.626668572426
-24.339782714844 -75.326202392578 -177.972564697266 0.967281341553
88.759963989258 -75.081924438477 -219.592849731445 1.203168034554
-131.197708129883 -63.664852142334 -204.483627319336 1.747572422028
-10.756374359131 -69.857482910156 -241.642364501953 1.108999609947
-137.647445678711 -66.335769653320 -204.168090820313 3.358432531357
-150.726745605469 -77.967033386230 -206.695266723633 2.356929302216
92.462684631348 -74.887771606445 -214.565139770508 2.217765092850
104.711524963379 -70.264595031738 -100.688697814941 1.562461614609
-16.292709350586 -73.737915039063 -220.879074096680 2.106622695923
-45.962451934814 -72.904487609863 -288.529022216797 2.972684860229
103.854263305664 -74.520362854004 -195.270507812500 1.137791514397
-79.378944396973 -63.822780609131 -135.859756469727 2.529409885406
11.937814712524 -75.508728027344 -195.131042480469 0.921271979809
-149.547637939453 -70.276191711426 -176.153808593750 1.766947150230
78.844245910645 -60.790630340576 -58.238769531250 2.290223121643
-24.296409606934 -72.963363647461 -215.970642089844 2.031085014343
-89.777236938477 -74.696617126465 -114.282203674316 2.002587318420
-26.889444351196 -74.528007507324 -173.866806030273 1.020349144936
-63.392417907715 -64.414688110352 -124.817916870117 1.679293274879
9.758180618286 -68.042442321777 -155.670547485352 1.114119291306
-59.691043853760 -79.676231384277 -171.554672241211 2.298255205154
13.771185874939 -75.438697814941 -289.331573486328 1.172368168831
-150.447631835938 -81.401054382324 -199.520736694336 1.817461490631
-105.580383300781 -66.593376159668 -226.038223266602 0.580876767635
-149.960205078125 -60.894977569580 -185.532485961914 2.352571964264
93.530754089355 -67.267646789551 -66.239646911621 1.577589511871
6.799958229065 -71.137069702148 -235.390197753906 1.107840061188
-15.671942710876 -72.451950073242 -260.443237304688 2.071283817291
22.442716598511 -67.963783264160 -180.094421386719 1.257231354713
-125.546165466309 -66.339912414551 -290.032989501953 0.678611695766
-83.689590454102 -63.143199920654 -127.332160949707 1.935369968414
19.039821624756 -79.028587341309 -194.738342285156 1.921136021614
-10.384821891785 -75.466056823730 -221.321289062500 1.981942057610
-1.269574999809 -67.722244262695 -291.383056640625 1.533809542656
-37.642475128174 -74.563270568848 -61.867237091064 2.650868177414
113.646606445313 -70.208992004395 -133.502319335938 1.666851162910
1.204954028130 -79.569328308105 -288.119201660156 3.579479694366
-85.121017456055 -73.727287292480 -109.173583984375 2.086835622787
3.174357891083 -84.926132202148 -274.288085937500 2.170599222183
77.112449645996 -77.129188537598 -87.305053710938 0.575740158558
98.530639648438 -65.509162902832 -69.352142333984 1.063162326813
21.839279174805 -60.340244293213 -139.704818725586 0.765316426754
-51.042930603027 -75.635169982910 -151.126296997070 1.688293933868
114.955917358398 -73.666641235352 -131.758789062500 1.432830691338
-44.025074005127 -76.660003662109 -84.680221557617 1.225466728210
-73.678573608398 -82.700134277344 -86.656234741211 3.968737125397
-11.627036094666 -77.097946166992 -207.541854858398 2.257481098175
77.295074462891 -71.662902832031 -67.708435058594 1.996466159821
-146.064224243164 -75.532180786133 -209.938690185547 1.150533080101
27.540834426880 -75.652465820313 -171.954589843750 1.365158915520
29.546037673950 -62.622055053711 -35.336978912354 1.372060656548
-66.602363586426 -58.746803283691 -106.775192260742 1.345336794853
-95.907669067383 -62.360267639160 -152.717895507813 0.314564764500
-146.722122192383 -73.651016235352 -200.749267578125 2.116814613342
-58.896854400635 -61.299087524414 -134.861495971680 2.036656856537
-55.238533020020 -63.901226043701 -45.410552978516 2.519412279129
-33.705913543701 -63.005580902100 -48.491615295410 2.102966308594
-40.002548217773 -79.008102416992 -200.721740722656 1.587966561317
45.961620330811 -69.902732849121 -29.332767486572 2.086311340332
101.528717041016 -67.455162048340 -89.254539489746 1.621710300446
-155.885314941406 -74.828079223633 -295.754089355469 1.417023181915
-147.819931030273 -64.672897338867 -276.477935791016 0.864062249660
-78.933280944824 -67.227531433105 -117.364913940430 1.250226497650
-17.493520736694 -75.110618591309 -236.706436157227 0.546108245850
11.983140945435 -78.444915771484 -204.804916381836 1.619922757149
15.122318267822 -73.734863281250 -214.055999755859 2.486164331436
-78.935234069824 -65.768287658691 -107.099838256836 1.796065688133
23.413364410400 -62.362846374512 -26.347602844238 2.342402696609
-147.789154052734 -75.681724548340 -187.003921508789 0.881389021873
-4.622533798218 -78.692398071289 -280.415710449219 1.683386325836
-38.485897064209 -80.792739868164 -205.236648559570 1.155140399933
-159.028076171875 -66.341400146484 -202.444458007813 2.102989673615
16.499383926392 -68.108268737793 -178.645950317383 1.467087984085
98.472694396973 -75.663780212402 -200.526062011719 0.939172565937
-154.619827270508 -74.075309753418 -268.304534912109 2.158548116684
-152.036895751953 -84.903625488281 -299.240264892578 0.703004300594
-139.262908935547 -69.241050720215 -196.887283325195 1.352456569672
79.834442138672 -71.725074768066 -100.437820434570 2.042068004608
36.756729125977 -65.902694702148 -11.817934989929 3.024231672287
-139.774185180664 -64.840385437012 -230.974365234375 1.541486859322
-153.290542602539 -74.325401306152 -272.405639648438 1.222143650055
-25.045438766479 -67.768493652344 -189.914047241211 0.939522743225
-19.412578582764 -76.843933105469 -204.589950561523 1.267375111580
22.356880187988 -64.530136108398 -136.524124145508 1.159150600433
76.628898620605 -75.962226867676 -223.448410034180 2.510163307190
-108.702156066895 -61.955089569092 -177.620590209961 1.702318429947
-152.595825195313 -62.028842926025 -182.002227783203 1.905725121498
-54.297931671143 -70.291458129883 -133.743972778320 1.894986629486
-0.610321998596 -73.762306213379 -290.606079101563 2.203368186951
-77.888008117676 -83.559272766113 -101.426338195801 2.658772230148
-112.097015380859 -67.005813598633 -259.055999755859 0.696722626686
-58.504661560059 -79.107254028320 -246.043640136719 1.586160778999
-153.303115844727 -80.263381958008 -294.311676025391 1.384034395218
-140.879150390625 -71.804763793945 -227.152709960938 1.141248345375
-66.659950256348 -76.309127807617 -63.096710205078 2.909252882004
36.747985839844 -70.895362854004 -123.436973571777 0.803709328175
77.568153381348 -77.148574829102 -89.012779235840 2.265431642532
-37.555168151855 -74.992378234863 -175.825256347656 1.590836882591
8.903008460999 -76.827346801758 -207.785797119141 1.179640889168
-112.118423461914 -73.117614746094 -258.294006347656 1.701445460320
-86.667655944824 -74.685356140137 -111.777870178223 1.521633982658
-99.299148559570 -63.596225738525 -82.279411315918 2.223900556564
-148.350189208984 -68.584602355957 -313.162841796875 1.836061000824
-66.599464416504 -73.562278747559 -152.668273925781 1.724038004875
27.090803146362 -61.932117462158 -138.691406250000 2.922340869904
20.595033645630 -72.320510864258 -277.266235351563 1.464345335960
-18.240131378174 -78.237754821777 -239.682998657227 0.763974130154
-158.254333496094 -70.471893310547 -293.959899902344 1.574775457382
-57.946174621582 -65.353195190430 -139.337875366211 1.305227279663
-82.076889038086 -60.316654205322 -126.617652893066 2.384527921677
-18.604570388794 -72.096199035645 -238.598632812500 1.560067772865
114.958572387695 -75.077110290527 -137.309158325195 2.384377479553
-45.529792785645 -71.644943237305 -53.535858154297 2.592447519302
67.167968750000 -68.977371215820 -73.069808959961 1.576830387115
47.764602661133 -62.864997863770 -24.861234664917 2.308514356613
-5.102933883667 -84.822570800781 -266.847839355469 1.487753152847
49.376018524170 -68.408035278320 -105.827423095703 1.390099287033
-67.283157348633 -74.547935485840 -98.040290832520 1.449724316597
14.372053146362 -82.281166076660 -227.818496704102 1.547035455704
-98.238914489746 -62.830123901367 -146.393859863281 1.625283598900
34.265659332275 -80.484008789063 -132.516937255859 1.198282837868
-27.186363220215 -63.017620086670 -69.833030700684 1.690090775490
36.424407958984 -74.979652404785 -112.137008666992 2.193467617035
-83.056556701660 -59.786113739014 -47.933776855469 1.657576560974
-146.868331909180 -83.638031005859 -237.105438232422 1.190056324005
94.740539550781 -73.013092041016 -209.973571777344 1.071855068207
-166.827743530273 -69.085289001465 -265.851013183594 1.552307367325
79.773559570313 -76.090705871582 -76.974494934082 0.928488433361
-150.718444824219 -83.484352111816 -259.255432128906 1.108557939529
-46.628273010254 -80.790657043457 -243.245040893555 1.156322479248
11.990633964539 -69.365493774414 -216.521423339844 2.212414264679
-146.712829589844 -75.725891113281 -187.347198486328 1.232003688812
-19.360937118530 -78.829635620117 -222.772903442383 1.381401896477
2.769756078720 -86.067062377930 -254.740066528320 2.340021848679
6.309894084930 -78.985710144043 -217.195617675781 3.125972270966
-7.505488872528 -82.923278808594 -267.863098144531 2.371743679047
-59.224437713623 -74.517684936523 -57.297588348389 2.293611526489
0.417861998081 -62.180618286133 -250.797622680664 2.106917858124
-153.159881591797 -77.223587036133 -283.990905761719 2.717558383942
6.887700080872 -75.001533508301 -159.634414672852 2.195940494537
-12.816205024719 -80.159561157227 -215.729553222656 1.957645058632
-36.254161834717 -78.295265197754 -161.164062500000 1.211887717247
86.626640319824 -77.991455078125 -219.897232055664 2.653545856476
24.656190872192 -79.985618591309 -168.263290405273 1.873302817345
57.738739013672 -74.492782592773 -240.053649902344 2.718408584595
-150.819274902344 -77.174423217773 -206.545913696289 2.102119445801
-73.026725769043 -85.028381347656 -93.864875793457 2.066363811493
-91.489501953125 -77.002426147461 -104.791854858398 1.277166485786
-106.753707885742 -72.011909484863 -223.506851196289 0.170343935490
-67.389183044434 -76.272949218750 -167.021881103516 1.867632269859
-151.325881958008 -78.035736083984 -250.364181518555 2.351232767105
17.617563247681 -78.477462768555 -250.621826171875 1.393756985664
-94.557754516602 -72.337226867676 -221.309661865234 0.349044322968
108.074760437012 -70.894241333008 -131.626037597656 1.492029070854
5.062262058258 -76.506042480469 -238.692687988281 1.388371586800
-150.700073242188 -67.124366760254 -304.379547119141 2.741131782532
-156.459487915039 -66.454872131348 -291.254547119141 0.983437299728
58.410541534424 -72.202209472656 -89.596443176270 1.650779724121
12.759352684021 -77.317070007324 -282.350738525391 1.825706481934
88.232841491699 -71.489425659180 -215.931701660156 1.013933181763
-43.892215728760 -80.874031066895 -77.846389770508 2.311189889908
-94.544563293457 -73.263732910156 -105.425979614258 1.801671624184
82.376434326172 -73.776252746582 -221.479049682617 1.170955657959
-67.527374267578 -82.143180847168 -80.558570861816 2.470188856125
-67.609886169434 -78.850097656250 -99.484428405762 2.089034318924
-58.894641876221 -69.449272155762 -140.239990234375 1.143579602242
77.393615722656 -71.185699462891 -230.154571533203 1.156249761581
-92.986175537109 -72.404548645020 -252.654998779297 1.146046042442
-11.155264854431 -80.133674621582 -209.702087402344 1.259114384651
51.267250061035 -75.994293212891 -102.944869995117 1.307109951973
21.236917495728 -79.823707580566 -178.896011352539 1.827287912369
-135.212585449219 -67.656631469727 -256.749176025391 0.558041155338
39.744647979736 -73.356018066406 -102.102165222168 2.775947570801
44.254310607910 -70.560615539551 -95.031929016113 2.154177427292
-118.135536193848 -70.616401672363 -292.968719482422 1.627000331879
-65.910156250000 -71.702545166016 -287.637237548828 1.271785259247
101.394996643066 -68.139495849609 -96.402091979980 0.838210284710
-102.011009216309 -70.546508789063 -219.245941162109 1.498695492744
-166.513748168945 -69.548812866211 -277.473937988281 2.118870973587
-42.451343536377 -69.636489868164 -150.271591186523 2.743001461029
-83.557952880859 -76.747322082520 -288.190521240234 2.353698730469
-83.457038879395 -60.441875457764 -116.393974304199 1.489935636520
-150.334732055664 -72.430000305176 -213.990585327148 1.522943615913
7.247806072235 -64.546775817871 -242.353973388672 2.024576902390
-146.500076293945 -64.816841125488 -222.598739624023 1.409564495087
-151.644012451172 -81.914573669434 -265.705657958984 2.791671752930
-147.228622436523 -65.766319274902 -290.367065429688 1.612307548523
-94.420333862305 -59.939842224121 -58.554859161377 2.000113964081
