-27.711147308350 -78.814811706543 -183.239562988281 0.648532927036
-35.385852813721 -74.727081298828 -54.188873291016 2.709672212601
6.877455234528 -82.551376342773 -270.695892333984 2.754269838333
-96.660675048828 -72.619026184082 -147.405471801758 4.599449157715
-152.882720947266 -80.119468688965 -198.370391845703 0.724680721760
-82.276344299316 -73.246627807617 -134.697479248047 4.193590641022
23.107307434082 -78.219734191895 -153.905212402344 1.277369737625
28.229207992554 -76.056892395020 -163.388870239258 1.246305584908
-150.954345703125 -76.707023620605 -215.844680786133 1.824597477913
88.165344238281 -73.099472045898 -213.860656738281 0.883362293243
-167.852081298828 -69.226051330566 -224.217300415039 2.253585338593
-154.808105468750 -79.669319152832 -230.386795043945 1.841832041740
41.695522308350 -81.795471191406 -113.793266296387 2.708434343338
-112.696250915527 -69.274002075195 -293.604248046875 2.223307371140
2.574235916138 -73.907020568848 -292.476654052734 1.597063422203
-4.097556114197 -82.341575622559 -282.608245849609 5.444744586945
-155.077606201172 -78.541244506836 -219.011245727539 4.985751628876
-78.801780700684 -70.704757690430 -104.937461853027 4.207006931305
-30.938150405884 -74.012008666992 -244.446243286133 2.501780509949
96.332557678223 -75.469482421875 -209.329803466797 1.135276556015
-13.077158927917 -65.411964416504 -258.934234619141 3.745423078537
-77.282524108887 -72.359146118164 -127.973464965820 2.703546524048
-150.961395263672 -73.820449829102 -175.479629516602 2.429835557938
28.100700378418 -83.444023132324 -142.578338623047 3.101738929749
-72.570793151855 -72.347785949707 -146.937332153320 0.644863903522
-2.299400091171 -78.689819335938 -237.997619628906 2.050644397736
21.138160705566 -78.109291076660 -161.132156372070 2.205574274063
86.270431518555 -71.317886352539 -72.870292663574 3.252179861069
-36.099250793457 -82.977432250977 -179.821640014648 4.847238540649
-155.974273681641 -84.466476440430 -290.382568359375 1.853621482849
-49.671291351318 -71.229164123535 -142.137130737305 2.831599950790
-30.950185775757 -71.002296447754 -198.193939208984 4.771160602570
0.232867002487 -84.030387878418 -260.459472656250 2.645739316940
13.278545379639 -75.903976440430 -243.039871215820 2.569934844971
-172.132247924805 -73.135017395020 -222.432434082031 6.797030925751
-29.742357254028 -72.347892761230 -195.084579467773 2.474086523056
-169.697326660156 -74.947380065918 -231.597595214844 4.849454402924
8.260510444641 -72.962326049805 -231.466445922852 2.148178339005
-162.627563476563 -84.300834655762 -289.210754394531 7.994737625122
42.520668029785 -66.235427856445 -260.582244873047 3.335072517395
1.617261052132 -70.698188781738 -249.341003417969 6.050186157227
64.334259033203 -70.189888000488 -240.101013183594 0.786189019680
-151.435546875000 -66.383514404297 -219.023605346680 3.635350704193
91.316108703613 -65.934677124023 -70.541717529297 5.222329616547
-15.284443855286 -80.110939025879 -276.344665527344 7.419566631317
-19.240859985352 -75.215721130371 -62.782482147217 2.855875968933
-12.688513755798 -65.312194824219 -294.849578857422 7.597311973572
20.566261291504 -70.238243103027 -168.169647216797 1.092683196068
-59.664974212646 -69.786071777344 -145.934204101563 3.241311311722
34.862434387207 -64.941093444824 -258.456787109375 1.826818108559
-47.043064117432 -89.010734558105 -88.657661437988 5.242856979370
29.712884902954 -71.704444885254 -148.065811157227 1.847433805466
-121.806571960449 -67.682929992676 -199.034225463867 2.622694015503
-162.726684570313 -76.359825134277 -303.397979736328 8.070324897766
64.832206726074 -69.868301391602 -239.993286132813 0.615463972092
21.028852462769 -73.225646972656 -185.308090209961 3.097688674927
-94.239929199219 -66.900573730469 -63.144935607910 3.538607120514
-157.452224731445 -65.732757568359 -246.749984741211 3.227271556854
-169.635498046875 -75.016510009766 -253.885589599609 3.850952863693
-152.317062377930 -73.731002807617 -293.252227783203 1.846744418144
112.434524536133 -78.876770019531 -150.118881225586 3.704164028168
-19.841289520264 -81.580650329590 -210.275543212891 4.778957366943
36.630378723145 -64.467094421387 -133.817199707031 4.361788272858
-89.758445739746 -70.936691284180 -141.481262207031 3.034048318863
32.931251525879 -70.739753723145 -43.306949615479 2.291284322739
7.654662132263 -71.667404174805 -220.998306274414 1.201819658279
-101.867500305176 -68.408889770508 -152.502456665039 3.212938785553
-45.084068298340 -75.549613952637 -245.878005981445 1.896319508553
-141.774139404297 -68.485450744629 -263.904266357422 1.772616624832
11.570699691772 -79.422454833984 -226.504196166992 0.950061440468
101.798851013184 -72.661132812500 -188.499862670898 2.627254009247
-2.884546041489 -61.117294311523 -262.869720458984 4.855123996735
41.683933258057 -80.846374511719 -133.512420654297 3.774810314178
-20.961082458496 -76.833999633789 -197.003509521484 1.691048383713
-171.405136108398 -71.215400695801 -207.602188110352 5.238249778748
-69.802711486816 -70.828552246094 -105.034652709961 4.392967224121
6.125242233276 -68.270507812500 -293.229339599609 1.354820489883
-26.217321395874 -76.420791625977 -243.095886230469 0.938559591770
18.107513427734 -77.433738708496 -195.869659423828 0.672420442104
-38.228591918945 -76.023216247559 -210.414978027344 1.561045050621
51.210098266602 -71.253677368164 -108.686988830566 2.007352113724
-81.096069335938 -76.524330139160 -254.916152954102 2.112186431885
-1.901664018631 -67.373680114746 -236.635635375977 0.697149634361
-44.307834625244 -83.152328491211 -168.130355834961 5.981028556824
-32.692428588867 -77.860961914063 -173.036651611328 1.675406098366
56.857803344727 -70.144027709961 -245.120925903320 0.719834685326
-57.093997955322 -77.268264770508 -143.400146484375 3.724330902100
-126.910766601563 -66.793823242188 -201.910522460938 3.660596370697
-124.263938903809 -74.033050537109 -229.691513061523 1.847780823708
-42.316772460938 -78.396583557129 -159.676986694336 2.093621730804
4.328075885773 -61.758098602295 -249.679595947266 3.628090620041
-33.376029968262 -78.294052124023 -82.425468444824 1.941985130310
-41.953113555908 -82.228660583496 -62.060695648193 4.152558326721
-15.218061447144 -74.338546752930 -240.884368896484 1.891919374466
8.119584083557 -70.349014282227 -200.324478149414 1.986676812172
-150.033386230469 -66.992477416992 -234.574645996094 1.397006988525
89.446975708008 -74.728797912598 -220.008422851563 0.364978730679
-30.854797363281 -73.231140136719 -54.399837493896 1.461770892143
-22.435333251953 -82.317459106445 -78.222625732422 6.291822910309
39.918704986572 -69.157737731934 -258.046630859375 1.470438838005
-151.444763183594 -85.178863525391 -287.931488037109 1.090748906136
31.757303237915 -67.737503051758 -42.434226989746 2.390505075455
-43.515312194824 -77.045112609863 -244.685531616211 1.960848331451
20.647809982300 -65.155014038086 -150.985702514648 1.470825672150
40.071262359619 -81.478256225586 -115.276329040527 1.878866791725
-62.381446838379 -80.431526184082 -178.556198120117 3.616323709488
-4.811016082764 -73.478248596191 -247.899688720703 2.217370510101
-159.366607666016 -67.989791870117 -297.290130615234 4.166062831879
-45.381454467773 -67.781555175781 -48.630477905273 1.978076815605
-0.387032002211 -75.217071533203 -170.632812500000 2.306865692139
-59.302654266357 -78.396003723145 -54.116714477539 2.884542703629
-16.911130905151 -78.181312561035 -70.008361816406 4.190865039825
-167.226257324219 -69.771102905273 -251.681106567383 1.475494861603
90.713745117188 -71.396461486816 -219.727691650391 1.116470098495
5.909640789032 -83.386070251465 -244.638565063477 4.908157348633
107.210037231445 -75.673156738281 -123.233413696289 3.135323524475
18.596118927002 -69.674140930176 -192.421844482422 1.646405100822
-149.458648681641 -78.750007629395 -287.707153320313 1.676746726036
-151.384796142578 -77.061859130859 -220.482025146484 2.938438653946
-150.907974243164 -76.153648376465 -192.874557495117 1.345711708069
-89.360450744629 -72.344917297363 -139.674163818359 3.289319038391
-68.801078796387 -65.062850952148 -118.020622253418 3.033876180649
-154.632232666016 -85.769149780273 -236.625671386719 6.069074630737
-17.220581054688 -67.145904541016 -259.009094238281 4.330503463745
-8.450542449951 -73.296264648438 -247.327926635742 0.958545625210
-151.110900878906 -70.543800354004 -237.470626831055 3.207216501236
-148.452835083008 -83.724708557129 -190.596572875977 1.984383821487
-11.654285430908 -77.767379760742 -254.229339599609 2.687213897705
-48.288185119629 -82.771034240723 -62.367103576660 4.680956840515
-78.097267150879 -79.605697631836 -103.441024780273 1.276120781898
7.356131076813 -83.583206176758 -249.558059692383 1.955351471901
89.804809570313 -71.340126037598 -117.335319519043 10.780129432678
106.815544128418 -75.500755310059 -141.680572509766 3.523618698120
45.602222442627 -67.677192687988 -30.438703536987 1.907863616943
21.718849182129 -73.410133361816 -192.472320556641 1.573878526688
48.779266357422 -70.612831115723 -254.128707885742 1.441262602806
9.030703544617 -71.209754943848 -241.588027954102 0.267649054527
109.385353088379 -78.996818542480 -151.516387939453 3.439963102341
-99.089302062988 -68.231620788574 -94.880195617676 2.361507892609
-159.970016479492 -74.339263916016 -196.024810791016 4.114961624146
-16.951839447021 -67.695724487305 -283.434906005859 6.551799774170
-62.426448822021 -69.320121765137 -120.753021240234 3.177841901779
-13.910652160645 -81.103622436523 -275.760314941406 6.672393798828
-125.658508300781 -74.577049255371 -256.967346191406 1.112812519073
0.378562986851 -74.478660583496 -228.117019653320 2.409060716629
12.119170188904 -74.298355102539 -228.233413696289 3.555347681046
15.494208335876 -76.679069519043 -253.240249633789 2.914046764374
38.154911041260 -72.381828308105 -126.377296447754 2.791974067688
-46.881305694580 -76.018066406250 -291.528594970703 1.326436042786
-84.970352172852 -66.602210998535 -52.312858581543 1.698979496956
13.066345214844 -77.554832458496 -209.205261230469 0.944476723671
94.729179382324 -78.089797973633 -85.209480285645 2.504505634308
27.910154342651 -74.625968933105 -170.365020751953 1.346005678177
16.532398223877 -71.206764221191 -150.740661621094 1.858162164688
31.534372329712 -79.583549499512 -132.837158203125 1.959631562233
-2.317509889603 -75.875152587891 -248.069015502930 2.179695606232
-20.893110275269 -81.574241638184 -77.328712463379 6.473031520844
-153.498321533203 -68.948822021484 -228.148559570313 1.999463796616
7.692268848419 -70.299934387207 -159.646301269531 1.267116308212
23.448669433594 -81.805877685547 -151.821914672852 3.426554679871
28.845991134644 -64.374382019043 -261.390411376953 1.721607685089
-4.817144870758 -72.072181701660 -232.026000976563 1.866678714752
29.651853561401 -74.002655029297 -39.737422943115 1.736489057541
-29.718528747559 -85.300727844238 -193.913803100586 3.116802453995
-60.708747863770 -79.599433898926 -172.526046752930 2.145246505737
-138.252227783203 -68.350013732910 -264.974365234375 3.371133327484
-30.335105895996 -85.222885131836 -79.323333740234 4.866470813751
111.153335571289 -75.474388122559 -161.488281250000 1.353356838226
-153.080078125000 -72.207962036133 -274.154022216797 1.890213966370
-86.412742614746 -71.609420776367 -135.067276000977 2.305866003036
-151.727859497070 -77.035240173340 -192.970794677734 1.242578268051
-135.566864013672 -67.528083801270 -204.723114013672 2.115727186203
-25.691022872925 -73.606185913086 -213.429214477539 1.363597512245
8.565560340881 -81.623291015625 -269.754150390625 3.371834278107
-44.514217376709 -80.334831237793 -199.330535888672 1.229371666908
-156.321273803711 -82.886924743652 -235.646759033203 6.066246986389
6.374013900757 -73.087074279785 -200.662170410156 2.370237588882
-47.807258605957 -70.987480163574 -293.338684082031 4.712087631226
92.515830993652 -76.039451599121 -214.077026367188 2.348213911057
59.919742584229 -70.330406188965 -248.318817138672 1.724968314171
-29.188636779785 -75.801841735840 -185.316299438477 1.414057970047
12.487017631531 -71.376335144043 -217.922653198242 2.491048097610
41.613269805908 -82.283287048340 -123.332069396973 3.521238327026
-77.247077941895 -67.913383483887 -125.907516479492 1.202414393425
-44.969558715820 -71.926704406738 -157.833633422852 2.364794731140
-66.673583984375 -76.750892639160 -174.943023681641 4.156341075897
-12.769054412842 -63.984840393066 -246.626708984375 2.711284637451
103.113403320313 -73.899940490723 -181.743911743164 2.545025825500
-164.009918212891 -70.071701049805 -285.748626708984 2.509047269821
-65.652183532715 -68.549903869629 -99.445938110352 1.995788097382
-139.635055541992 -74.215927124023 -255.602661132813 2.348377943039
-7.258631229401 -61.971855163574 -292.900665283203 6.079451560974
-164.578735351563 -69.984123229980 -239.866744995117 1.871342539787
-142.369140625000 -75.964073181152 -292.869049072266 2.089141368866
33.802562713623 -82.340835571289 -133.679275512695 2.149998188019
80.726280212402 -69.899726867676 -230.503662109375 1.632631897926
32.187427520752 -78.632057189941 -130.610321044922 1.438168644905
-73.184768676758 -74.490135192871 -141.480331420898 1.733390688896
109.579994201660 -75.044372558594 -172.657852172852 0.696937561035
80.932487487793 -79.593765258789 -83.504875183105 2.699887037277
-95.161033630371 -71.912040710449 -140.218811035156 4.216280937195
-77.750663757324 -77.424972534180 -145.168945312500 4.663167476654
-86.687133789063 -75.599426269531 -216.204757690430 2.054535627365
48.781993865967 -71.881782531738 -105.106048583984 2.838439464569
21.169921875000 -80.038421630859 -179.548294067383 2.080984830856
0.129923000932 -81.536911010742 -255.940567016602 3.147715568542
-131.685073852539 -66.613357543945 -263.463623046875 1.510329365730
-57.095706939697 -80.705589294434 -193.469390869141 6.409255504608
-25.363967895508 -70.272438049316 -211.688583374023 3.502693414688
38.246894836426 -79.683181762695 -119.584274291992 1.663509249687
-172.047531127930 -74.123603820801 -231.402847290039 6.460762500763
43.477790832520 -77.722053527832 -21.504287719727 6.127368450165
-104.064033508301 -70.194419860840 -170.420150756836 1.141056418419
-22.176387786865 -72.026687622070 -293.088714599609 3.406945705414
-137.849151611328 -73.500442504883 -255.366867065430 2.444502353668
-153.308609008789 -72.460289001465 -278.842987060547 2.613677978516
-47.212604522705 -81.147041320801 -162.927764892578 4.178864479065
-25.292724609375 -69.282226562500 -54.300930023193 3.150176525116
-69.337760925293 -68.666389465332 -105.946273803711 3.222807407379
-149.747238159180 -64.447265625000 -224.886962890625 2.429978132248
-15.068120956421 -68.378425598145 -239.219955444336 2.590950965881
59.729965209961 -68.568092346191 -91.592887878418 2.241158962250
-58.118827819824 -86.218353271484 -209.629074096680 3.305317401886
-13.912476539612 -82.090072631836 -264.054016113281 4.507493019104
-65.774269104004 -84.900962829590 -67.742828369141 5.046611309052
71.581329345703 -71.820808410645 -112.913528442383 9.506052970886
-13.227542877197 -66.959693908691 -273.430236816406 3.140813589096
-151.916183471680 -65.716239929199 -175.893203735352 0.962004840374
-94.841377258301 -70.205307006836 -258.549591064453 1.323410391808
-102.414352416992 -75.717735290527 -219.568725585938 2.517645835876
-159.418960571289 -79.061119079590 -232.374160766602 5.561625003815
14.208345413208 -75.173164367676 -216.276901245117 2.350655555725
29.061840057373 -70.276443481445 -31.311471939087 1.941008210182
-28.862117767334 -71.643318176270 -293.028259277344 3.033702850342
-12.041286468506 -78.042701721191 -178.685455322266 0.700293362141
-21.530017852783 -75.000709533691 -236.283340454102 2.782353639603
-58.781398773193 -79.830017089844 -190.770492553711 6.434556007385
1.101444959641 -76.253822326660 -164.115707397461 2.397490739822
-82.270675659180 -76.743232727051 -105.820297241211 1.963271260262
-36.584354400635 -73.343139648438 -177.280136108398 1.665488004684
16.884943008423 -66.023132324219 -260.655578613281 8.727028846741
-37.821414947510 -86.103630065918 -76.882720947266 4.200629234314
-55.089202880859 -81.785316467285 -204.922607421875 1.918346166611
-72.872283935547 -72.993057250977 -144.093276977539 1.024309039116
-98.803398132324 -75.125289916992 -290.807006835938 1.822282552719
-75.187622070313 -86.027732849121 -76.380256652832 4.419939517975
-58.214412689209 -71.003288269043 -126.687431335449 1.926722645760
-63.304973602295 -65.041206359863 -137.324783325195 2.814013719559
46.018875122070 -70.922599792480 -115.468322753906 1.981988191605
-8.225994110107 -67.380165100098 -244.594390869141 2.615134239197
-92.429107666016 -79.409896850586 -88.013793945313 3.676208972931
-152.672027587891 -85.357025146484 -259.447265625000 1.743093490601
-48.250179290771 -84.584320068359 -67.911834716797 4.469867706299
-63.854232788086 -68.471298217773 -132.545166015625 1.555374741554
18.036666870117 -80.900550842285 -172.671936035156 3.316027879715
-144.092269897461 -75.813728332520 -290.805114746094 2.137328624725
46.001590728760 -74.625900268555 -39.130130767822 3.932267904282
-144.127838134766 -70.267868041992 -256.176269531250 2.105193614960
-131.367828369141 -66.319679260254 -234.141738891602 2.257647991180
-157.676406860352 -79.937911987305 -249.319366455078 6.390325546265
-153.382110595703 -83.378181457520 -194.368484497070 3.439229965210
-131.248718261719 -74.198249816895 -204.839096069336 2.418361425400
-156.382141113281 -68.604667663574 -179.923889160156 3.601652145386
33.685127258301 -72.274436950684 -133.930267333984 2.709822893143
-7.072965145111 -82.476608276367 -257.839202880859 0.981275975704
-26.146072387695 -77.291847229004 -61.170433044434 2.672411203384
14.638772010803 -80.565948486328 -201.176422119141 3.291146039963
7.074677944183 -77.280403137207 -164.930328369141 2.847387790680
-159.843780517578 -66.869514465332 -295.312286376953 4.545722484589
58.165504455566 -68.193008422852 -251.824844360352 3.819715261459
-73.312049865723 -73.775680541992 -140.921173095703 1.258254289627
-70.388603210449 -85.017158508301 -210.310165405273 2.556155920029
-19.153490066528 -78.644248962402 -270.842132568359 7.586874961853
43.297096252441 -71.131835937500 -254.161056518555 1.440401792526
9.700772285461 -80.746315002441 -269.468475341797 3.514918804169
-15.693982124329 -73.610183715820 -213.816329956055 1.243692636490
-41.977668762207 -79.194114685059 -156.449523925781 1.322188377380
-125.994941711426 -67.846862792969 -292.662780761719 1.447876334190
-41.372081756592 -71.954612731934 -164.349105834961 2.913294553757
-36.483638763428 -72.011772155762 -52.007877349854 1.958963990211
-37.171920776367 -68.868347167969 -51.097259521484 2.373371124268
47.037788391113 -74.522537231445 -106.183860778809 3.168492555618
-76.693946838379 -70.586410522461 -106.898635864258 2.125769376755
-151.576248168945 -84.828155517578 -236.417160034180 3.666656732559
-37.488758087158 -74.680130004883 -184.810958862305 4.107453823090
2.853852987289 -79.366134643555 -285.742584228516 2.605849504471
8.525840759277 -70.135635375977 -252.368591308594 8.941090583801
86.084197998047 -75.056571960449 -77.207725524902 1.407023906708
24.303550720215 -79.016998291016 -36.932044982910 6.521518707275
-63.290836334229 -84.035453796387 -98.781555175781 0.669048845768
28.761121749878 -67.397865295410 -262.782714843750 1.726296663284
-20.616304397583 -73.270957946777 -204.394866943359 1.398802161217
-10.153830528259 -68.225807189941 -297.948944091797 7.915586948395
-75.218978881836 -70.402130126953 -141.040451049805 1.730645060539
-145.116088867188 -80.342384338379 -291.031738281250 2.045542955399
72.657875061035 -76.726699829102 -83.304977416992 2.467008352280
107.302200317383 -79.147140502930 -184.353729248047 2.561278820038
-56.747043609619 -67.518218994141 -144.103286743164 1.451310038567
18.547513961792 -69.964965820313 -174.790039062500 1.395392298698
-62.493385314941 -70.570716857910 -136.231201171875 2.756505012512
-150.890014648438 -75.446418762207 -263.549896240234 1.798495769501
-161.671798706055 -70.862739562988 -281.267028808594 1.652091622353
98.936889648438 -72.999023437500 -209.009567260742 3.059082984924
-167.398101806641 -71.474754333496 -281.688507080078 2.381081819534
-145.349578857422 -75.721305847168 -288.279998779297 2.382125139236
-10.312327384949 -67.753776550293 -231.463790893555 1.246850013733
29.097063064575 -81.389076232910 -163.234573364258 2.326870203018
-36.318458557129 -71.306900024414 -176.257888793945 1.732368588448
12.419107437134 -73.212387084961 -251.449096679688 5.549293041229
101.887954711914 -66.832023620605 -79.549407958984 1.947898507118
35.141113281250 -73.639457702637 -143.749801635742 1.570935010910
-124.286514282227 -66.737258911133 -204.378540039063 1.279660463333
-64.458946228027 -75.439270019531 -171.406600952148 2.582126855850
63.626186370850 -74.694732666016 -246.868576049805 4.135039806366
-26.302719116211 -79.252616882324 -192.151748657227 2.586498260498
50.099052429199 -69.162147521973 -26.707199096680 1.396412730217
-147.018127441406 -71.613693237305 -188.358413696289 1.622072577477
33.131645202637 -84.462814331055 -134.476211547852 3.580854415894
-47.418369293213 -70.848953247070 -87.940254211426 3.065449714661
4.855256080627 -73.651496887207 -204.903091430664 2.960114717484
-13.018362045288 -65.734794616699 -260.049530029297 4.070715427399
38.790851593018 -76.917251586914 -49.430957794189 10.271096229553
14.254323005676 -71.293853759766 -189.341781616211 1.865832567215
-24.359926223755 -75.797004699707 -188.804000854492 3.300976276398
-13.067072868347 -70.520545959473 -235.859725952148 1.626488804817
-71.121742248535 -74.239807128906 -162.812316894531 2.338896989822
-15.991936683655 -76.791191101074 -294.872253417969 3.520677089691
14.334210395813 -68.107131958008 -257.077758789063 9.833004951477
-63.368053436279 -66.200973510742 -133.911102294922 1.852611303329
31.013212203979 -77.623161315918 -127.511535644531 1.705186724663
-78.551101684570 -70.797080993652 -132.671752929688 1.496183395386
9.906639099121 -81.538619995117 -254.223831176758 2.437906503677
94.788665771484 -78.794670104980 -86.976593017578 3.186588048935
8.641167640686 -64.404335021973 -291.877777099609 1.983102202415
25.194553375244 -74.945846557617 -173.000320434570 1.788199067116
-93.879295349121 -75.396148681641 -291.724761962891 1.671263337135
14.413249969482 -61.140506744385 -283.288177490234 3.955369949341
-159.465209960938 -81.849563598633 -280.774841308594 6.960542201996
-153.547714233398 -64.388984680176 -242.979507446289 3.969631671906
-37.875099182129 -81.091148376465 -85.611389160156 2.659567117691
-15.801465988159 -69.142333984375 -215.028808593750 1.567256569862
89.122070312500 -78.291732788086 -217.164108276367 2.431227445602
-29.149065017700 -77.045257568359 -228.979736328125 8.018248558044
82.591499328613 -76.936485290527 -230.162734985352 4.327574253082
17.781997680664 -65.140838623047 -149.491333007813 1.762059450150
-20.778287887573 -75.419151306152 -202.747848510742 1.233567595482
-24.175689697266 -73.572357177734 -225.191406250000 1.827405452728
-15.782270431519 -72.408920288086 -214.592056274414 1.651344299316
-67.200401306152 -91.633171081543 -101.287506103516 5.806834697723
14.429217338562 -71.139221191406 -180.700927734375 1.448547959328
8.192806243896 -68.861137390137 -210.477355957031 2.384709119797
-53.514022827148 -83.812294006348 -189.175933837891 3.882421493530
-77.141708374023 -84.208679199219 -105.509437561035 1.765290737152
-74.331954956055 -82.900115966797 -215.810150146484 2.983097553253
11.532384872437 -78.029144287109 -245.291595458984 1.136348485947
96.365020751953 -77.926368713379 -202.109146118164 0.778201222420
-83.790908813477 -70.893173217773 -252.604354858398 2.176092147827
72.040420532227 -73.625839233398 -239.013061523438 1.176534533501
110.870735168457 -72.629920959473 -123.585479736328 1.764681339264
0.257750004530 -71.294647216797 -240.422103881836 2.237320184708
20.948385238647 -81.903747558594 -163.307434082031 3.268881559372
-10.494286537170 -70.107940673828 -242.924545288086 0.870964884758
40.043254852295 -74.300361633301 -112.961769104004 2.872863531113
31.097764968872 -80.967620849609 -157.708099365234 2.182431936264
-31.060779571533 -67.132156372070 -76.801330566406 1.392174959183
-168.721817016602 -69.797584533691 -255.347122192383 2.880085468292
-156.900131225586 -64.493469238281 -242.369461059570 4.403330326080
8.646694183350 -69.585006713867 -219.871810913086 2.214319229126
-101.263236999512 -68.510238647461 -164.397994995117 1.537913918495
-15.866445541382 -71.978958129883 -297.609802246094 5.957288742065
-152.023788452148 -69.822471618652 -246.392578125000 1.854662895203
-61.568077087402 -78.724678039551 -177.818969726563 2.529995679855
48.637683868408 -81.898696899414 -117.807357788086 4.723762989044
-14.949843406677 -81.950927734375 -270.787445068359 5.790915966034
-171.958511352539 -69.928428649902 -237.228393554688 4.886607170105
-149.254653930664 -67.733520507813 -289.695587158203 2.136510372162
50.695644378662 -69.791442871094 -41.721149444580 6.620638370514
-167.558212280273 -69.418136596680 -214.640365600586 2.125926256180
-114.984161376953 -73.206222534180 -197.295608520508 1.966176748276
9.351428031921 -82.417304992676 -239.978317260742 2.820881605148
-28.850616455078 -81.349174499512 -67.218009948730 4.422844409943
-134.721649169922 -66.422889709473 -226.734527587891 0.617389321327
-58.571922302246 -65.863357543945 -120.120216369629 2.051458597183
-73.152328491211 -75.782684326172 -104.427642822266 3.367061138153
39.540157318115 -68.923294067383 -44.132862091064 3.670744180679
39.362819671631 -75.382354736328 -20.173091888428 4.932476997375
-152.307449340820 -85.450485229492 -196.584213256836 3.226823806763
-82.025627136230 -72.576698303223 -105.920997619629 1.574754595757
-63.292133331299 -81.968841552734 -181.489089965820 5.759667396545
-155.053771972656 -84.446701049805 -223.253829956055 4.992827415466
-91.563468933105 -82.154281616211 -100.172454833984 4.360722541809
-20.675062179565 -78.390991210938 -198.686523437500 0.679024755955
10.933088302612 -75.028640747070 -256.108154296875 7.672040939331
-60.915393829346 -84.747848510742 -66.817268371582 4.634009838104
-100.850654602051 -73.732688903809 -289.343719482422 1.049119591713
-155.177139282227 -66.986030578613 -277.660186767578 4.421941280365
-137.584121704102 -66.236694335938 -227.219619750977 2.947605609894
106.441467285156 -74.760559082031 -183.212326049805 0.379932612181
-151.286575317383 -76.434326171875 -219.368606567383 2.504357337952
-60.648139953613 -81.908592224121 -97.955772399902 3.019386529922
23.449901580811 -67.719131469727 -266.133972167969 2.132449388504
-13.029849052429 -75.825805664063 -213.609878540039 1.772937893867
-63.916244506836 -71.044960021973 -294.216674804688 3.763834476471
8.589221000671 -81.439811706543 -249.721298217773 1.661438107491
-70.154052734375 -80.034294128418 -169.183898925781 5.415078639984
-37.635944366455 -71.839683532715 -292.297790527344 2.125293493271
-121.177780151367 -67.934906005859 -259.337890625000 3.604362726212
39.795433044434 -75.599342346191 -129.344207763672 2.035079240799
-159.120742797852 -80.916488647461 -288.502227783203 3.462563991547
6.337358951569 -76.363380432129 -286.755035400391 1.802779078484
80.802810668945 -74.822120666504 -75.709266662598 2.066095113754
46.424121856689 -67.940956115723 -36.917827606201 1.084367513657
10.730791091919 -68.643577575684 -200.861679077148 1.600844144821
-167.444381713867 -74.768676757813 -228.365783691406 3.155403375626
-76.928932189941 -83.984619140625 -105.165565490723 1.564173579216
-160.554458618164 -77.860633850098 -310.809600830078 5.977065086365
49.982692718506 -70.514114379883 -42.932025909424 7.030746459961
-74.291900634766 -78.929489135742 -212.884658813477 1.443137884140
77.224342346191 -72.538612365723 -227.654388427734 1.103799104691
-3.163108110428 -74.217292785645 -299.385345458984 7.169914722443
106.319961547852 -71.760284423828 -186.905776977539 1.746612548828
-28.580272674561 -80.548805236816 -192.436264038086 2.566354274750
-164.025711059570 -74.479164123535 -210.346282958984 2.085812330246
45.820476531982 -83.440322875977 -117.066749572754 4.281177043915
-164.739776611328 -70.091529846191 -294.061248779297 3.321546792984
45.585220336914 -70.686927795410 -22.446516036987 1.864543557167
-152.886413574219 -70.386734008789 -265.860107421875 0.878358602524
101.656440734863 -73.994033813477 -204.590713500977 0.721783101559
46.428432464600 -66.556800842285 -34.610092163086 1.972952604294
31.646038055420 -68.228340148926 -27.490762710571 5.877894401550
46.683216094971 -69.822555541992 -110.038406372070 2.330344915390
-167.487136840820 -72.821174621582 -293.146392822266 4.590844154358
3.478112936020 -75.120674133301 -161.947494506836 2.339377880096
105.672126770020 -70.883590698242 -108.567733764648 1.332307696342
18.270315170288 -66.952590942383 -154.114379882813 2.291468143463
-22.494161605835 -74.076103210449 -230.029525756836 4.559288978577
-24.114948272705 -68.748123168945 -202.669525146484 1.445748090744
-2.235291957855 -64.704689025879 -244.268173217773 1.153018474579
19.148696899414 -66.432945251465 -264.639282226563 6.482909202576
-118.148811340332 -71.943252563477 -263.372680664063 1.334869742393
-0.560763001442 -76.657539367676 -296.064697265625 4.158852577209
23.445804595947 -70.427528381348 -172.986557006836 1.736986041069
-56.853778839111 -75.576919555664 -290.649291992188 2.662720918655
-13.239678382874 -70.711791992188 -216.110488891602 2.261197328568
-82.786918640137 -71.063209533691 -294.148101806641 3.951443910599
-58.931098937988 -76.530624389648 -180.833328247070 1.059011101723
-59.222038269043 -83.882415771484 -204.709152221680 1.575188279152
-1.117902040482 -85.680480957031 -271.339843750000 1.688459753990
83.234359741211 -71.778030395508 -221.654022216797 0.509195506573
-5.896080970764 -62.741813659668 -285.172515869141 3.627040863037
-70.538497924805 -74.078361511230 -103.461456298828 2.946234941483
35.060207366943 -78.527206420898 -144.122344970703 0.734980881214
-29.876317977905 -73.626373291016 -246.281768798828 4.308027267456
106.971595764160 -74.541954040527 -145.682556152344 3.483922004700
-41.345279693604 -71.249038696289 -170.523391723633 2.114355325699
-45.929630279541 -77.145492553711 -293.384002685547 3.342772483826
-22.259798049927 -84.692352294922 -183.318161010742 1.984206676483
-39.983501434326 -67.528800964355 -84.155990600586 5.711421966553
30.836137771606 -78.483932495117 -154.911193847656 1.193049550056
-53.874698638916 -72.211959838867 -149.962524414063 1.458302974701
-9.299227714539 -65.292930603027 -277.836181640625 3.044211864471
-86.835754394531 -69.292839050293 -113.513214111328 1.928066849709
3.131544113159 -74.074737548828 -238.040618896484 2.576247215271
-54.718555450439 -76.764328002930 -136.399047851563 2.284407138824
-69.036697387695 -65.718193054199 -111.458656311035 4.248285770416
-2.938153028488 -62.699920654297 -271.809722900391 3.538197994232
-13.714596748352 -77.009025573730 -229.877136230469 1.860525608063
-12.050697326660 -76.513107299805 -294.636932373047 2.871674060822
43.721446990967 -71.885711669922 -258.347076416016 3.468861818314
0.110361002386 -83.857948303223 -260.060241699219 2.822259426117
-84.672859191895 -83.274871826172 -113.316802978516 4.833726406097
0.878301978111 -59.779087066650 -267.999450683594 4.913586616516
32.587059020996 -70.742378234863 -263.722625732422 2.801679372787
67.616142272949 -65.129272460938 -75.887313842773 2.328162908554
-21.329254150391 -71.918479919434 -259.157653808594 6.725741386414
23.293849945068 -78.637718200684 -185.712387084961 1.421344637871
-156.376007080078 -83.400207519531 -290.052703857422 2.069319725037
9.523845672607 -80.814865112305 -205.261871337891 3.330967903137
-18.407413482666 -78.388862609863 -204.442413330078 0.682826578617
26.931190490723 -75.412322998047 -138.814468383789 0.977973520756
-98.903846740723 -66.773597717285 -113.521926879883 2.963412761688
-4.008768081665 -63.235591888428 -273.989135742188 4.103908538818
53.319740295410 -79.704399108887 -112.281745910645 5.008395195007
-16.199903488159 -73.099227905273 -287.062469482422 1.901339530945
-44.096366882324 -83.470443725586 -162.882247924805 3.854212999344
-125.527610778809 -73.422660827637 -256.823974609375 1.840889096260
-58.306449890137 -70.742362976074 -292.673370361328 2.464785575867
-42.343070983887 -73.442039489746 -84.118362426758 2.054809808731
-159.355377197266 -64.865730285645 -278.075286865234 6.060018539429
-29.690116882324 -77.348663330078 -204.777679443359 2.227055311203
-83.488227844238 -66.184631347656 -116.778213500977 1.073193311691
35.303348541260 -67.697578430176 -20.142360687256 3.353904008865
30.372493743896 -76.187507629395 -162.178894042969 1.679123759270
-157.444625854492 -67.828361511230 -246.505661010742 1.758894443512
12.723470687866 -76.998664855957 -275.010620117188 3.965720415115
6.625810146332 -81.567276000977 -260.937225341797 4.162595272064
-10.675200462341 -70.434516906738 -227.373443603516 0.872135102749
108.645507812500 -72.207954406738 -153.515396118164 2.800047159195
-49.885700225830 -68.218063354492 -86.548690795898 1.211651802063
-28.594934463501 -82.194999694824 -69.987396240234 3.868739604950
-57.581928253174 -70.668228149414 -149.198516845703 2.784350156784
-147.272399902344 -78.401931762695 -258.572265625000 1.110145330429
-20.014549255371 -73.349754333496 -220.098968505859 1.455447077751
109.429092407227 -75.974761962891 -162.478057861328 2.084403514862
14.405632972717 -71.734420776367 -212.480148315430 1.934438467026
-59.562168121338 -80.361846923828 -184.410690307617 3.522354125977
11.305412292480 -72.746879577637 -240.027648925781 1.711455702782
16.930517196655 -70.043693542480 -200.098342895508 1.482484936714
-38.269752502441 -87.824157714844 -86.858131408691 6.697932720184
15.257488250732 -80.071220397949 -180.550552368164 4.120184421539
12.340789794922 -78.603919982910 -237.624191284180 2.857405900955
8.010160446167 -80.815322875977 -242.302536010742 1.734427928925
-62.551910400391 -84.504226684570 -66.102493286133 4.829928874969
-33.896633148193 -65.832511901855 -80.481704711914 2.637294054031
-66.337768554688 -76.458381652832 -248.007156372070 1.434484243393
-22.530797958374 -71.077514648438 -75.286666870117 1.697122693062
-76.994079589844 -89.350646972656 -92.133255004883 3.887690782547
-61.058757781982 -85.738235473633 -210.959732055664 3.496588468552
-106.402397155762 -68.078712463379 -175.110443115234 1.492806434631
-91.367698669434 -73.304641723633 -139.632919311523 4.261775493622
-57.091438293457 -80.187522888184 -188.175765991211 3.933553695679
14.746661186218 -72.652557373047 -212.444305419922 2.511029481888
47.235591888428 -76.694961547852 -119.385284423828 1.564610958099
-16.748863220215 -80.351776123047 -210.620773315430 2.362197637558
-155.203735351563 -66.973258972168 -193.387756347656 0.330716609955
3.624641895294 -72.744117736816 -227.751083374023 1.859042882919
-171.535476684570 -70.190559387207 -220.127029418945 4.900735855103
-77.458755493164 -88.999977111816 -91.286537170410 4.082564353943
-17.471588134766 -79.255302429199 -219.555633544922 2.731403827667
-32.394042968750 -77.373283386230 -218.246215820313 2.987969636917
-11.285312652588 -68.511627197266 -238.977218627930 1.305935978889
21.692049026489 -73.492622375488 -162.018218994141 1.545275449753
1.829673051834 -71.824775695801 -224.096359252930 1.432000994682
-92.639106750488 -71.472030639648 -134.526977539063 3.517482995987
27.398429870605 -76.857307434082 -167.401031494141 2.823660850525
-60.131324768066 -70.307403564453 -47.520446777344 1.446403980255
-22.992315292358 -69.426116943359 -201.458450317383 1.229607701302
74.597023010254 -70.117912292480 -115.938186645508 9.304552078247
-88.351982116699 -81.825294494629 -82.365318298340 4.315394878387
-16.302417755127 -70.137222290039 -242.881988525391 1.493368625641
93.898391723633 -76.038238525391 -80.185432434082 1.658984184265
-129.540222167969 -74.541503906250 -232.301864624023 2.160661220551
98.240768432617 -76.074325561523 -106.489837646484 6.980345726013
98.241256713867 -78.503837585449 -206.726516723633 1.862681865692
-41.792663574219 -75.057487487793 -291.516326904297 1.556749701500
46.544025421143 -78.070831298828 -41.573875427246 8.051572799683
-158.222320556641 -74.334243774414 -204.962722778320 5.709443092346
-5.253458976746 -62.018310546875 -286.993652343750 3.966499328613
-97.445213317871 -70.780410766602 -82.159774780273 2.362006664276
-64.937736511230 -75.348434448242 -171.532974243164 2.610302925110
-112.645935058594 -69.775794982910 -198.360794067383 1.467962026596
-46.086250305176 -87.358924865723 -78.309761047363 4.025326728821
-77.587974548340 -67.279724121094 -128.435073852539 0.929298698902
28.816741943359 -69.203506469727 -22.675802230835 2.247805356979
-28.989978790283 -70.995063781738 -188.006546020508 2.004328966141
-112.083068847656 -66.313095092773 -182.934585571289 0.274541705847
-166.846282958984 -69.609916687012 -249.426849365234 1.001364588737
24.484102249146 -71.950553894043 -152.533203125000 1.067992568016
9.264902114868 -73.101448059082 -287.094848632813 1.545916914940
-47.350620269775 -71.781402587891 -165.311447143555 2.846763372421
-75.533973693848 -70.055114746094 -115.040443420410 2.331369400024
-69.556137084961 -74.115074157715 -249.010040283203 2.553747892380
-97.690826416016 -69.599441528320 -122.468002319336 3.838789463043
37.472995758057 -84.507713317871 -132.247100830078 4.226794719696
-156.047027587891 -77.068275451660 -194.347793579102 3.550041198730
18.298522949219 -72.094421386719 -176.591995239258 1.738332867622
3.359427928925 -68.138504028320 -244.427169799805 4.092563152313
-48.557254791260 -83.013908386230 -159.631317138672 5.427023887634
-74.115325927734 -72.031028747559 -49.992530822754 1.500069379807
-173.490829467773 -70.747154235840 -249.483016967773 6.261260032654
-22.587146759033 -78.123336791992 -226.456390380859 2.920613288879
20.490190505981 -62.895259857178 -266.135955810547 5.763545036316
83.141143798828 -75.179199218750 -220.935409545898 1.747319936752
-22.195913314819 -72.128623962402 -196.954574584961 1.713292598724
109.933959960938 -72.071914672852 -120.435974121094 0.714099049568
5.071735858917 -69.673110961914 -219.947738647461 3.036457777023
102.451293945313 -66.675483703613 -80.372962951660 1.854624271393
-151.638916015625 -64.476135253906 -218.190826416016 4.361035346985
92.444343566895 -76.913597106934 -80.393135070801 2.146129846573
-67.198127746582 -64.770507812500 -130.543655395508 3.453266620636
-158.332351684570 -75.737045288086 -201.279083251953 5.242601394653
-22.365337371826 -74.407470703125 -226.029373168945 2.644070386887
-101.323684692383 -72.462730407715 -224.067214965820 0.552747607231
-98.544921875000 -67.080894470215 -147.980758666992 1.084792494774
-156.891998291016 -67.970130920410 -236.851165771484 1.481946229935
-155.535202026367 -69.583549499512 -193.138198852539 1.261785984039
-17.483673095703 -81.093017578125 -220.558731079102 3.460069417953
-152.338226318359 -63.719474792480 -201.522674560547 2.484696626663
-76.438232421875 -87.730339050293 -84.865280151367 5.226191997528
81.867805480957 -73.919044494629 -113.441764831543 9.884374618530
-145.134216308594 -71.690223693848 -181.374450683594 1.890320658684
-160.219955444336 -83.095062255859 -300.549987792969 8.211839675903
27.512243270874 -75.021362304688 -164.214828491211 2.036579608917
-69.660430908203 -67.152099609375 -105.817596435547 2.213909626007
-74.104263305664 -76.382652282715 -151.736038208008 1.880732417107
-84.428710937500 -76.386619567871 -252.994262695313 2.185350179672
-83.533744812012 -76.504219055176 -60.894302368164 3.357449293137
-150.774658203125 -70.467056274414 -285.696197509766 1.872584104538
-115.332992553711 -67.422805786133 -185.566284179688 3.142185926437
5.710384845734 -69.542160034180 -217.262954711914 4.063775539398
25.240131378174 -83.414604187012 -156.787185668945 3.955616950989
108.258995056152 -71.458488464355 -134.696670532227 2.069615364075
-151.263214111328 -85.134231567383 -233.065216064453 2.141661882401
10.014745712280 -79.463859558105 -274.800201416016 2.571711778641
95.968879699707 -68.741577148438 -116.117607116699 9.634049415588
-11.675386428833 -62.524036407471 -252.218170166016 4.658265590668
-116.423767089844 -68.710014343262 -188.049652099609 3.894659042358
-51.835933685303 -78.944740295410 -188.888031005859 1.487169384956
-0.523970007896 -77.852241516113 -247.005172729492 1.943666458130
-54.321399688721 -77.001693725586 -293.701141357422 3.562097311020
-165.632400512695 -69.649230957031 -227.590011596680 1.730204463005
-48.941562652588 -76.133102416992 -245.880722045898 1.748139619827
-155.763214111328 -65.545959472656 -257.641265869141 1.032873511314
-32.508235931396 -75.050148010254 -225.132171630859 7.663331508636
5.807137012482 -79.711570739746 -281.565155029297 0.451625913382
14.981646537781 -70.164260864258 -206.533645629883 1.607993841171
-151.430328369141 -85.519554138184 -204.925247192383 4.408115863800
-156.149307250977 -63.284328460693 -242.093826293945 5.831612586975
-23.224420547485 -73.358177185059 -213.997375488281 2.071940422058
-51.340999603271 -74.979400634766 -159.175231933594 2.652809143066
-63.599845886230 -82.455223083496 -212.447372436523 2.110800504684
10.250612258911 -71.900474548340 -244.784912109375 1.723811507225
-62.588310241699 -74.107872009277 -133.494873046875 3.885425567627
-54.695041656494 -82.761283874512 -208.053939819336 1.900412678719
-127.252159118652 -65.906433105469 -289.933715820313 0.959077417850
-90.853691101074 -82.986770629883 -112.164993286133 4.858058929443
16.160573959351 -61.258377075195 -279.730895996094 4.143955230713
18.072574615479 -60.660133361816 -275.673431396484 4.146538257599
-130.791458129883 -76.279853820801 -201.031051635742 2.572442054749
-67.795524597168 -73.367500305176 -49.741859436035 2.162509679794
-158.683288574219 -74.870513916016 -288.360382080078 2.319043636322
-15.080343246460 -81.225044250488 -224.568847656250 4.599825859070
-48.922073364258 -74.347869873047 -290.802276611328 2.701646327972
-26.645908355713 -70.264160156250 -194.167648315430 2.488027334213
-103.013755798340 -66.438591003418 -157.890457153320 0.644856333733
-82.955238342285 -85.841690063477 -86.055130004883 4.457115173340
103.318458557129 -74.388885498047 -200.962524414063 3.118291378021
7.156415939331 -72.462364196777 -234.785873413086 1.072311758995
-58.291164398193 -84.962173461914 -204.291259765625 1.908406853676
-5.468879222870 -75.349624633789 -244.227569580078 3.036418437958
-137.029617309570 -76.999656677246 -260.886260986328 0.766434073448
-72.739486694336 -85.266166687012 -212.067642211914 3.231359720230
-69.604492187500 -77.279762268066 -103.999832153320 3.635321855545
-68.467384338379 -74.650382995605 -166.036773681641 2.333368539810
104.070297241211 -64.295951843262 -103.266433715820 2.329171895981
-151.887176513672 -69.042030334473 -240.179336547852 3.697587490082
-14.076092720032 -71.822685241699 -62.570201873779 2.801050186157
8.661275863647 -73.324722290039 -231.989974975586 1.470947742462
47.285087585449 -78.140747070313 -119.958694458008 2.621247529984
-38.788181304932 -68.329376220703 -83.838935852051 6.277322292328
-93.082397460938 -78.790840148926 -88.456863403320 3.449033021927
-165.404479980469 -74.665603637695 -232.341354370117 1.843079328537
41.044193267822 -69.549987792969 -258.683624267578 1.711053609848
-68.277221679688 -80.413230895996 -103.837043762207 5.139873981476
-140.261260986328 -81.277915954590 -198.131378173828 1.510042309761
-61.710990905762 -76.280014038086 -180.769409179688 2.749422788620
-33.486690521240 -79.334213256836 -196.254409790039 3.060899734497
-11.509183883667 -69.792892456055 -237.545501708984 0.914801299572
38.160861968994 -84.580657958984 -128.525634765625 4.641918659210
-68.337837219238 -80.591499328613 -103.926536560059 5.109559535980
9.551372528076 -71.525604248047 -242.620452880859 1.050830364227
3.635668992996 -75.553558349609 -244.010009765625 1.570373415947
8.629033088684 -76.273056030273 -195.016677856445 2.563738107681
-152.993286132813 -65.294013977051 -183.803756713867 2.797615528107
-5.265802860260 -69.586578369141 -235.271835327148 1.150515079498
-68.004425048828 -74.604187011719 -164.238143920898 1.530260920525
15.865455627441 -67.512680053711 -159.650299072266 2.758158206940
-173.359115600586 -72.135131835938 -237.431106567383 6.545159816742
35.857326507568 -81.078063964844 -144.850433349609 3.336679220200
-29.035734176636 -77.667892456055 -248.261962890625 4.923750400543
-51.717079162598 -80.671852111816 -145.653137207031 3.300694465637
-159.884216308594 -64.011116027832 -285.689117431641 4.311306476593
-92.729209899902 -67.137359619141 -61.037406921387 1.535669088364
-52.385463714600 -83.896003723145 -64.302856445313 4.405529499054
47.363319396973 -65.984077453613 -252.756668090820 2.211046934128
-18.615602493286 -77.009330749512 -230.508529663086 3.095411062241
-170.761077880859 -69.770271301270 -244.875198364258 4.244083881378
26.739719390869 -79.701599121094 -166.285598754883 0.313457995653
-41.021499633789 -74.392524719238 -291.517669677734 2.514474391937
-175.141067504883 -71.701850891113 -267.440307617188 7.607356071472
-27.118991851807 -69.239547729492 -199.737777709961 2.637732267380
-75.288665771484 -83.188537597656 -66.496658325195 4.569870471954
-78.521560668945 -74.883926391602 -54.686473846436 3.736950397491
-53.514457702637 -81.478691101074 -153.978576660156 4.910554409027
36.832279205322 -73.522506713867 -48.302806854248 7.489871978760
22.032464981079 -70.104454040527 -173.693908691406 2.596134901047
-11.310427665710 -75.700523376465 -298.092742919922 6.136289596558
107.739807128906 -78.358619689941 -132.256408691406 4.551687717438
-118.583984375000 -73.580940246582 -229.680206298828 3.628254413605
-103.079010009766 -74.171173095703 -293.412719726563 2.540884733200
80.106025695801 -82.063705444336 -96.025161743164 5.900354385376
-155.152114868164 -64.146614074707 -227.515060424805 1.815558671951
-92.621559143066 -81.396324157715 -110.121871948242 4.791738510132
-25.675497055054 -75.831817626953 -232.306243896484 5.531967163086
48.971176147461 -77.568489074707 -105.092628479004 1.673110842705
46.128086090088 -72.733573913574 -119.919456481934 1.732682108879
-48.975875854492 -79.458023071289 -197.771011352539 2.773142337799
-39.787048339844 -86.818984985352 -77.930732727051 3.916966676712
-12.632246971130 -75.670646667480 -238.015213012695 1.211922526360
-5.886703968048 -71.821739196777 -239.868286132813 1.295399427414
12.646170616150 -62.815895080566 -286.219543457031 3.453428268433
-91.839645385742 -69.257308959961 -134.038116455078 1.139310479164
-90.856117248535 -69.093673706055 -120.704437255859 2.109827518463
41.643825531006 -71.086463928223 -20.620429992676 1.380384445190
86.336860656738 -77.895233154297 -81.346900939941 1.559696197510
46.469070434570 -74.101516723633 -31.465124130249 2.809307813644
-49.578617095947 -77.857719421387 -167.929519653320 5.723613262177
75.963272094727 -73.731414794922 -75.509490966797 0.711928606033
-35.225215911865 -76.863609313965 -243.530410766602 2.264456033707
-156.611282348633 -69.404708862305 -176.998352050781 3.724278211594
-145.142730712891 -75.537803649902 -231.090484619141 2.082181930542
-33.706275939941 -85.497261047363 -86.310775756836 6.887527942657
99.750434875488 -67.546974182129 -113.382255554199 6.275210380554
12.068265914917 -80.920806884766 -207.606094360352 1.533328294754
-152.272369384766 -68.924354553223 -243.374404907227 0.618427217007
-90.089057922363 -81.988395690918 -116.252105712891 5.567201137543
1.912402987480 -80.985572814941 -283.993133544922 3.269137144089
-142.377319335938 -74.479148864746 -227.554382324219 1.935814619064
8.626042366028 -75.627143859863 -194.378570556641 2.716682434082
21.438976287842 -66.563713073730 -263.611785888672 4.733682632446
