48.262588500977 -72.130996704102 -96.767822265625 0.904626965523
-62.117351531982 -67.982879638672 -134.988128662109 0.505853772163
22.250488281250 -64.238853454590 -145.702194213867 2.353322267532
10.096103668213 -70.763450622559 -241.124069213867 1.217914223671
-27.717668533325 -72.875854492188 -288.559448242188 1.125257849693
81.410934448242 -65.100402832031 -106.159667968750 2.304615974426
88.687347412109 -74.122039794922 -213.350677490234 1.401950120926
93.413047790527 -70.261840820313 -71.399230957031 1.814602494240
-147.757415771484 -84.243423461914 -247.644088745117 1.784881353378
16.080312728882 -79.962135314941 -273.372528076172 1.846489667892
-76.667922973633 -71.657958984375 -135.289291381836 1.332826375961
-30.256294250488 -61.118320465088 -48.419509887695 1.750095009804
25.312423706055 -77.522804260254 -156.607772827148 1.095092892647
-75.078941345215 -85.287544250488 -95.630928039551 1.449861764908
-9.274070739746 -79.903190612793 -271.486694335938 1.861732602119
5.046875953674 -76.110984802246 -292.691406250000 1.759310007095
25.484504699707 -70.645378112793 -172.495193481445 1.690684556961
113.333595275879 -68.337150573730 -130.423248291016 1.221889615059
-39.166687011719 -72.642608642578 -288.332519531250 1.865780949593
-138.446472167969 -65.526069641113 -227.552215576172 2.883105278015
-129.703094482422 -68.972869873047 -204.908996582031 1.714448332787
-157.372222900391 -67.831581115723 -210.370605468750 2.377938747406
41.032474517822 -74.088981628418 -107.146308898926 2.090481758118
30.471523284912 -67.789764404297 -142.022216796875 0.553753018379
25.030040740967 -65.709075927734 -15.281432151794 1.988040685654
-57.755905151367 -58.841545104980 -129.996582031250 2.524526357651
69.395797729492 -71.116851806641 -91.524269104004 1.193454980850
31.675338745117 -79.994400024414 -143.051651000977 1.347442746162
78.241142272949 -66.628067016602 -64.350387573242 0.988713443279
16.420099258423 -80.249267578125 -238.717361450195 1.540772080421
-84.150230407715 -61.254714965820 -120.459403991699 1.681140184402
-86.295005798340 -76.428314208984 -288.692840576172 1.520460367203
-18.674837112427 -77.178337097168 -203.772567749023 0.816895604134
-33.812488555908 -69.756645202637 -164.557662963867 1.922049403191
-58.124633789063 -61.443153381348 -83.701087951660 1.643027067184
-81.790519714355 -67.299133300781 -102.417007446289 1.862488627434
109.284202575684 -74.282104492188 -142.331710815430 1.986023068428
-57.888473510742 -79.246559143066 -170.857528686523 1.008139729500
-64.124732971191 -77.639465332031 -65.535430908203 3.028775453568
0.990876019001 -70.323097229004 -223.442184448242 1.595119118690
4.499570846558 -76.184364318848 -228.722610473633 1.983519554138
-39.738899230957 -78.990531921387 -157.134246826172 1.356006979942
-59.008098602295 -69.293518066406 -137.050048828125 0.496671855450
-20.835620880127 -76.712753295898 -190.176010131836 0.721717298031
-60.680526733398 -72.155685424805 -168.719741821289 1.160948514938
-36.279224395752 -73.391853332520 -287.182922363281 2.039142131805
-56.305873870850 -74.332809448242 -142.073120117188 1.664731740952
106.188835144043 -70.881179809570 -120.367164611816 1.705597162247
-10.917960166931 -73.257919311523 -203.518615722656 1.153042435646
-153.528640747070 -83.165695190430 -255.927291870117 0.556080579758
-90.107086181641 -73.963661193848 -79.830307006836 2.599197626114
-29.762460708618 -71.394996643066 -169.457656860352 1.283078432083
-10.917881011963 -63.013156890869 -61.471748352051 2.079138755798
-56.718524932861 -70.385765075684 -143.293731689453 1.812803864479
-1.431061983109 -68.630126953125 -223.530822753906 1.061482548714
-78.054252624512 -60.107612609863 -122.836776733398 0.643562138081
102.543472290039 -59.149192810059 -99.682502746582 1.298636436462
-26.708606719971 -76.693595886230 -213.748550415039 0.949054360390
-149.579010009766 -79.375785827637 -306.938690185547 1.494353175163
-155.097106933594 -63.236530303955 -257.010009765625 1.131530642509
-40.521495819092 -80.300689697266 -83.378303527832 1.528972268105
74.809387207031 -75.183296203613 -84.262084960938 1.565257906914
15.949495315552 -64.087463378906 -144.697738647461 1.854451060295
45.503490447998 -68.098915100098 -113.028587341309 0.553289175034
34.306240081787 -69.851493835449 -143.230377197266 1.824544429779
36.287693023682 -68.027030944824 -119.071395874023 1.137374639511
2.865093946457 -75.991264343262 -292.543426513672 1.288438200951
-16.736745834351 -76.926986694336 -240.501327514648 0.581413626671
28.938007354736 -58.351039886475 -13.239453315735 2.361433029175
-154.836135864258 -77.357452392578 -228.656250000000 1.412860274315
-72.227592468262 -72.449905395508 -55.388439178467 3.358642339706
-162.576416015625 -71.213760375977 -200.529449462891 2.060620546341
-1.483371019363 -72.647079467773 -163.566299438477 0.782327532768
-15.222127914429 -70.094306945801 -202.849029541016 1.456995487213
17.415374755859 -73.890953063965 -219.549789428711 1.968625307083
107.094779968262 -72.739250183105 -122.391586303711 2.454581499100
-19.865695953369 -75.325393676758 -226.878524780273 1.960139036179
-4.086167812347 -67.015090942383 -224.334609985352 1.600349783897
109.648017883301 -71.455955505371 -181.353927612305 1.086351752281
81.882438659668 -67.455818176270 -64.633872985840 2.129459142685
-35.705707550049 -76.668518066406 -180.618774414063 2.021964311600
15.122542381287 -71.476379394531 -238.729843139648 1.693819165230
77.048774719238 -65.818473815918 -63.689353942871 1.359304070473
-86.003517150879 -59.202072143555 -115.381095886230 1.734506964684
53.018821716309 -66.082405090332 -247.899917602539 1.892469406128
-33.202861785889 -80.408500671387 -210.050598144531 1.912863731384
48.593486785889 -70.936111450195 -112.377769470215 1.072409272194
-1.098677992821 -64.249809265137 -237.639389038086 2.473623037338
-151.786941528320 -67.453788757324 -220.810638427734 1.577023386955
-52.913894653320 -58.246330261230 -78.522636413574 1.109618186951
107.181968688965 -72.704162597656 -163.562377929688 1.467288613319
108.114692687988 -71.555450439453 -113.415901184082 0.543766319752
-40.917167663574 -61.384323120117 -79.298156738281 1.014297127724
-66.350120544434 -59.830482482910 -97.237327575684 0.552741169930
-77.655754089355 -74.943283081055 -253.483016967773 0.789369583130
29.763372421265 -68.467353820801 -262.963897705078 2.153218269348
-133.906814575195 -69.625419616699 -254.452499389648 1.582025527954
80.847595214844 -76.014343261719 -81.798622131348 1.562263965607
-156.185150146484 -64.590179443359 -288.395233154297 0.797073125839
1.546254992485 -61.008506774902 -252.179580688477 3.438183307648
3.973862886429 -63.736560821533 -269.750183105469 0.918376564980
-49.369567871094 -78.496345520020 -68.449066162109 2.720577239990
-19.909667968750 -57.968906402588 -50.552898406982 2.183222293854
-14.323975563049 -76.355117797852 -229.605865478516 0.945804357529
78.154739379883 -74.303604125977 -227.748001098633 1.841975808144
-5.402269840240 -71.508857727051 -218.058990478516 1.888834595680
49.287792205811 -68.222625732422 -24.325279235840 1.659866690636
-51.848335266113 -83.659431457520 -81.880599975586 1.707443475723
-6.877789020538 -75.650276184082 -283.064575195313 2.045669078827
23.185146331787 -69.688560485840 -178.341934204102 1.763387441635
-157.491744995117 -70.625228881836 -290.567901611328 1.379412889481
51.090435028076 -72.251220703125 -91.811355590820 1.340975642204
-20.024206161499 -74.978591918945 -190.282760620117 0.719906687737
-152.773422241211 -80.923439025879 -198.489288330078 1.125753164291
-146.982894897461 -69.554298400879 -281.011596679688 1.786816596985
-20.805797576904 -69.970581054688 -207.654190063477 0.271201163530
111.484001159668 -67.490180969238 -117.686965942383 2.854771375656
-141.847045898438 -65.308555603027 -182.392044067383 1.109593153000
-90.515419006348 -66.594146728516 -142.769104003906 1.506717681885
-51.609729766846 -71.612037658691 -133.172256469727 1.314069390297
15.825000762939 -79.478576660156 -213.848800659180 2.529333829880
-103.478637695313 -67.257652282715 -171.982894897461 1.489767909050
-87.039024353027 -63.548622131348 -134.974533081055 1.065453290939
-29.119062423706 -84.869964599609 -186.838851928711 1.278828382492
-2.201812982559 -68.301513671875 -232.197952270508 1.017439723015
80.952102661133 -73.294242858887 -72.555320739746 2.464952230453
-35.346286773682 -77.300567626953 -175.384155273438 2.226459026337
-89.530586242676 -67.319847106934 -61.658527374268 2.156209707260
21.069641113281 -62.923484802246 -33.661735534668 2.224711894989
-31.257453918457 -80.010086059570 -212.919204711914 1.606546521187
39.967674255371 -70.694450378418 -128.814422607422 2.980900287628
-150.334381103516 -85.145660400391 -263.939727783203 0.724931716919
-3.991384029388 -74.722526550293 -214.735855102539 1.676609992981
-99.473381042480 -73.960006713867 -257.639953613281 0.562865138054
-76.740798950195 -65.640747070313 -122.656097412109 1.849377274513
-7.865908145905 -74.375961303711 -291.832824707031 0.853303313255
-76.485908508301 -62.041343688965 -110.462173461914 1.544423699379
40.905731201172 -59.814422607422 -121.668777465820 2.141000032425
24.410951614380 -67.672554016113 -153.811706542969 1.301170825958
-132.876510620117 -76.311622619629 -259.675933837891 1.257017493248
6.661215782166 -74.509811401367 -207.810668945313 0.512720286846
-8.799919128418 -79.871223449707 -175.039230346680 1.484326601028
-74.081718444824 -69.335571289063 -51.608921051025 2.051944971085
-25.879552841187 -74.459587097168 -174.888900756836 1.242012023926
19.456340789795 -76.133064270020 -246.364135742188 1.247979283333
10.547624588013 -79.289390563965 -221.896667480469 2.226835250854
88.460121154785 -70.658660888672 -68.404357910156 1.620619297028
-130.630401611328 -62.393672943115 -197.968780517578 1.046640157700
-75.178649902344 -80.632583618164 -80.135612487793 3.991401910782
-159.321182250977 -72.468948364258 -227.957107543945 1.177925467491
-132.288070678711 -66.703712463379 -287.552154541016 0.528305351734
-3.186362981796 -76.179031372070 -231.804412841797 0.709329128265
-78.508460998535 -75.003684997559 -249.020584106445 0.299532443285
108.738174438477 -74.044403076172 -130.601455688477 1.459434986115
-118.043632507324 -73.498146057129 -261.511810302734 1.533360362053
-99.434120178223 -73.452438354492 -286.779266357422 1.981820464134
-71.618522644043 -60.430004119873 -103.530960083008 1.401211261749
-96.541061401367 -67.713195800781 -148.354690551758 1.591397643089
-145.233673095703 -82.669197082520 -262.162841796875 2.099166631699
19.298412322998 -75.750625610352 -273.463256835938 2.570527315140
-152.996582031250 -81.626312255859 -262.621490478516 1.542800426483
-126.250610351563 -69.734939575195 -204.727340698242 1.836115121841
24.463312149048 -69.389183044434 -164.804763793945 1.484676480293
-164.587570190430 -66.046913146973 -206.304458618164 1.563050150871
-2.450931072235 -77.129364013672 -284.721252441406 1.844553351402
-125.777130126953 -62.738895416260 -197.046020507813 1.441008687019
-137.571426391602 -67.074066162109 -257.260711669922 2.354198694229
-132.026473999023 -65.389938354492 -233.552108764648 1.017748355865
49.396179199219 -61.061908721924 -26.231925964355 1.814899682999
-34.084285736084 -69.362831115723 -53.057987213135 2.030830621719
-167.918106079102 -70.224861145020 -250.065811157227 0.662805199623
-94.906105041504 -69.734474182129 -290.050781250000 0.760425806046
10.633325576782 -79.395996093750 -205.486541748047 2.368989467621
2.731573104858 -76.741363525391 -235.341201782227 0.656813621521
40.863452911377 -57.806152343750 -33.868041992188 2.062713861465
34.290084838867 -68.818763732910 -138.919357299805 2.312918186188
106.200202941895 -67.742790222168 -96.823333740234 0.884632766247
81.971214294434 -76.902503967285 -225.115982055664 3.052897214890
48.695537567139 -74.983528137207 -112.794136047363 1.449561715126
-99.594856262207 -58.954635620117 -78.604881286621 1.384315133095
-58.335754394531 -70.783889770508 -144.168853759766 1.462485194206
8.033709526062 -73.406921386719 -226.641586303711 1.274746298790
-126.936737060547 -69.699920654297 -264.722564697266 1.756743311882
-53.981681823730 -72.378021240234 -136.956634521484 1.717680215836
-13.768058776855 -75.304924011230 -255.005752563477 1.358403921127
16.550577163696 -79.367309570313 -223.743423461914 2.210129976273
47.906078338623 -66.423652648926 -107.434509277344 2.382137298584
-8.716726303101 -67.062828063965 -218.850036621094 2.272009372711
106.333732604980 -67.825721740723 -115.855194091797 1.835386395454
-58.150859832764 -78.420547485352 -169.430526733398 1.131366848946
-149.200790405273 -75.244323730469 -213.218109130859 1.990881323814
-20.697023391724 -74.428619384766 -242.504074096680 1.276251077652
-155.342742919922 -67.845886230469 -231.205154418945 1.539463043213
-102.133819580078 -64.696838378906 -170.806274414063 1.198201417923
-117.823860168457 -71.352310180664 -256.140472412109 1.433156251907
-79.942291259766 -69.450302124023 -114.298347473145 1.751965641975
-64.925643920898 -74.895713806152 -160.645660400391 0.856738269329
-50.687126159668 -78.361366271973 -67.871665954590 2.875868558884
-70.416275024414 -80.629257202148 -76.852470397949 1.779360532761
24.808012008667 -69.091514587402 -265.573059082031 0.625861704350
-66.176513671875 -81.228507995605 -210.936676025391 2.117793560028
48.590446472168 -63.642108917236 -99.649734497070 2.354465484619
6.849143981934 -79.272773742676 -245.825714111328 1.396777272224
2.901352882385 -77.135101318359 -226.864776611328 2.003992080688
34.511928558350 -60.736923217773 -124.703742980957 1.876182675362
53.854843139648 -72.999763488770 -99.101402282715 1.664024949074
7.847186088562 -70.927307128906 -228.278045654297 1.993958234787
108.725860595703 -69.102752685547 -128.151519775391 1.047919273376
34.818344116211 -69.596847534180 -12.733768463135 1.592905640602
-5.386227130890 -79.540390014648 -249.047195434570 1.601586103439
35.717220306396 -76.262115478516 -142.466445922852 1.253371834755
-147.823822021484 -66.817718505859 -282.311065673828 1.860250115395
-13.199964523315 -71.063735961914 -200.574996948242 2.402925014496
39.953403472900 -74.360671997070 -131.992523193359 0.609362185001
-42.458656311035 -78.287551879883 -151.669296264648 1.417003154755
51.800380706787 -61.009136199951 -92.387413024902 1.211107730865
-97.587638854980 -63.728256225586 -74.115348815918 2.958473682404
92.617683410645 -75.536643981934 -87.651481628418 1.533010721207
-15.613677024841 -72.549339294434 -242.160171508789 0.742389440536
-23.109453201294 -80.091110229492 -179.398529052734 1.260211348534
-81.932151794434 -67.948394775391 -54.549304962158 2.103013038635
21.520835876465 -68.949287414551 -178.643280029297 1.274234771729
-140.051132202148 -69.016693115234 -203.262985229492 0.869625091553
46.103630065918 -75.975860595703 -104.963684082031 1.403650164604
14.604376792908 -81.962303161621 -246.127807617188 1.172557711601
-23.369489669800 -72.832328796387 -223.356170654297 1.422252774239
-153.049224853516 -69.333381652832 -183.549301147461 1.619266271591
57.232719421387 -68.849082946777 -88.857452392578 1.517747402191
-49.943351745605 -79.656082153320 -200.469848632813 1.235019087791
-110.340156555176 -72.096336364746 -226.819396972656 0.748981714249
108.978874206543 -72.059906005859 -146.682067871094 2.909764528275
-41.111824035645 -75.081550598145 -172.904464721680 0.995230734348
26.764698028564 -76.220939636230 -169.145797729492 1.888864517212
112.958740234375 -73.810386657715 -143.216873168945 1.354616045952
109.229248046875 -67.104812622070 -119.992073059082 2.031741380692
113.447731018066 -73.181518554688 -147.040863037109 0.985965788364
-80.049156188965 -68.743576049805 -135.469375610352 1.586305141449
-10.255054473877 -77.425727844238 -176.180328369141 1.772617578506
-56.750080108643 -75.862449645996 -177.175125122070 1.009167313576
64.168029785156 -69.469955444336 -243.109649658203 2.089041471481
30.628709793091 -71.339775085449 -161.359390258789 1.562992215157
8.362083435059 -74.565567016602 -158.939926147461 0.897441744804
-55.039318084717 -75.773841857910 -186.001800537109 2.838180780411
-151.915039062500 -68.593315124512 -191.569305419922 1.486894726753
-56.669807434082 -71.365997314453 -130.794723510742 1.212534785271
-18.969320297241 -79.455726623535 -202.988113403320 1.768413186073
-72.458496093750 -76.183509826660 -211.538574218750 1.721460580826
-87.803771972656 -65.093551635742 -137.840820312500 1.951345324516
39.598609924316 -76.707550048828 -108.139793395996 0.850744724274
16.509157180786 -80.409324645996 -239.953781127930 1.337128996849
-147.909454345703 -85.645515441895 -265.085296630859 0.945701718330
-111.303977966309 -69.675285339355 -262.110076904297 1.296113848686
-60.226936340332 -76.142349243164 -290.698608398438 0.741030156612
-98.050346374512 -62.453109741211 -73.380332946777 2.833454132080
-73.494575500488 -66.632713317871 -106.711769104004 2.112780809402
10.726284027100 -85.088737487793 -262.712127685547 1.459440469742
-37.668460845947 -71.139839172363 -161.649566650391 2.046090841293
-81.247749328613 -78.203575134277 -77.558219909668 1.674357771873
93.549522399902 -74.000526428223 -206.719085693359 2.309974670410
108.992271423340 -70.283287048340 -164.458694458008 0.473787397146
-45.987297058105 -67.181602478027 -146.821670532227 2.421651601791
35.072822570801 -78.048812866211 -132.959579467773 1.721118211746
-78.519531250000 -64.410667419434 -48.652584075928 2.590063095093
-89.778785705566 -71.862403869629 -214.390121459961 1.479557752609
-13.036125183105 -73.666297912598 -199.570373535156 1.655985832214
-165.002868652344 -74.936798095703 -272.372924804688 2.145876646042
4.338441848755 -85.757400512695 -256.298645019531 1.739774823189
-91.798019409180 -65.708618164063 -120.008407592773 1.131895184517
-144.680999755859 -66.759414672852 -234.801635742188 1.416368961334
92.085502624512 -58.624626159668 -60.715366363525 1.521807312965
-75.868659973145 -64.202514648438 -124.214546203613 1.358351230621
3.449538946152 -62.585845947266 -283.662292480469 3.393299579620
105.611244201660 -67.208915710449 -96.805404663086 0.897267282009
-37.171138763428 -79.895523071289 -164.629592895508 1.730810403824
-49.383514404297 -71.476127624512 -52.113826751709 3.151105165482
-108.010246276855 -65.064933776855 -189.544631958008 2.059324502945
-16.973405838013 -70.662963867188 -238.851776123047 0.757448673248
-147.218414306641 -78.623764038086 -307.597778320313 1.600152969360
-109.427078247070 -65.647918701172 -197.396591186523 0.889796078205
11.595406532288 -72.388252258301 -197.039749145508 1.571910381317
12.800764083862 -81.336074829102 -237.758926391602 1.613944411278
109.679466247559 -74.577682495117 -173.942291259766 0.879592120647
84.439651489258 -76.426582336426 -88.842903137207 1.935411453247
56.838993072510 -60.329105377197 -94.584465026855 2.354794502258
-31.622005462646 -78.053108215332 -215.142868041992 1.700682044029
-142.557312011719 -63.632816314697 -232.305221557617 1.049106240273
-150.962265014648 -78.283348083496 -219.628326416016 2.432786941528
-20.936645507813 -69.967544555664 -60.799263000488 3.061025142670
62.277614593506 -58.868164062500 -92.247512817383 1.249919414520
-42.202381134033 -64.654708862305 -47.389694213867 1.599170446396
39.754245758057 -78.758300781250 -127.624168395996 2.083827018738
40.003238677979 -74.223228454590 -131.913162231445 0.581962406635
-25.697031021118 -78.637596130371 -179.402847290039 2.132389307022
110.501083374023 -75.567451477051 -132.110366821289 2.040099620819
-79.939605712891 -74.296333312988 -63.294303894043 2.117021560669
-146.598617553711 -74.649780273438 -265.329406738281 0.266160070896
18.022893905640 -66.754310607910 -181.061630249023 2.634297370911
-145.980926513672 -76.268623352051 -210.638107299805 0.961009204388
-147.295440673828 -86.684806823730 -291.795349121094 1.896945953369
-150.225906372070 -72.288917541504 -181.798355102539 0.606711745262
-11.725785255432 -72.043304443359 -231.132781982422 1.334167003632
-12.487018585205 -79.932060241699 -214.438064575195 1.795583367348
-20.338783264160 -78.510543823242 -182.935226440430 1.379388093948
-107.306556701660 -75.272789001465 -290.033172607422 2.115367174149
-57.458553314209 -62.577674865723 -119.323745727539 2.151513814926
19.395372390747 -76.142669677734 -237.871307373047 0.880254209042
-76.779899597168 -71.593048095703 -134.974151611328 1.164724588394
37.072154998779 -64.574218750000 -254.857574462891 1.346088528633
17.084432601929 -65.440460205078 -152.375747680664 1.138078689575
-150.877761840820 -77.510864257813 -222.414855957031 0.901202499866
-78.552719116211 -70.948150634766 -287.327514648438 2.494215011597
-44.442516326904 -75.066978454590 -58.978733062744 2.105122089386
-163.715652465820 -75.260879516602 -280.955718994141 3.277026414871
-20.282342910767 -70.577140808105 -204.758422851563 1.048134326935
32.092750549316 -79.868461608887 -142.735717773438 1.145801186562
103.628036499023 -60.025447845459 -77.224449157715 1.173969507217
-5.230945110321 -67.666969299316 -268.720947265625 2.021037340164
9.723319053650 -80.284538269043 -212.499404907227 1.128720402718
-140.044097900391 -81.358520507813 -197.361099243164 1.616450667381
41.592945098877 -64.766517639160 -252.975616455078 1.436384797096
23.587881088257 -77.599082946777 -167.480239868164 1.888272166252
45.142688751221 -71.825881958008 -96.829231262207 0.903435707092
-83.642784118652 -75.921195983887 -108.955490112305 2.181310892105
12.152711868286 -78.349670410156 -210.863937377930 2.021776914597
-87.438331604004 -77.502845764160 -86.570083618164 1.735452890396
-109.834892272949 -69.301017761230 -184.243423461914 0.822855234146
-62.455268859863 -74.405830383301 -290.861541748047 2.232228994370
16.976787567139 -78.988929748535 -190.098205566406 1.643632292747
-4.744521141052 -69.449348449707 -226.047729492188 1.782338738441
88.853721618652 -76.991401672363 -211.521041870117 0.845413267612
-141.197723388672 -71.649841308594 -262.955291748047 0.544706881046
76.627647399902 -63.943588256836 -61.962196350098 1.595780611038
-62.303894042969 -72.313186645508 -247.768661499023 1.106459736824
-44.665088653564 -72.999351501465 -290.002929687500 1.674720644951
70.249603271484 -65.108551025391 -66.699325561523 0.945998787880
36.341911315918 -68.263648986816 -259.932647705078 1.757922410965
-21.307727813721 -77.547462463379 -286.789459228516 1.794179797173
-46.852649688721 -76.110145568848 -85.424728393555 1.455489277840
-166.967285156250 -71.637435913086 -232.528610229492 2.437738180161
-42.147445678711 -73.320648193359 -167.320358276367 2.162135362625
-115.983879089355 -68.459495544434 -290.898712158203 1.415508270264
72.164558410645 -61.360519409180 -62.446075439453 1.932499408722
-152.033950805664 -70.889579772949 -179.699752807617 1.904153704643
-41.718425750732 -70.421592712402 -170.456100463867 1.908970236778
-30.835853576660 -64.160522460938 -49.587326049805 2.040371417999
16.640481948853 -81.299003601074 -258.009460449219 0.783247947693
17.211893081665 -78.600234985352 -226.104736328125 0.818819582462
15.043794631958 -74.549789428711 -291.212341308594 1.169877767563
41.822948455811 -64.744766235352 -32.833435058594 0.640029072762
50.234405517578 -69.253723144531 -105.387725830078 2.290385246277
26.845041275024 -75.997749328613 -141.023468017578 1.449095606804
-66.064292907715 -58.923767089844 -90.623664855957 1.533401131630
58.224227905273 -62.031944274902 -95.573623657227 2.800409317017
113.067924499512 -69.309524536133 -154.177795410156 1.406894207001
26.829029083252 -71.086242675781 -134.730773925781 1.915169119835
-44.718437194824 -70.676979064941 -142.537033081055 1.479694008827
-98.397911071777 -62.417331695557 -111.296272277832 2.079701662064
-153.401580810547 -60.082477569580 -201.991699218750 1.218155384064
72.725547790527 -72.461204528809 -227.650451660156 1.519492268562
-63.695098876953 -65.631439208984 -122.555404663086 1.359489679337
-42.130699157715 -68.249725341797 -153.285385131836 2.092517137527
-62.729648590088 -77.840316772461 -162.058212280273 1.411410093307
-89.342102050781 -68.657867431641 -254.831237792969 1.958428740501
-56.207550048828 -73.375358581543 -286.083831787109 2.410018682480
24.079172134399 -71.488273620605 -263.212310791016 1.238181710243
82.618835449219 -74.625045776367 -222.822662353516 0.626112520695
-37.373622894287 -73.550880432129 -204.767639160156 2.025131225586
-153.407577514648 -82.356063842773 -228.520599365234 1.029966831207
-127.639640808105 -63.147930145264 -229.264343261719 2.403391838074
-79.304946899414 -70.949966430664 -253.494277954102 0.554289340973
-145.789855957031 -70.943443298340 -270.068511962891 4.188849449158
-133.171157836914 -75.117149353027 -262.342376708984 1.044103980064
-146.183715820313 -80.786148071289 -210.850311279297 2.046797513962
-126.436820983887 -62.650161743164 -197.060363769531 1.621096491814
-56.795040130615 -70.094383239746 -146.726867675781 1.741955161095
-34.486095428467 -73.939750671387 -290.906951904297 2.220104217529
-66.124992370605 -60.011001586914 -113.668205261230 1.289721608162
-40.827144622803 -85.699325561523 -195.424972534180 1.022646069527
-22.151657104492 -74.101524353027 -69.183494567871 2.175082206726
-66.311851501465 -75.442085266113 -290.892181396484 1.501551032066
-75.075912475586 -64.607910156250 -137.443191528320 2.368884801865
-51.089828491211 -82.814491271973 -204.077697753906 1.818053841591
25.167083740234 -69.428337097168 -38.041816711426 1.577265381813
91.475402832031 -71.769462585449 -71.909324645996 1.917475581169
-8.954727172852 -76.502769470215 -226.236206054688 2.381433010101
-124.890075683594 -72.289428710938 -254.948562622070 1.049162864685
30.523782730103 -64.358314514160 -35.727828979492 2.646411895752
-117.813362121582 -74.099838256836 -259.115936279297 2.383823633194
-55.526832580566 -58.692783355713 -133.138046264648 1.382075190544
52.149559020996 -71.162925720215 -103.712158203125 2.220578670502
103.808212280273 -71.933853149414 -195.972473144531 2.041472673416
5.462728023529 -76.432800292969 -243.694473266602 0.527662992477
-30.447896957397 -74.556907653809 -187.274124145508 1.562838912010
-83.125991821289 -64.819473266602 -114.915443420410 1.697368979454
60.546936035156 -67.352630615234 -83.991737365723 1.910981416702
111.352249145508 -74.310623168945 -164.699264526367 1.231580257416
-56.423095703125 -62.342750549316 -125.746025085449 0.977688074112
-29.503280639648 -66.064826965332 -76.597915649414 1.657354235649
13.532157897949 -66.534042358398 -288.193542480469 1.299355149269
-70.608535766602 -58.411521911621 -117.975395202637 2.277381181717
-1.740221023560 -82.225387573242 -250.580978393555 1.750416636467
-38.208045959473 -78.080604553223 -69.857643127441 2.769499301910
-25.536888122559 -64.832870483398 -52.067310333252 1.500742554665
-86.966247558594 -62.994987487793 -130.043685913086 1.418000221252
10.258060455322 -77.200431823730 -199.012512207031 1.365524530411
-147.941848754883 -78.727806091309 -303.374633789063 2.444629430771
-124.996322631836 -66.432617187500 -290.244659423828 0.348799616098
-72.551345825195 -68.593574523926 -100.710151672363 1.403165221214
-2.568471908569 -72.571205139160 -238.449325561523 1.240666866302
3.619915008545 -63.534729003906 -276.713439941406 3.558106899261
5.094132900238 -75.173873901367 -236.504470825195 1.497871041298
-146.955825805664 -72.232978820801 -191.006271362305 1.862826108932
-96.310821533203 -69.343368530273 -106.652397155762 2.639999389648
106.568374633789 -74.115684509277 -190.937789916992 1.345323681831
-35.553932189941 -63.010757446289 -78.778556823730 1.786042332649
104.700813293457 -69.720466613770 -104.104705810547 1.290312170982
10.705544471741 -70.750404357910 -212.393966674805 1.305094122887
-148.161621093750 -65.760993957520 -199.610595703125 1.259115695953
55.068897247314 -61.807880401611 -90.302085876465 1.582316517830
-155.478073120117 -66.852233886719 -193.457153320313 0.575384736061
89.477561950684 -74.972122192383 -78.185722351074 1.600591897964
-107.525955200195 -71.736015319824 -223.665634155273 0.923873245716
45.456813812256 -70.186485290527 -116.203399658203 2.298700809479
-127.525405883789 -70.460624694824 -264.750091552734 1.212298750877
-68.370803833008 -73.503463745117 -246.197631835938 1.458128452301
25.195959091187 -77.518646240234 -167.081527709961 2.456758737564
1.109874963760 -82.563133239746 -250.302886962891 2.105022192001
20.211605072021 -71.672622680664 -156.746215820313 1.791407823563
31.815679550171 -77.093772888184 -156.117172241211 1.637146949768
-149.128616333008 -73.423851013184 -230.625778198242 0.967850208282
80.141883850098 -70.038314819336 -228.432571411133 2.160978078842
-5.211705207825 -75.912246704102 -172.026718139648 0.536158323288
-71.731521606445 -71.215667724609 -53.288188934326 2.448442459106
-68.019332885742 -59.119529724121 -43.327411651611 2.514372348785
-151.658645629883 -80.047058105469 -278.919342041016 1.612973570824
-95.726974487305 -62.011676788330 -144.397994995117 2.421711683273
5.074844837189 -68.340766906738 -234.391296386719 1.494165539742
103.199401855469 -75.474487304688 -181.037277221680 2.223951339722
10.193087577820 -82.674247741699 -235.198745727539 2.130533695221
-30.082725524902 -68.199905395508 -183.640533447266 1.640163898468
2.904259920120 -74.799224853516 -158.436874389648 0.589982330799
-90.822799682617 -75.240768432617 -89.793693542480 1.498439550400
-59.429149627686 -68.540802001953 -137.168853759766 0.809413552284
33.129482269287 -76.996986389160 -150.720901489258 1.208881020546
29.689567565918 -70.365058898926 -256.916839599609 1.833951830864
-148.902862548828 -67.749313354492 -308.799621582031 1.638602852821
89.650100708008 -73.283073425293 -213.503982543945 0.857514619827
43.321258544922 -75.640602111816 -106.202308654785 2.196765184402
100.852226257324 -58.617160797119 -68.080604553223 1.233165621758
16.173551559448 -76.649597167969 -207.943618774414 1.651121854782
-137.087005615234 -71.945976257324 -255.262100219727 1.556424856186
-89.388473510742 -72.358757019043 -218.706909179688 1.524541854858
-93.939651489258 -72.088195800781 -91.939109802246 2.848883867264
-112.751579284668 -69.576919555664 -225.975921630859 1.008372783661
-164.058868408203 -67.148117065430 -198.628601074219 1.962570905685
16.383729934692 -78.536544799805 -251.066253662109 1.791518688202
-22.388683319092 -73.918060302734 -291.072357177734 2.799761056900
110.047325134277 -76.401367187500 -155.683288574219 2.127073526382
97.340988159180 -69.772628784180 -74.405319213867 2.659130811691
24.129606246948 -75.654754638672 -179.784179687500 1.218398094177
-56.329536437988 -70.437637329102 -132.788330078125 1.440479516983
-17.165218353271 -62.268833160400 -67.211112976074 3.215891122818
103.924919128418 -60.491237640381 -91.953063964844 1.068500399590
-59.918113708496 -58.895637512207 -117.058784484863 1.617867112160
27.612117767334 -65.439086914063 -33.250831604004 2.265521287918
-27.545568466187 -75.976226806641 -191.358566284180 2.230198383331
-95.926841735840 -66.929046630859 -75.178474426270 1.450121045113
23.313631057739 -71.438339233398 -153.213577270508 1.064079403877
-46.636566162109 -74.104835510254 -194.221237182617 0.990368723869
111.692794799805 -76.680900573730 -149.919479370117 1.773617148399
-128.792465209961 -66.845092773438 -234.738952636719 2.374232292175
-97.201812744141 -67.736938476563 -149.540481567383 0.940374732018
11.348520278931 -72.530670166016 -244.418106079102 1.756102204323
16.407411575317 -83.852134704590 -246.132095336914 0.991232991219
-49.738937377930 -79.574417114258 -71.612724304199 2.630603313446
-27.016309738159 -79.956787109375 -188.769195556641 0.313699662685
-83.996620178223 -61.228065490723 -120.962272644043 1.355235219002
-148.555404663086 -62.000556945801 -247.164627075195 1.958491683006
8.892028808594 -73.444747924805 -290.939971923828 2.127811670303
-67.079254150391 -74.563980102539 -160.078369140625 1.091395854950
-137.853103637695 -84.534530639648 -260.102233886719 1.543396949768
-147.717422485352 -62.048839569092 -187.630813598633 1.326454758644
-123.800209045410 -73.046295166016 -261.832122802734 0.351792961359
2.794909000397 -76.871986389160 -243.437011718750 2.220586776733
20.961332321167 -61.320449829102 -277.807250976563 1.226232528687
-65.065322875977 -71.326713562012 -156.290145874023 2.202670097351
108.641586303711 -72.068107604980 -153.929244995117 2.845193862915
19.293497085571 -78.963378906250 -237.111984252930 1.156022787094
14.701560020447 -68.934074401855 -286.322296142578 1.480913162231
-106.419578552246 -62.172012329102 -169.922714233398 1.777417540550
-161.136093139648 -71.821365356445 -212.379058837891 3.343122959137
26.721370697021 -67.412712097168 -153.136154174805 1.315646886826
-71.446014404297 -75.493751525879 -101.131134033203 1.643050312996
-147.645980834961 -83.687431335449 -296.886474609375 2.049825906754
106.861244201660 -70.321945190430 -181.124237060547 1.036226153374
-71.892356872559 -77.132827758789 -288.126617431641 2.760067939758
111.963745117188 -75.810501098633 -130.529052734375 1.553589105606
-95.667228698730 -66.138732910156 -141.408584594727 1.430956602097
-46.684539794922 -77.620277404785 -193.975570678711 1.990941524506
-25.249507904053 -74.997802734375 -75.180038452148 1.708659648895
43.566535949707 -68.210990905762 -250.940414428711 1.443289518356
25.786348342896 -67.848937988281 -23.681926727295 1.897467136383
-45.236427307129 -67.566680908203 -147.618362426758 1.415047287941
24.217504501343 -77.174491882324 -160.382492065430 2.580310583115
-149.673324584961 -61.780677795410 -234.630676269531 0.662885069847
41.676086425781 -75.158180236816 -122.690261840820 2.550374984741
-77.347824096680 -73.147735595703 -99.870651245117 0.967576086521
107.952720642090 -73.955680847168 -122.169708251953 2.162339925766
-99.511505126953 -74.141799926758 -219.064895629883 1.961327552795
-85.868576049805 -67.818290710449 -120.144432067871 0.996232211590
-69.393295288086 -72.700012207031 -144.877487182617 1.734430551529
96.516731262207 -68.030014038086 -71.334518432617 0.949864864349
34.266426086426 -62.478282928467 -40.880092620850 0.528392255306
-141.257934570313 -66.867843627930 -195.707946777344 0.534065663815
-144.320480346680 -62.918865203857 -194.257614135742 1.864292979240
-70.107475280762 -82.595916748047 -211.111968994141 0.948748111725
-165.125976562500 -71.274131774902 -204.534713745117 1.639875531197
-13.752929687500 -70.211555480957 -241.783615112305 1.828255176544
-167.234573364258 -69.364387512207 -227.566589355469 1.783466696739
-126.953979492188 -66.207931518555 -263.226928710938 0.990546882153
-61.643077850342 -60.537349700928 -134.442214965820 1.790857195854
16.771490097046 -71.708251953125 -207.176177978516 0.865024089813
-40.759006500244 -80.109313964844 -241.093597412109 1.580844521523
34.670768737793 -68.570350646973 -136.635879516602 1.110364794731
-72.014831542969 -58.952106475830 -100.186019897461 1.438964843750
-81.056266784668 -84.126670837402 -98.844497680664 2.388855218887
82.081222534180 -70.182212829590 -102.462944030762 1.008360147476
-151.627044677734 -76.805229187012 -275.272827148438 2.210636138916
-92.894477844238 -65.028083801270 -63.106433868408 2.776873111725
18.418897628784 -77.225883483887 -231.461212158203 0.505958557129
87.648139953613 -67.830062866211 -65.372726440430 1.074814319611
-142.092514038086 -78.166625976563 -201.738677978516 1.076120734215
44.077026367188 -75.407173156738 -117.491607666016 1.307844042778
-2.701416969299 -63.051708221436 -244.104202270508 0.832918107510
29.671840667725 -67.905723571777 -263.107727050781 1.923014283180
-14.534310340881 -68.167778015137 -66.454048156738 1.918076515198
-146.059860229492 -77.565246582031 -217.108688354492 1.147714018822
-94.002311706543 -72.827980041504 -111.318695068359 2.135418653488
-6.822819232941 -72.607482910156 -289.252990722656 1.918512940407
-166.776031494141 -71.074722290039 -222.612701416016 2.013055562973
33.051132202148 -72.106643676758 -117.083953857422 2.542042016983
11.759013175964 -72.546134948730 -243.836700439453 1.644509673119
33.980724334717 -64.437255859375 -258.821929931641 2.447790384293
-53.182254791260 -79.720489501953 -244.789581298828 1.232750535011
-18.081771850586 -77.638572692871 -209.868362426758 0.611456394196
-68.350265502930 -69.045547485352 -99.233573913574 0.571348190308
-39.356906890869 -74.673431396484 -156.098602294922 2.865092754364
-102.512413024902 -67.075469970703 -169.914749145508 1.451666355133
-34.010391235352 -70.286163330078 -170.823028564453 2.037959098816
44.186832427979 -71.973175048828 -253.937164306641 1.212799429893
-66.125900268555 -74.408798217773 -168.520812988281 1.322859883308
25.625160217285 -70.030258178711 -140.617706298828 1.504904031754
-144.104278564453 -84.610107421875 -258.826507568359 0.867162883282
-53.094856262207 -77.329765319824 -176.405288696289 1.735720753670
-21.523593902588 -74.096748352051 -220.665893554688 0.851333200932
-68.273857116699 -78.653465270996 -206.718170166016 1.366331815720
15.133247375488 -79.991310119629 -233.477416992188 1.711925625801
8.730665206909 -76.181892395020 -201.517562866211 1.209017038345
-148.462188720703 -72.535209655762 -229.680709838867 0.953997552395
30.008708953857 -72.707557678223 -157.441925048828 1.510161280632
34.622379302979 -70.050125122070 -130.087707519531 1.717357873917
-151.388046264648 -80.111701965332 -233.467956542969 2.308168172836
-8.100038528442 -68.860588073730 -284.094238281250 1.502272486687
71.539466857910 -71.442131042480 -233.458801269531 1.007864117622
-122.961135864258 -76.268997192383 -290.503692626953 1.938357949257
37.454612731934 -67.972526550293 -259.255737304688 1.735634326935
-107.737968444824 -68.027153015137 -189.316665649414 1.213105082512
-145.882354736328 -64.491889953613 -253.843536376953 1.488105535507
-60.182929992676 -64.996665954590 -123.568695068359 1.337570548058
-60.823486328125 -75.368446350098 -93.731925964355 3.100856065750
103.625595092773 -63.728820800781 -83.181266784668 1.085692763329
-144.542633056641 -72.485572814941 -182.733612060547 1.388392686844
-136.780807495117 -67.694656372070 -233.054962158203 2.095882892609
6.612508773804 -79.142166137695 -233.620498657227 0.870663106441
12.510873794556 -70.698455810547 -235.885803222656 1.167919635773
-11.512475013733 -70.848220825195 -203.634674072266 1.006585240364
-52.224449157715 -80.538383483887 -90.304557800293 1.885597109795
9.943679809570 -71.582656860352 -207.243820190430 0.847624301910
23.673883438110 -74.303527832031 -183.442962646484 2.033039569855
43.171005249023 -58.761547088623 -24.883863449097 1.759390354156
-24.400081634521 -72.026527404785 -221.115890502930 2.106840610504
19.688385009766 -71.544792175293 -159.195602416992 1.059628367424
11.967657089233 -81.534408569336 -222.314361572266 1.926981806755
-26.293682098389 -84.330131530762 -186.908752441406 1.546790242195
-92.781105041504 -61.747634887695 -141.601165771484 1.961615800858
110.526550292969 -69.662658691406 -167.086410522461 0.675288796425
-47.177562713623 -64.430313110352 -83.248168945313 1.617744565010
84.387207031250 -75.938522338867 -224.709716796875 1.203600883484
-96.258674621582 -63.475906372070 -67.467803955078 0.558548152447
-82.428306579590 -60.195426940918 -116.181053161621 2.116128683090
-6.348117828369 -77.003807067871 -216.605377197266 1.081777453423
-53.528541564941 -84.586883544922 -84.691429138184 3.084450006485
-78.839645385742 -76.503868103027 -102.179885864258 1.428172826767
23.013990402222 -64.802375793457 -145.012405395508 2.342682123184
-0.615036010742 -77.905639648438 -163.733566284180 0.707996606827
-150.094146728516 -72.507041931152 -206.918869018555 1.153201341629
57.744865417480 -68.477561950684 -240.386444091797 1.021596670151
-41.679317474365 -67.772460937500 -156.534225463867 1.628414154053
-38.341232299805 -68.730293273926 -172.729705810547 2.754760980606
4.804440975189 -72.989974975586 -227.338577270508 1.084159493446
28.162973403931 -79.385002136230 -159.603408813477 1.749997138977
112.397674560547 -75.692657470703 -130.912078857422 1.423802375793
20.244495391846 -77.419471740723 -196.220642089844 1.840502738953
35.390262603760 -71.165237426758 -254.381546020508 1.632766485214
-54.416477203369 -67.001487731934 -87.918907165527 2.177646875381
-59.672420501709 -82.994346618652 -202.809005737305 0.713104188442
-100.399444580078 -67.606048583984 -221.718719482422 0.706529200077
8.217967033386 -72.776359558105 -200.751586914063 0.767878711224
54.882415771484 -73.800048828125 -101.198143005371 0.841683506966
-39.494827270508 -70.469779968262 -52.515949249268 2.100482702255
-15.877445220947 -69.886108398438 -66.313911437988 2.056092500687
-85.070831298828 -72.459136962891 -215.203796386719 1.519487738609
43.703205108643 -67.543533325195 -25.709455490112 1.329296469688
-157.366760253906 -71.843070983887 -295.309600830078 0.841452121735
-39.612152099609 -77.094253540039 -168.430389404297 1.496158480644
-1.877009034157 -66.623611450195 -291.679565429688 0.353750973940
-114.757713317871 -69.941352844238 -202.497833251953 1.481580615044
-153.186843872070 -68.596534729004 -178.661361694336 1.013287782669
1.801836013794 -70.269233703613 -240.275085449219 0.750719487667
65.284637451172 -61.492557525635 -94.271179199219 1.878451228142
17.754623413086 -80.797744750977 -259.643005371094 1.932919621468
-98.107139587402 -62.592884063721 -113.364479064941 2.664888620377
95.515106201172 -75.522201538086 -211.400360107422 1.174137949944
-73.967964172363 -69.604133605957 -143.916625976563 1.423018336296
-59.107307434082 -76.965194702148 -174.937957763672 1.488457083702
-39.150936126709 -64.280319213867 -47.535503387451 2.618162631989
-46.875022888184 -76.705734252930 -156.136566162109 2.280844449997
-49.691650390625 -76.898284912109 -186.681350708008 0.936490237713
23.482799530029 -71.725784301758 -144.622665405273 1.626162767410
39.797355651855 -68.069709777832 -34.634803771973 2.094928264618
15.509874343872 -79.611228942871 -207.935806274414 1.667504906654
-45.072029113770 -85.510620117188 -198.448226928711 0.604228913784
-145.580261230469 -81.989799499512 -222.220855712891 1.951206445694
80.927375793457 -58.969242095947 -58.913925170898 1.070232987404
-47.027919769287 -75.119087219238 -285.843902587891 2.409520864487
14.356911659241 -68.867744445801 -214.115051269531 1.663620829582
75.968315124512 -75.421157836914 -90.223068237305 2.187398672104
-134.218536376953 -74.818382263184 -256.464996337891 1.435389518738
-149.292495727539 -65.444015502930 -199.424621582031 1.359064340591
44.918651580811 -69.706504821777 -21.445493698120 1.770954608917
-135.237625122070 -66.136222839355 -258.278350830078 0.516494333744
-150.682159423828 -62.375144958496 -248.471511840820 1.474937677383
-157.872879028320 -70.505470275879 -265.643554687500 0.877669394016
-134.885665893555 -66.785751342773 -256.398254394531 0.588657140732
29.441013336182 -66.431182861328 -18.662906646729 2.055105686188
-145.517028808594 -72.849250793457 -187.183380126953 0.929534494877
94.948417663574 -70.679824829102 -208.734527587891 2.805172443390
-153.891906738281 -71.098045349121 -299.377471923828 1.258617639542
15.696016311646 -71.151634216309 -175.506790161133 1.431334972382
-8.154866218567 -67.343544006348 -216.652908325195 2.086279630661
-140.254592895508 -72.079208374023 -201.008148193359 0.617679595947
-58.299503326416 -72.604637145996 -136.636718750000 1.573521137238
-152.624893188477 -82.347747802734 -231.635482788086 1.147310972214
-98.875091552734 -62.098178863525 -82.814453125000 2.620174884796
108.705299377441 -76.205345153809 -161.896194458008 2.652107954025
-70.701072692871 -85.566261291504 -92.855690002441 1.828605175018
-133.357894897461 -75.067794799805 -256.529724121094 1.508512377739
-63.352554321289 -63.629028320313 -123.814491271973 0.692485511303
97.484085083008 -72.506423950195 -194.952346801758 1.835961580276
-69.817825317383 -72.254455566406 -149.330383300781 1.485011458397
-73.279747009277 -66.398887634277 -104.532745361328 1.909715414047
5.745409965515 -73.770843505859 -213.242187500000 0.945014178753
-75.264762878418 -62.458774566650 -110.237205505371 1.485953450203
-134.866302490234 -71.935096740723 -226.624816894531 1.270256042480
-148.372543334961 -78.906875610352 -300.856140136719 0.631442129612
-71.223091125488 -59.538036346436 -43.969959259033 2.748182773590
-54.151367187500 -60.747238159180 -126.280204772949 1.941608905792
39.176429748535 -65.083099365234 -12.824519157410 0.804750263691
-107.331771850586 -65.713027954102 -187.616119384766 0.751443505287
-129.028976440430 -61.903251647949 -199.854446411133 3.103900194168
-148.348175048828 -63.022941589355 -192.825515747070 2.006029844284
-50.797893524170 -78.128196716309 -89.523620605469 2.014684677124
-148.633880615234 -85.101020812988 -251.901626586914 1.969416022301
-62.352100372314 -62.049041748047 -130.106842041016 1.162136793137
-90.457214355469 -67.949325561523 -138.370071411133 1.460923910141
29.485565185547 -57.772716522217 -13.016802787781 1.668653964996
112.382316589355 -72.303665161133 -129.693389892578 1.106099128723
-31.585752487183 -77.743782043457 -208.603851318359 1.720051050186
46.166301727295 -70.422119140625 -111.442077636719 1.964492917061
111.959541320801 -73.089698791504 -131.547119140625 0.700221538544
-50.010150909424 -65.361091613770 -133.583694458008 0.978365898132
-147.182937622070 -76.829116821289 -216.057907104492 0.254973888397
-140.959854125977 -68.460281372070 -203.593750000000 0.860961735249
-90.156867980957 -74.713119506836 -83.192512512207 1.645592808723
-34.330093383789 -76.995391845703 -209.119918823242 2.203634500504
-23.830989837646 -62.910469055176 -69.173973083496 1.526767134666
84.549728393555 -75.878479003906 -84.114028930664 2.428306341171
-151.853713989258 -64.933998107910 -279.330718994141 3.224150657654
45.557338714600 -65.704612731934 -106.652839660645 1.951744437218
-34.889995574951 -63.768936157227 -48.070625305176 1.141457319260
39.205600738525 -77.961616516113 -119.926559448242 2.379661083221
103.323280334473 -62.646087646484 -78.138099670410 1.392803072929
-107.890396118164 -66.572853088379 -192.179550170898 2.180223703384
-146.117431640625 -83.167320251465 -237.750640869141 2.054676771164
-79.737243652344 -71.402603149414 -57.863395690918 1.678793549538
-74.945121765137 -73.507270812988 -58.405426025391 2.011483669281
112.660301208496 -76.328346252441 -139.717041015625 1.800334692001
78.664001464844 -74.160850524902 -97.270530700684 1.501952290535
106.163406372070 -70.534500122070 -120.661552429199 2.108653545380
-144.916381835938 -78.006057739258 -205.330001831055 0.738020002842
77.015769958496 -76.351051330566 -226.810775756836 2.097216844559
23.891218185425 -78.983825683594 -155.081481933594 1.436633229256
-24.047388076782 -73.298995971680 -182.494400024414 1.434495687485
-144.213989257813 -68.861213684082 -285.469360351563 1.199726700783
-0.878566026688 -75.493041992188 -240.836715698242 1.601594090462
15.937234878540 -74.427207946777 -247.285781860352 1.805663704872
109.838264465332 -66.847122192383 -116.546821594238 1.763106226921
-166.102951049805 -74.811645507813 -269.814788818359 1.771899223328
-13.123261451721 -68.074470520020 -249.979095458984 1.556844592094
27.618171691895 -73.738250732422 -167.699417114258 2.302324771881
-36.756488800049 -73.541023254395 -205.925140380859 2.090771198273
-46.038208007813 -62.352584838867 -81.649887084961 1.282491087914
-161.775360107422 -66.247024536133 -208.305175781250 1.012708902359
-134.280960083008 -72.943038940430 -294.413299560547 0.644436717033
-162.442169189453 -66.234077453613 -208.586685180664 1.511601567268
-90.910781860352 -65.916580200195 -61.336505889893 1.319847464561
-47.095195770264 -77.178642272949 -241.330703735352 1.480041027069
-148.382659912109 -80.104652404785 -275.859649658203 1.755111813545
-166.873916625977 -72.866706848145 -246.763580322266 0.626178264618
-142.021286010742 -74.201560974121 -292.413452148438 1.350601196289
