# This PCD file was generated using the MATLAB® pcwrite function
# from Computer Vision Toolbox®.
# .PCD v.7 - Point Cloud Data file format
VERSION .7
FIELDS x y z
SIZE 4 4 4
TYPE F F F
COUNT 1 1 1
WIDTH 1462
HEIGHT 1
VIEWPOINT 0 0 0 1 0 0 0
POINTS 1462
DATA ascii
-150.048340 199.768097 -65.100838
46.575657 45.182442 -58.135246
3.556008 273.224701 -79.777565
-38.533012 172.048889 -71.393219
-65.661736 220.014343 -75.308388
24.586624 30.041407 -67.292191
-49.526478 153.788818 -63.375149
-37.143280 217.253937 -69.692268
-29.894283 225.643936 -72.740135
69.029396 83.631905 -67.606995
-152.428040 279.505859 -67.183456
61.290554 95.904266 -61.024422
-159.856308 304.214386 -67.009071
-44.665436 64.603058 -66.308891
-70.756042 163.771439 -69.495621
21.978327 195.178101 -61.161072
-54.009068 152.550888 -58.496643
-20.318054 214.219208 -73.531288
17.609516 211.381927 -71.335068
6.446940 251.674118 -60.486328
90.121346 96.746521 -70.850464
-35.462608 296.022675 -69.096329
-87.479813 70.495354 -63.572323
-150.793137 255.685715 -61.539467
-154.991623 305.877350 -67.027031
-128.026154 264.718353 -68.670868
30.134119 45.741905 -62.610653
-55.530979 101.959290 -69.566116
-53.972488 88.382965 -57.882000
17.520430 201.647461 -76.490746
-144.340927 200.557449 -69.496071
-76.267326 90.090393 -75.877121
75.675072 242.689499 -70.312912
-30.352318 185.930176 -70.927597
-94.701935 90.662224 -57.046299
-47.204529 166.838684 -72.777962
-151.147308 203.552765 -75.824860
-140.108490 300.744049 -79.866425
-149.891983 242.560516 -76.549797
-78.520599 125.990791 -62.748917
14.968064 254.702271 -76.310974
-44.114899 170.442474 -74.300072
49.461594 105.315033 -57.341755
20.644133 194.164261 -63.558514
-154.149979 267.574799 -77.017853
0.188696 276.220032 -61.380917
-150.641937 295.384979 -75.599571
31.280895 27.818953 -56.242889
31.928673 172.350311 -69.031532
-44.752750 159.091766 -68.171890
88.576828 69.664566 -61.646984
-144.972412 304.729401 -72.171028
-148.268158 269.899689 -68.169388
-74.836372 110.208534 -58.770893
28.853226 145.154205 -73.461792
78.799568 72.738663 -58.109470
17.495405 234.177612 -71.454262
-30.608871 179.802292 -69.643211
-149.930344 308.539032 -64.023422
77.269707 115.101120 -62.962593
-146.074036 303.560638 -75.559334
-3.043164 255.917511 -55.088112
-43.025345 164.805878 -73.423065
-85.585617 139.399612 -59.766159
40.827000 23.469889 -63.032825
-131.693832 304.178101 -63.716770
34.385265 27.749111 -64.844978
26.358730 33.205742 -58.768909
-46.276833 175.036560 -68.276123
-77.687675 118.698776 -52.804802
-39.135937 56.071110 -57.656429
-26.946203 220.589554 -75.118629
-14.733769 269.015167 -67.450607
-65.790352 53.302628 -52.585373
-129.320465 269.951599 -59.090263
24.014557 185.091568 -66.400642
105.084007 82.312309 -54.402908
11.404945 201.679535 -68.932053
14.342100 168.092819 -69.179443
-95.692001 75.345230 -64.371384
-27.344028 190.187424 -62.069416
4.763954 273.805878 -58.596710
-56.910465 51.501328 -60.939484
18.183735 200.118439 -70.284813
112.253975 151.738937 -67.903122
-53.968082 184.982849 -69.784927
-140.178467 270.584503 -72.065109
90.068779 222.529953 -69.489784
39.255287 267.211578 -65.682091
-149.385162 237.297455 -61.543949
19.235439 236.693024 -74.431580
27.417685 155.617874 -61.164738
-5.672020 220.092102 -69.126495
58.464458 93.626442 -52.271149
31.998604 168.548157 -67.882446
-22.950184 60.858879 -56.602329
103.755821 103.989578 -59.141365
20.625681 193.469818 -60.082993
-83.358559 81.815262 -71.185791
27.005383 195.348312 -71.140129
-98.742729 109.167717 -58.456272
-17.987999 215.684982 -61.466133
-6.290167 243.008881 -65.272308
-52.827000 54.049679 -54.183197
-27.927126 225.229630 -70.567268
-162.250732 241.610336 -62.163948
-78.572159 116.465286 -59.003956
-148.680939 307.752075 -61.351147
3.878831 256.156616 -73.984795
-161.418350 223.023468 -62.823631
2.469486 230.458389 -70.774353
-13.405053 212.158630 -66.433273
-97.038780 125.006676 -59.838886
-33.961044 252.823898 -73.417000
-73.483749 260.126740 -63.853752
-73.816246 76.938278 -74.450989
-78.237129 66.102104 -66.528938
-18.962236 205.759537 -74.642204
-53.175282 152.288986 -58.578117
22.206366 175.487900 -63.019489
57.841579 257.244476 -64.992889
-48.880684 165.606094 -70.250664
-94.259239 127.532631 -63.026299
-5.032423 244.618484 -68.676910
-3.470557 247.940094 -62.786469
41.417416 26.043676 -60.511330
-120.085449 299.092133 -58.466927
-153.882996 215.048004 -59.576111
-9.262952 72.882294 -59.153214
91.933258 218.087769 -66.703995
-143.615051 275.407776 -66.657730
-147.595474 218.292435 -67.844604
-17.331781 81.809006 -65.170021
-161.664017 230.120239 -69.103104
8.837300 231.231735 -66.447838
-73.734436 56.012337 -58.616402
-16.452990 190.380493 -73.555275
-11.271713 75.809738 -59.486759
-26.572088 226.282333 -65.629196
11.748560 250.879120 -67.096008
-143.089584 272.823090 -76.551857
-100.397644 181.159210 -58.426300
-150.305466 267.617767 -78.633453
-144.706589 272.876099 -71.555840
47.174911 34.066158 -66.614761
-71.178680 150.944794 -63.139256
-74.557228 109.138420 -71.502777
-14.511686 217.808884 -72.874275
-67.088524 105.452286 -81.832642
-77.381866 133.670013 -59.985363
-50.545658 95.889175 -65.554176
43.322292 135.255890 -66.155617
-83.827667 138.633377 -63.114223
-97.812004 159.821960 -59.764229
-148.935516 193.218796 -73.956200
-82.094551 96.345993 -76.047539
96.212700 96.681274 -69.094559
-23.458796 62.578987 -63.751484
92.229820 70.040375 -56.186363
10.876090 217.393387 -72.967850
-145.166702 307.567780 -65.676033
109.803894 194.875381 -68.025795
14.347355 194.642929 -70.841209
24.149530 173.264618 -64.626190
-16.822702 272.797119 -67.570946
31.323408 267.900085 -56.686813
-59.094498 103.551201 -75.403893
-12.457049 256.300446 -59.609085
-58.309784 126.413849 -58.828201
103.848450 201.344818 -61.682140
-167.074890 262.292297 -62.646084
-69.073280 99.901649 -80.356079
-25.761435 195.910706 -62.378944
-1.400160 232.260315 -69.455971
-78.532082 112.774254 -79.558311
-155.112228 313.929749 -65.537239
-142.136551 249.078293 -64.562668
12.810785 227.494080 -64.473869
72.811691 98.648590 -66.341736
-54.078606 298.658051 -71.094093
22.438824 191.168030 -63.740051
17.545065 225.938797 -68.787582
-66.422310 107.701790 -69.720612
-70.974113 110.831970 -61.899517
-148.934280 248.324554 -74.926155
19.866848 206.319168 -66.085129
-69.541603 108.697372 -73.928238
-8.089529 226.452515 -77.677307
-150.884583 232.943466 -52.854561
51.657772 102.633476 -55.746174
-147.809036 211.433990 -66.754478
23.458126 264.667694 -68.050911
-149.180496 249.806091 -68.533401
-72.533012 94.756989 -76.295578
111.757042 154.771957 -66.106895
16.630348 246.641144 -67.917778
44.716656 123.962143 -72.011238
34.514915 155.359360 -63.072041
16.600845 186.833160 -68.869812
-52.567802 90.495033 -76.640228
46.462860 129.398666 -69.111122
-52.907955 92.105598 -55.902920
46.537483 110.109138 -66.768623
-152.221252 255.079529 -57.454296
-75.869957 104.428749 -80.952477
-10.610144 63.563274 -55.474213
-39.786304 181.244720 -70.225410
41.712421 129.700058 -71.348862
-130.848907 209.690735 -67.013924
105.942772 191.360687 -67.348701
-84.615044 139.891418 -61.881702
-153.830521 310.501831 -64.244888
12.723330 232.235092 -74.960823
-90.890884 145.948761 -62.641518
-46.613098 142.035065 -65.506386
-121.595055 211.320602 -61.679367
-157.979691 278.080963 -70.445297
31.942804 271.011932 -63.025982
20.872360 194.506226 -70.814110
-153.540039 286.327271 -64.303215
-26.549755 58.708176 -60.946796
-9.454628 231.854050 -65.194519
12.545939 225.703033 -72.503159
-108.053551 184.174774 -62.827862
-142.205444 200.618179 -63.973137
-153.984711 295.402985 -60.731640
-11.003740 243.535309 -61.596920
-61.492924 50.950241 -54.320198
-154.354889 292.173676 -76.654182
-12.128784 187.797836 -70.449860
9.949524 167.634048 -62.892349
-145.815552 249.547165 -64.790024
60.694443 255.181412 -68.539474
-44.358665 165.454590 -72.709213
-62.058495 173.419205 -73.897141
-156.695145 211.116577 -59.997726
-45.440395 206.975494 -70.957474
39.102077 44.693127 -57.437477
7.073413 279.088287 -79.701714
113.737572 163.133698 -71.910355
56.477821 97.523186 -67.567772
-146.373016 246.477432 -62.626778
8.910086 220.438477 -70.027122
-141.386917 203.362015 -72.063065
10.248530 299.654449 -64.917458
7.975063 282.407440 -55.201271
-51.388054 89.871559 -79.176559
-40.343063 254.808640 -70.525093
80.480438 240.661011 -63.936138
-164.328384 275.091461 -68.780197
-81.239151 111.285065 -64.797180
26.240078 36.751568 -54.571316
-150.369736 300.690369 -56.639221
-56.047699 154.904968 -69.793777
-74.350945 111.531723 -67.869759
91.395065 217.387436 -63.084465
-61.468262 120.319832 -53.340721
-72.626968 58.761196 -63.784161
3.705847 169.292099 -67.094360
74.484406 109.271133 -67.856300
-155.054871 226.657883 -64.703392
-143.706223 246.010345 -63.215248
-88.363129 112.157501 -75.538239
8.581733 203.150467 -70.043182
-95.897591 165.722260 -60.635151
-98.700302 119.280930 -61.756863
47.809814 111.917480 -67.507477
58.721695 95.020027 -61.185730
81.863884 88.681831 -68.898804
85.465080 229.044296 -71.222839
-37.556210 253.357056 -71.299591
-4.971331 282.802094 -73.092705
46.547050 47.237762 -64.270584
-20.958368 59.050304 -55.279491
-44.090061 177.600723 -65.746231
44.181961 128.028610 -66.854424
23.299215 44.589180 -59.862751
-147.261734 314.408508 -73.893974
-35.417137 177.670868 -73.046082
-143.375381 262.734436 -63.628773
-46.555466 206.727982 -67.547386
72.285378 113.403656 -65.278633
2.140771 252.116714 -70.328026
-27.814135 299.117828 -69.437782
-8.845828 274.565338 -73.896759
-73.790573 165.415787 -71.012634
-128.233673 274.959930 -69.428894
43.260624 31.295916 -54.945305
-47.909142 88.511429 -78.086868
84.389084 232.431259 -65.830368
-31.861242 296.236115 -66.046745
-107.861252 238.469177 -67.276894
78.991272 74.117050 -63.899334
-29.243427 300.139709 -69.917282
-2.800715 297.410431 -70.512238
-46.092499 174.161102 -69.207893
-147.283813 318.364563 -73.155098
-126.503288 237.760529 -56.865639
-67.953529 83.633888 -76.887978
-83.173523 139.399017 -60.744274
-54.186405 148.396820 -58.278458
-60.597904 144.424988 -57.095379
-7.496720 258.266144 -55.260822
9.453002 220.945236 -73.212906
61.812744 99.393272 -55.140095
24.984003 166.084106 -74.159538
21.180670 182.100281 -74.387413
-60.236530 301.425964 -67.891197
-138.486420 240.677094 -74.941917
27.622969 142.146179 -70.698952
-34.675457 176.875504 -74.391731
-155.487228 237.021164 -57.371544
-66.697044 218.863632 -73.334702
-56.258312 296.336792 -64.093887
-70.224480 154.439621 -67.307243
19.345219 179.523544 -66.887238
14.987543 160.818619 -66.203438
-23.484587 227.451660 -64.998825
26.779285 153.018188 -74.357765
-46.423080 54.935543 -56.204746
55.503262 96.168571 -61.667744
-40.590054 57.463940 -62.332767
-140.578171 207.601746 -74.878372
32.540802 21.796146 -56.453228
-5.727201 248.188171 -58.768372
-83.022667 118.203697 -75.131645
43.709297 114.233307 -69.569344
-15.953635 80.324577 -63.918884
-111.277557 298.694092 -66.303940
25.809023 172.648560 -64.858902
16.979095 202.754868 -71.931961
-87.990021 229.522369 -71.287636
-61.444412 74.780205 -72.926880
41.054287 122.154633 -62.030308
-101.534286 178.542603 -61.248955
95.644691 208.635147 -66.122002
-150.129456 229.242889 -71.808868
-19.603300 226.709091 -72.514328
-150.930847 206.190948 -75.654083
-93.393311 149.028549 -60.983341
50.494240 256.319794 -60.456692
-43.717621 168.091721 -65.797264
97.605240 79.626404 -61.642906
-15.052377 209.838257 -65.430176
32.616417 141.572525 -63.533703
51.926266 254.816666 -68.752106
-60.251411 172.088364 -66.418663
49.800076 42.008945 -58.512253
112.887436 136.838058 -65.694794
-20.709402 69.076622 -60.424198
-98.125816 86.872620 -62.207714
-50.488991 256.462402 -71.845299
115.651001 153.471390 -66.246506
-71.188782 221.601746 -68.928917
-78.603012 93.885681 -74.193291
52.108398 33.567478 -59.653568
-134.276703 243.751221 -63.617416
-62.769459 136.406403 -59.095211
-146.567291 282.058563 -64.583588
95.082558 117.764053 -60.631672
17.592222 192.541794 -64.908890
-154.367035 245.972198 -68.867493
-146.215286 197.355118 -74.919556
5.661568 235.909988 -68.315811
-115.446526 267.245667 -61.803112
110.601311 154.034576 -69.962051
-85.019058 70.432411 -67.182739
-163.311462 258.774780 -61.670177
-56.994759 192.649124 -75.501266
-101.553223 165.597656 -58.491142
-118.561272 242.067047 -59.385124
67.423256 101.545113 -67.442062
-111.536369 202.371323 -63.124973
-98.238243 128.491806 -61.019463
-166.394974 282.052155 -68.125961
-4.608503 242.398758 -74.375092
21.702276 288.897675 -65.545578
-41.674786 174.094009 -63.543308
-37.055244 92.318016 -73.941643
55.386677 100.080162 -54.971058
105.312462 205.936996 -64.143608
101.781570 106.183388 -63.851894
-61.075974 130.738174 -56.765553
113.489235 140.400146 -67.733734
-46.768398 198.662430 -70.188698
-90.980377 70.160767 -60.660355
-28.809561 71.163315 -68.861115
-31.399637 66.205307 -68.853142
-127.219223 241.866333 -68.537689
47.162113 265.644958 -60.991566
0.893716 235.580902 -64.685822
-150.247772 249.099243 -71.698227
-46.045971 194.989304 -74.002190
23.218374 193.720078 -73.028069
22.118073 163.236526 -63.734028
-34.493698 252.416977 -68.686653
70.201790 109.006310 -60.777176
-150.118591 261.292847 -61.059765
-144.729874 296.231934 -59.175991
45.427994 125.171097 -55.398911
-100.459618 99.384743 -59.199883
46.399258 37.888062 -64.692642
53.563141 119.316772 -65.512299
30.997164 133.100388 -69.325569
110.951256 140.076874 -61.459381
-162.625137 215.703445 -60.695995
-17.947390 212.662857 -69.228096
-5.494197 236.532364 -62.180424
-45.622868 56.120636 -54.917885
-31.973154 196.512466 -69.985153
18.174482 249.117310 -65.744118
21.959082 254.198151 -67.414223
111.337784 121.752228 -65.261429
42.922897 107.442108 -70.506203
62.780838 103.059464 -64.859917
8.598677 221.200775 -65.247383
42.298477 28.408823 -64.458092
-131.520248 212.770615 -66.473717
24.192198 162.717087 -62.634857
94.977287 101.211807 -71.190117
-79.481026 114.401901 -79.789940
2.683284 260.290222 -77.195755
-148.253098 202.302292 -70.225037
-142.735870 269.600739 -77.160835
115.826965 180.804291 -68.986618
-35.440586 300.657990 -66.459145
-161.122498 302.134735 -66.209282
-147.734482 306.938599 -61.676342
14.216449 252.042252 -69.800400
-15.107848 211.558151 -64.417809
-74.405220 223.737503 -72.230255
-14.964419 272.709137 -63.658005
-30.477692 83.239281 -74.907074
-150.840439 235.265808 -62.920914
-20.644863 205.672089 -63.767467
-147.982422 225.783005 -71.725685
85.946068 90.355423 -68.367218
-71.844505 148.861618 -67.669426
-152.031540 265.479004 -74.159500
-140.680786 236.454590 -64.608025
-149.832230 218.034790 -57.788250
-23.157396 188.240921 -70.307419
91.253654 232.490891 -65.689766
-130.561096 213.465775 -57.128784
-6.973642 252.232697 -66.183464
-139.064667 210.673798 -62.368187
-149.153549 214.133209 -71.589958
93.920647 224.927460 -63.767986
106.495422 111.070335 -64.530754
-14.903577 229.449417 -65.662033
-43.381512 295.831146 -63.549496
104.158165 202.978561 -65.463303
-80.189217 146.850342 -59.254936
14.016521 206.428162 -68.173897
-149.492294 187.069000 -66.224785
81.717918 70.864693 -57.668533
-23.081230 224.804840 -68.378471
-86.448738 125.595482 -72.238602
-25.345850 182.590927 -65.165710
-60.087540 135.817001 -60.013214
12.183757 165.570404 -60.499603
-59.853031 182.334930 -73.448151
15.882405 300.080811 -67.475327
-150.611542 210.297806 -76.860123
-103.615547 235.389709 -59.928246
-148.516464 192.206223 -56.224770
95.070946 78.513626 -62.253456
6.868671 246.965286 -64.997307
-16.917309 271.306061 -66.483276
22.547640 189.682648 -59.451977
-125.989761 299.297943 -59.200214
-81.554047 136.070679 -58.595592
23.524662 205.274963 -69.729073
-11.616027 232.501099 -70.282249
1.646003 302.206085 -58.804848
-33.157711 69.947662 -69.646210
115.490356 145.435562 -65.283791
-1.110572 300.093628 -70.447159
-82.882927 118.374611 -67.927063
2.057840 285.822754 -78.227470
79.258369 97.733208 -71.341377
98.150116 78.041168 -60.914886
20.894604 151.085220 -55.625626
-51.801586 159.911407 -70.441467
114.673965 141.109177 -66.251915
-42.394848 90.804237 -72.655411
-70.097923 97.056877 -75.497276
-7.779333 219.394516 -71.021202
78.629601 77.526634 -63.957008
-143.165222 217.392365 -72.998169
29.665466 183.356979 -67.329414
29.323078 45.079563 -59.804642
-64.972290 115.218300 -55.300137
-95.361099 160.431656 -57.090111
-148.531372 210.999725 -67.669876
-58.503689 144.004898 -55.904682
-53.910316 55.020283 -59.208046
-31.377428 57.579010 -59.361118
-39.386757 214.365112 -73.407433
46.506519 41.210251 -65.453583
103.226761 99.357826 -62.810661
-156.163376 303.785156 -67.735107
-147.769424 286.579376 -59.277191
-76.583687 127.084755 -64.873833
-19.071909 246.172302 -67.804459
11.398717 213.773926 -72.339333
18.030272 225.384415 -64.044044
-76.291870 117.698418 -62.383770
26.115593 35.892979 -57.430500
-146.548676 195.624817 -69.163979
-4.621908 287.479889 -74.064369
-36.098316 214.180191 -75.942741
-159.309082 210.615448 -61.211117
16.455145 190.123932 -60.205421
99.729637 211.937866 -67.440918
-153.937515 277.671783 -70.735023
-151.435730 309.134125 -77.882706
-139.216644 205.944107 -62.175140
80.276978 109.834953 -68.278633
40.332085 20.956247 -64.938469
-137.778030 239.793991 -59.876919
-151.923096 281.880219 -65.465919
-22.590197 199.848602 -60.324680
-19.893597 214.717575 -68.314873
23.114576 148.061020 -57.432137
77.109024 234.359589 -67.498222
-104.591743 186.126205 -56.831554
-151.160080 190.180099 -57.896374
-51.667519 140.500031 -65.860718
0.463184 301.812958 -69.418480
-77.755516 115.699867 -82.202354
-113.494583 268.414886 -59.414745
-59.439461 256.816376 -71.065544
-153.040237 302.167206 -75.091385
-141.631104 234.310715 -67.266396
-64.024391 72.250710 -73.515839
38.990486 134.438126 -64.622536
79.002213 100.406372 -73.111374
-35.388229 184.585068 -71.742783
9.419923 218.147278 -70.497406
-110.818878 268.121429 -68.013069
-87.566528 120.327293 -69.851906
-96.620270 90.757240 -60.595715
-146.779633 321.557587 -59.204006
-67.017426 160.985840 -68.563644
28.434628 149.103531 -54.328602
20.501148 287.063568 -64.233093
-18.590086 251.237305 -71.759666
-157.634888 301.997498 -66.669121
-58.081749 149.990570 -59.812347
-80.645447 136.055573 -56.635315
-21.642910 249.265732 -64.942902
117.694061 147.936050 -67.305305
-41.014992 62.732639 -66.308640
67.070648 82.291084 -63.824841
54.326347 36.345081 -61.294022
-5.404079 276.119812 -79.313599
51.875069 113.194939 -63.754673
-65.412788 109.135468 -70.464691
16.353487 236.055908 -75.806816
-98.452873 155.422363 -57.172619
37.758606 143.678604 -72.818825
-23.542273 77.144012 -58.393764
36.353268 123.178505 -69.830284
-79.948219 57.569984 -58.413841
-145.526306 246.867386 -77.266754
94.794479 219.882477 -67.350105
-170.437469 272.448181 -62.425285
82.522491 89.808296 -69.950523
-148.721329 268.310760 -78.421516
-43.984329 251.501663 -73.961182
12.804029 225.349777 -62.708920
-144.764618 196.982056 -71.848320
-20.218996 233.172729 -71.816940
2.588889 264.171021 -77.352707
5.633813 227.447449 -72.283760
-4.934197 279.493408 -75.910240
-59.150700 67.795601 -71.280159
4.270499 260.955414 -55.341072
-150.415268 290.685669 -70.250633
9.188150 169.322098 -67.860588
-12.153595 227.031540 -72.010796
-36.105282 171.419464 -74.265366
84.759827 230.498825 -68.557434
25.828932 181.228577 -74.196404
54.486565 250.304428 -64.508209
-146.421509 214.649902 -70.172447
-73.139336 103.886055 -83.628021
-90.096069 117.383148 -73.584587
-104.954109 234.678818 -65.023842
-66.904213 175.114166 -71.046783
-149.546509 260.203735 -71.946205
20.659744 262.625000 -73.142410
-92.157387 229.987747 -66.268463
111.140945 141.931046 -62.515869
5.809895 247.708054 -68.267311
-148.773407 312.082184 -59.649395
-154.865234 297.103210 -62.748955
60.530212 99.410393 -66.107552
12.253891 293.946106 -69.884697
89.455170 226.277115 -62.778133
-42.684441 90.290039 -78.610199
-94.065926 112.986458 -68.970856
85.563095 232.717484 -67.261429
-66.121819 89.681534 -78.969002
-67.450821 109.429268 -71.719131
-58.232052 149.785309 -66.580917
77.165306 239.873688 -63.259281
-94.755180 262.026825 -67.521301
-12.698229 221.991058 -71.042564
55.118404 112.892097 -69.703667
21.908831 189.401489 -76.243774
-132.449814 266.545624 -59.365631
41.265705 113.647423 -69.576103
46.148880 105.590096 -66.949219
-120.351593 303.321228 -62.954094
-66.042198 298.024323 -62.566723
105.244957 108.993385 -61.882320
-103.747269 229.930450 -66.996925
-166.141861 287.318665 -65.133736
-38.945400 162.826767 -65.174690
-82.990372 297.819000 -71.556633
-80.438828 126.322739 -54.000286
-152.895554 222.525909 -65.891113
8.337515 253.216599 -59.053768
-146.610535 231.257050 -60.454014
-149.636230 273.405701 -80.308090
-147.509125 297.007202 -60.054016
-93.080338 68.856987 -56.003685
-164.324570 266.451508 -66.415794
-122.177811 264.898163 -70.357185
-114.806801 241.354538 -61.242359
-98.392853 78.982353 -56.195374
-142.026398 287.469543 -69.047783
-62.352154 166.632309 -68.664719
108.033394 109.116119 -63.118774
-15.710077 272.362946 -66.662491
-66.216949 121.158325 -55.766182
-56.606182 90.094315 -78.404770
26.044535 145.363022 -73.859100
-107.107803 177.515533 -57.931152
-66.293152 130.917603 -55.911610
-87.184517 267.921692 -65.911613
-147.436462 217.598404 -67.120575
-11.450558 233.689026 -67.023666
46.313477 24.957188 -60.483673
-8.648291 182.280167 -75.183044
-125.338852 209.728592 -57.405884
-0.913286 242.310898 -73.383072
-95.443779 128.612686 -59.343567
20.054171 232.039001 -70.738083
-160.220184 227.970520 -64.736534
-71.668289 257.905243 -63.903385
12.501863 253.328018 -78.754753
-84.711731 141.235413 -59.305107
-54.387535 150.258560 -58.601601
66.167755 246.905090 -66.686089
-163.823669 246.971802 -66.731323
-39.310474 208.721588 -75.689896
-72.689583 220.127319 -78.070389
-71.907196 158.689133 -70.750061
-18.623243 207.073059 -72.053543
10.887156 225.031799 -73.411346
105.888527 120.163216 -63.593925
-32.478916 184.180161 -65.960709
46.373772 127.760712 -69.926926
0.414957 231.593948 -74.457458
-164.041901 249.121918 -65.608238
29.635326 52.513123 -54.230301
-23.200003 195.930527 -70.239670
112.851883 179.400360 -68.181923
-12.974186 212.489273 -75.169006
62.573288 251.746933 -62.985622
83.790543 229.687683 -66.254196
-152.203232 317.882721 -71.722084
-132.499176 234.711349 -65.234924
49.547039 103.335915 -56.142757
-21.445675 74.893478 -69.530678
82.638557 230.582565 -64.348534
-62.708363 258.294189 -70.878334
-150.623779 313.795746 -60.203278
30.961374 143.030594 -66.548134
33.015942 157.888962 -69.347534
53.742641 105.706192 -68.656990
20.547728 158.937637 -61.244419
49.153175 121.496101 -66.885780
-40.850937 66.804817 -71.564613
31.462975 157.943878 -73.815086
-30.562380 217.151672 -69.372147
-145.804672 213.796860 -51.236317
-9.965238 215.951889 -64.335876
11.021251 237.934708 -67.840752
-85.706795 228.990784 -68.259171
-30.847467 186.106277 -64.102745
-78.632050 102.226974 -78.733200
-6.615379 297.531250 -71.049652
112.760239 168.529831 -64.120384
-101.259628 295.666809 -68.484848
-63.576870 126.858665 -59.742554
-156.518402 209.393311 -68.662048
85.549057 99.735611 -69.420792
-82.499191 144.541504 -62.571114
-6.680367 222.872330 -71.582962
-69.803185 104.191437 -54.653358
28.121992 173.563965 -61.891861
101.856407 197.866806 -70.181099
-22.958647 202.445389 -63.531250
-100.630424 230.257721 -63.017654
-148.424454 270.658966 -61.468464
-10.958589 73.432861 -62.359135
-155.688446 268.788666 -55.273495
69.965981 241.892975 -63.662647
-29.701864 200.037415 -72.869850
-30.549715 194.532288 -73.326187
-162.515320 287.059082 -64.212517
-60.767910 75.178780 -75.334297
42.884731 127.770111 -66.603180
41.873264 45.344116 -60.228249
-81.679932 257.689240 -66.711998
29.715410 163.925858 -61.385746
-37.736702 91.032471 -70.995255
100.950821 108.171249 -66.290100
-147.559631 235.860687 -56.589653
-43.139893 179.194183 -64.658218
-147.429550 247.983658 -52.979134
-39.378517 179.322678 -69.703972
-85.576569 144.561615 -63.012768
100.039169 83.765739 -59.333488
6.285291 247.183746 -68.389664
5.947248 252.099686 -56.496643
-25.439009 188.545090 -72.643723
-37.913475 58.173965 -63.284618
15.180720 271.106201 -75.171989
-92.311493 155.763016 -59.897659
-152.223282 205.498093 -74.132057
-80.806145 140.837555 -63.160259
26.886848 159.592590 -69.930939
31.225765 164.805679 -65.013840
-144.717194 225.667419 -67.817879
92.634697 215.359131 -67.978996
-165.363678 234.475693 -60.496765
-150.900009 239.715363 -71.499489
41.281807 116.182266 -71.886665
-105.206322 300.909790 -61.497345
10.549707 294.420593 -72.173195
-0.134980 285.466278 -76.191048
-150.094543 231.299683 -73.138855
-81.040329 115.305733 -60.456745
-21.494244 247.303452 -67.713898
102.159225 206.832733 -67.863060
-6.148513 263.029388 -59.551624
-73.227486 135.384750 -62.369450
-147.979477 185.001419 -63.683895
30.985775 145.267548 -76.509903
-70.856644 153.816467 -60.886360
2.247699 241.994965 -73.875259
24.324503 161.498398 -68.230782
81.808167 72.283638 -58.859520
-30.289797 186.832718 -74.669876
-146.587250 299.223145 -77.283409
-47.972145 146.792648 -62.773975
-26.479357 203.703537 -64.223206
7.657170 265.464172 -76.453300
21.881479 246.297791 -70.139671
-166.460464 233.504379 -64.467705
-28.211487 198.832886 -61.802597
-162.339752 242.655838 -64.954987
13.515830 236.093613 -66.171326
-152.883987 301.747498 -75.613091
49.874889 261.651306 -60.314968
7.513427 251.528198 -63.719997
72.844612 241.974350 -64.081306
-147.804535 228.290436 -58.212357
89.442863 71.017578 -53.734562
-8.611185 280.835541 -73.885262
-19.009106 66.069839 -62.897636
-2.786451 298.950226 -61.690037
24.890182 171.091019 -64.126854
-58.526051 154.483139 -61.367657
40.951691 259.421356 -57.991299
-47.305973 93.894569 -78.825546
32.129616 149.104736 -63.228237
-117.297546 207.030151 -60.547157
-152.103134 315.566559 -71.366318
70.266800 240.911301 -66.137711
21.979652 185.588074 -64.121086
-97.030762 72.224129 -53.039570
-149.099731 254.827225 -62.450169
-160.459717 263.182312 -64.868904
-142.540054 301.710144 -69.359901
115.955360 147.748688 -68.454353
-16.848085 212.397675 -77.166794
39.841484 136.895920 -52.124931
-87.202332 147.372498 -63.548874
29.405769 43.132942 -58.131931
14.737316 220.980881 -62.832142
-98.495483 161.397552 -59.710312
-38.258415 251.496323 -67.126060
-134.366287 271.922852 -59.704582
19.039614 229.647537 -71.541176
104.519257 189.331024 -64.086601
5.735654 266.030396 -54.634781
42.766525 134.282730 -70.239517
-14.516468 199.514297 -67.506340
-171.343979 219.979996 -58.927628
-69.497307 109.825241 -60.265255
13.753830 296.046021 -61.997799
-17.396732 246.074417 -68.712265
21.340263 197.770798 -70.156792
-31.705671 212.986359 -70.710915
52.996723 110.340553 -59.883118
-73.154716 261.720673 -69.781952
3.512322 237.419388 -61.712589
-40.069603 174.783066 -76.751801
-29.829519 179.429321 -68.274399
61.384815 243.783569 -67.215302
-52.022160 145.970795 -65.689850
-122.462151 211.001022 -61.527748
-117.833977 237.177795 -67.820892
-38.250042 164.565414 -70.233627
11.906486 251.305893 -53.173206
-34.150543 89.210754 -70.650826
-43.112980 67.970116 -72.876007
-10.918725 246.526657 -65.436020
12.749657 203.870392 -64.487968
-143.866714 245.152771 -60.615192
95.118668 218.557556 -69.498810
-31.588867 59.894398 -59.681293
-23.722389 80.525833 -72.466721
49.980907 261.836243 -63.523094
-143.809753 296.672150 -78.707672
28.231489 41.416077 -55.652145
-35.096405 248.182327 -69.376045
19.570629 152.219681 -55.263416
42.473366 116.655830 -71.322716
-55.918003 183.378006 -73.334717
0.335265 249.664322 -65.396523
-152.149002 305.957642 -62.054317
-48.968311 55.617943 -52.552811
2.613463 175.440140 -66.274109
-64.943245 59.423115 -64.991745
-16.519720 73.223770 -64.503998
-158.244720 263.023590 -64.669571
97.180725 217.476685 -62.729137
10.748863 248.703888 -78.598206
109.388908 121.305145 -62.725117
19.802565 194.192566 -63.343864
-139.671448 299.610779 -74.220863
-146.582581 230.431244 -70.014725
-146.154007 201.806717 -68.974823
-88.709328 146.952347 -63.128422
-69.973373 123.797997 -54.637779
-148.132416 246.082443 -79.773064
-9.651479 262.972717 -58.685596
-1.761748 252.125031 -69.824432
-142.188705 247.588013 -62.771061
-144.920929 199.497559 -73.745895
-2.287804 255.931488 -74.837837
-48.578075 66.360497 -70.324142
-78.885620 112.082458 -70.073952
12.834129 254.649170 -76.524422
88.292397 115.399734 -61.739967
111.345818 142.353287 -65.905319
44.193398 30.202385 -55.674152
24.864536 192.643097 -66.600174
55.460800 256.387726 -61.323536
15.270123 243.439178 -63.896172
110.512375 150.340027 -74.619804
-99.396339 103.471947 -57.383232
-154.751373 204.466095 -65.818123
-10.097416 286.393036 -64.462662
-60.003517 126.481171 -58.960510
-4.466006 277.653900 -76.516098
-114.828194 265.398743 -65.816528
6.343800 231.670975 -67.163460
17.445145 229.554382 -67.099808
24.557505 255.919693 -70.810081
38.136757 128.634628 -63.317242
-38.582237 296.118286 -70.912811
-88.974060 56.477631 -57.132378
14.869918 213.133102 -70.631836
93.851868 85.023178 -66.166756
31.077253 171.692566 -68.080215
20.436895 154.525558 -60.128864
33.253342 135.540863 -69.224396
6.694040 251.705902 -69.907539
-19.493109 80.685623 -69.781395
-144.664871 238.237427 -60.798187
8.665485 161.697342 -59.293488
28.702761 151.801956 -74.450089
34.373714 263.787933 -59.364197
-0.540968 233.997910 -65.309097
30.113432 42.646698 -62.763313
-25.805038 198.044418 -76.686462
-60.127918 178.527679 -70.545433
-128.269821 272.919922 -58.199375
-33.155216 83.585533 -73.832191
116.412239 159.730530 -67.254547
-142.763840 283.560303 -65.425049
-85.083092 143.027756 -60.379120
-146.965103 201.493271 -66.486084
-130.926743 212.678482 -60.515839
-22.647381 215.056946 -64.833191
17.536257 272.668671 -75.470558
-42.292515 204.644379 -73.630547
-149.127106 244.452255 -73.782043
11.585405 202.923523 -64.608398
-39.790619 296.655182 -62.567944
97.768936 214.838898 -67.473999
67.775322 248.660019 -65.330048
-25.980597 189.926361 -66.531975
17.624098 220.004944 -64.354340
42.781376 125.878555 -73.877159
-78.196594 130.153168 -56.278069
-41.925739 164.125183 -62.498379
-63.350681 178.809814 -65.455231
-7.574203 248.678558 -59.093761
104.422348 180.174088 -67.538788
-156.422363 294.001617 -63.431381
-64.535583 107.466400 -57.722843
-132.382919 262.437439 -68.931702
-0.408771 297.727448 -54.786415
-157.244980 251.297592 -62.321957
-133.941086 299.748718 -69.882690
37.223785 137.667862 -74.928665
85.196205 228.334549 -64.107147
33.163418 131.523438 -68.623779
-69.819427 151.212952 -61.128998
115.381187 173.683838 -69.039101
80.189972 81.165756 -70.140953
-94.122307 148.204224 -62.136700
-74.052559 150.784592 -67.829308
-83.368759 223.699875 -67.661369
48.298668 108.435974 -64.085785
28.140205 182.838425 -68.669304
5.047459 258.531158 -76.953705
-122.813385 272.345703 -57.756832
-55.362808 199.766159 -72.586807
-19.190817 217.573456 -59.399605
39.520546 122.300156 -72.456375
-167.293732 243.338562 -67.765678
39.630882 22.537601 -66.606422
-101.501747 179.937836 -61.456520
-14.077421 297.009766 -66.949791
-131.467896 264.690247 -64.650314
-146.251511 286.724701 -65.959312
-41.704128 170.226212 -72.151138
-27.943741 60.323730 -57.060108
-64.271088 110.855118 -60.513512
-142.242889 232.781326 -56.851006
-8.419967 245.344147 -59.045883
60.090034 92.850319 -57.117855
-53.641315 213.070358 -73.852737
-6.784686 269.291992 -74.858376
-66.913872 73.933670 -74.371811
74.026169 114.183258 -63.414745
-5.831820 276.879974 -58.030025
-147.609070 184.813217 -54.625648
-86.916054 266.891632 -66.025688
-96.937622 227.669830 -72.057869
-153.753479 244.107086 -73.134995
20.488262 217.429428 -65.625160
25.973190 36.263344 -58.088299
-21.237944 298.728943 -67.225792
-7.312338 183.671616 -69.059456
-17.548605 237.922348 -69.870262
-55.196934 197.890305 -69.328125
3.148329 169.567719 -67.851372
-81.928505 110.879417 -65.536964
-31.960033 185.220703 -65.925865
25.212770 263.852234 -59.220341
-38.139435 79.546181 -72.757172
-52.349758 211.738937 -74.035355
-71.253670 151.743240 -65.725807
-90.568451 299.576904 -71.122078
-74.904984 79.506454 -73.855522
-56.755150 131.824432 -61.297878
-62.190678 144.459702 -53.125526
48.168407 118.085876 -62.885880
-2.789466 246.313095 -59.684116
-94.241562 95.793877 -67.496544
-144.055374 268.412476 -77.155380
-49.617653 73.380493 -75.257507
-59.543388 138.134995 -59.794815
21.860325 173.104721 -70.913559
-134.252701 301.238037 -71.300453
42.707294 38.107647 -60.296429
-137.467575 266.067352 -63.301418
-124.170464 242.336838 -57.444057
-151.171249 259.656860 -70.277229
-151.466522 204.716446 -74.020592
-125.309692 213.642044 -67.473312
-152.322678 191.315750 -61.012299
35.419796 135.831909 -61.036690
-0.578418 262.625183 -75.611099
-29.782129 65.139511 -66.350311
18.296337 200.733658 -72.544235
13.965933 167.369965 -70.438026
-152.186356 302.807434 -60.042641
67.885239 256.380646 -64.491020
-69.910744 146.685974 -66.277161
-67.461014 216.614670 -73.447914
-10.564813 271.690308 -71.099411
49.534550 256.115875 -61.871540
15.387184 275.524078 -75.204132
-9.382946 218.476364 -66.209595
-38.289181 158.594009 -67.876289
-116.174141 300.457184 -62.855461
-37.431980 170.632492 -64.969986
-38.663212 58.447258 -61.554981
-40.231647 55.696770 -56.719189
50.580383 109.797218 -62.676464
-78.104927 112.858208 -60.160419
-147.804855 244.404144 -77.740891
-33.409920 188.368576 -65.275215
12.911069 289.802338 -77.114281
16.026999 254.064178 -62.459454
85.428932 76.717720 -61.685066
20.309687 38.519978 -66.191231
-62.415398 105.910568 -73.804230
36.734146 263.576019 -58.100323
-14.788423 208.718719 -63.204861
0.592453 301.069946 -62.172470
-74.643219 151.738388 -60.560570
-137.495209 302.286469 -74.308815
72.293152 85.796852 -67.115288
112.435913 182.776123 -71.375961
-56.427368 149.395432 -60.040825
23.265371 178.420563 -62.715439
-63.431244 140.220215 -62.932674
-144.248978 272.639008 -68.913803
-154.284195 289.292145 -64.693489
105.556679 208.159653 -63.455181
-161.117432 293.782959 -65.915024
-136.075470 297.914642 -72.931244
-2.570556 235.370743 -60.063385
31.056231 163.335999 -71.944710
-30.890137 179.324097 -61.376736
21.967430 253.936157 -69.551788
101.084282 79.598900 -58.425400
36.943485 147.056488 -62.989639
-122.504921 213.778671 -57.274708
-61.626133 179.780258 -64.166519
69.125099 247.873627 -71.518425
-20.184166 195.942108 -70.042076
46.390659 30.585854 -59.215359
-144.836212 198.469925 -62.997292
36.939240 139.321106 -75.297165
-48.126747 96.138474 -59.979549
9.727647 204.734207 -63.573959
-3.298941 263.304749 -58.671909
34.819595 47.761940 -64.650185
17.466291 190.502014 -62.428745
-21.785986 194.220917 -68.708054
-5.288149 239.376129 -67.620316
-70.962921 170.430786 -66.208389
-7.503754 297.344025 -73.692421
21.949125 260.630066 -60.470467
-60.901947 139.856750 -57.113358
31.671980 129.039185 -70.325569
-77.855995 141.085861 -63.409267
16.661974 255.350067 -75.015846
92.686714 85.498795 -68.917496
16.508659 297.512787 -58.683475
28.909782 178.338882 -68.007256
-90.600754 300.451050 -69.226814
23.891548 285.575470 -54.337910
-150.657776 286.634796 -76.567352
-147.591736 251.263153 -54.353451
-41.904671 89.560028 -72.354950
-11.149604 219.039490 -59.223473
91.075325 216.096115 -69.741631
-25.137762 231.803635 -69.430122
87.855339 233.591934 -68.511925
22.535721 149.979477 -56.409355
-15.880332 209.066696 -70.344032
-19.012650 231.795578 -65.608215
-10.628920 219.908905 -66.779938
-67.681496 104.362556 -81.713295
16.202869 183.079666 -62.489288
13.225497 212.916199 -61.401676
-49.971718 195.212234 -74.661133
-76.120300 113.725700 -71.477676
-69.682365 220.269485 -72.784134
15.988803 250.245895 -72.038528
97.853279 203.330460 -72.240860
-78.876007 257.150787 -63.190403
78.177673 239.878143 -67.190994
110.034637 120.403305 -64.498100
6.200968 245.294067 -64.051460
26.386587 166.348770 -74.497398
-2.507236 246.129013 -64.196701
43.071312 114.253426 -63.523106
36.171993 158.422745 -68.722549
-33.643867 79.547577 -56.446152
-163.106369 264.262268 -58.292957
-148.739365 251.891922 -59.409092
10.599286 226.317261 -60.812038
-97.292786 170.092957 -63.158520
-5.893935 302.911194 -63.628864
-146.194092 254.426178 -60.583233
-58.720211 183.426010 -67.104622
47.552490 118.917503 -72.673820
-6.850131 272.610992 -74.480225
-166.983093 245.632919 -61.943897
-139.308395 300.035004 -62.901222
47.229160 45.267971 -55.976803
-162.378891 224.652618 -61.939384
-108.186142 207.351318 -65.801651
15.452204 242.682861 -76.136749
-29.984632 72.306587 -69.249695
-128.092743 235.165649 -60.968876
-59.717384 122.559525 -57.199562
-71.072403 110.675789 -63.190525
40.010826 45.042740 -58.582336
37.635353 22.193132 -63.390823
-147.012100 206.472275 -77.828262
-80.654427 112.320999 -59.690571
-56.032181 186.428894 -72.470551
-147.207565 233.520081 -77.529282
-92.588188 106.281013 -71.791885
-14.935109 202.923447 -72.163544
19.399879 259.734253 -69.444656
-62.176464 72.089928 -73.432388
-89.099640 297.817261 -66.111046
-147.080963 287.297028 -61.980766
-130.340195 236.185059 -60.567059
110.901810 183.561340 -68.098900
-142.771515 229.726196 -72.419746
-59.263947 102.794228 -70.408813
31.489941 269.185455 -60.085712
-8.819944 217.403854 -69.519424
-52.706356 299.586853 -68.992615
13.317788 251.118744 -75.435753
-67.311760 174.719131 -69.728157
-27.798256 297.791321 -68.078072
-113.031364 266.069733 -61.789146
41.312180 131.493683 -68.039970
-147.836212 298.796539 -76.132401
12.211269 290.177185 -70.849953
81.552216 76.646149 -64.107353
44.419815 39.075123 -56.028515
14.428100 200.430313 -60.697140
-163.552536 239.589005 -67.804031
-73.243469 112.929817 -72.755989
-152.289001 323.637756 -73.447960
46.348526 42.080578 -58.043583
-69.021904 221.424362 -72.990753
82.419342 226.748596 -62.426880
5.715753 302.683105 -71.258430
111.707047 183.810013 -62.385998
-25.508356 195.618134 -73.566353
-162.070175 221.053162 -68.893471
46.126156 117.085403 -75.021103
-155.451935 301.675293 -64.711197
41.010605 25.484692 -58.109875
-147.607712 274.877563 -65.334450
106.351761 204.679535 -68.930115
43.418346 34.419079 -51.192394
29.716629 29.950348 -55.195511
47.664856 112.860344 -58.582184
-157.765564 301.493317 -69.217720
6.792981 165.529678 -67.541145
103.350746 106.935936 -62.319050
20.557638 154.908478 -55.909298
-17.777121 235.555832 -67.945160
-17.522320 211.410645 -58.202312
3.626568 246.735657 -59.729317
24.608994 268.960571 -60.081886
-111.995186 271.391388 -64.135902
7.291929 299.356750 -68.288475
26.405630 175.956421 -63.228462
-52.142086 295.922760 -69.765495
-7.050186 218.060715 -64.269714
-73.999481 301.808746 -65.122963
-53.237400 187.247421 -69.063576
-54.432396 210.380035 -75.518089
5.533199 274.899048 -81.257355
86.154694 220.369370 -65.615677
5.234356 289.561096 -56.583641
-68.248734 112.520264 -64.127518
36.793823 148.401871 -71.117111
-24.254389 250.161835 -66.213509
108.069016 144.845551 -65.330185
-38.221794 175.328812 -66.244499
-41.314602 298.848358 -70.591393
-17.117748 188.472824 -75.550774
-42.274200 89.607689 -54.799511
35.882992 156.383347 -69.240082
-48.878967 158.165833 -63.635635
-3.246475 279.333435 -60.470390
-87.285042 119.228317 -58.110565
8.860226 241.470795 -68.799805
-51.373966 143.565002 -65.419334
-67.723045 117.471672 -53.543709
6.807617 275.439880 -56.881817
-7.494379 232.239120 -69.321846
-4.654937 297.092529 -69.500183
51.383526 260.387329 -67.260193
7.016430 263.994934 -78.447327
-83.229652 119.703766 -72.728752
6.994404 271.599945 -55.531418
37.836781 266.701141 -66.346397
64.076202 78.065422 -51.353302
-13.761130 263.488159 -62.966370
27.845016 188.543686 -69.953453
-148.221573 297.481781 -79.218491
15.348191 205.939407 -75.660904
-15.212644 208.322189 -68.407722
25.605621 142.335587 -63.645805
-99.323929 124.476601 -55.607029
2.033408 276.629791 -54.146336
54.656487 113.964401 -68.971825
-5.870697 291.015198 -66.163025
-43.136135 169.382202 -73.428558
-117.967827 265.660797 -68.355072
-52.254028 301.546234 -67.366814
-42.256569 90.950188 -63.111248
-151.134476 287.836548 -59.397640
-25.504871 208.902786 -71.974625
-81.720078 123.085190 -56.132313
31.975176 22.317202 -57.185234
33.440266 166.014709 -67.905159
-150.953720 255.192795 -61.679230
19.499546 279.140381 -71.199669
14.140374 264.855560 -78.732803
-5.160941 229.986435 -66.264099
109.286621 153.616425 -64.133385
-50.988792 93.624153 -57.342541
-30.015532 77.367584 -75.441048
-56.736118 154.282089 -62.527073
-139.608582 265.634766 -72.175262
-16.173298 222.589951 -65.052094
109.788811 161.953430 -68.059921
20.572021 216.889542 -63.262531
-54.331821 192.827560 -72.649834
17.102427 240.895950 -66.985657
24.671343 204.502625 -61.793060
-38.151302 92.913582 -76.138420
18.462151 182.269211 -72.139137
18.886902 240.085159 -71.038757
15.237496 248.736404 -71.947487
-63.646324 70.808311 -71.668037
-36.687752 86.512299 -55.018482
-62.349369 253.303177 -71.600487
-24.657860 78.887138 -61.586174
-75.600136 101.216721 -77.499695
-55.489731 216.602707 -78.348328
-101.643517 183.728287 -57.615555
-88.538834 145.469345 -63.277115
-51.569489 194.290176 -72.377426
20.577591 212.949615 -67.198410
46.283653 118.635841 -65.326950
-12.798802 214.726410 -69.520233
-151.276917 202.627594 -55.577755
8.658744 232.330826 -66.693153
-161.802292 229.616074 -62.963139
-81.727661 99.175392 -79.547615
-11.058281 223.129074 -72.268814
-27.100428 221.795013 -72.520363
-4.999342 242.285873 -63.940132
24.451847 167.084061 -63.709385
8.437062 228.455231 -63.285152
-90.948174 143.640381 -61.415733
31.322632 171.711761 -67.605370
-62.282967 56.889248 -55.931435
-21.280846 207.651764 -61.595200
74.870270 116.833008 -59.948223
-88.656441 88.805603 -68.531303
-8.646701 248.820465 -62.503212
91.069183 77.305153 -64.897171
-124.923546 242.375534 -67.244255
101.252647 107.654076 -66.737114
102.719223 205.680679 -74.198799
-33.540741 295.827026 -68.776672
43.859921 41.236324 -64.427116
-153.070786 214.306534 -65.427208
2.847795 288.375092 -56.610817
-99.487389 89.975174 -60.291958
-59.748211 176.332458 -67.758865
-107.486092 207.990311 -61.112675
-47.199654 81.825775 -77.900688
-76.742249 134.993271 -58.507702
25.551352 26.528763 -54.610359
-26.213451 191.736160 -61.832882
-109.398102 190.333405 -56.689091
-157.770706 261.959930 -62.624249
28.238392 154.985123 -64.732155
15.669551 294.968353 -70.845695
-41.445530 170.655411 -64.290756
-73.594963 121.190895 -62.474400
-62.279041 256.201294 -67.005913
-98.347603 131.200912 -61.234039
40.696735 134.378983 -73.795250
-151.511368 204.517960 -70.657867
19.290619 179.688889 -63.862606
11.180371 248.416870 -62.912487
-43.670250 165.959671 -72.793663
-75.586182 57.715622 -58.165180
-168.412643 262.494629 -64.862740
-16.433661 230.604782 -71.290352
26.939827 267.584839 -55.259949
87.232773 220.068192 -69.021278
-17.318600 200.964096 -62.843269
109.861397 116.780327 -62.003262
9.207997 222.553299 -64.909836
102.779182 80.973808 -56.385036
-145.991486 227.153412 -57.822411
90.922310 82.187859 -64.594704
-64.041328 137.551727 -55.215530
-155.806503 208.569199 -65.352867
-17.959698 231.086304 -68.382492
-99.106522 231.444626 -64.401375
-96.866394 156.732635 -57.415478
-149.346970 245.258453 -63.451817
-152.985596 204.503723 -60.370995
-11.680818 224.459473 -76.171043
-148.491562 211.553696 -54.189259
-75.495613 90.358627 -75.982841
82.698929 114.973427 -61.267628
-143.144974 189.448776 -65.068245
-150.104706 309.232849 -77.751602
31.340334 166.408951 -68.387482
-70.167686 115.353256 -54.092205
-70.887863 157.260742 -67.247444
-76.985474 258.101685 -70.730881
-84.261681 66.999786 -64.034958
-142.018433 296.640991 -65.199303
-114.552292 194.395615 -56.679886
10.649982 218.826187 -63.224461
29.623882 157.601471 -74.612122
110.787399 136.826691 -61.787415
-143.254059 243.621994 -77.279671
20.794224 277.912384 -74.969276
97.096413 115.038002 -58.997681
-5.093229 256.773529 -55.633831
-109.949890 195.702454 -61.973862
-47.306034 195.558075 -72.170265
4.893616 250.295364 -71.565636
-45.939560 297.202087 -70.386299
-159.634232 234.798752 -62.267651
-43.897259 253.116409 -67.032310
-148.773895 267.846710 -55.408405
-28.479973 229.808060 -69.749741
14.046450 283.603699 -71.481033
21.328587 209.260269 -64.537865
-146.023071 214.333603 -77.558182
-150.926437 251.017807 -58.423534
-17.097973 219.147064 -64.000702
-47.585152 167.307343 -64.540215
-60.044888 216.770767 -72.663193
17.525866 247.552460 -65.574326
-64.069725 140.192459 -66.362724
-48.244358 211.654404 -76.592529
-118.058922 296.254028 -60.356762
-92.487747 117.801834 -72.829773
22.927967 282.116089 -53.420292
23.993855 279.169434 -54.910816
-126.941261 206.096451 -69.357147
-66.769478 57.359425 -60.887096
-148.780960 295.978027 -71.136360
-7.622753 227.564133 -75.984894
-37.918716 295.529480 -69.689934
-21.963444 197.456070 -61.754677
-99.643745 163.658051 -57.082561
-83.294724 94.536751 -72.771835
112.011871 200.003418 -65.582153
13.781444 239.376816 -67.348015
-54.487320 210.494507 -76.720169
-0.870989 247.431870 -69.901131
-128.948029 266.642731 -69.137657
-67.648621 217.732040 -80.458069
-69.007278 108.723320 -66.660042
-62.938931 173.563889 -67.483147
104.998329 102.097786 -52.563854
-142.708954 249.231339 -59.986435
-15.468488 66.911957 -61.756302
12.651782 233.221939 -66.111946
47.188278 119.856613 -67.613319
-38.590561 88.031105 -57.866020
-90.592026 95.027527 -67.496651
-157.157288 243.445618 -68.825310
48.243732 259.741669 -63.862503
-69.130692 110.528908 -67.497566
-136.781052 206.154495 -74.532692
-56.445068 188.798279 -64.955742
-30.406540 199.867538 -72.072639
-5.602998 245.240936 -61.508606
38.763783 129.147598 -77.177010
-68.261772 109.976105 -70.374855
17.268280 246.116226 -65.347435
7.920199 248.332184 -69.335205
10.854188 197.261887 -71.737923
-145.901581 190.512482 -56.222870
2.222636 241.826126 -59.734024
-62.892399 171.839310 -64.355080
17.374376 161.542175 -56.083839
-168.511826 247.418030 -64.887146
39.198524 144.348648 -73.257591
-22.181210 252.823898 -71.847572
-49.024269 150.840576 -72.454956
-149.546463 296.361969 -58.911903
-93.969681 67.591187 -58.172375
-51.429150 67.032677 -70.791451
55.164188 255.224915 -56.508842
-12.006326 233.910110 -70.391129
-163.395874 255.883713 -62.848938
28.683842 168.227829 -69.649857
-30.145426 296.980286 -69.248535
-166.082764 279.394653 -64.735336
-21.566383 202.652191 -62.971691
-77.589256 75.421150 -71.757759
-82.692795 61.455338 -63.722393
-51.507496 157.003403 -74.383369
35.548023 52.456051 -59.247509
24.836746 177.546600 -60.266888
-4.083267 302.178070 -74.161865
110.897713 130.685379 -69.429619
-109.041496 238.244766 -68.041595
-92.121315 298.961578 -68.758141
80.051689 94.569496 -71.678047
-147.543060 239.226257 -53.915298
-91.649750 118.254234 -71.923187
-17.616531 233.757553 -68.298927
48.299454 106.611008 -65.995560
48.025715 120.952980 -62.644539
-43.024376 203.488861 -72.288635
-39.906738 82.986061 -74.663612
-8.507402 242.268036 -67.147247
2.469472 246.683533 -66.653366
20.476202 286.936920 -57.295525
-90.975426 143.166107 -57.199230
-89.729805 130.111206 -60.784836
37.720047 22.385963 -58.761742
86.089233 78.430847 -66.334915
45.849884 31.332771 -61.318657
-44.638260 174.259171 -69.808670
76.418510 73.474663 -64.087891
-28.777174 248.714020 -70.961502
-152.873566 187.391510 -57.559681
-139.036545 240.995682 -68.177605
-30.892809 93.593964 -76.491150
102.964409 112.613937 -57.440319
14.285071 211.384796 -71.016289
-146.567413 253.412384 -60.626457
-89.441765 128.322189 -70.889679
11.460936 288.655426 -76.148140
-135.757919 235.436295 -68.153831
12.348955 195.572800 -65.203079
28.015364 267.765961 -61.123280
-37.442875 171.050079 -66.096542
-121.981033 206.464600 -64.733345
-146.866119 270.394562 -69.240387
-82.572128 114.975594 -65.250175
-87.349075 297.582794 -64.759720
-54.833229 216.572891 -75.182777
4.368893 288.570618 -55.651978
8.159829 209.502518 -68.519676
106.365356 171.796066 -68.102463
-80.737862 300.717957 -67.887978
114.825241 173.185455 -71.024696
-13.329570 234.671097 -66.113327
