6.425071716309 -71.304641723633 -215.698547363281 1.484603762627
-64.235115051270 -79.089149475098 -169.823699951172 2.447025299072
-34.718601226807 -63.384796142578 -50.720451354980 3.570148706436
-67.841537475586 -72.250320434570 -145.007522583008 2.293845176697
27.071720123291 -67.546508789063 -153.663833618164 1.567609310150
-19.870092391968 -72.866119384766 -212.350601196289 0.616408944130
12.761413574219 -66.765106201172 -211.129333496094 1.993000030518
-109.273323059082 -64.158470153809 -177.567077636719 1.566772580147
-131.898681640625 -73.166038513184 -196.715637207031 1.322611212730
-59.018497467041 -85.430809020996 -83.399566650391 1.754937410355
-57.089923858643 -74.840766906738 -132.999954223633 1.959584116936
92.706085205078 -70.216979980469 -209.223342895508 1.148948311806
6.454925537109 -80.783409118652 -222.790939331055 1.977779746056
-76.548713684082 -84.170898437500 -88.025611877441 1.021076083183
-21.220281600952 -77.761665344238 -179.254867553711 1.666447043419
85.995262145996 -75.275947570801 -76.067817687988 0.569694697857
-78.626251220703 -70.789558410645 -98.219490051270 2.315231323242
-114.785285949707 -70.333587646484 -195.228302001953 2.163754940033
1.627773165703 -66.043800354004 -234.613601684570 1.014446258545
102.028205871582 -62.851871490479 -102.590736389160 1.519023656845
26.519292831421 -68.716346740723 -154.093948364258 1.666559576988
-57.589229583740 -71.370994567871 -47.002922058105 2.000819206238
-15.434496879578 -75.841331481934 -286.771820068359 2.083268404007
-147.578018188477 -78.346321105957 -302.631317138672 1.558288812637
-152.997924804688 -64.533721923828 -264.521087646484 0.435314476490
27.032238006592 -71.372474670410 -146.692062377930 1.134585261345
-57.007030487061 -61.223918914795 -117.327987670898 1.398450493813
94.402740478516 -76.929153442383 -209.362121582031 1.985782623291
-61.059150695801 -65.471374511719 -91.320297241211 2.507504940033
-65.449890136719 -70.372253417969 -48.450111389160 0.740273475647
-51.632621765137 -83.552742004395 -85.275932312012 2.045086145401
108.958412170410 -68.124702453613 -119.292907714844 2.366822004318
94.681526184082 -61.786632537842 -65.361816406250 3.059972047806
-49.419311523438 -72.968856811523 -141.529846191406 2.716817378998
-77.538719177246 -74.113456726074 -209.941482543945 0.879392504692
-168.095733642578 -72.420623779297 -281.830963134766 3.527262926102
29.049985885620 -62.821067810059 -35.799781799316 1.753423094749
-38.206699371338 -73.895019531250 -181.239440917969 2.597807884216
-77.476394653320 -71.872848510742 -138.146957397461 2.140932798386
-112.065925598145 -70.547920227051 -291.747863769531 2.153249502182
-49.935558319092 -73.523841857910 -155.402832031250 1.713102817535
-58.930881500244 -78.069976806641 -169.548492431641 1.414435148239
-127.599914550781 -69.008323669434 -283.956634521484 2.258183717728
-16.144609451294 -70.368019104004 -229.252487182617 0.929425060749
26.824981689453 -67.573516845703 -10.853116989136 4.639914035797
-150.422363281250 -68.458618164063 -289.816986083984 1.451615571976
-145.283187866211 -73.355850219727 -284.071929931641 1.082669496536
-60.346862792969 -60.216747283936 -120.133575439453 2.434525728226
21.242969512939 -76.239013671875 -188.713317871094 1.618719339371
-71.188438415527 -69.815216064453 -47.267242431641 1.949901103973
-41.557701110840 -75.187759399414 -56.670486450195 2.097826480865
54.362972259521 -60.115062713623 -90.257255554199 1.874019384384
-56.867839813232 -65.927062988281 -144.905548095703 1.100721120834
30.547130584717 -66.797386169434 -37.321502685547 2.470667839050
-88.350288391113 -71.929122924805 -215.597869873047 1.285514950752
100.679840087891 -72.908180236816 -77.578796386719 2.161148548126
-45.957698822021 -64.754035949707 -83.688735961914 1.474334836006
-3.613120555878 -79.281280517578 -272.712402343750 1.387053132057
21.938423156738 -71.936065673828 -165.340560913086 1.286411523819
37.787910461426 -63.240322113037 -16.475490570068 3.211969852448
115.015319824219 -76.580657958984 -169.294860839844 1.228370189667
77.695709228516 -77.532432556152 -93.265075683594 0.662283420563
11.324295997620 -81.792671203613 -215.736190795898 2.252775430679
-71.825462341309 -65.330390930176 -46.400985717773 1.587831616402
-128.630096435547 -75.274971008301 -230.411621093750 0.843826055527
-24.778549194336 -69.246910095215 -197.582092285156 1.575782895088
115.362678527832 -69.396301269531 -145.925064086914 0.627863168716
-151.301025390625 -80.104743957520 -197.637527465820 1.232771754265
-15.412559509277 -75.639389038086 -219.250335693359 2.544453620911
-37.513500213623 -73.419013977051 -213.420623779297 4.553846836090
-139.730834960938 -74.146697998047 -288.451782226563 2.912431240082
64.100273132324 -64.597099304199 -67.711013793945 2.871970653534
-142.154891967773 -83.031143188477 -254.561874389648 2.545205116272
19.152923583984 -74.790390014648 -173.518554687500 2.204007625580
-24.110610961914 -66.352684020996 -184.796020507813 3.233836412430
-57.856464385986 -68.835792541504 -89.357612609863 0.830079555511
-41.333400726318 -79.755233764648 -66.869514465332 0.460719406605
19.602909088135 -72.786750793457 -218.140350341797 1.797936081886
-82.448570251465 -72.992057800293 -103.104736328125 3.204395055771
15.018086433411 -79.029380798340 -272.376586914063 2.778451204300
-126.570152282715 -69.196350097656 -222.606201171875 2.464081764221
-102.938690185547 -71.975578308105 -257.121429443359 1.559607148170
21.158828735352 -70.457191467285 -164.306808471680 0.777037739754
26.816862106323 -65.603469848633 -253.922348022461 3.221579313278
24.583715438843 -71.477241516113 -153.101531982422 0.699257850647
10.929211616516 -78.147193908691 -227.154586791992 1.632597088814
-35.698120117188 -79.234809875488 -81.966644287109 2.028354406357
-142.548858642578 -73.894813537598 -291.213653564453 2.046985626221
53.586315155029 -64.960212707520 -89.339691162109 1.444542884827
11.579143524170 -70.123535156250 -208.844451904297 1.967363834381
-42.306266784668 -78.532775878906 -154.333770751953 0.529852926731
93.500282287598 -75.461669921875 -95.255729675293 1.485170245171
3.025631904602 -69.001770019531 -225.552352905273 1.486614942551
31.356723785400 -75.800170898438 -126.830978393555 2.552949905396
-59.021205902100 -75.234405517578 -55.724319458008 2.418701410294
0.741782903671 -71.458343505859 -236.276016235352 1.869323611259
26.135227203369 -69.896682739258 -163.516662597656 1.911165714264
-155.437957763672 -71.279586791992 -271.496154785156 3.226065874100
-151.900329589844 -84.037780761719 -280.529296875000 2.605705499649
-11.341948509216 -60.927577972412 -61.730804443359 1.976623773575
112.017280578613 -70.396324157715 -109.184104919434 1.219693422318
-27.113349914551 -76.710067749023 -238.906051635742 2.401577234268
-147.626708984375 -83.962615966797 -231.015335083008 1.666364312172
112.206161499023 -73.076042175293 -141.013870239258 1.339656352997
6.252144813538 -76.140281677246 -227.695465087891 1.738455176353
23.728652954102 -68.581642150879 -163.388061523438 2.202590942383
-101.892143249512 -72.688385009766 -259.788299560547 1.005049109459
29.276197433472 -64.827201843262 -34.647171020508 2.819819450378
88.293060302734 -73.622215270996 -214.046386718750 0.756626963615
-131.251129150391 -76.150741577148 -230.833908081055 2.525381803513
-84.517616271973 -65.162689208984 -46.434745788574 2.575877189636
29.174194335938 -61.771202087402 -35.473503112793 1.322142481804
12.401779174805 -79.977119445801 -278.846099853516 2.604478120804
-112.233406066895 -63.283702850342 -198.594177246094 1.970837235451
-1.337470173836 -79.568702697754 -234.036148071289 3.302391529083
-48.554172515869 -69.255409240723 -288.733642578125 3.819159030914
-84.411712646484 -72.327613830566 -248.608657836914 1.090168237686
111.579498291016 -74.601173400879 -131.132476806641 2.088272333145
-152.686065673828 -73.560050964355 -295.527099609375 1.988808631897
-154.042495727539 -71.714035034180 -287.299072265625 1.739207386971
66.831176757813 -71.783859252930 -234.920196533203 1.311646699905
7.033097267151 -79.843742370605 -237.917419433594 2.309225320816
40.499717712402 -75.610115051270 -128.036376953125 2.296223878860
40.629886627197 -73.371841430664 -252.225265502930 3.391893148422
34.028968811035 -68.735054016113 -10.709594726563 3.122198581696
38.583831787109 -72.162773132324 -112.588027954102 0.967328131199
18.946544647217 -75.282943725586 -206.881408691406 1.487320542336
8.808788299561 -73.252799987793 -159.573150634766 1.635006189346
68.082916259766 -66.892837524414 -69.339752197266 1.299980878830
91.658042907715 -75.345779418945 -93.946479797363 1.221266627312
4.520833015442 -77.687248229980 -157.636108398438 2.427167892456
22.216764450073 -75.852096557617 -192.555236816406 1.823811531067
22.045585632324 -73.428779602051 -253.825759887695 2.391679286957
-49.501121520996 -81.155807495117 -86.612098693848 0.988963544369
-41.428520202637 -75.585334777832 -82.831260681152 1.860453367233
33.922599792480 -73.842918395996 -154.579406738281 1.770849108696
-29.320980072021 -81.606536865234 -173.360916137695 4.634362220764
-145.650085449219 -78.767730712891 -269.688385009766 0.946479856968
-136.203155517578 -85.483459472656 -226.024993896484 2.687223196030
-78.217216491699 -87.363945007324 -101.353416442871 2.353332519531
-18.731185913086 -72.874099731445 -213.726028442383 1.653086185455
-13.184391975403 -79.365577697754 -215.191482543945 2.346831560135
-103.612396240234 -74.493743896484 -292.631011962891 2.420063734055
-81.520050048828 -64.297508239746 -125.851776123047 1.504466056824
-150.211334228516 -60.652759552002 -219.942169189453 1.818258523941
-146.846389770508 -68.593345642090 -190.147430419922 3.572168827057
-30.584655761719 -78.547950744629 -191.132522583008 1.300373315811
73.835464477539 -70.685073852539 -236.559280395508 2.168059110641
56.042808532715 -66.206718444824 -249.283737182617 1.236684203148
-13.872712135315 -75.618728637695 -226.141754150391 2.263985633850
-96.199165344238 -73.384742736816 -260.223724365234 2.547608852386
69.662445068359 -71.234031677246 -234.718872070313 1.229811310768
-2.513059616089 -67.304435729980 -229.018142700195 0.896034955978
91.626037597656 -63.599025726318 -59.677978515625 1.550452232361
18.202856063843 -65.981719970703 -176.753784179688 2.721481800079
4.021617889404 -59.430343627930 -240.926208496094 2.550172567368
-139.211120605469 -82.981086730957 -285.374359130859 2.909242630005
-145.192291259766 -78.774215698242 -257.689514160156 2.973404407501
19.453126907349 -69.286483764648 -187.489501953125 3.062327861786
36.394943237305 -68.710487365723 -132.686386108398 1.843931555748
-16.080238342285 -70.689689636230 -289.731018066406 1.089411258698
-77.108055114746 -64.125747680664 -128.513809204102 2.264037370682
-158.750411987305 -68.921005249023 -220.883361816406 1.970150351524
-2.060023307800 -78.717376708984 -219.144577026367 1.528769016266
-146.475082397461 -86.910232543945 -288.552612304688 2.228174448013
-170.960861206055 -66.822921752930 -260.086608886719 4.025215625763
72.150543212891 -65.933029174805 -103.577606201172 2.008089303970
86.587379455566 -68.459678649902 -208.865722656250 4.581208229065
23.978080749512 -62.741722106934 -135.268829345703 2.673437356949
-153.154067993164 -65.316009521484 -202.395050048828 2.845972299576
22.981204986572 -67.927200317383 -161.288681030273 1.071439146996
-47.384090423584 -81.531379699707 -189.466964721680 3.787903308868
-47.171607971191 -72.115539550781 -136.679214477539 1.026130676270
-13.876312255859 -67.192298889160 -209.323181152344 1.959890007973
-73.639053344727 -72.330680847168 -257.098602294922 3.039616584778
-157.322204589844 -71.956504821777 -202.960449218750 2.674076318741
-149.529342651367 -68.670036315918 -305.997924804688 3.535477161407
-105.051826477051 -70.326667785645 -290.500213623047 1.869330167770
7.576656341553 -73.165237426758 -242.942031860352 0.368131279945
-154.521041870117 -67.016311645508 -221.752685546875 2.491997480392
-62.528106689453 -65.913658142090 -89.318893432617 0.553788721561
-25.445104598999 -78.191497802734 -199.003601074219 2.816321611404
87.585502624512 -60.121025085449 -110.639625549316 1.773042082787
-123.096580505371 -72.697189331055 -205.630401611328 2.666070222855
-141.503814697266 -76.668754577637 -199.395675659180 1.639898777008
-27.269252777100 -77.102050781250 -174.908782958984 1.176013469696
-62.720340728760 -84.748039245605 -92.869918823242 2.700985670090
-158.343536376953 -71.745292663574 -216.905487060547 2.799880981445
8.492445945740 -68.533409118652 -241.963012695313 0.430549651384
-78.956222534180 -63.172962188721 -125.291091918945 0.367203056812
-70.782493591309 -66.314811706543 -106.673866271973 1.073142528534
-51.933151245117 -73.901359558105 -292.466094970703 2.828634977341
-148.192459106445 -65.298812866211 -226.699768066406 2.954577207565
-146.078338623047 -61.049308776855 -198.656433105469 1.543599367142
97.911422729492 -71.104522705078 -203.524566650391 2.192106246948
19.938655853271 -66.099258422852 -179.248718261719 1.192700147629
115.670288085938 -68.189521789551 -131.021041870117 1.726346254349
21.443826675415 -68.635261535645 -22.425771713257 2.876648426056
95.903709411621 -68.819023132324 -102.902435302734 0.849433362484
-140.405975341797 -59.306365966797 -204.109146118164 2.831289291382
-22.623245239258 -70.781364440918 -213.657867431641 3.514063835144
-30.100620269775 -81.555313110352 -191.247772216797 1.719209671021
-74.625572204590 -62.582210540771 -133.625595092773 2.665756702423
53.235328674316 -77.105331420898 -99.963188171387 1.295364141464
-6.992252349854 -79.876174926758 -273.186676025391 1.304180979729
-61.792800903320 -72.744857788086 -56.348571777344 3.442588329315
-43.840656280518 -70.250175476074 -146.685958862305 0.717360615730
-155.266555786133 -63.950637817383 -291.086517333984 0.760695695877
-3.692678928375 -79.702201843262 -223.493774414063 1.551381945610
-55.821632385254 -86.951614379883 -204.567520141602 1.640107870102
-47.156936645508 -72.301383972168 -144.279724121094 1.635242223740
102.564292907715 -64.341804504395 -97.590393066406 1.341302990913
24.047424316406 -70.140907287598 -192.119720458984 1.648325562477
106.942962646484 -71.470642089844 -119.599380493164 1.354287028313
-145.117492675781 -61.889022827148 -216.278411865234 2.354758739471
-73.378486633301 -70.896118164063 -99.594573974609 1.074290990829
-10.047805786133 -74.010055541992 -233.852310180664 0.934333264828
-133.937530517578 -64.350776672363 -263.906799316406 1.865924358368
-55.216468811035 -63.903919219971 -138.177932739258 1.764791488647
-29.010663986206 -70.282905578613 -187.234481811523 2.084028482437
101.999992370605 -62.530166625977 -99.408897399902 2.318619728088
-147.066558837891 -81.502998352051 -204.985015869141 1.752517819405
60.041244506836 -68.236221313477 -238.950561523438 3.297008752823
19.669021606445 -69.917617797852 -177.972457885742 0.570764660835
-147.189270019531 -66.911109924316 -258.207214355469 2.479491710663
12.339897155762 -59.219543457031 -241.657165527344 0.811508059502
-78.439552307129 -68.833602905273 -118.571319580078 1.650453209877
-132.978332519531 -69.190757751465 -292.980926513672 1.767559170723
-142.261611938477 -77.672691345215 -291.378387451172 1.026620149612
-90.753334045410 -72.602043151855 -66.486335754395 1.837207674980
53.292617797852 -73.542556762695 -93.555351257324 1.149352788925
-22.929685592651 -78.725502014160 -222.158889770508 2.470691204071
-45.677963256836 -77.976554870605 -247.176406860352 1.709498524666
-33.511425018311 -66.242599487305 -80.051849365234 2.255505800247
3.455828428268 -63.402576446533 -273.896270751953 1.506601691246
51.370223999023 -69.240371704102 -107.464920043945 2.169633626938
-28.621294021606 -81.784996032715 -179.521545410156 2.322070360184
-34.653549194336 -73.548973083496 -57.774185180664 1.785008668900
22.919210433960 -69.943916320801 -177.782318115234 1.946315169334
-27.840480804443 -73.748634338379 -180.459854125977 2.700026273727
15.567352294922 -82.387268066406 -239.902511596680 1.831107020378
20.087512969971 -59.694492340088 -31.919881820679 1.148061037064
-153.072280883789 -79.342475891113 -231.025711059570 0.671180844307
44.529800415039 -72.005081176758 -23.158418655396 1.833628177643
20.894056320190 -70.686859130859 -188.600799560547 2.170357227325
-37.609447479248 -73.227828979492 -154.686111450195 1.644359707832
24.228826522827 -74.676902770996 -141.501983642578 1.147710561752
-133.890838623047 -69.540336608887 -282.292236328125 1.772440910339
35.126884460449 -67.461624145508 -119.990905761719 2.574223756790
98.964485168457 -69.303756713867 -96.365394592285 1.680858135223
-32.776977539063 -78.188591003418 -179.379867553711 1.378840804100
-139.527801513672 -77.719367980957 -200.043762207031 2.326563119888
-72.735725402832 -67.854194641113 -132.981430053711 1.277541399002
53.824657440186 -73.705970764160 -244.338256835938 2.233687639236
4.331010818481 -79.124656677246 -236.554229736328 1.167603015900
-147.287582397461 -76.918624877930 -217.219543457031 1.951583862305
-118.134468078613 -71.852317810059 -293.591705322266 2.450191020966
39.062652587891 -59.564678192139 -119.143722534180 1.064518094063
-60.860668182373 -78.479141235352 -71.030677795410 2.000278949738
-46.568374633789 -67.995162963867 -154.565292358398 2.556473493576
-124.736106872559 -74.204582214355 -200.455154418945 1.566639780998
-13.136608123779 -77.006645202637 -225.339248657227 1.758218526840
-58.922050476074 -76.542610168457 -174.473617553711 1.858717918396
-42.387710571289 -79.786064147949 -163.411499023438 0.912441611290
-112.976409912109 -71.678070068359 -293.446014404297 1.172875165939
-103.091461181641 -71.518020629883 -287.881195068359 2.925463914871
-25.438203811646 -78.408897399902 -192.330566406250 1.377358794212
-2.481729269028 -67.890838623047 -278.889221191406 1.499693512917
-91.944030761719 -66.508956909180 -288.872772216797 2.829083442688
7.131526947021 -76.172363281250 -157.345016479492 1.476505994797
-113.235054016113 -72.188949584961 -293.951843261719 1.651530027390
-53.538593292236 -63.533813476563 -77.723937988281 0.964231491089
-77.223823547363 -66.728691101074 -133.898193359375 1.001510739326
45.037254333496 -69.185852050781 -110.812973022461 1.671989083290
-86.213050842285 -61.535831451416 -116.488494873047 2.075836896896
41.236812591553 -59.091659545898 -40.340660095215 1.259777426720
-92.100120544434 -71.399230957031 -118.515960693359 0.928417623043
-19.979288101196 -72.995826721191 -190.919372558594 1.100568175316
46.237476348877 -75.965164184570 -103.557991027832 1.882073044777
-58.380702972412 -66.789047241211 -127.113159179688 0.956600427628
-147.130096435547 -75.024841308594 -210.698455810547 1.976741909981
55.668262481689 -67.879089355469 -102.648094177246 2.374967813492
-150.937057495117 -77.572929382324 -247.586135864258 1.179736852646
31.503156661987 -77.879028320313 -157.935821533203 2.301159143448
-39.478862762451 -66.015289306641 -80.614700317383 3.650465488434
-148.147735595703 -76.050277709961 -237.226058959961 3.032402753830
51.077640533447 -64.213043212891 -20.656435012817 2.544585943222
-155.190338134766 -74.459785461426 -301.131042480469 1.335632085800
28.552160263062 -67.992645263672 -256.571228027344 1.518572568893
-130.955978393555 -68.837585449219 -286.501159667969 1.929848551750
-39.217437744141 -67.874008178711 -167.435546875000 2.365173816681
112.440528869629 -71.225532531738 -126.622253417969 1.044941306114
-43.413799285889 -80.142074584961 -62.945686340332 1.585130453110
-149.914321899414 -79.824012756348 -253.557083129883 1.672385811806
31.909786224365 -73.108016967773 -40.701583862305 1.088392019272
-146.981567382813 -74.206504821777 -222.011291503906 0.923309624195
29.038459777832 -77.485359191895 -161.399414062500 1.673792243004
-25.099489212036 -74.013801574707 -220.556655883789 2.294667959213
-21.576013565063 -77.660362243652 -240.367263793945 1.707573890686
-2.099871635437 -73.592140197754 -231.711791992188 2.594516754150
23.766660690308 -72.190841674805 -24.408304214478 0.937532901764
-135.498214721680 -73.129776000977 -233.328399658203 1.077257752419
22.547674179077 -64.679534912109 -30.299562454224 3.686022758484
-80.445999145508 -59.601383209229 -123.509384155273 1.185079693794
10.036128044128 -64.798301696777 -243.868865966797 1.639922142029
24.711254119873 -75.255836486816 -182.620162963867 1.290066003799
-78.127151489258 -62.230442047119 -121.043426513672 1.421479821205
46.386829376221 -78.527847290039 -115.669807434082 1.704880595207
-163.933578491211 -72.807586669922 -215.239028930664 1.401058793068
108.944183349609 -75.084785461426 -115.404869079590 3.351687192917
108.619956970215 -68.007026672363 -115.129577636719 2.011111497879
-11.387062072754 -79.587463378906 -210.918670654297 0.885378658772
-81.476516723633 -80.500358581543 -91.346282958984 2.806025266647
5.024149894714 -62.549152374268 -258.037780761719 2.702350616455
-146.837677001953 -70.244644165039 -200.075531005859 1.746981143951
-50.373485565186 -75.500473022461 -149.451950073242 0.907966673374
-23.176237106323 -79.232437133789 -189.635757446289 1.934097766876
1.145267009735 -63.970985412598 -231.559249877930 2.931585550308
-29.579889297485 -76.193473815918 -192.171569824219 1.582806587219
-22.086915969849 -67.487136840820 -203.913314819336 2.410330057144
26.655275344849 -73.463859558105 -259.374114990234 3.526745796204
-144.751480102539 -76.680702209473 -245.971511840820 1.843382239342
-70.717247009277 -72.844367980957 -249.607467651367 1.789672851563
-23.618068695068 -78.585403442383 -180.689804077148 1.411654233932
-95.110946655273 -69.553504943848 -220.494918823242 1.590856432915
-144.361083984375 -76.591354370117 -284.093505859375 1.423333048820
65.282928466797 -65.996078491211 -97.099815368652 1.681587696075
-97.593933105469 -60.187351226807 -74.943305969238 2.601533651352
-148.855087280273 -74.797058105469 -257.556518554688 1.164993762970
53.020309448242 -73.053764343262 -101.091667175293 2.393827915192
-33.529533386230 -76.574241638184 -65.271842956543 2.300689458847
-140.824813842773 -64.633171081543 -177.798782348633 2.195428609848
55.823619842529 -68.611358642578 -101.665702819824 1.861769437790
101.535736083984 -73.287673950195 -202.812774658203 1.340463399887
108.412719726563 -72.330543518066 -174.939559936523 2.633240699768
-102.402915954590 -65.679290771484 -155.857421875000 0.492897778749
-75.319503784180 -72.210647583008 -138.164932250977 1.086911559105
-84.852256774902 -62.962158203125 -116.564979553223 2.334529399872
-96.553344726563 -70.762626647949 -153.176544189453 2.638104915619
39.047817230225 -72.145561218262 -38.134506225586 2.889913320541
20.917547225952 -69.327590942383 -195.899017333984 1.387583732605
109.310775756836 -72.100433349609 -157.819366455078 1.102051496506
-57.267898559570 -79.880363464355 -67.802627563477 2.462795257568
-120.111511230469 -68.992050170898 -200.728164672852 2.899693489075
28.857810974121 -69.397003173828 -164.061843872070 3.069013118744
-53.700447082520 -86.130043029785 -87.823387145996 1.254753351212
-32.991539001465 -79.687141418457 -241.574920654297 0.916912734509
-28.152902603149 -84.870948791504 -189.855346679688 2.518395423889
75.105262756348 -64.596862792969 -63.267883300781 1.679663777351
-83.414718627930 -82.415298461914 -96.653923034668 1.322842359543
-49.062202453613 -70.884651184082 -286.872344970703 2.755203962326
42.596565246582 -72.427528381348 -102.288238525391 2.093861579895
-76.588356018066 -60.263252258301 -106.497749328613 2.625211000443
-163.445129394531 -76.448249816895 -288.281036376953 2.742966413498
-6.541833877563 -74.817298889160 -212.371582031250 0.966248333454
27.705165863037 -67.995094299316 -16.688716888428 2.635751008987
-59.800693511963 -81.365760803223 -179.202987670898 3.515886545181
-73.869003295898 -77.193061828613 -210.119018554688 1.309715390205
16.566509246826 -80.911643981934 -247.418655395508 0.416455626488
-10.895465850830 -75.583099365234 -232.137374877930 1.286112308502
-145.414367675781 -72.484046936035 -298.512939453125 1.082270979881
-84.730018615723 -62.278450012207 -107.199188232422 2.175031900406
-17.220060348511 -74.238189697266 -227.051071166992 1.261675596237
27.996597290039 -77.657791137695 -151.618057250977 0.871074557304
43.872524261475 -76.083656311035 -133.897033691406 3.863252639771
34.188705444336 -68.661361694336 -13.526885986328 2.810404539108
-77.415214538574 -74.053504943848 -56.746620178223 2.842597723007
-150.325469970703 -64.342979431152 -285.436676025391 1.645803689957
-70.697341918945 -82.326545715332 -212.789321899414 1.939163684845
-14.753959655762 -69.258514404297 -230.793975830078 0.525150954723
-29.361932754517 -73.023132324219 -57.632034301758 3.587319612503
96.956008911133 -71.502075195313 -200.455001831055 2.286649465561
-150.397842407227 -65.362907409668 -269.479797363281 3.263043403625
-82.618141174316 -63.240482330322 -49.163696289063 1.600659847260
-80.147850036621 -78.309036254883 -214.484939575195 0.499224781990
-153.546035766602 -63.082241058350 -255.596664428711 1.587870717049
-38.971332550049 -73.127159118652 -170.031005859375 2.061607360840
14.594171524048 -82.444137573242 -272.309509277344 2.375299930573
-75.987068176270 -66.577667236328 -125.075485229492 1.500746250153
51.015441894531 -61.019668579102 -246.843368530273 3.601403951645
-44.575092315674 -81.141738891602 -156.502807617188 2.685857057571
-46.182888031006 -74.284683227539 -149.421203613281 2.321459531784
-9.534528732300 -75.866668701172 -251.785537719727 0.648824274540
58.412101745605 -71.806419372559 -241.780639648438 2.375017166138
20.254783630371 -77.034751892090 -209.196212768555 2.639872312546
-149.771667480469 -85.418045043945 -265.142700195313 0.479203224182
9.721502304077 -80.005851745605 -246.663833618164 0.961058676243
17.525390625000 -81.807060241699 -261.723815917969 0.876257598400
-29.356052398682 -69.884132385254 -175.949554443359 1.229535460472
8.378538131714 -70.421737670898 -146.746963500977 3.205051898956
-136.807220458984 -74.447616577148 -201.379745483398 1.246215701103
-40.284851074219 -80.117866516113 -203.149414062500 1.539056777954
-47.617774963379 -70.474441528320 -132.867492675781 1.036957502365
43.605934143066 -75.519233703613 -122.607650756836 1.373785734177
33.473674774170 -76.118415832520 -124.349029541016 0.815305888653
7.656832695007 -62.309051513672 -241.227066040039 1.742546319962
-51.922412872314 -77.362487792969 -241.230392456055 2.915672302246
-159.023300170898 -68.362030029297 -205.362136840820 1.171678662300
-11.378446578979 -79.257415771484 -173.716384887695 2.252468109131
108.636566162109 -78.023727416992 -182.055130004883 3.140551567078
104.845985412598 -73.232475280762 -176.058135986328 1.365324258804
-6.911417007446 -72.926826477051 -205.476165771484 1.854395270348
19.535770416260 -76.845527648926 -169.256744384766 2.421117067337
-44.352710723877 -77.548080444336 -58.764434814453 0.385511428118
104.558219909668 -74.004196166992 -178.096435546875 2.591586112976
-66.328567504883 -77.453361511230 -286.437316894531 1.831389904022
-126.425437927246 -74.042938232422 -285.075469970703 2.201681375504
-76.763542175293 -63.654079437256 -105.064987182617 1.152567505836
2.758441686630 -77.945190429688 -222.227523803711 3.053574800491
-101.738090515137 -64.153930664063 -79.609977722168 4.234914302826
-78.753974914551 -83.458908081055 -83.436859130859 2.465858697891
28.299964904785 -63.190387725830 -261.590240478516 1.315669536591
23.416797637939 -65.909736633301 -142.548538208008 1.263817310333
23.641387939453 -71.447944641113 -36.146224975586 0.893131136894
-159.060974121094 -71.238433837891 -261.458282470703 2.700390815735
70.241470336914 -68.862129211426 -76.673263549805 2.217503547668
-29.359582901001 -73.997352600098 -77.001747131348 1.491747140884
-21.372470855713 -81.699256896973 -190.084640502930 2.590044498444
42.078865051270 -81.616401672363 -123.133132934570 2.843863010406
-9.947811126709 -59.078205108643 -55.790771484375 0.961250603199
-50.075504302979 -77.114753723145 -87.136077880859 1.044641017914
27.079757690430 -65.840576171875 -265.970733642578 1.041945815086
23.881387710571 -71.784294128418 -151.752334594727 1.095096588135
27.319927215576 -73.321487426758 -137.616256713867 1.615998387337
-101.415115356445 -72.404067993164 -223.374404907227 0.971023321152
17.338300704956 -80.443077087402 -236.852920532227 1.732748746872
100.309997558594 -70.090110778809 -70.993461608887 1.812957525253
8.593730926514 -70.140075683594 -234.879806518555 1.091071605682
-6.986139297485 -66.549720764160 -210.538314819336 3.412519454956
100.850601196289 -70.475257873535 -198.390823364258 1.990576863289
-59.728584289551 -69.324874877930 -89.510826110840 1.403335571289
102.254417419434 -63.693893432617 -101.290664672852 1.071621298790
-156.624160766602 -71.948226928711 -228.643173217773 1.225712895393
19.925092697144 -71.076774597168 -27.253549575806 1.269404649734
13.016809463501 -65.497413635254 -287.173126220703 0.891363501549
-144.925262451172 -74.227752685547 -297.073242187500 2.383520364761
-143.548461914063 -73.668579101563 -227.742218017578 3.195430278778
-85.174201965332 -64.270996093750 -51.414222717285 2.251875638962
62.247928619385 -64.703254699707 -92.015991210938 1.261502146721
-110.853248596191 -73.392173767090 -287.507324218750 1.788078904152
-144.725357055664 -79.306701660156 -211.879043579102 1.057567715645
-70.561317443848 -82.594154357910 -210.392257690430 1.067757129669
24.795068740845 -76.288955688477 -140.277862548828 2.034384727478
40.020919799805 -69.090232849121 -22.409959793091 2.048555612564
-7.770278930664 -75.777595520020 -211.030410766602 1.398238420486
-28.961389541626 -80.915534973145 -180.480682373047 2.670831680298
-82.051483154297 -75.054046630859 -109.071075439453 2.212836503983
-158.220413208008 -70.092185974121 -286.256225585938 3.146861553192
-148.962219238281 -66.481033325195 -258.643524169922 1.556592941284
58.032451629639 -75.632019042969 -248.035507202148 4.240994453430
-39.797065734863 -75.674736022949 -245.639175415039 0.366230875254
-22.171623229980 -78.258522033691 -221.365005493164 2.141049385071
-55.775390625000 -75.792694091797 -141.477508544922 2.756857633591
-153.453567504883 -75.950736999512 -196.586135864258 1.292330980301
-147.953536987305 -68.571342468262 -295.421569824219 0.709395766258
-6.557876586914 -78.950248718262 -219.079757690430 0.794645011425
-48.630348205566 -83.358467102051 -201.581680297852 0.833046913147
-42.091899871826 -79.887985229492 -162.442764282227 0.530834674835
16.118154525757 -80.997871398926 -235.331146240234 0.429668158293
-151.280242919922 -65.083824157715 -215.484481811523 2.903853178024
37.853229522705 -79.126495361328 -133.735260009766 2.280624628067
62.395156860352 -71.209861755371 -239.389572143555 1.134806513786
-22.065603256226 -75.882308959961 -181.260940551758 1.092877507210
-165.532501220703 -73.453048706055 -240.591064453125 1.228215336800
9.021137237549 -74.362907409668 -243.492584228516 1.306295633316
-49.185100555420 -76.686431884766 -142.073028564453 0.572717010975
-153.439346313477 -69.843009948730 -178.367172241211 1.125791430473
-41.274749755859 -78.180664062500 -165.290267944336 1.977935075760
103.031524658203 -72.838401794434 -101.177207946777 2.356475830078
38.390998840332 -79.901542663574 -126.038543701172 1.561671257019
24.881216049194 -77.180252075195 -144.404296875000 1.951001405716
-34.336364746094 -69.424636840820 -177.618148803711 1.360589504242
60.965099334717 -68.738594055176 -235.511871337891 1.660869479179
69.366691589355 -76.206535339355 -78.867599487305 3.507187366486
-149.738876342773 -80.675193786621 -286.346984863281 1.625394701958
68.775688171387 -68.927223205566 -240.298995971680 2.431030273438
112.682701110840 -71.253082275391 -143.191314697266 0.927121698856
-51.053405761719 -79.093025207520 -197.265075683594 2.606145381927
61.011890411377 -73.291603088379 -243.808776855469 2.128071784973
29.782058715820 -61.353424072266 -13.667354583740 3.352496385574
-98.085678100586 -70.528480529785 -224.150909423828 0.840104162693
-59.857414245605 -62.360492706299 -136.442550659180 1.917985916138
-95.176162719727 -71.685386657715 -285.748260498047 3.168056249619
-59.637512207031 -83.082633972168 -76.739562988281 1.674324750900
-145.374008178711 -85.982009887695 -289.083129882813 1.603207349777
-58.709098815918 -77.353302001953 -55.025573730469 1.835204601288
26.923017501831 -74.092254638672 -182.392120361328 1.012977719307
-72.641868591309 -69.815093994141 -136.230010986328 0.978161275387
-55.372646331787 -81.279556274414 -206.324356079102 1.281264066696
16.617908477783 -68.999717712402 -238.543945312500 1.801819562912
-47.405563354492 -76.833106994629 -56.499359130859 1.796675086021
-62.597164154053 -82.784507751465 -84.558174133301 3.511445522308
49.795829772949 -65.582099914551 -26.990446090698 3.871826887131
9.046808242798 -75.965469360352 -209.382385253906 1.848655700684
-148.799163818359 -68.126869201660 -245.888031005859 2.521613359451
73.956817626953 -74.073326110840 -98.762580871582 1.981867313385
-149.692428588867 -80.954917907715 -189.286117553711 1.113275289536
-22.472133636475 -78.621452331543 -237.314376831055 3.287983179092
23.220169067383 -69.021781921387 -175.578765869141 2.895122766495
41.124504089355 -78.875724792480 -128.635513305664 2.912453174591
-102.984085083008 -69.226280212402 -291.523986816406 2.699972391129
4.758404731750 -75.830734252930 -241.182983398438 2.021556615829
-38.440971374512 -77.622726440430 -199.442092895508 1.936747789383
-77.492477416992 -61.019912719727 -123.997146606445 1.767927169800
-8.182762145996 -78.920166015625 -273.784637451172 1.771720528603
79.100212097168 -75.141860961914 -225.990325927734 2.042797088623
95.461380004883 -78.268234252930 -202.494247436523 1.789517641068
27.885015487671 -78.374114990234 -159.161529541016 1.346749424934
-36.038002014160 -83.860794067383 -194.427932739258 1.505487680435
-152.286346435547 -62.362552642822 -179.195922851563 0.955303251743
42.490901947021 -64.970886230469 -36.940231323242 2.644982337952
-150.051589965820 -70.816268920898 -189.944869995117 1.347539901733
46.315067291260 -63.714630126953 -35.038696289063 2.255205154419
3.666198015213 -85.739067077637 -263.113952636719 0.599471509457
-38.588104248047 -77.140251159668 -162.025115966797 1.542638540268
-65.638336181641 -81.122512817383 -210.029357910156 0.619130849838
24.293653488159 -72.827941894531 -19.918422698975 1.051105499268
-49.606594085693 -69.080986022949 -143.798294067383 0.527734816074
-37.120471954346 -75.522346496582 -207.230743408203 1.934695959091
-29.859510421753 -78.590751647949 -215.602905273438 0.956746876240
68.826965332031 -73.272621154785 -73.432762145996 3.208598613739
-152.297607421875 -73.041801452637 -269.682617187500 1.962073445320
61.113807678223 -66.706642150879 -85.730155944824 1.344205379486
-159.683837890625 -72.906784057617 -294.403991699219 1.931570291519
-44.898944854736 -71.856491088867 -54.599258422852 2.797158718109
-70.823707580566 -75.203971862793 -153.805816650391 1.799118995667
21.969879150391 -66.994529724121 -185.070129394531 1.036505222321
-54.087677001953 -64.196952819824 -142.576812744141 2.125071763992
-20.303256988525 -79.368209838867 -204.160522460938 1.455901861191
17.621047973633 -77.194702148438 -201.262878417969 1.139490246773
6.534812927246 -66.410881042480 -241.593536376953 1.991767883301
89.938720703125 -76.555374145508 -86.505653381348 1.964913845062
-35.305809020996 -75.070549011230 -285.997436523438 1.790482878685
-87.701225280762 -69.099166870117 -60.569152832031 3.088630676270
-150.698944091797 -67.355804443359 -245.870040893555 1.344095230103
-154.816360473633 -72.931335449219 -296.058654785156 2.003093957901
-127.921928405762 -74.520301818848 -254.851089477539 1.852933406830
29.871210098267 -68.178977966309 -35.617942810059 1.777476191521
-55.703529357910 -75.173500061035 -91.967903137207 1.302257657051
-54.159446716309 -63.465911865234 -78.410163879395 1.134582996368
17.511653900146 -82.332641601563 -191.519241333008 2.799338579178
-144.346069335938 -75.217117309570 -190.716567993164 2.401411771774
-76.464614868164 -81.447738647461 -80.122787475586 2.694953680038
75.740318298340 -76.272003173828 -232.473648071289 1.935704588890
-30.383544921875 -76.705825805664 -175.893310546875 2.865503549576
-94.884330749512 -62.604434967041 -80.760047912598 5.127745151520
-47.269458770752 -78.509170532227 -156.827133178711 2.300174236298
-151.152038574219 -81.546333312988 -193.711944580078 2.082503318787
-139.951431274414 -85.772331237793 -290.876861572266 1.993988394737
-149.831115722656 -82.342956542969 -232.716125488281 1.057850718498
-78.647331237793 -68.383026123047 -116.050704956055 1.581684112549
15.049383163452 -82.247253417969 -244.578506469727 2.328231334686
-44.174846649170 -80.040084838867 -160.422897338867 2.593780517578
49.303539276123 -63.032363891602 -95.167640686035 0.673582673073
20.632200241089 -69.389144897461 -184.054199218750 1.188363552094
-154.047027587891 -82.853271484375 -257.736663818359 1.703637838364
0.317540407181 -67.345405578613 -266.148345947266 2.149426460266
-150.490798950195 -81.488029479980 -285.543365478516 1.269855022430
30.992290496826 -61.779541015625 -17.704650878906 1.622056961060
31.875694274902 -74.830871582031 -162.211242675781 1.478061676025
-44.827423095703 -73.890853881836 -149.084442138672 1.555996656418
88.355072021484 -67.301635742188 -59.443107604980 4.000127315521
-144.802902221680 -78.080604553223 -294.884368896484 2.654636859894
-148.154754638672 -74.013359069824 -260.067626953125 0.906928479671
-74.986938476563 -64.379081726074 -100.269454956055 1.440068244934
28.750873565674 -79.209518432617 -135.012420654297 1.521379470825
78.585655212402 -63.762519836426 -62.540191650391 2.916304111481
17.545501708984 -77.355163574219 -224.058441162109 1.600733399391
-30.649541854858 -75.410133361816 -169.768218994141 2.157636404037
-149.748367309570 -69.936279296875 -298.717193603516 2.203073740005
77.124046325684 -68.691375732422 -104.896316528320 1.277853012085
-145.908996582031 -81.465980529785 -293.711334228516 0.804349303246
-2.944095849991 -61.013401031494 -245.862792968750 1.760681271553
-43.094207763672 -79.153656005859 -154.786087036133 1.347784638405
-85.687400817871 -65.419410705566 -129.476867675781 1.416455745697
40.525993347168 -68.568588256836 -13.327091217041 1.506226301193
-131.519058227539 -69.635116577148 -294.325866699219 2.385901689529
34.090190887451 -70.383773803711 -17.613945007324 0.882901668549
26.077407836914 -64.311714172363 -23.095193862915 1.507056117058
-46.324542999268 -74.022895812988 -165.031555175781 2.015451908112
-77.819435119629 -58.426307678223 -108.775321960449 1.543725252151
-39.377540588379 -63.192619323730 -46.073646545410 2.636090993881
-26.921762466431 -80.962234497070 -210.539215087891 1.744798541069
-14.621589660645 -73.391052246094 -258.957824707031 3.784116506577
-66.032859802246 -58.096969604492 -43.359596252441 2.272909641266
-129.200302124023 -64.948257446289 -260.103851318359 2.392440795898
23.985137939453 -72.217292785645 -174.970657348633 2.447744369507
104.889007568359 -60.092639923096 -72.075927734375 1.536576867104
11.401809692383 -74.769531250000 -191.575393676758 0.339548707008
14.281827926636 -74.958137512207 -157.983352661133 2.443472385406
-95.905761718750 -69.900993347168 -65.431503295898 3.902318239212
-27.361511230469 -67.857589721680 -180.161514282227 2.512195825577
4.890748977661 -64.560180664063 -263.731506347656 2.534737825394
-57.162208557129 -66.454322814941 -41.528091430664 2.351551055908
18.176940917969 -76.124435424805 -190.000335693359 1.561412453651
112.166717529297 -73.724067687988 -141.465667724609 1.791904211044
-54.000026702881 -75.544090270996 -174.988143920898 1.180731177330
-140.066802978516 -77.916252136230 -260.731658935547 1.281194329262
90.100433349609 -75.422866821289 -212.291229248047 1.436914086342
39.365608215332 -71.658927917480 -257.065826416016 2.026629924774
-149.322143554688 -67.327957153320 -227.479431152344 1.842127442360
19.287601470947 -80.338325500488 -226.565505981445 1.679924964905
27.342147827148 -66.930412292480 -145.500793457031 1.800571918488
-5.644044876099 -74.984832763672 -210.016525268555 1.943484902382
58.290309906006 -57.947170257568 -83.472999572754 2.091872453690
31.940029144287 -73.674934387207 -158.411071777344 1.089344978333
-23.182926177979 -62.159091949463 -50.835845947266 3.016048192978
103.594085693359 -64.869445800781 -93.746788024902 1.630183577538
20.615135192871 -65.912361145020 -183.366088867188 2.424820899963
-83.566406250000 -76.736190795898 -71.868232727051 3.349189281464
26.989852905273 -76.977577209473 -185.213714599609 2.478384256363
-98.894783020020 -64.045013427734 -99.269775390625 1.338225126266
-17.961822509766 -67.307441711426 -205.644195556641 1.598580241203
-6.220491409302 -71.171783447266 -232.941268920898 1.731726884842
-53.069446563721 -59.705665588379 -44.081756591797 2.284829139709
-27.891458511353 -76.418579101563 -215.189193725586 0.808952927589
-162.180831909180 -67.946327209473 -231.813003540039 2.518293380737
-78.712280273438 -64.620750427246 -106.532104492188 1.669736504555
-148.498336791992 -67.263496398926 -297.932952880859 1.770375251770
3.964352846146 -79.915573120117 -246.055862426758 0.959106743336
-161.380462646484 -68.572898864746 -213.223587036133 1.374838709831
2.513805866241 -76.657478332520 -220.365951538086 3.919541597366
-13.388528823853 -72.271545410156 -202.101074218750 0.860448658466
-97.164993286133 -65.457611083984 -115.103279113770 1.083935141563
-33.880680084229 -79.313941955566 -242.788436889648 0.308275610209
-73.383865356445 -69.734924316406 -250.175643920898 0.907935261726
-74.034790039063 -79.999542236328 -66.969146728516 2.151753187180
-78.468193054199 -72.054588317871 -56.154869079590 1.879530787468
-18.962604522705 -80.464767456055 -195.696563720703 0.961182951927
-53.254398345947 -64.278564453125 -142.313354492188 2.626226186752
22.163162231445 -68.817382812500 -165.376220703125 1.535724043846
57.935470581055 -70.965293884277 -247.068496704102 0.559648752213
-48.945835113525 -75.978408813477 -155.601974487305 0.566850543022
-94.383529663086 -68.651641845703 -117.618736267090 1.731502771378
-4.962532043457 -74.580215454102 -234.542556762695 1.829087495804
-3.390692234039 -68.696952819824 -237.872177124023 2.173341989517
41.122634887695 -66.052200317383 -15.904439926147 2.466508150101
-119.915435791016 -64.384574890137 -289.229736328125 2.014418363571
-153.856246948242 -65.316452026367 -205.241256713867 2.850795507431
-9.477216720581 -64.741844177246 -62.831367492676 1.078495621681
91.959426879883 -72.630386352539 -207.850952148438 1.619859695435
-143.491195678711 -72.515113830566 -265.570556640625 2.066558361053
-147.569335937500 -73.595436096191 -208.460006713867 2.918606281281
-17.535331726074 -70.768913269043 -71.760833740234 0.667186141014
-161.618713378906 -74.865058898926 -220.309387207031 3.742679357529
8.886110305786 -72.337051391602 -221.136337280273 1.161743283272
-73.976783752441 -64.127067565918 -46.071846008301 1.992317080498
-16.478635787964 -79.351783752441 -180.315277099609 1.233428120613
-11.481256484985 -65.079223632813 -65.761604309082 1.492417454720
-26.530996322632 -71.483421325684 -216.248535156250 2.660633087158
11.830199241638 -73.023002624512 -240.777542114258 1.050421953201
-142.977416992188 -82.404914855957 -262.967041015625 2.843591213226
-100.427597045898 -64.144439697266 -171.263900756836 2.520487546921
-150.203643798828 -84.471771240234 -257.770202636719 0.831614851952
-144.590637207031 -77.407814025879 -263.031860351563 2.531999588013
46.889221191406 -72.174407958984 -23.906061172485 2.193069219589
-71.263404846191 -68.824028015137 -140.991470336914 1.471186280251
-74.719001770020 -77.109207153320 -99.175781250000 1.767034530640
-14.490329742432 -78.721969604492 -207.741516113281 1.705196380615
-67.264175415039 -87.437850952148 -95.458267211914 1.638622999191
-77.493537902832 -65.634246826172 -123.732971191406 1.327872633934
-50.725551605225 -71.154220581055 -85.896621704102 1.737389326096
43.208522796631 -71.896034240723 -125.102828979492 1.523125886917
-83.933219909668 -68.767372131348 -128.701568603516 2.335905551910
-97.879135131836 -65.445556640625 -149.919921875000 1.572425365448
-148.956405639648 -79.660545349121 -183.377639770508 2.826997995377
-82.281349182129 -81.625221252441 -86.387947082520 1.838187813759
96.031242370605 -74.803825378418 -86.433258056641 1.290207266808
-23.693893432617 -69.310989379883 -52.543846130371 4.060165405273
92.012725830078 -61.844387054443 -59.822608947754 0.938058197498
10.896622657776 -78.833442687988 -207.282760620117 0.719331026077
-144.987594604492 -71.590629577637 -297.734863281250 1.959895491600
109.789695739746 -73.923202514648 -184.605926513672 1.068907141685
14.330874443054 -76.668083190918 -184.530334472656 1.959517359734
24.101366043091 -70.421478271484 -163.146743774414 2.748206138611
-16.704193115234 -73.516716003418 -262.743072509766 1.797057867050
31.441549301147 -62.659080505371 -257.784088134766 1.606704235077
-59.268653869629 -81.011543273926 -93.555274963379 1.153737306595
-12.360648155212 -65.528144836426 -246.253494262695 2.294401645660
-58.432949066162 -64.477928161621 -116.446571350098 1.849728584290
103.849914550781 -67.586921691895 -191.096954345703 3.569234609604
-166.970260620117 -68.462448120117 -252.502212524414 1.977294564247
-69.257255554199 -85.949768066406 -89.913681030273 2.462849378586
-25.769443511963 -68.178665161133 -185.881530761719 1.999489068985
-1.351804733276 -75.339523315430 -222.176849365234 1.820433735847
-78.693618774414 -85.168411254883 -102.803749084473 1.085119724274
-154.922210693359 -71.456069946289 -304.113922119141 2.206723928452
-142.055801391602 -70.373374938965 -239.242446899414 3.107271909714
12.854706764221 -70.359222412109 -217.395538330078 2.362324476242
72.635650634766 -72.037391662598 -88.445274353027 2.859602212906
-53.918769836426 -77.059425354004 -288.660766601563 1.256592273712
22.421674728394 -69.566566467285 -181.054611206055 2.326458692551
17.583158493042 -74.673583984375 -215.824401855469 1.934333324432
-66.585212707520 -75.330421447754 -97.728591918945 1.525176167488
-71.125938415527 -67.511665344238 -100.880661010742 1.843783497810
-148.862442016602 -80.730484008789 -238.481475830078 2.231056928635
19.873664855957 -71.937248229980 -196.205810546875 1.466573119164
-69.705917358398 -79.537551879883 -98.721824645996 4.621337413788
-8.057071685791 -83.545394897461 -216.365509033203 2.555626153946
-150.822540283203 -58.629581451416 -223.143768310547 3.020760774612
51.496345520020 -61.433528900146 -92.485252380371 1.384676218033
-147.793716430664 -72.492706298828 -201.603942871094 0.600304365158
23.562417984009 -74.011520385742 -254.544509887695 2.113168716431
-149.101440429688 -74.340240478516 -239.975006103516 1.753748416901
-72.722702026367 -81.877403259277 -84.782272338867 2.894051551819
111.676261901855 -71.932983398438 -144.502807617188 1.489929080009
16.704187393188 -73.840667724609 -236.529830932617 1.860034704208
44.579410552979 -77.732170104980 -113.796142578125 1.437953710556
34.437519073486 -68.842460632324 -145.226791381836 1.380812525749
16.572572708130 -74.684165954590 -176.720367431641 1.403223276138
-52.765018463135 -82.228973388672 -80.485832214355 2.293762683868
46.336967468262 -74.843208312988 -119.234939575195 1.874892592430
-53.087142944336 -61.494369506836 -82.134567260742 3.022234678268
46.380611419678 -72.465766906738 -99.949600219727 0.965965807438
-152.125061035156 -63.268489837646 -245.273681640625 3.619287967682
-76.046676635742 -86.549392700195 -94.451225280762 1.373197793961
-10.837493896484 -61.044948577881 -53.521331787109 2.328790903091
-39.824935913086 -75.988212585449 -171.225173950195 1.098209977150
41.585395812988 -77.078002929688 -119.540328979492 1.942969679832
-130.836761474609 -72.761451721191 -199.831436157227 0.461527824402
