# This PCD file was generated using the MATLAB® pcwrite function
# from Computer Vision Toolbox®.
# .PCD v.7 - Point Cloud Data file format
VERSION .7
FIELDS x y z
SIZE 8 8 8
TYPE F F F
COUNT 1 1 1
WIDTH 785
HEIGHT 1
VIEWPOINT 0 0 0 1 0 0 0
POINTS 785
DATA ascii
-19.490284474963822 -62.422342527730606 -196.048669296982723
18.160292098902254 -70.391676121119005 -204.828931222402986
104.155372323340742 -71.181316022452847 -200.656378456872403
-113.774676089179252 -67.814015310927601 -202.621485496558279
22.783620595483256 -63.963723935228167 -197.625208604879958
-13.466850532157608 -64.068554662627179 -198.811738356216807
-20.077186266591717 -67.330949751289523 -202.066222148276808
103.374302375420996 -70.869203298743784 -204.006404329957036
5.525761217128064 -64.595651995427119 -206.813413269697492
-24.316208214953328 -63.433065883767007 -207.694053766500332
-120.878030651585959 -58.974911936251338 -202.638003061408426
-136.534055354595125 -65.331366713774486 -209.694646388040496
-114.150259178483878 -66.587456999912888 -207.349267201635712
-141.128372480002923 -68.190370826600684 -204.920808437357266
17.543239619917873 -59.460896021891152 -201.979641754292487
97.074984149731563 -70.549745316666176 -211.368813409356079
-161.461268620248831 -62.239039884617334 -205.371719337423599
97.043703813243638 -66.626848653328452 -205.884890253614827
-19.790997547507509 -69.422509877878184 -209.999391553861926
97.229330305072907 -69.051277628516871 -214.172619212732968
87.291038887459649 -57.061984473847893 -217.563960707764409
14.945307630192872 -68.261784057780716 -218.316283955812793
24.173303312128223 -67.567489014786219 -212.481855719168493
20.228864342762293 -65.106795101553729 -216.442508127323777
-9.637199470805243 -58.044713254355045 -217.308426804237200
-86.091334287290834 -68.110842032525412 -216.329783490031161
-7.837634064198809 -66.383273260572992 -220.977560372992315
96.620556323540200 -58.764184254253927 -219.406961906343923
-92.799842759322701 -65.903737559248029 -221.533205805842044
-98.134808033718372 -62.834285569392861 -221.221509778892681
-86.759261315784386 -67.129157688363307 -223.498530614768072
82.655146249843284 -64.395127483937330 -227.587646553039832
-133.795497314054188 -67.829416168048255 -228.301506155898238
-129.926800616185062 -71.413622637443154 -228.476161336513712
-117.018718624230502 -61.482869024242987 -227.768623492723634
-110.724008939814070 -58.038780888303300 -227.653419544910605
-132.149565054028926 -63.013140902634710 -230.023783298034317
-107.426185370847548 -65.879844765391809 -236.615108956637670
-105.080616960387800 -65.417607342255337 -230.980934551996199
-0.069667135227149 -69.894684081535317 -231.094286208730693
-11.841099547689801 -62.119939700188972 -220.727905351021462
-2.355206737395477 -62.338043394230191 -242.961439732633409
-9.575551402965587 -68.205304099202294 -231.315995634176886
14.280955886950011 -64.461561488972080 -234.228571681838048
-12.908936930814669 -63.736784383580833 -240.620009278830111
-160.221287850846522 -67.013625089316079 -230.891385287938562
-2.861544259374327 -56.810100725196492 -234.594969338642017
76.895577600800266 -70.475479377691585 -234.355641215424811
10.425794293495777 -73.883848621066392 -236.192360680739256
-10.318034601469613 -70.865915712487123 -236.960334255707266
-156.576854453045087 -59.855146742972757 -234.114442941796909
-144.454380500092867 -62.498272678806856 -242.601770876956749
68.322255340530958 -61.656822327155872 -234.988325855086657
-2.899042610030222 -71.835363570879068 -243.245857019850547
5.360806275436360 -64.880448297748345 -231.683628303619059
65.451929503071227 -64.593409401656714 -241.086059611468499
77.135880193980626 -62.358860458981567 -234.067213969794693
66.727659257885804 -65.052835062415781 -245.444417392909742
-0.224778853425171 -63.850831602646259 -236.274101996097272
64.180101981793271 -60.851106210936834 -243.067267010949166
-13.376109488225971 -62.279357910186988 -237.207830488300317
-18.550289199103553 -67.215880209828057 -246.492834743290871
6.863727497264762 -63.558092178101695 -248.176570627892772
66.770900723672312 -61.552811546716676 -242.717394491712639
63.854815005765197 -62.899549071929911 -240.036934012390134
50.116910451334796 -62.934863162039292 -253.451512967779735
64.936013005465838 -62.733935282726790 -257.196438652571658
-15.112875757815111 -63.722122623573419 -253.042269946523561
-77.766619554714680 -63.964792755619065 -250.832187020392837
-77.380557395263821 -64.248491822415218 -252.943342519171608
50.855209866921186 -57.985250661935822 -249.752324720748732
-145.283137705154928 -64.191605140183697 -256.357490759500138
32.821196176276331 -66.501612019602959 -254.328269455722534
-93.317429704136970 -67.170389220458986 -263.867734209034097
-151.621435967108454 -64.696072293365859 -266.224975282987032
-137.462052152349543 -57.483567703835469 -264.101304039618412
50.180912208787639 -66.537050756344570 -260.802907295962427
-132.570963070406634 -57.332031754983809 -260.306177766659403
-121.522759790020558 -65.755374568585225 -257.908447783165798
-93.836511389309322 -62.876243907796784 -268.005489323034169
-14.757200004839433 -67.900961722242428 -254.857932001952207
30.819718874375788 -64.824263482247659 -252.389768547625096
18.389431157702926 -66.620278039855009 -261.351525527461718
-157.568424333516106 -63.671493836541210 -266.248355701626508
-113.096436682029605 -66.859557666086545 -263.647899600866083
-8.389651534026704 -61.482366507339734 -261.984047840500864
-139.214446137160394 -64.873021387070864 -266.312225981045799
-12.501976945670272 -68.880352611710975 -263.410833050986469
-167.399306375343315 -63.916765213591852 -272.263836846178322
-11.133273949089407 -65.709097438824145 -290.052328744380020
-155.692475628233240 -63.332617225588471 -289.424627437561469
-164.667585171953363 -66.321573014826498 -275.588297811703626
-143.534526997693689 -59.632042913247872 -292.999967571879893
-173.471817728185982 -66.036604315307784 -290.887611197944864
16.385596118884763 -64.628525059654152 -285.980250179020629
-99.706658583025643 -64.984273428039245 -288.553920554627723
-94.669764630359282 -59.096804991918255 -285.471782310422213
-166.592159538116675 -61.239195291465350 -283.147774996615283
-91.685322950412655 -64.800977699520743 -292.939941852140407
-152.123872950087190 -59.940443446172516 -290.516381120624203
-67.726510558361269 -60.099268217543099 -293.469937045414099
-70.371912947656426 -67.351685638917985 -290.774948802350252
-84.291383429827704 -64.423284050441993 -286.886398882658057
0.727633834385529 -59.990760696563171 -288.261645852620575
-86.675972630534034 -58.580780543190947 -291.577172020604905
-91.790139675215016 -58.773729158649267 -298.429097669030625
-113.890982843137067 -65.166111030928178 -297.988800043735068
-117.228427656586177 -59.164414461347995 -297.776821051926788
-126.468336776401259 -61.855815542686592 -293.412069708554782
-141.643479516412754 -68.357516570669986 -305.187756504433708
-138.329542431426262 -62.070047869313449 -312.585175457256526
20.342718173983076 -67.768978234374444 -20.981552920510744
28.733997207399870 -69.102789326523848 -23.522084310106887
27.404874031323239 -66.586603138466472 -16.636446132428723
43.308424546485256 -73.327238910720808 -28.561038605278309
28.042108712906046 -70.602305549869783 -32.565432444699269
-72.893898375043818 -62.015124654409057 -50.844554416427130
89.593817151949551 -66.020534830466502 -61.620100966386481
-13.492238939678899 -65.808803301445082 -72.594680596226624
107.128239161514500 -63.073444664127059 -68.369422596970537
100.929718254051636 -76.656052130373368 -84.612718286429498
70.220361822752523 -66.031055005434339 -82.926362920429710
71.559745478343984 -65.740350010531145 -87.257940745430290
-47.753347003928631 -71.843133812282332 -89.903504501333856
63.385415583493888 -70.218565242857707 -90.401856048786044
-98.800888450701024 -69.008238318927411 -90.659023327356294
-49.691763451572889 -63.776625084079988 -87.064525115575350
-55.069446959852051 -76.782116774384377 -90.823268879348205
98.983172031838251 -72.020818617311079 -104.993319376974654
55.629262851416485 -65.534347694512974 -95.624383261623620
63.845294101980990 -70.911718995323866 -89.449523710044843
-101.811286234443230 -74.517986817005848 -95.474361923417632
115.997912058929018 -74.859306348374588 -98.174965423068585
44.149260951393856 -67.568773784836836 -100.896712572356563
92.536849327535307 -65.084198296448520 -95.977115249424600
104.281749100702413 -67.922927989088834 -101.716908139282793
102.356687204118003 -68.775708986973697 -115.785926655769146
73.136905521250597 -66.828517051947486 -101.099556327932220
84.963935059198903 -76.625233429443497 -103.107826304643027
48.129682263324241 -70.118327602374677 -112.396054887297936
106.972533786515967 -70.929103589033033 -110.152180324641051
39.258221996873274 -60.724129124492052 -99.416510493554796
47.897809523654509 -63.472341787892411 -104.201325961644585
108.972161099289963 -65.513857595985201 -106.423528489630939
-76.282234587608372 -63.393576500599274 -106.037915090199988
46.417076166552775 -66.728376438872388 -116.350951762712100
37.881764231019055 -65.764516460024339 -108.826205583201414
102.803114923809161 -63.338780258956156 -104.142142821732648
34.638385135114781 -68.761429251367645 -114.684806264303120
-91.057182955617549 -63.801768808973115 -114.845788339217478
-92.768991665573054 -63.703146687435641 -124.814133722524531
106.988517251416553 -69.553818252747007 -116.291743824477834
-89.800557626618200 -65.484192303225939 -122.518468665979412
39.285776443472088 -67.375761335630713 -127.614702123399184
39.521298090115451 -63.230952318816371 -122.133509850092821
-88.730200586089126 -66.169954792627209 -124.331963208672818
32.098932833653720 -72.022687887675502 -140.075329761272855
107.109030806730914 -65.894317173129423 -135.699004854012912
-55.729182997247953 -62.998980774229061 -137.472956763906353
-86.288493262558063 -65.090089655046114 -130.371106256536763
38.361549083438859 -65.525228716421083 -140.483619399954421
-86.270532394289830 -66.218928756503345 -137.333733366787044
-86.593838875290544 -65.017473989026797 -141.708279851675201
-51.013941532910628 -65.825395220257377 -142.248288262096850
-73.219070987542636 -64.489082547339621 -151.313059550986566
-49.739326034168421 -63.913939898722028 -138.688989985053581
115.231495622365031 -71.690031466142258 -143.172900534240625
-76.100503325766454 -69.001841787083038 -149.902433238220254
34.061144654585291 -58.142183201632527 -134.702816998227036
-78.504081263027217 -71.115793265037496 -151.814307126934409
-78.137462307282732 -68.667601157400554 -137.209781531829208
-84.774316762780302 -65.631350063784396 -140.785663555980705
-51.328952781486230 -63.373540632153215 -156.581964623731608
30.655442322398507 -68.293823780809873 -145.122794750387442
19.041903296496788 -65.094354575275190 -155.700699933248160
12.834959969330100 -67.505116230249001 -148.895806260653728
113.105726527011001 -65.979125900711480 -147.568012129331237
-95.572491177091450 -64.899126666089657 -161.728237469619188
19.856578839642218 -70.959386558998460 -159.413141535491093
-73.641596622018426 -68.264424468948746 -158.883995856197856
26.020058254796623 -60.689075523879481 -148.852562707969270
-48.263892933701889 -64.411579025055332 -161.472268267451824
19.393964355897634 -66.752060332173400 -151.954594800260338
9.773373057438093 -67.333622864426161 -158.764415705445543
19.235789214274753 -68.367363623024389 -170.537034039179389
-46.682961405776801 -65.149714770160656 -161.830743288200864
-39.310869793530252 -65.856570804191961 -158.649800677352317
-49.800673142382827 -63.326579938245636 -160.625488035324395
-103.883955426054655 -68.568816526368153 -171.925553754564419
19.683921770887551 -63.025077632528529 -175.420965546015424
-36.830367737659039 -66.818768674168226 -178.621318479761868
14.601218966576276 -64.277011229557814 -175.007414849222414
-146.486809986237347 -60.117861361080003 -179.599376997152689
-30.809699359549178 -61.820576771991114 -177.350386650322321
-156.991536167438397 -63.279557049513777 -183.879297639865115
29.637847634768413 -66.207212525022513 -186.223015455856569
-32.240874182449666 -65.916778241671139 -175.979113945510676
-107.652772446163539 -62.827717089834877 -190.377095835225958
-108.459005500527269 -56.953951691313883 -191.759514057488303
-29.425360155616623 -64.389550280890006 -187.862044166020524
-21.233947514126505 -67.497240197696982 -187.492467278866286
23.059640500771611 -67.492631619785527 -191.187592246156413
19.998549617481519 -73.129998485011967 -206.481508667563077
15.513869291230932 -60.512588463191953 -189.036832981696477
-138.141215894007814 -68.544041893747021 -194.718251102781807
19.309270258550633 -61.166190550355914 -192.982901258286233
10.149260439472087 -64.516070963007380 -198.843540425352217
-143.127256423120684 -65.588501105646486 -200.897823219849812
-116.096422245230599 -61.734272066141315 -197.917963803440131
15.380034720904661 -60.812623614823529 -201.277531451982895
-111.229312836435327 -65.888739069820531 -198.026191696891004
-114.638471938301791 -65.923374250005836 -193.292472606857501
-158.536076674416876 -66.784381002834039 -198.750563598111995
-27.504651700440199 -69.057908514565085 -196.009446691813366
18.175473618307780 -61.583574151361908 -204.657059558457149
-140.948934620759815 -60.616633298237360 -200.972701145795014
-133.068581346723164 -58.357072447911698 -208.698345230807007
-17.925978459549093 -65.827188303340492 -209.013858472533741
-8.305840297095905 -67.683779851223690 -202.775512463902174
-19.281708372347801 -72.421138804862949 -212.516569745762041
-140.339239524824109 -66.115806463789710 -216.422946795927231
-11.737301368378652 -65.750000948579867 -216.183970420901744
-13.253698017147798 -68.672283015321284 -220.644034166003820
21.767104829929917 -58.879007651313508 -214.452856488000009
-14.004754328747964 -60.799894918382165 -220.256906687559137
15.600386083762075 -59.616786202689447 -218.006268115167472
-7.869675944861925 -65.738255959843514 -217.890033770929023
-13.597329347111234 -64.512299429040027 -219.781773529541908
14.536913346170948 -64.099236248958775 -222.516838176754931
4.610943706602981 -67.002185659822331 -226.826293615486804
12.640299387893918 -68.129410110405018 -223.379768277663061
-13.355994095877776 -62.402265930609346 -229.764610348230292
-153.639792290868968 -61.766229822185657 -229.532713826191610
84.025664047754162 -63.692153350523874 -225.555119117910465
-145.535451379955106 -58.800293211510699 -228.511727394763511
-136.325959983459228 -62.380469301464629 -229.180627430347272
-4.155452374430084 -65.785273058071994 -230.399078697860972
21.081898034928230 -64.945851701915984 -237.612025767286667
-152.789139259475860 -51.818530960762388 -231.769006322415976
82.395993751131670 -63.065760327597410 -218.779166357181168
-2.511334913924195 -66.647113182043000 -227.324847623145729
1.103954382537651 -60.769894178578447 -225.811027696252751
72.319541865209615 -63.168517444574157 -229.571984341532584
3.688862839489964 -57.302846480307238 -232.698531969617989
-18.215708940425962 -64.578847600619113 -234.268408916863280
-125.030883060631311 -65.986203075663283 -236.865342015402632
-4.580223800574167 -63.549884829034490 -239.636531293685294
1.385763381909612 -59.040899309196654 -231.531951457477135
70.003491952739353 -67.652432240727663 -241.851440986572811
-157.378233139304967 -60.772477440027075 -243.403504016175873
-8.561238043906584 -61.513933143325239 -249.424470935146275
-159.575509720208544 -65.719030223202893 -240.511042911957759
2.708843165106735 -66.407646195535904 -243.596465162969167
-167.570811534302322 -65.393117797897844 -240.255524415932570
-160.659323293996124 -62.100214272168287 -250.988822037164624
58.483573587481388 -57.009792188692010 -246.983886306054330
67.079911389214089 -66.564893237235623 -246.244190220651689
57.289125332140117 -52.520719803425585 -246.567684899847677
55.785928492166263 -65.185045660640156 -253.677762851803152
-155.860781649990230 -61.009749276089586 -245.846069797661386
-158.968835621662777 -68.460952217356208 -260.847979125649488
-12.234119401692723 -66.125674103573985 -256.296631201700620
-145.803563446988363 -66.520306278042412 -248.003616448572814
23.047500973306292 -67.945414708459708 -252.515411118682437
-164.710387742938906 -70.787325168849975 -250.570201091020721
-167.116768182163867 -56.964213437260682 -241.710168612301658
-82.681663793910957 -57.699373544509243 -253.657335954629474
-162.136161180218181 -61.875765296264753 -265.789272564970759
-89.896416095610249 -59.822251766791055 -259.007671782915338
40.928276043787513 -70.165494747746791 -255.807028440502336
28.895992672092504 -69.336614563637880 -260.280829701467724
-159.736282713180799 -60.612546984114701 -262.286045482503596
-97.623668284428447 -59.550136459901942 -264.466417637074983
35.919016030857513 -59.668398092517592 -261.615466831376864
-98.177901847610087 -60.372500284955620 -262.109500901154718
-147.989256003857719 -58.947607430870029 -269.188445478622270
-110.322902535799784 -59.279712042370079 -261.465041297142989
-160.634854322238851 -65.204990170519906 -271.502931855431996
-111.257353560588427 -62.609108339833952 -271.942036758392646
-150.003112845316792 -65.220072915216377 -272.077891391038293
-156.285484586942715 -60.749031168506178 -267.124001965190018
-156.090757284896796 -63.457588336556576 -269.815564958959328
-154.727477165896545 -60.208519413322861 -271.751363801156799
-166.415549427832474 -60.243001088522313 -278.821881457447830
-161.001975083193429 -63.311539402268714 -270.880509816052722
25.510691348764684 -70.557163011190809 -272.757099383964430
-145.681488684256550 -59.013242377472203 -266.967337802541408
-148.354404016527582 -64.958060902977479 -282.642417467394409
28.379610948040717 -61.493381328716971 -281.690909522494280
-6.944880953895058 -61.597543673258926 -272.782280575841298
-125.642830894903256 -66.084286121576753 -281.831994420585829
-135.567354712169646 -64.820253179673202 -292.577549613783845
-133.913948755614257 -64.131292528720394 -291.252187631063634
-124.074101817387856 -67.154502558312586 -293.866840377197491
-118.852879103627089 -59.622087176145904 -291.257375952803102
-101.144171756692856 -62.441760068319908 -291.564743938360436
16.336299340970726 -68.146623219862377 -297.758756540764921
-87.989772633041014 -63.040570619027939 -297.887196025209164
-149.086593565463403 -61.708904112166593 -286.813527689489717
-95.809035635605483 -60.575458687197504 -291.547374245126662
-123.461789413371207 -60.577747766070637 -299.866039541564419
15.744674092825832 -66.284152544250986 -289.904626578730017
-115.212043421345356 -64.809231164108780 -294.569943784116049
0.077652828962165 -57.643651669724171 -297.952101757613377
-139.324816058246569 -59.328573569062506 -298.645698671408240
-153.698983202197951 -59.630168724287842 -298.791073870097364
-160.204264447192884 -64.962153132282538 -318.490322558037406
-152.328923351913090 -67.151357621155412 -313.624734101417857
47.257210341318419 -71.575855449541137 -20.308594857555065
17.499639136903141 -70.190380472101083 -37.043892244973875
29.127624548598749 -73.261418323045959 -36.769739031858705
-55.647086368418066 -63.270783688153209 -50.697620024487726
-20.276805873517553 -64.794251306519342 -66.043377875666835
86.164846711843978 -75.285017939084582 -66.632212034430097
65.629648213422456 -72.095891955686724 -72.928162652845302
-25.101724450888206 -79.036671107860286 -74.466953852798440
-93.930295946019498 -69.052841829018135 -87.556338990964889
-45.396823436406727 -71.027642676350226 -82.104557928631522
72.513562377840842 -64.864516258384114 -86.963343719160150
54.602863651998646 -65.709840829351464 -91.749178329671821
62.250735537691078 -59.667878572622968 -93.649302058248082
-55.872694902229291 -65.034129415829909 -100.045784955033213
65.363280547247342 -64.025731456618175 -93.267934417567915
47.763218530622176 -67.591793875381370 -99.839411943571918
73.312381585747730 -67.641471560620772 -99.417351155684372
-68.420093095929303 -67.349442546884674 -96.645237051996304
43.208820227795457 -72.657365844643365 -95.019043459670883
48.488426504314170 -60.626202105390327 -106.671028212144506
99.922932953967603 -67.430437371938581 -101.400934734785892
-77.811479280584678 -65.980225487424946 -96.401790744696740
103.582035885906578 -62.253261984082094 -105.786568507855833
-75.993417704091286 -69.474447868536927 -105.163220806264633
51.761593934765443 -70.557890321929790 -104.533146611709810
42.255211686065593 -58.398385175046243 -106.853857168276249
91.110441317454814 -69.650864119830615 -108.504870686153822
86.519629893064376 -62.017824889483734 -109.425444638798751
58.738227264956635 -66.291020469976786 -107.743898711839819
-72.344589452750682 -65.211344476416741 -111.445536504625096
-74.972430094384805 -64.746305772305433 -116.683341955205805
-73.284367312439542 -63.394939081408076 -122.570086816401613
-95.161677567600407 -63.903407959551451 -130.173865946995448
105.065643913599018 -64.198369148551294 -113.304422184469757
-85.577968220582989 -62.829859280805735 -130.220074333425998
-80.149463905155130 -70.607118134412744 -122.944775217296126
108.294020707573964 -68.023054763988924 -119.441166402917474
-60.253854009102234 -55.574983932534359 -122.917063304224286
110.932538911215104 -62.365111681511067 -128.564823008933331
104.598228624036523 -62.407736904952351 -129.299607903473515
113.124271344852644 -61.083940172345997 -125.141046559702261
-95.850285741313883 -61.531823044420086 -148.998464821004916
-48.309861434900760 -60.608334932621901 -149.635473805671580
-75.119796159580574 -62.221684371140348 -152.441356355484828
-68.093786243440462 -66.446672373296622 -150.288654851610886
-70.440197748970434 -56.995011898803526 -153.626969241349570
-55.140634123922972 -59.965578505889518 -147.597727207533325
-43.832129652895894 -60.349208339596977 -145.470354670067479
22.330376751560447 -59.215148586196250 -144.821705117172598
-95.016440572402473 -65.133128728597384 -148.384285462584558
-50.433777221049660 -64.137701037960127 -150.696377337322133
-52.220062963224287 -64.475344747184351 -156.238534597027893
-38.117645204772238 -71.523923125551605 -155.771202205737239
30.973857606763332 -58.458653220217613 -167.616875564519802
-42.377912755616073 -60.318331002611956 -154.560285410890259
-94.859651299270809 -57.325282845769514 -157.910536747612468
-39.305549466901603 -63.466252910918691 -165.649706585903431
24.991803896300585 -58.054446202398800 -150.949162071270848
-104.702914618662533 -61.948253854635070 -163.791926778923767
23.292824065573477 -68.092005978578101 -156.740368738357802
-112.366708800185847 -62.735840384371272 -177.474591809777479
-89.975981215591901 -60.007938203927274 -166.395639634489243
28.734062450217259 -59.442126081751475 -168.483165973253932
24.726570024192633 -64.480692432325654 -170.107306595928975
-107.557053318494525 -55.836797494965339 -182.123565053843151
-144.101986507885925 -63.018736259534997 -179.727329916495762
-27.322162182251894 -66.851484353731749 -192.508797338127181
-29.722530738230141 -58.814466920783786 -190.524448281719344
-109.087720152315455 -63.605759985485840 -198.644220122091753
-137.498524667677572 -63.469041364167659 -184.982192514712665
-105.780706668853554 -64.237361827698322 -187.745542449918929
-156.473629847178245 -58.145832533365827 -197.328447391422316
-130.531784070257459 -67.627789712679089 -194.445632344948081
-125.909446959120260 -63.526689145531797 -196.371930704419441
-20.722264195847764 -62.012147684276485 -191.726437530405121
-127.167557810199781 -59.198411906173575 -199.567187267473713
-106.038911271937536 -59.330161623578981 -198.217118520018857
-20.980576754418912 -62.948611755474353 -198.173232368460361
-158.269284003828403 -65.352194556544546 -205.444885097384059
-124.373269064417315 -64.291640405500928 -208.468588805382808
-126.430072806793333 -63.586627850134072 -211.881347716262155
19.756665639868523 -58.963366276092763 -195.501308881357147
-161.574317531129509 -57.729861684858079 -207.145091041972961
2.295507679558561 -68.256556175175604 -217.022009356251914
11.033616186942332 -62.198927662269149 -218.749294881148415
-18.424040225184108 -63.859218675498632 -208.649765003307380
-6.063489401698384 -64.686483701543722 -223.287172924057671
-164.532902624503237 -65.764929623182567 -212.242940792510666
-157.775639203128350 -68.047038743258497 -225.184902849390539
-94.035675816711546 -63.343392168255683 -225.755193657872354
-98.939876597119138 -64.870810733536175 -230.074840905202080
-160.156483569484493 -63.315081359918487 -221.579219659284462
-105.715761382990735 -58.105300338951629 -224.019189145140928
-14.329501581138210 -60.230558166220781 -219.801059912455486
-123.659091982830347 -57.387304404498018 -230.494836178854143
-135.117717083213563 -63.590395071580353 -227.635160852531811
-0.668323812016084 -57.003938012433693 -218.439514414222486
-130.168244835080202 -60.063323200743355 -224.946362463907576
-120.144894694942963 -63.797604124506854 -227.594009183291973
-119.151084653599440 -65.789698390802371 -229.466666008575316
3.729967150967397 -60.335835923215448 -229.603970008461886
-98.712761320691243 -64.392410819905976 -229.209017924227368
-151.202281093458481 -64.613864230440328 -229.531022160024065
-150.166595471009003 -58.059051831999817 -238.756268172740931
-166.285383928251917 -60.966013076410917 -230.040546142166960
-8.641823539832487 -61.062993622138194 -227.845218822847983
-14.087352059334570 -64.964288911482697 -230.985083289808244
81.035430250735203 -61.376702895512373 -230.333802876401506
3.511606830248660 -61.980858238212335 -231.546416168891568
-138.515345653068294 -68.544563071321193 -234.077216399098148
-8.249438236764455 -61.695482195871975 -230.501493370256924
78.614529930063384 -66.471240653427103 -234.277795286020648
74.867824013879186 -61.843423663032908 -238.046504213767690
-137.369392413525418 -57.215618642891755 -237.725721979059216
-156.452110773328627 -63.730665315897362 -233.699661635049523
-108.742662286618184 -58.303386986056012 -231.579074968292844
-125.461050465166238 -58.610318670456344 -230.266610285963480
-156.991143993036587 -67.327265410140711 -239.712595350819925
-155.492211827524699 -63.563456346917171 -242.648226477724535
-138.775075388654471 -64.931677106339791 -244.203448559158176
-5.752261903234363 -67.654898546948630 -238.829339167388298
-2.351429028014934 -63.560121902861532 -240.977198198390852
-166.523276338127715 -56.210258967856269 -245.345906440575106
2.991936728351803 -60.333289460765066 -247.934428163538740
8.431647948829720 -63.176581300234822 -238.551756062760177
-160.530614491958573 -63.255585260003862 -252.752946674658915
20.579403013239428 -60.037152367489256 -245.387347434968575
52.206643846966095 -64.316850426634787 -244.550505883125794
53.311937213171866 -62.527552921056419 -247.756650194911600
-10.518787415499332 -64.005229182111037 -248.165242671014369
51.677694868632173 -61.878280968368010 -248.200920420756660
-165.399024748482958 -67.737935574339943 -263.937586710133417
-156.529112208486339 -57.269473038635113 -254.737183385551845
-162.589307197463114 -61.988352048262676 -259.990065436189525
47.290665639329141 -66.406715689145940 -248.086251986198533
-86.591294524388331 -63.647954928601628 -257.557037636656162
-125.733169104386775 -55.332878561296013 -260.895794461421701
-104.213312217468228 -64.228392229185900 -257.316103066837002
30.790379443762166 -62.494940496786832 -257.821725439219506
48.485483446733902 -67.886290605533674 -249.852912562245621
-98.723764463411896 -62.540651106496405 -256.622343319843026
-95.935646426372898 -58.401204563069314 -256.644550030413598
43.250607521165783 -62.649663890138697 -256.818467803369401
48.404348988691417 -60.577689641039946 -259.357733021485956
-155.382345033512308 -65.025574588682105 -268.185635102409151
32.050180072312884 -63.718383565432084 -260.574239199690737
-145.727729351703942 -63.069192186122997 -268.538235311566609
-115.590941326470414 -60.310051850236064 -261.810939901578365
-127.003679634868803 -67.449980587177322 -268.864069001077382
32.055766765843416 -60.021328081587782 -268.427412561763049
-122.524701770662404 -48.762075239536827 -272.536292808815460
-8.475345675004434 -64.381469936729445 -260.275601112729248
26.152778018097148 -61.329492535246153 -272.997073130466902
-11.135915455524675 -69.664878624857764 -265.900050915441284
21.497597319908920 -60.017820441645917 -281.045501121598420
-157.326924032368851 -56.390263799134182 -284.673169664428769
-10.363539741893895 -63.621965566658751 -280.972517625596538
-152.024240953728224 -62.096521012511012 -293.682584148953595
-127.822721957092654 -58.397355206333579 -288.360495028919956
-152.665810666909920 -58.111529289084096 -289.658475680102526
-111.303748851481913 -58.490225674716470 -290.190267342279867
-104.242632448111408 -56.763859343373049 -292.526401152868686
-1.112059555956016 -61.366695384814271 -289.656788024661807
-106.596846567645457 -63.839922435553753 -299.782153555941704
-111.182729096451880 -60.059669308657732 -292.843841736509887
-112.411578384285292 -61.646314651642307 -295.695656340435676
-132.685955286282820 -58.124001394149865 -288.844105542906163
-117.834397793272501 -54.291187642822884 -298.002882225803887
-153.322600650378433 -60.754553139587912 -297.524177959118674
-145.092327753272770 -60.819142337663877 -301.673962738875559
-156.168296914120361 -59.492389187930918 -302.911116063800080
-157.240810361560506 -60.766365742142561 -320.423147838402144
-152.973774639724155 -67.959840277352043 -297.988140915361782
-143.144690598184013 -54.821139687616927 -317.352993331350604
-153.734183280582272 -60.503435238056255 -314.577175430542297
33.628716212278228 -68.388630493107812 -7.767658417787624
47.097369102253921 -68.108490650421047 -18.385895747929620
25.359981778268772 -67.294454482087787 -25.316971009444160
49.765902805023579 -64.975038601815044 -29.442881898970114
33.153901439901333 -69.556559677766757 -35.747297316091661
34.864151446497829 -72.315677188791085 -40.014172181631295
-64.592919353951856 -63.371112719015137 -45.629482279351599
80.531145439308403 -71.062546251950408 -63.682111819575873
73.885167951985238 -65.986539577122528 -75.389617731817367
-92.242749025728642 -64.083496289049791 -66.421721999811496
-12.745468735251791 -66.397993080257905 -58.806187663233310
-96.927550412794858 -71.202864920992994 -69.084052756602176
96.867231409032797 -65.078492814276842 -75.680982190682442
-17.898651526236513 -61.844537942402475 -73.966510517618786
70.046646509623443 -64.571347961059558 -73.992224531182728
-32.059112291994346 -67.087981420628097 -80.292263801483386
-27.104922073939527 -69.617891431385573 -79.331808698136854
55.961326250043527 -68.579439076976158 -85.885338555988170
-49.520497584931299 -73.422319996524408 -88.219228861826934
63.849663716792797 -65.177619118992197 -91.111824635697332
58.200457398482790 -73.157518662000044 -89.823788672010522
47.860381508758380 -65.684955522703731 -90.328637155550098
61.500088557421378 -62.611237277639631 -90.668205556076799
60.018472309952671 -65.993250133995758 -97.037463090328629
103.100940217158410 -56.710404950512903 -92.276596413985885
108.367268300313242 -72.621991149682387 -91.473956095282148
57.025225731640511 -69.329352314197223 -93.416950842967879
103.181593327086503 -64.352924035748643 -105.799205859373814
-76.863048220896559 -68.243024332206176 -98.324078759503095
-74.232214232296940 -56.039057782476306 -100.024430833353051
99.793904552050947 -65.665438401547462 -103.063995643459236
52.728090513861666 -62.422741163139918 -106.557642299683778
71.764009909085530 -60.395997195491084 -105.298600835602798
-80.373155646223182 -68.163511184842051 -108.288271706420176
-80.355025620192691 -59.867208785818150 -107.239310148286478
90.715991295761171 -61.699197357651286 -104.764061118611124
37.418475812313147 -72.296711122288954 -102.449371254413535
99.918620325041132 -62.128629234298188 -108.155040885968617
40.272091640868176 -63.233714522775109 -112.329920440853840
108.791374353853229 -69.993634683404665 -101.711050118618715
-78.166770210181284 -58.592003186989160 -110.879769521087667
106.861182594681082 -61.270593579295728 -111.833961425025734
-90.168714482106282 -61.516342287319425 -121.711517377363009
-61.525505893503954 -66.267481235580078 -129.907469737692054
-52.273766474243565 -59.149488193794376 -130.653162801372133
-66.635840134810223 -55.931791763392063 -132.469922663445288
-52.304165417958082 -62.048878917790226 -127.842248034158160
-91.139671550222147 -64.849611942512013 -135.894107594668441
-80.156551569768965 -62.122718222304727 -139.607630462201229
-89.080986389993740 -64.136817265732702 -134.321013903591989
-61.385454318101843 -60.119691970814763 -146.030342697147233
-67.344365067434723 -60.019782164014472 -140.579804818681367
-57.646501518674391 -61.622665286657877 -141.393674748101972
-61.919396850155614 -61.498425445384065 -142.299179553951774
25.560362681999827 -64.207762070560065 -138.659203977685308
-90.797556191775215 -62.134599330677013 -140.422988268768648
-41.973301853272822 -68.165837582941521 -141.987730707408275
-100.735988578593407 -64.842444793593003 -150.266011076955579
-104.155580777111282 -63.949422553162059 -148.680973307846585
21.532949316115165 -71.244182554946207 -151.918821038552323
11.522350504129513 -61.847074192004293 -151.133409712179883
-98.910760406556989 -64.009865205898890 -161.562552644118000
-102.277313737870287 -62.297098294173530 -159.291472658937408
-100.517616012905535 -62.910283533828249 -169.718463899336456
25.735904981497153 -60.856977651248513 -171.579001520240496
-107.410670123742733 -64.398545968032707 -177.244310718089395
22.117970710286251 -62.618002841272073 -167.193938628270985
-148.238013397715122 -60.638715525524155 -178.088490393506873
23.194927223907587 -56.695022299402233 -179.862518798937543
29.797641615612470 -67.247046517822824 -190.361775758111918
-160.518702314860036 -55.563981079044233 -190.244408048350635
24.146278811640652 -67.195491119840810 -186.768124377423533
19.627407933784820 -64.685236728771585 -181.202597227569584
-140.005309277418633 -63.268110065556407 -197.036508898114164
-147.946603105764950 -68.842637788627755 -200.190308171540096
14.209194945297462 -68.953465769455335 -187.814753098097498
15.000128274091026 -57.678027211187974 -190.043609944798305
-141.087936539778013 -57.892302574352300 -200.982954406176077
-110.148707398774093 -63.499811309726802 -199.264543805461017
18.008050903927771 -68.390882630080526 -199.799871349984329
-120.208175859523152 -58.458488987350549 -198.146618466425593
7.222860453099791 -59.401016022716206 -197.569535596434861
-133.499792644864044 -61.704760592664698 -201.699085293264773
-158.574489332331098 -58.495782112012492 -197.480117272727398
-163.016810937591401 -54.895926645200305 -200.259931020007286
-163.698907054983295 -63.065283798943646 -205.430523621265394
-12.642816099054507 -60.281769363237366 -203.995279640540218
-170.256513709311633 -51.803503873151243 -200.722851883152174
-16.282045495618057 -65.080918898880668 -195.350518870197476
-8.909472485651655 -64.472737229165489 -202.619986327998021
14.549243943410048 -59.580614567786604 -193.379078829676104
-155.712588434375590 -56.908419242554032 -203.190301382882183
-110.310935820620301 -53.476328496991862 -207.762263424305928
-21.533920530283375 -62.180023762101072 -207.117586086346421
-160.989392616540641 -62.334179601100644 -201.949548028012686
14.444759702105976 -61.841686137903082 -203.469922327802664
-167.438626461747191 -61.640238208195193 -208.902801962074250
-124.854817692380891 -59.815918784784039 -208.653589636187291
-117.149239111655049 -61.626139380014905 -205.411663309577335
-125.685135599582395 -61.094433513439334 -215.271751353341187
-16.139581027281118 -62.457823353287907 -203.312358780998295
-16.593809680756557 -63.865058775612262 -205.053420175570494
-166.612723979498952 -57.655797465928210 -213.056165422848125
-160.682619197988771 -58.970767672876441 -218.716290590421778
-164.447480423307042 -63.997428959971167 -223.989792512122364
-144.082615411461035 -64.869732695337959 -222.131156878581550
-142.748992672200444 -71.159024669105676 -218.905335208000622
-13.738391221282569 -59.622582230983362 -226.099689435346335
-19.436364438015268 -56.960012001175322 -219.152855716607320
-95.434536710495507 -60.807058139593906 -225.256038329045197
-7.599118914858913 -61.211358190135833 -233.012162129148095
-161.666484607596033 -60.393446540343156 -230.462073399224977
-108.582202172783155 -57.251601086046030 -236.179069088874144
-2.051267600259081 -66.769318110190483 -227.928705849201037
2.062588171903307 -63.680862617866616 -225.947846135401591
-115.595964554379805 -60.536481178138430 -238.701767163724071
5.883067679751839 -53.457445926991838 -240.030010755367925
-108.948260038081145 -65.748025245078807 -242.239580931505344
-10.695030170372654 -59.523752549699800 -242.113953663320927
-1.551416655225403 -59.490964616461383 -238.940746380943693
-1.685769644150440 -61.960522251478956 -237.698258481377565
65.245242350780671 -62.450929742312326 -235.151401667673213
-10.436842861137947 -64.574302893324813 -243.106458560180783
5.610764706506025 -60.731550480373528 -238.600866473071022
12.272198721785209 -60.239392601421109 -248.269732077940745
8.007137382187580 -59.486544082945258 -239.893314930807009
-5.006512837678720 -64.801263131599100 -250.373789379393855
70.157784434935706 -66.965355547123210 -240.255674370867894
74.088068196954055 -66.888081085171450 -241.102181018116994
11.183567147425379 -64.612259816849416 -250.632607072987952
58.661586642783085 -60.742296169900598 -247.006370242757782
59.325083449148337 -66.085733719372385 -250.022746411098524
48.310441258656347 -61.997826628074463 -250.376162649326318
35.108510521371045 -58.776105785820235 -258.499389648870988
42.155487618837888 -62.294480673060818 -256.822225135214069
-139.865394812255488 -59.578505924001590 -260.873591833055173
-9.982862662921221 -62.657388854421356 -252.627260055872227
20.545138156129156 -58.061127314130722 -253.321668846948256
47.922677268590178 -67.434139824267305 -255.174608516566991
19.814106362241446 -55.214385891134384 -255.881376694230397
-101.978732630605975 -59.327499489641554 -265.118048052162919
28.098573998052576 -62.938404955818143 -264.766682643862225
-148.594251712369385 -64.544988755977016 -261.880261656888081
-116.924151115307154 -59.535632686180023 -271.695729803414395
-107.866802241100601 -63.593539110997860 -258.796925330935096
-7.436617674958214 -58.684829636279417 -261.096591880334074
-141.347617566962498 -63.503934541384616 -259.786276801927158
36.145360169544219 -60.339229315603497 -261.417807717318453
-115.836552624772793 -62.551205455292070 -267.611812155678081
32.936350128894503 -60.772089584629803 -260.050932098060969
-121.537311711377271 -58.211469051007761 -266.825168430355006
-112.058932053683776 -60.467779093445706 -270.070961897699078
-110.040739581087081 -55.863562042375548 -262.144971881578215
-111.818495135982744 -66.535950509951888 -267.825644844224200
-139.926633793633954 -56.731571525608572 -268.579119241317585
28.693681883816144 -53.616281215855651 -268.373665269643084
-118.467201189516373 -60.478963831923799 -267.972349447468048
-143.331998880986589 -60.117292703023082 -274.205724737715627
2.637994277185619 -60.585050520781181 -276.272108186490811
-147.877333165085702 -65.815364241684179 -290.175390268651824
-3.223643183434973 -59.088380879576917 -284.839407546883479
-4.893374215938827 -61.082983723909315 -286.592824331249119
-134.675189079011204 -50.687159630381984 -286.384629111309096
-125.409701187781707 -64.093792088018944 -293.686482666808558
-129.667154699500884 -59.114663232816895 -297.515174262175890
-129.420766638529187 -65.839939718903068 -295.852288565250660
-153.411089103206393 -63.876983224995151 -296.130730703315123
-156.305052550088959 -59.309712625794191 -306.732467440220432
-146.400451489871585 -62.744864204387063 -308.507720627421065
-146.683017158404766 -63.715602292857220 -309.476861075325814
-151.184341046914966 -56.733891660791230 -303.161712091924301
-156.604489090838030 -55.177412318950260 -305.778592310454826
-140.748855498646350 -61.228872468772046 -313.396169197406095
17.106116438670337 -67.756950341573329 -30.035407517942961
47.333407200459135 -68.869410144024584 -37.781008187211384
25.231746656806081 -69.536276709307330 -38.748626322268095
30.864304919515735 -71.033432503627665 -44.120785449867746
-40.169515647134013 -65.650024533479183 -49.334309655574906
-81.799034911898985 -66.077425596007075 -55.997078070459096
80.488381686998636 -63.104798038158499 -65.031931409416117
76.415803266995496 -58.715485833063944 -65.765811011064358
75.072892866176730 -62.080246228606008 -67.554231060813379
-98.544960243096114 -60.937104154959691 -76.641977114877363
100.388051963964699 -70.533230245175346 -79.914802872262612
-33.227020865530669 -55.996550006747448 -75.625871106795131
63.262745036366894 -68.721994824926227 -79.530009096584308
-49.550855292835955 -64.152474703607211 -85.449113399437863
-50.072480342218803 -63.777858433493925 -89.126826149246256
49.523393356488668 -65.106906805098816 -85.326619545473534
105.765686516411677 -62.565697040621210 -89.785956071403746
63.133297778324746 -61.927063522113400 -100.007761901493694
55.451283708413762 -67.555164841983668 -90.341798449190861
48.716649702006080 -62.499911762497533 -101.699815145861379
53.759631281154910 -62.170716777112744 -100.245814637030094
103.532735619339377 -57.386375146740114 -99.506630513861779
67.081809237409217 -61.881685909768031 -103.170274381264022
43.476887459507815 -63.255783989087824 -103.790549417286798
71.634742551461969 -66.163070087047899 -106.779596521204553
90.451389920395911 -58.238462646805090 -105.434576351300649
-74.315420321381367 -60.883738125781221 -108.165869888683147
-82.209954907345974 -64.403749706639118 -115.080245992348011
-81.523523445235099 -69.181583803236137 -121.213879951537052
-61.509710510174138 -64.944354420694111 -122.762785209733210
-58.254744586114434 -65.655699651134142 -129.770932822214633
-89.633020924873676 -63.715853750068412 -124.319869375699426
-82.293551819291338 -59.611111540762870 -122.567356744511244
-68.903919552127718 -59.938680190769425 -131.340692145386697
-62.929338207901914 -60.893329082895157 -133.042068430469755
-98.375855209877358 -58.448249905953396 -132.132454514522323
-90.092259780732746 -64.399863613499448 -131.720726725678276
-52.249102430153535 -62.770442939565704 -137.858014291447915
-53.470081430944056 -57.317916287054146 -135.670741515081630
-74.458296461615532 -58.253839168432442 -140.047927939437443
-51.630517400082418 -61.062378044620075 -138.478749315951831
-74.157724130313625 -60.000791078406920 -146.244976304544082
19.065539086109592 -66.799707446742673 -140.216385168289889
-50.947484810888120 -62.069907455530206 -156.620053362934669
-50.392933524885287 -62.979550756574142 -150.079094524595263
6.743265929818371 -65.246691988967925 -150.049196216899702
13.567990251571871 -57.952430512747519 -150.861532347291217
-145.836163515919708 -61.753985295611812 -172.768249319676499
-106.319493676557386 -58.201915616199209 -184.656783774411963
-107.069448343390604 -55.231123505176910 -195.043503061098079
-145.479632587552913 -57.707325621326859 -198.591751913953573
-111.143088038354676 -64.350935294894740 -179.284800950559912
-157.211174544726703 -51.939714591941318 -192.770948621018817
-114.145446700852460 -56.702103856392455 -203.087174143826104
-145.474172557863426 -60.987589532369682 -206.148975332657784
-151.068136829215916 -59.779151317510447 -206.536286084534538
-149.936044134131919 -63.219731632757025 -217.014764189055569
-142.276127508582391 -60.132240911459562 -228.755851606162082
-155.876374000813883 -61.660368750936406 -228.365824803350023
-105.007463155697792 -60.289594326741195 -225.674492288287126
-98.171739459981012 -67.917191890164759 -233.003152329771865
-128.428524768331727 -63.369115232182033 -236.035566671715912
-106.413486390682806 -57.009238595568227 -235.058030614334939
-153.825959450714379 -66.350190331686406 -237.759462445668248
-1.021039381983421 -58.570904304787689 -233.434665212708211
-129.052516983219618 -60.075237991535644 -235.035743936888025
-155.679770757148844 -58.321434734995968 -242.463448840786242
-139.963254593027131 -58.773449363989478 -238.907188140385728
-9.120132013916695 -60.059139543034995 -241.613101950081870
5.217682705282691 -55.951308887740538 -245.721468297507727
61.971040333408283 -58.960200292161417 -243.784920911376958
21.894053351777934 -60.220554045893259 -252.209275740687048
57.440938165581642 -57.571283344367984 -250.621345845850669
48.974394452875316 -61.276599014428271 -248.885017097706253
56.794994440760689 -56.083685396692900 -251.297511066748740
-149.010280139315228 -67.453501537594121 -259.783495905038876
-147.093067340327167 -72.157630222876762 -258.235360077053485
42.190000415707765 -56.550772795872462 -261.833220318212284
33.919866937470488 -55.964554644658740 -262.891058794020637
51.605681801290686 -61.814981135985946 -249.142751648549250
-140.896745664740337 -64.337032600946003 -253.928421152415922
-129.384830662208230 -61.516629402451755 -260.503026510496341
-127.459496706106222 -63.925062440581890 -264.323905297894044
-138.028607532379624 -58.925799817478776 -256.290890104810501
-143.856529670426795 -58.353059022883762 -258.445138299015468
-127.718921822152595 -61.769310173114725 -272.131951567045178
-145.323915779299568 -57.744434246477510 -260.321840540052619
-119.819866578424637 -62.541722454423955 -267.731859279094351
-120.838749780948007 -60.844589132878674 -264.620554473263667
-122.287603124120551 -59.616666053524234 -262.670928178685642
-126.745071758280147 -59.368874957207197 -268.701242561376375
-8.667425993460220 -61.694014686849528 -267.931002456277668
25.092757696452452 -57.179095072852419 -269.160262646698982
-151.868839700712272 -60.700065051969489 -274.137350904134053
27.016109365000847 -59.157829423308669 -268.428568649035753
-0.452103976665164 -54.132175809092885 -275.258135703637151
18.654920684941452 -63.615272826488983 -286.681533522878624
-142.637398929846114 -66.161936009210137 -296.297487987023374
-127.884810705689318 -53.010672494421982 -295.569996325241220
-132.051165978800725 -64.182095942623732 -297.881876586290389
-154.777071569150195 -57.864200512487294 -291.546813533893328
-124.647714838027383 -57.778478855079044 -291.717470960864375
-115.356792328953588 -57.556101847450108 -295.450497528710230
-121.671292118715115 -57.437211373115076 -291.754627181274486
-145.291918584090894 -57.236532224100770 -297.308165449704461
22.026604222005126 -75.550909922083648 -15.778073905395608
20.974752394083012 -65.841493388157289 -17.938679851257493
41.295460220995267 -73.698090234162706 -16.611700745009792
41.720688580651540 -63.584026599802662 -23.853401903765757
21.827627040968075 -67.316806584280613 -29.286356360233835
19.776921330524178 -69.486870950386233 -39.736563938192475
-32.609245990231777 -68.181083302950100 -52.028070599197129
-86.802274633475378 -57.170386513378986 -62.362018055350944
-10.888803136171070 -58.997759547065264 -61.158612434022437
65.020124988450874 -65.705400897798455 -64.535960536090016
93.925491646892539 -60.250480474456431 -70.991680419847327
61.486528565456652 -67.896627957648121 -84.315285762734760
61.330715598301651 -62.777069274057716 -82.701804044649947
100.646503107090695 -62.238012578987878 -88.238589942166470
-66.047198885173628 -64.106693981739241 -92.100286070204817
-67.000828524810800 -54.149557235254370 -101.231904607430039
54.725177996553100 -63.750673467197068 -96.224911241589467
-68.211218397829015 -61.628984831380031 -99.716660903144941
-76.263343276993851 -64.325929110960828 -103.699258417665391
-98.618751044902723 -62.249579460449006 -99.103906035755330
-71.728596100330179 -58.146460165973430 -102.547897489533682
43.596741603381460 -62.120162728676448 -104.762938630653565
-68.260508752138691 -66.700552998118170 -106.829946926444620
48.764308621365529 -64.319748093160115 -101.982405700894901
