# This PCD file was generated using the MATLAB® pcwrite function
# from Computer Vision Toolbox®.
# .PCD v.7 - Point Cloud Data file format
VERSION .7
FIELDS x y z
SIZE 8 8 8
TYPE F F F
COUNT 1 1 1
WIDTH 786
HEIGHT 1
VIEWPOINT 0 0 0 1 0 0 0
POINTS 786
DATA ascii
-13.200529137336346 -75.037284297410466 -227.392897784945518
15.194552177109415 -71.741509276201938 -220.263766620697311
82.134051795943080 -73.798601480018974 -224.843294062222583
-13.516153558194837 -74.695814386579855 -233.646509782893702
-131.569611760264848 -71.981334718628332 -232.887130095589697
-11.882402221119548 -76.421445136413681 -227.711414076508191
19.581961971883882 -75.720789972963630 -236.022713366850979
-124.958782002917161 -74.614098772517849 -234.534809028080758
-151.318059546433830 -73.378960847135659 -231.772223183301321
-141.807403734658578 -73.147715040114264 -233.622257514955891
-132.401120811592676 -68.186426649195781 -234.669067470712065
-14.352237557975307 -71.135991737335132 -228.498118495485329
73.177509788933250 -74.036540914789938 -232.217992946387369
-146.500373527619558 -73.375926514724682 -234.649074248945567
74.792863004033421 -79.070469510008252 -231.770901533665921
-22.002971249861474 -76.163722189411800 -232.596022439877146
-140.125329298945275 -76.473856944888553 -236.368961944294057
77.763519632647586 -75.121802566469412 -235.818749115423088
11.120462616477610 -74.474439009505531 -241.511793451007378
-145.481047203069949 -74.518924090000425 -239.168803613098646
-149.712643942122241 -70.960193492750292 -240.651173011496638
16.635794686505374 -71.733630573038837 -233.801283822904594
-5.444337252469168 -73.301165896200274 -241.436981756162538
-24.202914968264082 -76.999420339264589 -240.727528246266559
0.164664204071215 -71.791549959252094 -241.292424919148743
-161.483121380213049 -71.817950881760225 -245.544799099982157
12.490509480010331 -78.506734227600276 -245.888076066139348
-167.939971579233088 -71.656494154449604 -242.765937939239535
-13.916198076665836 -73.427512440250439 -241.791631970873993
65.694836272359311 -79.118870661535084 -242.071522230693574
-10.023961814684554 -74.835205463474608 -242.953200430261745
-29.264103899168006 -72.525576894772740 -244.347599468269749
-25.968372429082535 -72.269818702996091 -245.653971974584294
-14.553494691170137 -69.787577822621543 -249.076808328884653
-142.043745146695727 -72.039123594973361 -241.756708680948577
9.783013670864264 -74.768046168508079 -245.982371620977091
62.720193889844097 -74.112649430665797 -244.686164004366731
13.104712540086865 -72.318693042141433 -246.552404873579320
-163.461315427564244 -76.077091595792041 -244.740888181362749
-45.728085730763681 -74.459128267585200 -247.747515393597183
0.962159892851467 -77.768700522092587 -251.359225895756282
18.101570651065668 -73.148847619800435 -249.585544280515080
-55.165212702656689 -71.614777393044633 -251.655595546467367
-7.027508910351756 -71.586992847091878 -246.206049466608761
20.131647202544897 -75.153080289393444 -253.977090271889580
-165.443017056078190 -76.343046950478595 -252.645002488271388
-72.423896979546456 -70.877764344578935 -253.345441839925996
-50.803186089688325 -75.083817832718793 -249.634741497795460
-81.068362263984824 -76.244588322234208 -252.003273745985354
-158.633878748740585 -73.360560332109486 -255.065067420989777
-148.324865373271535 -72.367964993133199 -252.130132874902131
-59.579721820692100 -74.964711571370898 -254.626937863224498
-67.189292778372518 -73.451636558572076 -255.641895201403031
-152.597512150166921 -72.068891673398241 -258.003312110032709
-151.526726912780475 -72.173642303668814 -259.525629828149874
-78.443902480920670 -71.582832742882431 -255.028690279647208
-95.371736851156811 -72.734043500464466 -256.079242870460121
-168.189861653145101 -70.088895568026913 -252.193052550228316
-158.178953299771450 -73.052298777755155 -263.736533432099179
-136.742613660696378 -73.698507084794784 -262.136018546642845
-80.426046421695176 -74.290426380513964 -257.524270682950885
-163.865758201660270 -71.410039857941726 -255.369215232712264
-142.610938268075017 -72.421119195660538 -260.115066705091294
-81.928115170689580 -72.033429594949524 -259.564326246638927
-97.572923509683989 -72.067180834350737 -263.173134617084258
-146.662239144972574 -69.659886410522589 -263.719041002074221
-94.347862125705404 -71.076165442810222 -261.734355205731788
-148.406260097861093 -75.324971045318762 -261.466612806598562
-98.420074688191932 -74.927884220783525 -261.943788257978497
-164.524127322675099 -76.293188755201044 -264.237402846042926
-164.621920771692032 -73.378647091269713 -266.487788837408061
-123.167237812145999 -74.970264372668510 -265.570861066769169
-150.469704831557834 -73.240675606023501 -265.687421399166112
-116.135624989092037 -69.512751866450046 -263.522832188418022
-15.005009126469339 -73.940446474863208 -263.620190775342223
-141.933315700115173 -71.357129921546672 -267.161248416116507
-124.006287390197173 -74.488307726643313 -264.841465502721690
-156.314863656318579 -71.075832020750795 -266.142999862393367
19.850673713572732 -73.070443576187998 -272.228633656154386
-147.914479665323171 -75.513965374913212 -284.252798335983300
-170.143016487379924 -73.914346419452642 -283.098396962027948
-7.144266824197132 -77.818658897989565 -280.335875172090994
-145.045963990106998 -72.814866165784636 -286.658056977309172
-7.917245153061657 -76.093099412193254 -284.906928716415280
12.321582470890853 -73.938920879700021 -289.556689478093404
-135.251882133925477 -74.680076669978106 -289.454647086348757
-71.813419262270614 -70.722687329112119 -292.332653424706280
-34.765579634626121 -74.622027460858533 -291.936214740225921
-110.408193775748089 -72.079146041088151 -292.763718484521348
-91.635910684133819 -77.135349663584421 -298.266606188413334
-90.903966398674640 -71.837865357785816 -296.580910652131877
-48.675613291881064 -76.597394075580453 -295.541839013303559
-113.068510959151183 -73.917335529121360 -299.557081595309967
-110.235897564022537 -76.708553981784334 -296.261708306305650
-29.479058170947226 -75.007685834587974 -293.234239493328573
-114.059666020397970 -74.341892115916806 -298.507239098703110
-122.453598103056123 -74.259594740171593 -294.796156032296267
-144.449302178646008 -74.115643083887619 -299.578922210571704
9.102398461054186 -74.130358512918377 -296.748682448108127
15.546220826907348 -73.593434590441802 -297.936009114267677
-155.668649392081875 -76.275447414952168 -299.045499201095424
-154.298604765609639 -78.574133767109771 -307.889129889012111
-142.885117323585717 -76.673521863003103 -317.555291011736642
-148.481953114445815 -73.671847229756921 -317.913629977266112
-152.903690750193078 -76.853342918421333 -316.269309016097566
28.755790720853522 -70.008648093438325 -23.024956700379285
20.197202589893145 -62.937968716164129 -18.427639131418694
17.079111160239435 -69.371929786354755 -26.243090219094547
25.828898475528113 -68.636118783939878 -41.041126426279547
-60.218423988676250 -68.707857343333302 -53.935298929071486
-69.090176025380231 -66.975391609492462 -54.884818977261702
-38.586124377594643 -69.320491494583720 -59.870030865118359
-87.961222097097874 -72.891108850899002 -58.962207229812257
78.384827562218348 -73.921505633136547 -76.002288057890652
-22.071682773804227 -67.563568408606400 -71.162244130270849
91.440573636313587 -71.713607036695592 -73.545921625533211
97.218193116723000 -68.831799077493216 -81.526333543014459
-93.263401798562512 -67.960686874356725 -82.215118502328835
67.928598451224303 -73.346173308513741 -83.148504887186945
-46.750309157428063 -71.192695656910828 -88.696975612221195
99.706028078269838 -68.167122132141785 -87.597003265140742
-54.373939131631531 -73.908187432698284 -91.003654886994610
50.503696326681542 -72.690879215850330 -93.762556443475546
71.505774089667696 -73.651444178449140 -98.697456815801402
56.809350191656947 -73.864533877434582 -99.029556820127652
50.557580541324867 -73.097907472631718 -101.028408797887266
70.093119774695253 -71.225128366538740 -99.230264975325866
38.561811928548138 -70.827704691208197 -102.518058375129186
100.140114462401357 -75.939756283764737 -101.190916834418672
103.125678986169319 -73.967349578371724 -109.576670295442909
80.996220903731498 -72.226596939982088 -105.680575057794002
84.456298198213332 -69.328779418718227 -104.118163468196229
102.579945998686355 -72.691172024996362 -100.363985365680648
105.911767990278406 -70.204133306931041 -106.524902584377045
36.668371695318406 -72.325975881322790 -107.177259140996043
110.584730013098493 -68.774244479925756 -121.539465994530801
109.943551267229395 -71.645190470312087 -120.823040799441301
29.980244421507848 -73.670270746655191 -123.536380309210600
44.470693944617913 -72.425570193848131 -123.735635389877203
110.374719336369367 -71.873714211060204 -130.087780047946978
37.835156064223106 -75.419353574255396 -128.799598214788546
112.062133178154255 -69.670489037246540 -134.767474822366012
108.183167863271763 -73.454860342410782 -125.537310309008049
26.662317974077212 -69.414214542276113 -143.716979657592475
-49.660770478369912 -69.621871134972636 -139.930966995448301
-52.810824304963077 -70.269804101886493 -139.355077455213689
108.804236092631839 -71.156435935536592 -136.926940380408126
-71.172621900668091 -69.430176061100994 -149.566675109379730
-76.289091639709881 -69.767708069809387 -144.690412832895191
-55.512468741690398 -73.770436059199469 -148.194348733074179
30.344231275127257 -72.543350075340513 -146.050223626399941
108.515197357292777 -67.747489213349198 -148.564410451553755
-70.409538855697903 -71.405729596822212 -148.557085686540944
-45.037042564215056 -72.048687338487497 -149.990917803743400
30.856274383655382 -74.078647635148471 -151.777412995160830
-68.705871663760135 -72.206936798628973 -153.050947882329297
114.767352953928679 -71.953518698235243 -145.405655757388530
111.128637047061147 -73.149115196964075 -158.234121351310051
112.877332436455887 -73.463048844398088 -153.463959181184521
-38.059692835917645 -72.504283000639646 -160.123302759350395
-68.658693975069340 -71.042319035424853 -166.402678343999213
-74.355846267946461 -68.364214811612769 -157.589477666509453
34.448353305783826 -74.757781559216539 -153.430507383844088
-2.685567576457494 -73.298508550641870 -166.804320004904469
105.124819773732654 -72.758849420426742 -160.771314135789822
111.168712432866172 -71.785478992103805 -155.205238101336761
108.865452287328935 -71.453469831776360 -162.045513843894412
-62.907539144333327 -67.899271896322375 -167.295424827668086
-50.578502128334165 -71.980863214477750 -166.791205049271099
-1.296428129957683 -73.079544826272411 -168.918599800999232
-27.394205893576043 -74.015236038405817 -179.758636163205466
104.464814179710501 -73.638844291694525 -167.569975377632687
-37.462699549842412 -69.405062110501831 -167.271329347684770
110.926255480291616 -73.611380658302409 -171.073915331910655
-43.558202397571179 -72.757458259865501 -176.468607255905965
106.684953502336171 -73.461129498886535 -167.414956610781445
-147.511122408645349 -74.262867566794995 -187.895210859309231
-30.672095365399088 -68.755925201510962 -177.458879658128609
-23.197674506970458 -70.322576773215800 -187.035336452541401
24.891213920017329 -73.672604685749562 -183.025284258395999
14.290597339594839 -74.880077717975638 -183.815419062523461
25.748481523193043 -70.919093858881183 -187.254965074660447
104.709090580007569 -75.499437375090238 -188.734290043212241
-149.526730022564010 -71.394141230256807 -190.200149098677883
-17.047746472197630 -73.009439098347343 -193.483516043865620
102.976658310414990 -73.709110641713053 -182.842353309740446
103.815427708290628 -73.282525119199292 -190.344143444015913
107.874477681642418 -71.126801659244663 -183.776673717764396
97.596072913551026 -72.614636810797577 -197.739173389526059
-154.982235184182485 -73.602807009302921 -197.021178922312117
98.648863683707418 -74.969503027616966 -206.398413549474185
-31.380764987916663 -70.499358225932099 -198.295752973673956
100.697812805042730 -74.746834069023024 -200.336557826384109
-127.425457869286902 -68.195736365035131 -206.177632584904273
-27.053467894826099 -75.621174876725732 -198.381061112196448
-141.386078058736018 -71.405175731227487 -200.716425170763642
95.182833776185561 -72.592765970754456 -202.421612479363716
7.590794736577877 -74.593576210999260 -200.885165829699417
23.758531400380182 -72.052795071065319 -195.803501449342178
-149.468376020666142 -70.427107683479022 -208.776189772655300
-142.247063750226573 -68.201707256254437 -207.051829050704839
-14.420510297956731 -71.331167989957891 -207.484632099024594
-127.666888777860777 -71.653468014120548 -205.820767723132320
-139.263254392376325 -75.576689539699956 -208.269437486191066
8.884199892965363 -76.383694846087522 -205.095283260778331
-20.688567383323914 -76.525907678854722 -207.039431943226191
21.124437612056600 -72.647121151291600 -209.569458402716776
6.023020442220542 -74.637821432217251 -214.645892253836877
88.270328387019390 -78.474799377426422 -206.985094335002344
-19.802472032610282 -70.282199741353210 -214.647590637755513
91.737760586234955 -74.018080733759831 -209.707045033825352
94.909784757600903 -71.333111282486669 -211.832505431365405
-149.152617651128793 -69.666332195429916 -222.980950662183403
95.613017151872995 -73.891489871695853 -215.957705673951438
7.828447553452520 -74.988259580785027 -210.994293447214233
4.924487188052687 -76.191038719454468 -218.433707574811194
-33.025547370817719 -70.561405302847646 -212.884287838705262
-89.262409984500522 -71.425203633267742 -218.370696019403027
-27.017675017432012 -69.987826907463372 -218.365831988599211
82.394381210283044 -73.435968707324520 -216.546314838544561
89.128936356181669 -71.045816353430254 -221.447606674639417
-31.862747794986106 -71.714852274578220 -216.632958942872648
-87.668971181629189 -70.147228259680901 -219.179414887550450
-4.091444666064298 -72.875564133995042 -221.615194429298498
89.222832082605862 -78.419920825909145 -214.943156998340982
-150.179490919531446 -71.867547476082038 -232.746547899633043
-165.215986770700766 -71.206067255683465 -219.482619306614282
-158.898667990395921 -72.950316386007486 -232.151528908209627
-21.303205824599573 -72.326215352273806 -232.447492739507993
-151.962192993827301 -71.939396863764969 -232.925799335892606
-7.020708339895911 -72.816654304314298 -228.365616442396998
7.237386008746007 -73.341025720702774 -223.522802728081331
-165.100588614446878 -74.061648517694124 -230.776800615306854
-163.091625284848618 -68.826676790095490 -232.050387166649045
78.765082877572681 -75.456712798916925 -235.100873953144145
3.992621303195989 -73.789093197870542 -232.267284446206048
-155.332489560169563 -73.382836612038702 -227.775883532354896
-140.103146462060437 -71.311829707383069 -234.327526688835917
-19.747329920262899 -72.684094848330886 -226.632561465524446
4.909050016336195 -78.900346757955873 -229.727902734139320
78.246923530093625 -73.735896290570423 -224.207973129462573
-161.705724482402417 -70.484027971634433 -232.739975172260273
-150.309472761463155 -67.749592406082982 -231.966775165016855
-125.341698534880550 -72.449825892858385 -233.936510942064274
80.806533992880134 -74.038762005276368 -232.523678291141778
-115.715181649880151 -71.421707084448855 -234.813742295815302
-150.443009951722956 -67.637493345097695 -234.953373502094053
-150.403237010064402 -71.820791933368696 -235.773952459213774
-148.677268909986168 -73.037413789663773 -236.731178946983732
-156.036474338064409 -70.770339686004405 -236.032804242244396
-164.512796464990089 -70.702155648082510 -236.759321483635233
-137.879219858413080 -68.593279330802503 -240.107798072974816
-134.039103459750891 -72.408550586516739 -238.416848676554480
-156.106404824792321 -69.074402523238376 -241.932519287237000
-146.865270848421517 -69.983914635047171 -239.344579532154199
-153.178559267808794 -70.025026934783028 -241.624928550919861
72.249576372909274 -72.410066963020896 -235.821739524601014
69.576971147471752 -73.110224565310503 -236.891402084036770
-159.562438360053051 -68.496853030589463 -240.386801013296719
70.271554751059568 -70.747226894079191 -233.261302736353713
-18.164323531450265 -74.698771159116518 -239.026156336335390
7.935203808104944 -71.177226668235917 -240.398020448184326
5.848319625971570 -72.542476276799974 -239.930063942891564
-150.153071358995049 -73.626587287844103 -250.889854991431122
12.370708320959281 -71.038575846714821 -244.040498397283670
62.765492863197750 -76.545141797090622 -238.540908247547350
13.276898185869776 -72.865759964475330 -239.259342603565472
6.984768433366760 -75.424333796660520 -244.962810497811319
-4.996429489243475 -73.853791152845375 -242.767041371952729
-20.056114858998697 -73.814434826232940 -245.583759322367371
1.629512917098076 -74.033577286367148 -247.975887766165158
0.652360865087907 -72.776705453223016 -248.463751839872998
58.664304134329115 -73.674006473444052 -246.657065964102742
-56.390878687730464 -71.177746521682792 -252.992175686879818
17.404340527316450 -71.500504312786020 -249.362804313237859
-58.889638937523571 -71.700653237369579 -248.769385416809996
-8.887422292759496 -74.156949672502492 -251.732539462582395
-65.077797210915051 -72.650427601432611 -252.466093083170563
-87.905829977164416 -73.077320505970434 -253.893030366564773
-85.520258603143105 -71.519520718691595 -255.881979352075632
-14.860296454787076 -70.177789397106423 -255.913330790715776
-128.116882475204477 -70.753394531499907 -261.371667499796047
-11.708449142663838 -74.090458054647016 -259.069597322978041
-115.292924571937846 -72.534039115328099 -262.308592584294217
-114.696199339276859 -74.070781045448854 -262.492278253622203
-100.052934401747478 -72.526146459217827 -264.695589445509540
-142.203122447512925 -71.162250401299190 -269.010402513109511
-146.996032580501321 -70.598265550601809 -271.794122389479071
-166.932673036819295 -72.492949013882694 -270.602945541537565
16.501031655138291 -72.399260800542805 -285.327889793778297
-53.442647480184505 -76.434133364517095 -288.942538254126873
-62.817420362425992 -74.150427531997011 -290.271548821579927
-39.290228989179354 -74.543330064044966 -291.068567586952270
-30.706188711527346 -72.921225123938143 -289.004987129699657
-99.050804920982955 -71.796357557235552 -294.093313640084716
-27.166942367616429 -73.986323331988118 -290.657398414526199
-3.309568072889746 -73.821979909738232 -290.228229706884974
-167.615821072426996 -71.643152477155766 -295.337493385864207
-10.047557261410525 -78.757560936279106 -292.044963211729510
8.586756845539853 -76.124980848964711 -292.192073240731304
20.237594802754799 -75.621502886261013 -295.307980584816903
-52.885161896566999 -73.248389835665435 -298.032903888935266
-30.349150746331333 -75.618321778081167 -296.362424926283552
13.433705422059120 -72.745327673465439 -294.724309338571459
-70.895613730918271 -74.420115971608126 -294.581222026655723
-34.614218262208254 -76.304262813404222 -293.209413183502136
-15.899752511150325 -72.948108717730079 -294.184147782287539
15.997273957536983 -76.134269864818307 -295.005045423636034
-12.269621915919480 -74.613681259973106 -297.675732637207204
2.065812396409513 -71.886235954468617 -295.974263948976272
17.621804555580457 -73.412636600255013 -299.471557625776370
-134.075973336552210 -71.711751706400150 -300.223089716079585
-142.094775138221621 -74.457147537703534 -307.649142538367300
-146.811819623815069 -78.410244217390101 -317.251016875661435
37.161962308501515 -65.650741003082828 -16.513714632300086
28.462593101973013 -68.950174937122668 -15.947770636657324
36.216668576519801 -67.256398440200414 -20.106597935426606
19.206878989991040 -66.748482529932232 -21.079717182936008
40.131262401691217 -67.630904761985263 -22.832239963721513
20.396455400515293 -68.201192323397478 -23.846784088524544
23.225311192968999 -69.647444782948540 -32.596027134839161
15.723809895927040 -66.721088777837096 -38.431276904012769
40.473426768768931 -72.019170369203678 -36.666021781147315
22.791439677579216 -70.020387886861755 -41.293865756876059
36.507660848752373 -67.705896151933459 -37.154978921071901
26.575248114614354 -68.936979058977627 -40.783989041770916
34.712155975063339 -66.547424353280164 -41.684974058229798
28.904702356719479 -69.969561043148161 -42.140972149651148
37.621589733560597 -66.630919235305839 -43.581424576690139
35.669111167326960 -71.222219440025214 -44.233600603404263
-39.686423700470002 -68.141693769476845 -55.088968200420439
-32.425173515903452 -64.580182800605172 -54.295548652419811
-88.176991093198410 -65.492497860616623 -64.623558714353933
-90.438645191504804 -71.120647204721138 -69.543412955158061
80.707047843373090 -72.545543508282989 -74.144955237090755
81.661778937792008 -71.410688545382513 -73.015272148424216
-22.024382413099943 -69.675731707101278 -74.949388094029842
-91.329860288200933 -70.836960547172893 -73.550307823302774
-27.348157164311118 -69.554989738759943 -79.737453506235838
-51.351868068042421 -69.083035554106544 -90.749396367351878
63.585600657239297 -66.608004182579776 -88.582472506015279
50.813600146040294 -71.357607544592057 -93.991610054800375
97.396200358876087 -70.035878188257541 -92.257094191030390
67.828038353636316 -70.808615100410734 -100.550770720994393
-64.411139696423191 -74.859707641222840 -96.902795006252660
-69.213614762167140 -66.726323673364334 -97.951599469704675
43.137912445485441 -72.305903067522223 -98.871834830361081
78.421849211769057 -70.554532296794520 -103.735897997769939
51.161527793188036 -72.192572609256672 -111.391293470276153
100.397548740725341 -69.522221457107619 -100.504079644497793
-98.002215701285934 -67.567454387401412 -114.264746606021163
37.473827671753682 -69.428577702771619 -114.195792021954603
103.170237950350241 -69.963169402537389 -110.362265708929826
45.170876583791312 -68.703784270828208 -114.125611365027112
99.315155797611908 -72.167654104276437 -110.973247544826847
-91.218095916304065 -69.475677345047842 -115.859392466738043
33.085743435221183 -72.531250953364790 -114.786172163667715
103.806771463919489 -70.311760275746281 -117.206000868650520
102.221245197543453 -69.636159381186019 -115.749746357830276
106.138464276322281 -73.491969164571884 -117.164148631189292
108.723482821046161 -70.146521264483340 -116.231560973745630
39.522192858247251 -67.517157788046816 -118.978032346364657
32.397021821914400 -71.313538436624825 -119.051359471865396
44.554633629423890 -73.088243591966204 -119.282076930802162
109.068093307957199 -73.608273689529582 -126.301105184672949
39.705296536421336 -68.655475412209853 -127.655601625580402
105.622665701799207 -70.278396778890411 -132.253003548923260
110.745218736940274 -72.230846425671615 -131.973987377513595
35.187595224692998 -70.154470211009254 -125.003173294429786
-74.968052381225405 -69.164367777162596 -134.802109098345738
115.437924516890817 -73.564882342823140 -134.382801405696654
-59.024889267856793 -67.963648557646039 -140.711340012872029
36.109779064729381 -72.356576663964390 -138.882642696117159
-71.451023908724565 -70.799114312628433 -142.545951278110778
30.465585268077568 -72.767764362109560 -139.710991412637014
-80.518684989411341 -71.731296493890625 -146.503663207338974
-46.526964737314003 -72.386615175743088 -146.871945665984214
-73.720468481682317 -70.349462163766887 -144.571027009237696
111.746387003511103 -72.537900044458254 -139.901639122501052
112.129325808337725 -66.875540960026470 -142.622976271994162
113.109764803328659 -71.584419657922936 -147.560173357447212
-73.067087087829279 -72.800599608924543 -149.988127354934903
8.955451457214657 -70.761895710005888 -152.681752630898757
-52.886192818068992 -68.920054839135730 -155.963671060546375
-49.553448790044257 -72.359486892859849 -160.832510001701223
104.534371603508845 -72.784989034907497 -161.724090641763098
-42.075858205751217 -69.500624280079961 -156.567098582543963
10.938913838831340 -70.001382564993165 -158.062462820760686
21.548458535984871 -71.017690757194600 -162.810903630062853
113.106698729924389 -73.560052642497212 -163.655554639238972
25.568468136230010 -70.960366262635205 -165.449560138618693
-2.543087789059726 -71.379216974800713 -167.336042004215301
31.436223862985653 -71.908469410475092 -164.643984115633231
-66.635487360670950 -68.523436228082900 -164.578119896182415
-65.516682678368241 -70.621676375609738 -164.279453700902678
-69.579903567304612 -72.252456138894402 -167.252968773735830
113.391741967401686 -70.996406268578852 -160.649046678204371
-45.336109260991122 -70.489506382155184 -167.660494054859811
19.898567601334118 -74.106688812131026 -169.155402679720652
-65.380176907252704 -70.743424860718065 -172.331422119395285
-61.786195254136970 -73.245086501463049 -173.564849321566527
-40.416705261662457 -72.789822562526226 -164.893510284837163
-31.067753657426024 -72.374108116356069 -176.507633115298034
112.427373467177631 -71.273845498485599 -174.400185485881167
-40.583126905330545 -70.980146077650375 -176.557030836681406
16.360426577655264 -74.370175992348166 -177.858990333469421
107.402083130226742 -73.801176883531156 -184.756592892275961
-149.026312132859232 -70.257320367487054 -182.285306587747954
-143.427460431919570 -71.353566666672748 -180.618492106343922
-154.593269335745134 -66.763877040617729 -181.758314034766840
-145.808066099130713 -68.858560782012461 -188.065463764475766
-29.944038942699024 -72.465633358029621 -189.380650548771200
-22.779915776657788 -70.943645133870945 -190.899256212667495
20.113348097520728 -70.956013467021265 -188.997394755324706
-142.850398526117942 -68.481210336683475 -192.197582466193182
-147.219212262987099 -71.116415645354692 -193.973161204642196
-18.929897715907387 -70.041189062513936 -191.972341449298369
12.774774427114373 -75.331995275086356 -184.666966085713199
-150.381978654873421 -71.862708302761376 -197.490275767515527
-34.196595357272642 -73.087887070365980 -188.657871775120185
100.167231677185399 -72.488187845042702 -191.009403799288606
107.298049313908109 -75.011705522188791 -189.889072626270405
22.548479830868772 -69.273969264571107 -193.789853609638328
-18.711993251298111 -67.363335518985295 -191.826746822453117
-25.758358704688831 -74.196440137742911 -198.708383150996212
-157.422024995526868 -70.937764297467439 -203.337372826766710
-132.377445971926676 -71.378753319951173 -202.712146468481052
-124.092178330135710 -70.527800577356146 -199.056090820454045
-122.379568316046516 -71.377288530200303 -202.993275882156581
-21.956787510345777 -68.329280531244606 -200.033744911976441
10.529687491418834 -69.659083010238476 -198.130804263007349
94.038823350727256 -73.930783049777659 -207.269753419589193
-146.517028036094246 -71.253173761431896 -200.266049701274568
-146.842125649494051 -68.391515593992324 -202.313057435334315
-151.219538605866802 -70.295018676753742 -205.081647345582155
-153.639996096284818 -69.073252192622562 -203.601409526152764
-26.411944127759568 -71.072186009496022 -202.140968026259344
-13.927243161823505 -70.312682666781271 -196.086006191058289
-150.101992927983304 -67.444350848689126 -203.327317445579496
-18.000912199638904 -73.904465733627674 -202.628358234743843
-164.802970657266968 -68.216591786275430 -204.504626139037413
-133.779884032919909 -70.982895828874547 -204.795132491017199
16.986314941191402 -72.242864123589186 -213.384682812386814
-164.557639100612903 -66.880948216173209 -206.991655902564986
-146.196442281274784 -70.665193314937071 -213.206877532470884
7.738557571878360 -73.685117914803840 -202.377544459484710
-153.320645241102170 -69.843512007019370 -207.216950713941060
-25.046835996146598 -73.464329802666839 -203.025323763513882
102.853573242965098 -77.502421160579004 -203.085004336392558
-153.109004571671619 -72.506196884406847 -222.315732954267474
-162.637813374694588 -70.001616899388452 -218.621371889745262
-76.006506539021132 -68.671074034994959 -214.423996230305448
89.369382848324307 -71.017987112626102 -212.767578880148875
-6.020166925125167 -70.643492608447076 -220.119087778745410
-151.214998180438755 -73.057665262966140 -218.080604520732692
-86.990819618990713 -69.366780549256873 -220.726983450587824
-7.816069260163474 -73.243290929631115 -217.776423352170241
17.676728956594449 -71.925478882705079 -225.527744111151833
-147.637193723764511 -69.808732945464982 -224.337672508905627
-2.784511947987269 -73.108595816619754 -228.116790479255968
-19.363488271326887 -67.536937784733297 -227.494089463361462
-16.274691178768265 -69.682796471560692 -221.867428581319871
84.926036583534625 -70.593278619581554 -218.661528764909349
-20.738613304390455 -69.936682402504530 -221.433849510676765
-30.268597298078362 -74.379344737363468 -219.461068198520707
-108.649770163587135 -70.915282523325189 -224.675296716663269
-16.494869209443429 -71.887646162404053 -225.210571770639831
90.074789511741301 -69.007759160882685 -221.158758518674460
79.416611908845567 -76.318671849007188 -222.318947481763786
6.342708552429244 -70.783916739253016 -224.608112918122288
-10.868070719195181 -73.288485059357910 -226.152899340549595
78.510097224217517 -73.252222797631248 -224.741937706569018
-124.093744563129491 -69.185993376578338 -233.519976544874169
-24.134059248775586 -67.595516616907958 -225.544157137470165
-99.215981589511870 -67.572177912563291 -229.405882574250967
-103.117864645124627 -68.179945934974370 -231.529787493061406
-135.860501851801899 -68.331592001039056 -234.167100018772487
82.460846112752947 -72.382549678123965 -228.039982215615026
-124.145896642737000 -69.722960847986684 -233.303593356526932
4.783422392747063 -73.369028709598339 -230.676351765386812
79.737156119558335 -70.992963059329057 -226.182712399952919
-19.360928977785917 -73.298809790433978 -230.520645813218977
-8.733927890880260 -73.744280135279524 -235.051713338216757
-4.950699257784578 -69.956340601752430 -237.633476913602465
7.732307649605808 -70.046441995475931 -232.464097267689681
84.080905631382137 -70.181868073103644 -228.328901510400243
11.740296973030297 -72.782512127268220 -234.800064053746013
2.863285168511915 -71.084146199067717 -231.251399994808310
-10.044029683847164 -72.410124286087353 -234.257012998490438
-3.395052569071154 -71.611022795586521 -238.584963180834109
15.550474364177841 -69.376424307022646 -234.865154009699040
-11.615848776415227 -72.028974887765656 -235.584666421870594
69.707107948018631 -73.605197887483698 -241.112879769832290
-9.105883555225404 -71.809585485009066 -241.541662017743818
18.676673455986581 -72.990697090758232 -239.286587563912917
-165.024287485847026 -67.643181976745964 -245.667301906690255
-2.753721401800675 -72.549844394023154 -241.217316980518433
-7.475133298454153 -69.517673573423281 -248.069785288821009
-166.871549376418500 -69.660731142476209 -258.819862167580652
-9.503349760049318 -72.885717399715929 -247.327135032276885
17.988338697130857 -73.101051450644846 -248.251773437873169
-146.185453106372449 -73.646901878512068 -257.774211509064628
-71.212627142799960 -74.428005532609916 -253.581077628987799
-60.851527930491528 -72.128827558650087 -252.622635948185575
54.075990337346894 -74.848730393265825 -247.451621269986276
-75.828415954624290 -69.021520450593187 -252.415911046303734
18.079418886075651 -75.094532176992942 -252.240277360095234
-72.282001975909509 -69.891827413480087 -258.770390609540698
-9.269538233204649 -73.696142680077386 -252.739560239230542
-145.252869400661382 -71.393706391959967 -260.543092596477720
47.439874051521784 -74.940644105640658 -248.605648973468647
-80.074121617288668 -72.118151050518378 -261.904988959296929
-102.147776827129206 -71.474757117113597 -257.581889237472978
-96.917015233055650 -74.455174413152292 -260.331627931464027
-114.764261838422129 -74.817842958842562 -257.686317468781340
-105.303487932675665 -72.861877387608985 -258.716650554558896
-105.492428011423385 -71.217482666631042 -263.246140857584919
24.570815694538972 -75.389892034180534 -259.771511045443333
-127.258151000323863 -72.594590812101401 -268.679492416636037
-9.882241878803306 -76.207953274540372 -280.423717997082633
-146.688907946365703 -73.429363978289373 -285.075673868899401
-169.968418466047410 -71.739194891720075 -290.816645596430078
-122.205977929331056 -72.474736514566871 -291.925973716546423
-113.445552865730747 -70.760357501390772 -290.482822143726992
-72.070265847401146 -70.339131637650127 -290.142989441506529
-56.252447790329441 -71.950416591720526 -293.124893001182159
-41.858121620274076 -71.358777696201471 -290.206067815468032
-16.539165409787891 -73.045095883774920 -294.972721977173194
-16.108582355236678 -71.772025899258466 -291.851109223270328
-38.351382869172170 -72.582912985927393 -295.994816992699270
-33.517484407305972 -72.307856997578668 -293.657493902449744
-17.594640630625008 -72.653422500364698 -291.046658561107847
-70.842335647311515 -74.301354667150079 -295.329216095827007
-54.033084309015308 -73.682952981932161 -294.816356511878155
-15.582703249081433 -74.067803933346596 -292.641665842988289
-11.656608483511647 -73.272165311648862 -296.548444686066034
-5.189565980760563 -71.830639642219310 -294.813023365932111
1.595928175003202 -72.351352638981510 -292.285192727784704
-90.107828573292835 -75.157249506860580 -296.631228620246475
-143.854432494382337 -68.323716169283898 -301.119641989545983
-117.299726223651192 -71.307093376822479 -298.076313459506537
-151.105186822559972 -73.223381882302633 -299.897345008062871
-153.648483435701536 -69.293038584006382 -306.188882127793306
-145.505076192441862 -74.062215025875403 -302.567885430062859
41.079194921855510 -69.960991948063608 -19.287591337621492
17.018482114087778 -67.582741750781906 -29.390557023266233
47.771247107194100 -67.558611895427418 -26.675594480185424
43.405198893082208 -68.556565135986631 -37.345487143308809
81.713965585150675 -68.288663025375996 -69.578741821583620
91.648744634710553 -69.305091940652176 -76.029807240466724
101.182379602949553 -67.688906831601201 -83.721499136218597
94.875921998325452 -71.249871605680369 -83.076168838865001
55.125142914531466 -71.692011172248812 -91.030130891574856
49.232081479714466 -74.224920486724699 -99.623285387713167
61.013609119717444 -68.316208169386016 -93.066252369349243
-67.906113009875483 -65.667700799054970 -96.908586100441397
67.864505648179204 -69.101788643704666 -89.157344318880675
99.104629125739763 -70.217984267423518 -94.789420491977168
71.333103174916502 -71.613822261098392 -101.011352811513234
92.560728485993110 -71.385059017121861 -102.328952945979196
-85.401356118267415 -72.789195036115046 -105.342912478662171
45.654041403950693 -68.733030403430703 -103.023965670447424
-82.229182006015719 -71.343853036173925 -111.117077134656071
48.911185828058542 -70.563725753119954 -113.055074936253376
38.895504893502412 -71.676486702148154 -112.218994508943283
104.370125783050568 -73.974790876504613 -104.486151685541174
38.826910092392623 -69.628328927049353 -111.919974481387939
33.618497581515790 -64.999267293497965 -119.951658613363378
41.642959095878886 -68.818611631969375 -117.158710792095960
107.581595041088363 -67.220560824107480 -115.389657065045256
-84.763898577159893 -66.902110578483061 -129.868792184093650
111.831900072309935 -68.717235736268165 -132.036975383294077
34.748414546276891 -66.413291549990646 -124.064966914718127
40.452611354201721 -69.065357041590005 -124.678175919809206
36.178165324200940 -70.281087754483508 -126.498580597146486
-58.092658005842679 -68.381548036972205 -137.641021236176726
29.803968156207407 -70.298839371225824 -126.302084875725811
-79.073670103318392 -71.448806193456022 -137.978744703084516
-57.005808139198393 -68.559675711132911 -140.396015348682738
-81.006929568980951 -68.093438358961109 -138.225533026895334
29.903767166924592 -66.880006208836235 -130.881635980675412
-60.073487139580024 -68.635719504286385 -140.445067016310190
34.107392522952864 -68.855385929063118 -137.265337850933037
-74.651692032383949 -66.880427373441961 -143.287459897032619
-63.364264204939161 -70.613295602651789 -138.653864003037427
24.395189099857582 -72.638876088547832 -144.001114412220517
108.109782696138041 -70.403468401375278 -146.746825395968870
113.479901788328263 -69.975336696445169 -135.823080343677873
27.674514194044388 -69.503424458169178 -143.581778747819385
-45.904666391264485 -70.760837217076087 -147.915308339260179
107.461632827798837 -73.073315478334180 -152.138105387678280
-74.261992727476965 -70.282998694925496 -148.960600987116379
-59.816095561927710 -69.145587007647592 -146.982477203358485
32.293657654651525 -70.184013388322342 -148.804471142373018
-77.166027319851892 -70.252534565282986 -152.618110198123304
-71.637974438679677 -69.288051332593625 -154.975636104658065
115.650370712785914 -72.759641413938880 -155.400960336696158
-67.139594753630718 -70.177275534631192 -156.916375127528084
-39.265129474041615 -69.783771881372033 -154.930046364537020
28.741453533521220 -70.674175821468864 -151.500453088161834
-72.946875259819393 -66.904095283525464 -154.886510330548134
12.579430888126851 -70.754566563157496 -153.514202606389375
28.017676778186758 -69.205038963536452 -158.091561428759718
26.290684689312588 -68.625400648283900 -149.427322166909931
11.421597294799120 -68.740928059186160 -160.585218576878276
-49.243974439088291 -70.009772876451791 -160.348692336171695
26.370568134596027 -71.340958413475519 -159.432765004674508
-47.726344948495239 -70.020708450714991 -152.785425932413062
5.328973620142186 -72.297787929894469 -157.380130520506157
20.893572112772002 -71.399606089597384 -152.961833991082187
-74.780983078882215 -66.636584985371172 -159.460378475332732
-46.829954775914842 -68.950359026127828 -157.293643622734805
-65.662905317406882 -68.599827663100342 -162.321698833416548
13.084897698544403 -65.922242179757674 -161.253463836781435
23.833528757033516 -70.380211405500859 -153.262258809016714
-1.990807662984913 -69.714357903828272 -165.259508100547549
21.541694816760572 -70.440914502654394 -157.944470396487191
26.931692959833764 -71.281853550342717 -166.616597617378744
-50.224498005506049 -70.867890541091384 -165.858107091370442
-37.144798011369048 -72.981721525173072 -170.919866516475025
-41.216085972043146 -70.267527021486842 -166.035231567276384
28.628470984080295 -69.715458825415254 -164.875094126182773
-44.043291036979227 -70.669577366139876 -169.887511409277579
-45.895056827832960 -67.906075222259176 -166.118163474407936
20.071643388644386 -69.323459947258343 -168.771637442409428
-43.374962100341548 -69.522381224396057 -177.891369652025759
27.644605841142226 -71.049176768933719 -170.289974404572490
115.014888137894246 -72.662048738737468 -167.046686912719707
-33.719143779023284 -70.461005380737774 -176.413020214549476
105.395266443097540 -74.555293214084116 -173.629580768287354
-36.492388831848118 -69.388141333384922 -180.923529273552589
-38.716085536259214 -71.538613413388347 -186.608943803594769
15.040810302290502 -68.861049416955652 -179.732804683488666
103.554275929845332 -69.214209450421322 -185.525060339466677
-28.083186106823206 -72.168519672044752 -187.792751284654088
-38.400293537386048 -70.246825484463358 -178.697963680631801
-26.002155744829466 -68.747978963267073 -193.833335815428484
-150.837184882492238 -70.203198806980879 -193.232829093933361
14.721627870401726 -73.488168061943327 -186.377568697868128
103.455309204894775 -71.951449947099547 -190.947813776102890
-155.316123735429358 -71.950847398321898 -200.148485986221630
-25.101984277382627 -66.654875951543957 -193.053539106424353
-117.401025327860282 -69.607309821581012 -203.225208526522408
-133.056860119188684 -66.359619458389048 -204.077168943759318
-111.443405327727788 -66.579009735678952 -205.830665160126671
-112.392115778322250 -71.712542553272570 -204.618322340972810
-15.124444850722696 -68.107203698082088 -201.444070609100976
19.951437116673258 -72.065524687169543 -197.752886863249273
-16.853693865899388 -68.902435856504525 -203.591994884634857
-125.829502001260181 -72.392460767178761 -209.785249119400419
-19.288969016770267 -68.534336433481499 -207.701395700685396
-132.425663609047717 -68.231147560983516 -206.275417567352662
-11.502907591559165 -73.281061304735886 -206.149653506567631
-142.692099280029794 -70.768002594371112 -210.067438794625048
91.833236155789052 -70.826188260496693 -206.711099741781055
-165.357773551828245 -68.485246842259883 -203.394627176007305
-9.071443948100281 -71.767308755110790 -216.574779939381813
8.719153166625880 -69.107718787488878 -214.256810478799821
9.509827631970964 -70.280454175935404 -223.100908420757662
83.733567640079372 -71.655073135296220 -220.825286528417166
5.645092013007343 -69.346429258533846 -216.915784875154174
13.543590051668204 -72.650902684626075 -217.191331264181542
-15.583550053098612 -73.086468441103932 -221.416421500670594
-88.282822459009452 -68.877345882018474 -223.657947908541729
-97.887230873181977 -71.037311943135521 -221.324018235068905
-2.713359935550443 -65.687580892852239 -224.873658984434769
-165.391290624036628 -69.833453597157941 -230.916800107373916
15.333268537278801 -68.827692550304619 -224.057515995189306
-142.881903644646087 -69.462214241988150 -228.678585836610551
11.369185720681052 -69.534622715800452 -229.218098884067189
-134.140417754570876 -70.865071754640184 -231.575023194178698
-119.303439389878548 -69.524994896787419 -230.927021750129967
16.468700086759284 -69.234436961012435 -225.643139403512976
79.156104363560502 -69.369008545374271 -227.522990342495007
6.805308662722972 -70.512111526442382 -228.094346658064893
-112.993113279441417 -68.609194611484625 -234.168322445001991
77.040061569477999 -76.006145443492088 -232.099423265216160
81.033112059944642 -68.914702267426719 -233.422902796766465
-126.654759443111004 -72.024551883393684 -237.130798558385465
-113.580172119557403 -73.600624822464468 -235.958035960908063
-8.738421495902926 -69.317012307229533 -231.867295399194035
68.783225198818585 -72.149401302662795 -231.553758722220039
66.011176370069165 -72.236487782186956 -237.749418123820135
76.574029115390886 -73.172526932311612 -233.882267691689350
-133.077851728697937 -71.144326721368316 -237.640561701872429
74.519040117287560 -73.639097144543925 -238.934650518317369
67.129478117270082 -72.045256881909296 -236.947499172648861
-168.524747981918125 -69.597366748262246 -233.088511135704351
-2.089987173147165 -72.492138477128819 -246.416964270172883
17.593036214675134 -69.216397048693381 -244.864117526108544
-7.698862380948071 -70.535969380526979 -241.185615347805253
13.290616300997328 -68.046912523937891 -239.119482684991368
64.997654173882751 -70.601057059039320 -242.153249761746878
8.758257984781757 -73.597237322164247 -243.018264881614186
-9.112710489083909 -68.600005379960649 -243.432566609455336
4.590765001786693 -71.831673705263057 -242.837731851904493
65.430182973258951 -72.698603693722077 -245.764748812660770
5.722603871821860 -75.405772396163584 -245.504705283072070
-8.834306651837643 -69.988418768074226 -247.329712179647117
15.121248665020978 -70.801414920314855 -250.447789288954226
-167.532803539376431 -69.307192099927164 -249.321764484075857
59.040193002909248 -73.342392411707266 -252.209677582352128
48.347475851097443 -72.527129391774793 -246.289007441939418
54.882722676457561 -69.757594592935376 -245.446385146828192
-12.270402266015807 -71.567447219107322 -249.861878810946564
58.501187403354990 -72.922111802098783 -248.860025698601504
-74.775887954754253 -71.089353177112812 -252.986476097580891
52.479947539833574 -72.943253973676136 -252.815617087214378
-91.716804980291442 -69.430845522652319 -255.563317442866804
-128.128918777643378 -69.229330846941352 -259.426814815627949
-132.151827904576606 -68.918427206879002 -260.052006160448229
44.629468227300663 -70.013961929383015 -256.977406804854922
-133.368149916339945 -67.948997311695891 -262.752968541395603
-108.819867837885823 -69.764475171621939 -259.678441279832100
-114.503600884806360 -71.368062620091877 -261.186484283679590
-82.370766153438524 -72.458154885407126 -259.593971443481053
-110.203700107411265 -71.066756163730702 -262.910656112499055
-124.373739365750339 -72.027342031102549 -269.085007259261999
-146.824701160426827 -70.179825003368180 -270.553283500781276
-19.086470837692048 -71.220930041542758 -264.674163091760192
-168.517077041301462 -73.429199019907287 -271.775502174018072
-15.967127713934509 -72.798394883474359 -274.424806958141744
-159.512365784303398 -68.376313527183243 -271.183627170260252
-150.742633227553995 -69.387830644735530 -282.163435899786066
-168.445870110219403 -72.080582756033536 -282.876453339813054
-16.900283491522629 -72.151892163157029 -279.981560467552242
-132.865791609106822 -68.179951701092378 -290.509129543048743
-159.795989468967264 -68.503406115468863 -291.716123618017264
-144.459769210132322 -68.853990414014120 -286.610435959972335
-130.534988220254149 -73.308558774980483 -290.156358458915577
-7.479194738034742 -70.076224951603862 -284.873891698544298
-124.282826985555999 -74.123868593258422 -290.120518533372092
-141.865599419348285 -70.837087263221420 -287.863087184208780
-115.889991893423826 -70.180548299461364 -294.058985437526587
-77.225348611102746 -74.860418415397035 -288.721986416298705
-61.883577379248763 -68.691238502684143 -293.450964454630764
-4.953585956347418 -73.520649202083021 -292.674316352324581
-49.030973476194958 -72.166618422924415 -292.799802035496668
-57.764244971198863 -69.706974111543218 -291.682522346335361
-68.603374174557374 -71.823568448159079 -294.202893243623180
-88.785590661900613 -73.323990510269326 -294.514648784615133
-95.955646710771191 -65.755501114710370 -295.866940652817561
-162.050469854939848 -67.281837522492310 -297.631435603727425
-163.901754286952780 -70.142959419170140 -297.712233840509441
-124.436046970136800 -71.194915244039137 -301.486510351538072
-143.897163732058090 -71.337238832702994 -300.544174484434507
-158.078605671037678 -69.625403957016488 -307.388400046724485
-145.853220278044461 -74.270745843260556 -320.814883299817154
46.996146622107467 -65.859420795150982 -20.211041687296383
13.897157970128028 -71.440343725459485 -31.088920269872844
37.288611710902799 -66.769325434154794 -33.813578860308361
-18.979023920706041 -68.669558051944819 -71.544795461367286
79.855094521060778 -68.286389189032093 -66.874047828368049
83.144653770471507 -63.960359356979616 -66.352404380043041
74.837741807570438 -66.627109252175671 -72.596055752743808
70.366953757267751 -69.365253687999768 -72.486548389736981
87.293421974668433 -71.994944693414638 -75.049403785313416
-96.215998634585560 -68.388256617348617 -73.339036208516234
68.702238323146887 -72.646459180834299 -78.016970425262542
-39.831085695849509 -65.685662892661668 -83.818998375118795
98.645789593654882 -70.855541559066779 -88.277551081739816
57.307776950442531 -66.983596206941726 -90.539465598316283
106.365794603321618 -69.772474167389788 -101.061345153141573
102.019068534423283 -72.553014089045163 -103.330641035736377
66.965265119755784 -66.392482602871084 -102.559442744876449
-81.872707236206480 -72.839741062343762 -100.417144703240837
49.319320904044353 -70.071372722951580 -102.926920550427283
101.930130793165844 -67.193089120190450 -104.679352290119652
44.080890973336878 -72.814721380348885 -111.125052589570032
76.861797837209593 -69.073379687216374 -105.915397636189169
38.904927710581553 -69.043929748575096 -109.221204155389984
105.018610381260430 -71.130819386589664 -106.012186916435937
45.592152672328844 -68.044542494813598 -111.093899796219986
108.572704670394927 -71.811662766640666 -117.579522998940149
109.445787219192084 -68.056211881410320 -118.905706289012457
-80.606447723903557 -68.837169728460296 -116.811596905456526
-86.343324060990710 -68.505114691347259 -120.376189772811244
43.040274624651389 -70.970616542168386 -124.981932185018564
109.381227499663709 -70.313429971394740 -121.567441025188614
112.621259211047501 -68.932444128964448 -126.741862272734735
-85.819388595197211 -70.786945923718235 -131.344348480157578
103.343679073487522 -70.809327530038416 -127.592687604117430
-60.890760786584835 -70.240128531845286 -138.622280077301639
-89.086083023849000 -67.976416785513493 -131.354689631144794
-76.549410524389828 -64.237744586800005 -133.661888167834775
-59.581879178042314 -67.107322647596320 -130.031933982463670
