# This PCD file was generated using the MATLAB® pcwrite function
# from Computer Vision Toolbox®.
# .PCD v.7 - Point Cloud Data file format
VERSION .7
FIELDS x y z
SIZE 8 8 8
TYPE F F F
COUNT 1 1 1
WIDTH 784
HEIGHT 1
VIEWPOINT 0 0 0 1 0 0 0
POINTS 784
DATA ascii
-146.179493663339031 -79.484049010293447 -237.833785718772873
-30.492233055111438 -77.819658582711341 -238.817183561906631
-142.096562472552790 -80.952875308623462 -244.593077507332652
19.364749671764326 -76.755530211466350 -242.607616885245392
7.082925949115764 -76.122289177130767 -245.036088862538236
-148.742437347621490 -75.678982962283754 -239.102494755661041
-147.477209231160856 -79.243523024579474 -245.885353690490206
-44.555122915854952 -78.616904957756930 -245.469341700400491
-29.636888696149782 -77.825400032753194 -247.010619672310725
6.454450619737897 -77.116667132837961 -245.240892426037618
-35.517029151277598 -78.409889199035149 -246.675468842193197
24.186654404079000 -76.392992153126315 -247.868345987750700
-3.654362238096089 -78.799068711992064 -252.275853772537943
-144.850970031349931 -79.874579189683288 -254.685473895288538
-6.941631780968791 -80.478250064629918 -253.370136696637616
-145.988810624873366 -77.985721976365056 -250.903504391737073
-64.485170883456817 -79.051368078367574 -251.284680297345204
-146.056527160868399 -86.097184511978568 -261.350195209031995
-124.933637276091716 -78.557303224459019 -260.334537136031201
-149.505473580659810 -77.904252340126064 -260.604849660584080
-9.697204934036085 -74.527504811416193 -267.753928437381091
-143.930560032561630 -83.631864014372866 -271.445362384257635
-147.713511491038616 -79.757951272590475 -269.760415136219251
-9.081659039795042 -77.671262239518811 -271.606171928924368
-143.443595541037638 -79.696189599353588 -272.438748011470864
-3.302495743830381 -76.040700414749693 -278.843821963600135
-43.918749381720950 -76.895844663069184 -286.486601211886637
-132.395237302949170 -77.445250068856808 -290.269637888920158
-132.463759653074163 -78.227873827623739 -287.780615045171146
-122.455912233387934 -76.544147958190237 -285.533335131587194
-50.408036783078167 -76.689922669968581 -287.844863593796617
-111.296992332680688 -76.755617639493167 -287.356005619337509
18.179364472974761 -75.729409410900203 -292.305093784972883
-56.147895634464383 -76.117392644668442 -290.112847504397507
-139.138668297275586 -78.574062827258572 -293.999594732565697
-60.711159415898905 -76.499671915658695 -291.757549601054166
-141.700151925965031 -82.959280061622792 -294.472345790535485
-114.845703843795462 -76.870007532689513 -292.346661226369406
-44.360213241319890 -78.666075000272045 -291.750273268318495
-32.088628091806790 -77.166974046864127 -292.536355227801323
-134.108221606387900 -76.270511374665688 -296.001321594823366
-10.769799837463630 -73.361931649113430 -286.893351647404756
5.337041084541969 -76.100958258038261 -289.911168258321538
8.674453961785185 -75.242920066156557 -292.040562388501939
17.350241396434093 -76.817414652025590 -295.719130572941253
-147.467258472646904 -81.898782602403571 -299.136715273558082
-144.050500470993370 -77.561657118625860 -297.646514966608322
-66.982556384022047 -76.411822030625771 -62.767124647488316
89.089700075200298 -74.775192827033479 -73.984589450672885
79.595972692567983 -74.949262569910502 -77.437613832462844
-26.386229999941886 -78.113821703413862 -77.878902060135260
84.883116920728824 -72.790272327658940 -76.008010001899279
-36.016276129484460 -78.166860454483199 -81.296844918942654
85.596250573380644 -72.077812751645013 -81.192503026950945
95.671794033450254 -71.625375253821034 -81.238722539986355
-63.940954952261151 -71.213026386317139 -96.240889730808490
74.848527806905338 -74.604182019470457 -94.543200617642270
81.237161262043230 -72.860638608461585 -97.924704201761500
95.751300017120613 -75.696827413347521 -95.203021421609847
56.270384685125656 -75.759176044554849 -98.234043289799942
-69.532557458360245 -76.786754706772669 -102.897384949524920
-73.462784401578261 -73.204067090790943 -102.862132798497996
50.996714603736820 -76.322882969612934 -105.083268663802698
-88.009734609066285 -78.953506819699896 -105.107680023005528
47.338228762286171 -73.147234811574961 -118.355091559076016
111.718903712417998 -72.860325175707175 -119.508159198992885
113.839481615914451 -74.927825904755124 -131.350024713891429
24.417197992492280 -73.856130168191058 -138.581597833637971
111.485276608350134 -74.528867176361260 -127.064116666912085
29.103714099802168 -73.776616531644166 -134.762109084169737
114.373562266264258 -69.705531201913061 -131.299851845514610
38.942727955366848 -73.755276479137876 -135.408707904719876
-52.949872259603609 -77.071012606940101 -143.245727374327032
36.975101825910784 -76.751177712388071 -144.678654321590244
110.378273467435037 -71.909273783937508 -136.513507598410058
-46.555791514735006 -75.583406651783676 -145.551973821287504
33.419687595854811 -74.467768134651436 -150.137107689848591
-55.213238160431786 -73.024159342982145 -141.853143316149499
-55.362025962996967 -77.059905840440209 -147.272170966446453
-50.300321103859794 -78.778958320806339 -151.246738095492759
-63.185923188398966 -78.994060304698607 -157.461620211712784
114.535075572364292 -76.088953154309223 -148.158746144738984
-48.648453320881970 -80.774684148138576 -156.698889188967655
23.918789714355469 -78.455520991542627 -156.627832787787554
110.049988302650490 -74.150601962555655 -160.467949114434987
-64.618514426765799 -76.537891918710855 -156.976681721582281
-43.786300687611060 -77.499069178646295 -158.047755355095063
10.006139630760888 -73.392140283959918 -155.689953735432596
-66.452355480142543 -76.869007577623194 -158.420204639427766
-61.423894237011268 -78.482545248712128 -161.222204058325900
1.113155871392660 -75.815081646295084 -163.303230288287665
-41.464840112776486 -74.378675905938238 -168.889827041210424
31.182767445196063 -73.309832924298846 -166.984533888341048
-61.286885838034109 -74.481849909192562 -168.618991749854530
-55.074518476255278 -78.046923153630800 -168.760958060489742
18.300781335856815 -77.330394341758307 -161.380529063574357
-29.219151078782630 -75.746813821831310 -170.124086100004547
-27.867899212630732 -78.288696698420296 -168.124247812664464
17.370355835830047 -76.315518060965402 -175.573675719158558
-40.691091034465693 -78.523512930853215 -174.232775513632731
-9.658235322318978 -76.661555788731306 -173.750454359050480
-61.928805665939031 -74.567357820369708 -173.443713901068747
-5.077803817675505 -73.680494304229740 -173.975923563028601
-20.781855651173952 -76.463569954287763 -180.915456648413169
24.483941020097905 -73.342265506951406 -183.680638550052663
-37.422940198864126 -77.190200959307120 -173.514071651590029
21.314106350428858 -72.567516062220776 -177.712868515407678
-21.362520767183131 -72.945127795633411 -185.777257526147167
-30.655628347043706 -78.048166760437610 -180.767957233974300
-146.202440224055778 -76.909933704350252 -191.743188598062261
-17.967558334130842 -78.948409752395008 -186.002951485615654
-140.595525916154401 -77.373240737941956 -190.866088943735662
-150.560931146416266 -78.346270345776873 -189.232479665155751
-47.146412519495669 -75.192066755283449 -189.185349246391013
99.931914365428412 -73.266929672886022 -195.139776346554555
-143.143171800923483 -79.259928386642343 -193.550515208221441
-147.375036344873195 -77.739083293495113 -198.090195724332148
23.570607417134827 -74.159383889726669 -197.908551762608624
-135.674591019607732 -78.000350428191680 -198.790387990965144
17.356329598350836 -72.787972387019053 -199.677182049827820
-137.532632279811764 -79.516152638567988 -200.760382587920020
14.691249438136255 -72.854186303143521 -198.110557789430317
-132.354618856271770 -75.722069330069218 -199.938693619579027
7.816486229593944 -73.568174797424732 -205.241202474688208
-149.129106791707414 -78.310292635645041 -205.996204106665232
96.143172318959046 -73.693146789034401 -205.808644911944469
-14.278880117845787 -77.842381680239598 -206.970492405449676
-28.702344207961126 -75.340398090890460 -209.192434259873920
-9.519530121823779 -73.028196137741602 -206.615555548311505
-145.241046823460550 -81.137175270905246 -213.135365530736976
-33.760345132812816 -76.263592274366644 -205.667683717344772
-81.248857806256339 -79.000017169839595 -207.920875182366018
-25.068071980980456 -77.261598435099145 -210.234879930669706
17.964970315470872 -75.511127716606154 -212.829509067983452
-145.271125136755785 -77.325721887652094 -216.119517510686819
-88.166139065878667 -78.396324016661794 -218.658199171648960
-27.807338778394346 -75.050347309622524 -218.004163118830235
-24.826941787593412 -75.482586610826573 -220.849203537244762
-9.104959140383103 -76.929020228175673 -212.160409469478566
-25.699123223537057 -75.392356255227895 -211.146803288864476
-81.019491880423317 -77.176859003102464 -221.047017026919605
-86.501217912638097 -80.709855907287817 -220.422537238265960
-21.588322698433021 -75.631676018056439 -221.797310875477962
-0.134621660240293 -80.508872035117278 -224.512105942214333
-151.598497441344676 -79.616962142227436 -219.146865479428556
-0.588091271304162 -77.054936521067489 -221.256488654942643
88.193641793153517 -76.665932073218954 -226.332854274623514
-138.839646265924983 -80.425007959333598 -225.761876739721117
-4.519047407953619 -76.499833877878189 -223.391132250230640
-138.399891286662893 -79.547760735484459 -227.999772510665764
-145.118962413618533 -85.774168896813777 -227.884166022106683
-4.409483191077890 -74.534976181474562 -230.028073899639850
21.049645944446194 -75.659346905868276 -218.399664618761079
-137.985673592841152 -77.033322534461888 -231.270689215356896
-14.992583813614928 -76.822215998638924 -229.563710199105458
76.442110701376095 -74.816644995031140 -226.846474170153243
77.578015355208805 -74.091472397267893 -233.344569594693837
11.411235148947997 -76.668446864264084 -231.514978572344745
-29.086401919570026 -77.504521256764164 -237.932500653398421
-19.524838964640814 -81.245770419572310 -242.602834625527038
5.910483823457760 -74.044002123496540 -244.171490461738074
-45.353109836422725 -73.499501860516958 -244.177233952618792
-19.997359683592187 -74.809779087525456 -244.052201508662648
11.210167877828649 -73.515783786745644 -241.790276414171103
-61.354134961021998 -77.107065453237212 -246.856900094475776
-32.023790116044246 -79.086748406152083 -245.002609748359646
-38.449046568253493 -74.854353434591161 -246.529085140950457
-146.890900951298306 -77.132321677843734 -247.975912502950820
-43.724137587734155 -78.637255961779118 -249.108089698991677
-51.123894003132712 -72.236380337597950 -249.052237696091453
-64.207203987825366 -76.867033611902130 -251.032408082906755
-8.642141942382279 -78.375459220196802 -249.107084961755874
-77.813939283002114 -77.770813497041061 -255.551718241621842
-153.749806047910454 -83.468091621882024 -256.712346778041933
-139.078939460070131 -78.075715220136132 -256.739013991354682
-120.987558357720047 -78.928518985362317 -261.448900491417703
-154.472702198478345 -75.502683189378985 -262.662743496360633
22.111900587415743 -79.564295587881162 -266.030522423671755
-11.556016142255968 -77.601051752789388 -269.626292935809943
-150.899807063178571 -80.881084969706365 -274.966094398431267
-149.577563859325636 -83.444664404025644 -280.040415757947812
-142.830441563114533 -81.417734413772763 -287.084912560149405
-56.081022598515851 -73.321804741498170 -283.595676510355531
-36.386176372812066 -73.137543429843589 -287.108309563822388
-19.123489371730230 -73.851227543752657 -289.384320936382835
-8.429720486688893 -73.409874980970301 -283.126596352633555
-63.512023677723640 -78.816631997846144 -287.375785407671856
-77.882592302553661 -79.335631199356499 -287.954080261347826
-0.487205211080083 -76.452335790450917 -285.610231674958811
7.519242128156701 -76.380706323135286 -291.498776038056235
-135.864832292061180 -77.191171836863973 -289.645181351007295
-77.191473792677854 -75.007549336003734 -288.718940287501823
-144.934449831638915 -77.774564872925822 -289.891620843259204
-91.941450651942688 -82.333840012081367 -288.347838044723915
-76.259763156244816 -76.543239744007437 -288.676557285594981
-82.704622694997525 -75.044903634853952 -295.259849441907591
-59.407532178665640 -76.271818738491092 -292.675928175342847
-26.552502172216737 -71.791923418165453 -295.016947703628716
-4.180656227186103 -75.192809213583232 -292.225198560723811
-149.783795867938835 -73.745658874533348 -299.220209282971382
-147.615616735071598 -76.989240140144858 -302.330059430735901
-142.314408944882956 -77.950378108010497 -305.431294760656044
-154.152133798054876 -78.277766882288461 -307.767720916912822
-56.164555530073692 -73.844286109933705 -56.966434983263824
-46.363130655216828 -74.819544931143909 -54.289650322544489
-38.471260383271954 -76.222642753249758 -55.685352553498916
-75.819092212292489 -77.994589761636462 -62.396645588771989
-28.209772122244658 -74.439318700618585 -64.863824228207093
-32.063476156931102 -75.180480368167224 -80.697639006241701
75.894332337313429 -76.068903606247218 -82.238241434370821
76.219511073535330 -74.272797051998154 -80.896863967473124
74.489965833867117 -72.372175815145511 -84.237351008322307
99.470417076608840 -70.710386135045027 -90.344876989536559
71.383229664316246 -75.317529359463578 -89.829089596104225
51.259690907058619 -75.607448669250417 -91.145808159225979
51.256015835697490 -78.111196045168342 -101.142383204646521
-65.860590594915408 -75.372978503930341 -102.517293700160124
-72.247684755862693 -71.074759324469227 -103.487353647974828
46.039936281722625 -75.125282106795211 -103.872011089717731
-81.035953113018834 -80.863989552897067 -110.917431294476302
-92.120027231585681 -75.073882891796771 -112.852307681981017
52.124967330181711 -73.697121286752420 -107.900753911009360
108.553314149892074 -71.881386187538155 -113.604404397868024
34.001292905233981 -76.064863012907338 -123.932296091818031
45.130681201764197 -75.125117073384118 -119.376846595549139
42.282907607883352 -73.789257329437447 -124.816790863612781
31.085836959975715 -75.605895320535922 -124.236290415845090
110.215111383554799 -72.775888987171541 -120.382173954578619
40.598347593878103 -76.007008992341369 -130.899025365993538
33.933808321276693 -71.365974875805392 -132.371960264338327
-44.179388836348650 -75.157870721664423 -144.297225662073174
-69.712711061397911 -78.099899247143085 -145.768598790214384
-52.403962010206236 -74.707157963856233 -148.215595110023315
-71.645928875000536 -78.916441307515882 -147.447334204726928
-38.514602784511787 -74.774895060868275 -148.652814300247826
108.591049769145769 -72.402237065648436 -154.169473163094892
-70.361691809453148 -77.752083544171185 -157.221865761685649
25.130717437856461 -77.406048345849115 -148.460143602599175
31.864255007610076 -76.306829413094547 -151.818861171056341
114.115710294352169 -74.937332866437259 -161.266812177637746
10.803473516567719 -76.513292041252654 -160.149821819231164
33.781096501195911 -72.611415101141787 -156.126082368468275
-62.454395111978059 -77.321301193025292 -160.534004043124980
-40.241085177303226 -77.147696165416335 -172.715054937045352
21.783489474227910 -73.807744046941423 -164.059958636096354
-63.255385844892693 -75.108062419671128 -160.998160542265481
-67.841304807517005 -76.466643454024407 -166.794846139329763
112.885526170643615 -74.162373988972192 -166.245015795177011
-6.392883827334913 -75.796407261055990 -167.555164762911716
-62.488435044152354 -75.393830895653863 -175.184970332751277
-30.624103188189864 -76.754455662294731 -169.614383185533114
-53.388617448062455 -74.833830941749895 -173.919091388409981
30.866736412727263 -73.983722645626884 -173.292363969679229
112.214866567767757 -71.062001428194691 -172.968388431803703
103.988996429772484 -72.169272304385217 -183.693084109848598
107.372257952056003 -72.854376003672954 -189.456705708395276
108.379307139950910 -71.103962971801437 -177.136917807721687
-50.691944644993335 -75.085896447422755 -191.520767803787123
-47.845797663299344 -73.267860151719006 -184.121636401555094
28.182138568430169 -74.732746479547913 -184.072762701818618
-47.293150622588932 -74.449128701860616 -188.213334522658158
-18.918041435369545 -75.825927334721442 -185.267827221545730
-49.300040622541324 -77.747403004487722 -192.753814591063502
-149.584138268202935 -77.319152501289935 -194.826552644728082
102.903887553941061 -74.242477630482725 -193.066552823320364
-43.163133556172021 -73.498975983009828 -195.111463172146529
-12.767854958947098 -76.633449558267657 -199.376182994317134
-138.461279292910604 -77.951583317672799 -196.351634539537770
-41.637703299757625 -73.674796034846295 -198.858902354642879
103.637732008430774 -72.305892575177680 -197.245016853642085
108.439830945980489 -71.399871535087769 -185.796518296167278
-42.855014908762207 -75.621533296708520 -197.568844233273040
-21.459792520491320 -80.396478883164121 -199.004323855562546
-146.248977156973268 -81.834277182724051 -201.739842496262128
-23.443584390020746 -75.847338198144669 -197.897054960608273
-155.805675005958079 -78.930038146852866 -199.877620134739402
-151.003466824658886 -83.418905360662208 -205.954821958497718
-141.549136999017549 -79.709302563420991 -203.696847632482530
-36.820801838665837 -76.194670869672109 -200.951529568732752
102.798381061931522 -73.516555819767603 -201.846688788347791
-39.437053851961466 -73.922845783845034 -200.848518636412535
-141.562284065184286 -81.138112589433305 -206.793098841360347
-36.267925712106489 -72.589602487896357 -206.869571473873663
-19.010086282245261 -79.222983528198824 -210.914436775855989
98.671701755718871 -74.645146718308951 -205.406617631774793
92.980953278818163 -74.008969170792383 -213.498686899560028
-32.751661869912994 -74.186080543693947 -218.231247908981629
-85.786284770966319 -77.631078936219595 -212.443055000753702
-74.006807182512034 -76.986190629604721 -213.088247001215933
-16.992200618270420 -75.421719384149810 -214.736331052504624
-148.181868618097525 -78.858694234665407 -207.762230067957944
91.855176523737740 -73.115499561789861 -213.703035989569798
90.578442707200324 -71.406056713208415 -218.463072813301864
91.888202373134732 -73.121616430451994 -220.324587079105925
-100.559305582978439 -76.936375766021186 -221.800408699544818
-151.259662100338630 -80.397634617366620 -223.927600600135577
-18.311966759168779 -74.152932963692905 -223.630943228545789
81.596877354418453 -71.069029068090529 -226.341425171092425
-147.813549344564990 -81.249980192498171 -225.881448584905570
-26.316538110342638 -76.563275337072710 -220.030180858990150
-131.729986485880062 -76.200377068060547 -233.089709391882678
-10.029942758624010 -77.428072325503663 -230.934422146679168
19.186362744565535 -73.935916278003660 -226.782429188965580
21.455057199244500 -75.388443292649129 -233.441999759906366
-152.951088674196797 -81.120801362292852 -236.188542330848094
-124.163961735511762 -74.401087944828475 -234.507168660229297
-6.449799592499215 -74.399063884474899 -236.138670392342959
1.836875625570392 -74.230327655885816 -238.086973537701539
70.936434711467641 -73.235999693858943 -233.296812587527512
72.373927266478333 -70.904775819135111 -238.345857337632054
1.389582609860472 -73.565256931088285 -241.133974276144698
18.117261095921023 -71.274635742588771 -240.460968769927916
-28.502403045033766 -69.896600020017559 -241.677244995314283
-31.780501580506275 -81.033329511949617 -242.577397693768745
-45.097942844110399 -75.251057894654352 -239.898594260008792
-37.506422956051907 -73.775369143205822 -242.089448486400926
-15.629833469803843 -76.421310824274016 -243.721609600472561
-50.653962175437393 -74.310142203825023 -245.078777435845069
3.681506403835257 -75.080924867702834 -245.948237407279095
-66.358348238385474 -76.850266905482229 -245.511617439504676
22.535223725015666 -75.185753126054081 -247.829181626562701
-142.250416717030816 -79.914831160289609 -246.959413443150197
-70.760749038563873 -78.537709882590320 -253.046853645316133
17.183322500691272 -76.034291950525713 -249.930969229589920
-159.509284332313911 -77.055275350031067 -251.449593802818839
16.987529110878977 -77.694340042497331 -253.541640956949010
-78.203412154244532 -72.718154413560129 -252.196186584314574
-73.329703582756707 -76.926348284676834 -252.242406617002104
21.517765409076748 -75.824519929829819 -255.767182883421384
-87.353519054390134 -75.934128198549445 -253.723611677065122
-123.879929965637913 -74.864805753699571 -256.894195813922749
-131.609281620102450 -79.702575518465608 -261.342713418289861
-133.156570009325691 -79.773355648754290 -256.591647600388114
-145.191442273736357 -78.381210856276454 -262.822549425386910
-142.528903771454623 -75.443728768823973 -257.000806361296043
-132.977989142234406 -75.966101362479066 -263.580647351915445
-159.835819455001882 -75.555986955837554 -262.797732972707877
-125.131232065171773 -76.470312881038851 -267.962947929907273
-133.515861150554201 -74.116634572964287 -264.434305268171954
-161.832166430146657 -75.615021285244296 -269.425200666717785
-154.869966022275122 -75.634086387757293 -266.131921237589381
-147.457390183153422 -76.217048872100804 -267.463567112662361
-146.119777231436331 -78.081688899391352 -267.565067542910583
18.715647286567517 -76.876974196452281 -279.285688173480253
-164.205490349905119 -77.885977043833563 -269.133047508494087
-149.931342559398900 -78.510352173081998 -275.407870254323143
-3.675692139632877 -81.664913465816255 -273.945435142199813
-155.363921590204853 -75.926977717377554 -274.554812433254483
14.250103315997571 -78.072809017519418 -282.708942836952929
-150.283780757067234 -77.357272060002686 -283.802272944212177
-162.456092788983739 -78.766200365937436 -289.786600825963092
-152.855637781735851 -79.499147011717412 -282.246589013546156
-163.106410231137573 -76.436758221362510 -289.788309769974774
3.417870960653463 -77.128742287639483 -288.280078636935855
9.401106216392032 -78.757848053266457 -283.816205129880245
-100.000000022518776 -75.247994152014769 -292.429166501687689
-151.833788061383842 -81.710692602621094 -289.646014581336317
-146.315090486001651 -75.868708997384488 -287.847321852284949
-105.304865633996613 -75.825177282453481 -292.303152583078031
-150.129854102593981 -79.664942232377427 -293.812489060475173
-146.379107086504064 -80.282626665027706 -291.279384401135189
-70.050291467940440 -78.341667538629906 -293.885267188898865
-163.717308483230511 -79.568286478196157 -291.514373401892442
-121.140061730261223 -74.466213694022372 -293.160918391155519
-41.103588969706585 -78.795441970314101 -289.059160207880552
-151.364169825447021 -77.442077856399479 -290.445756335684791
-131.187820577920661 -73.291315572547234 -295.286621522401731
-16.622907013610543 -73.158344541526134 -294.808751807579597
-126.019690547096076 -74.664718755213329 -295.193853615941691
7.887755451934065 -75.453591893201576 -295.166429047912004
17.347949062728595 -72.540536015989545 -293.300669027504796
-131.593591593108584 -74.745711014002993 -293.586535599939396
-143.570557496289581 -78.757941080792918 -299.068033028223056
-153.954360481671500 -79.617638113444087 -315.833056310713516
-71.513090967274749 -71.476448260946569 -53.842472623152418
-21.616609524688350 -69.856510852216786 -64.973243735179480
-19.482120908110314 -76.296082886739171 -66.173429620289113
73.352180846950802 -70.801512685510190 -77.451563143398516
91.775140574046119 -72.014005810538166 -76.036756732538947
-36.205423743062752 -74.386087078526486 -80.208428044993724
76.065060635127608 -72.056977712574991 -79.905424139668654
90.369241895953294 -75.539399137363390 -82.533102665289420
68.761312274770802 -72.672672748902215 -83.960174060280991
73.510491680325089 -71.914732251646342 -89.200335457757433
-48.901969774557294 -76.342507555825051 -87.639895240669475
-90.914139446612467 -77.864802756295191 -90.031765270014276
59.630655164909662 -74.770823102412635 -94.371711313301418
51.034878926821953 -74.506090935524881 -99.601025573147496
94.610629288343233 -69.902786539181307 -99.488416131686549
-91.337759277448143 -72.009267839878973 -103.415097148060340
82.759992283900317 -69.472139964666056 -99.586227701882066
73.998144964486613 -73.000829516678920 -100.485255618677783
92.606225473425283 -73.861213050085325 -98.619620905356754
84.086018537246446 -72.069473916066528 -98.386401890819101
83.947382240564579 -74.991785835703112 -98.934836569599327
-84.376645806229945 -77.339027579267182 -104.047075707658067
43.400630755480066 -71.920941751566161 -107.476191359064813
106.443796682222086 -72.838358912629730 -111.023572203089799
109.056982860260135 -72.407307044330921 -111.019677435715650
49.199983461817432 -75.396821601851144 -119.426962669407729
112.225323502611246 -74.014075459086726 -121.317092338309791
117.806080511893597 -74.349957870945801 -135.137880255970032
-50.362267218511356 -73.107316141250763 -132.687895884475040
28.460870969451804 -73.103132656453653 -135.342595732176790
41.767524125365746 -75.638443598602834 -134.316272805656780
26.217160126593622 -71.099435322847910 -143.614659481248026
114.148645250491043 -74.342412630252383 -138.648754061843277
112.876076070880558 -72.624936179199622 -132.086119913197109
-72.401363916866060 -75.399234120814583 -149.855722838415659
-42.794812047235467 -74.235181449448504 -144.257501531009751
-70.038923284186012 -73.633690813182398 -152.921640051062809
20.879246101745267 -72.347584441804969 -150.609947193320579
113.682382585703365 -69.954925968688514 -149.756868092756463
-52.396145864828185 -76.144769568112238 -152.407368347590648
-70.061732293501549 -74.087102736416384 -152.627114109189478
-37.635659453097482 -77.722321388761102 -153.826575061739703
33.491474550008782 -68.911693473168810 -154.082923432845575
111.164850580113367 -69.244925099385441 -151.561562098388833
116.609634325257957 -70.859996907213741 -160.909919215199920
-67.060228851486912 -72.380167930913586 -156.670330423738051
-71.347665960065584 -76.857097797353973 -162.771437865161744
23.083320314543748 -76.720249204709930 -164.243360155042893
-58.823507609669726 -73.099894051092576 -168.398007270168335
-31.543487977546352 -73.272834033628214 -163.827832025697347
9.175990266075910 -74.909415088778275 -164.486056431987919
109.978685515259372 -70.087260950708355 -162.091404772446708
9.205360369712910 -76.460515352948292 -168.000360187639359
-31.525507748320891 -74.868260931742839 -167.012148653695505
-0.704227628996502 -70.258358916363235 -166.900389378044025
108.852922166640852 -69.183769500170882 -168.507677055833909
-40.139304672558872 -72.312940111617635 -167.005162431765910
30.486940244505732 -70.811336834565807 -173.126975943652582
114.387944014434666 -74.555063782403849 -172.805630633041289
-55.920499207782491 -72.232636068872168 -177.740307844976542
-26.789909730686080 -76.761193095383973 -175.962383496637557
104.327346423303368 -72.043010492229470 -174.587397708549787
30.409982584632218 -71.628357609159039 -170.624866700097812
108.993625774198051 -73.563818256784700 -175.602336456142012
-35.576333784092910 -71.653491656956476 -179.563264386563787
109.811186290428495 -74.213826382507634 -181.114525768325137
-60.541872501633037 -72.799220828483172 -179.186288757404554
-24.054999228943842 -77.937465526326136 -180.153736375955788
-145.056299884916371 -72.204148530575935 -185.762800620440288
-52.761217144485045 -74.035967509280155 -182.241931989693626
-145.644834742766307 -76.936964790705602 -188.437999516713063
-32.670408298898401 -72.567126588973295 -186.413299397039509
28.364572986730053 -76.822870855781474 -182.706091511432049
107.904739526695124 -72.419905086883347 -183.742617635601846
-32.589489307029339 -74.675797774317985 -185.264758359486422
12.486827226515794 -74.233113558934974 -191.862566680172932
18.876936918141698 -73.142866607055623 -204.586407798319811
-146.654005749124423 -77.177780935261197 -191.918200148901974
106.610777723795096 -73.829376909999908 -196.009905831632892
-19.863606822341907 -72.018258497967395 -194.484720532840669
102.821422269545579 -72.783688604027930 -188.741859426969825
14.322274165850526 -71.355416657543543 -190.521716875850615
-135.298674652715818 -76.055223630682747 -205.811181207647081
-137.229829146211728 -76.104281268905680 -202.005677939944405
101.881729609383754 -74.358503565294967 -201.828582548926306
-10.262142356146436 -77.579338158204465 -201.644040694418266
-14.742948309007291 -75.007263057064876 -204.227810097990897
12.217371455171644 -75.519269646731743 -208.439925239105719
-148.414691858086371 -75.031208226120953 -208.100581698927698
-144.567992542160368 -77.818879370849132 -210.235357006252798
101.600914117407058 -67.985048122797281 -205.125108903154342
-80.548505068302617 -74.910934355844290 -209.890590681290320
-34.438878171252938 -75.061396350766628 -203.050273065332618
20.536976414256024 -75.954199082813417 -214.362069172430466
-23.523807858361835 -74.747746123908868 -212.443662086571265
-74.916573164484561 -73.661542447264694 -209.548329972389610
92.644608522317455 -72.156128110944891 -210.249881988791401
-78.780029185701693 -73.019957181921598 -214.081139773012950
-145.606649285392223 -76.892386586974681 -220.799139082503871
-78.298139690807233 -74.069615838813604 -214.950898077008389
-11.671371401657886 -69.626944639177026 -211.129714211730146
-18.981426316382784 -71.835252572287033 -220.202585414626526
20.177364247323830 -73.359995998377016 -214.319108855907700
-3.732999229602456 -75.253010207100644 -220.704186434916664
-86.473057815556388 -78.503751332966047 -220.595599160811389
94.278137005537104 -71.320797727700196 -214.158665597342718
-96.693413548611133 -74.698275097570374 -217.486419237564149
-150.467145523120848 -75.885446465403021 -226.285790937784469
-23.442384061568017 -73.289397271044422 -224.984836503998451
19.473258049146860 -73.935711457521037 -217.063927157510165
-100.280736237945504 -75.784595355294300 -221.851553623595947
9.063930149190984 -70.713685777060476 -219.960875425497505
-23.963287609565640 -74.326731275608608 -216.933149185495665
84.584598164469881 -70.675219758192640 -224.803282567292626
-143.581324313336609 -75.756136956479779 -221.315501141128834
12.074458074633933 -72.300959178529538 -226.865135235091770
-7.655968103930216 -76.835475366844378 -226.913787371749351
19.136710813902400 -67.820630295191648 -223.541368560474382
85.374447295898051 -73.020136991992857 -222.879088249888412
-11.765290584577246 -76.185390165667869 -229.764618075623190
-128.738532437525521 -77.271247915108233 -228.595667074896880
-12.077154419152308 -74.195415744855680 -225.704096240374980
18.560680124607746 -73.850915577249808 -232.161188838713173
-124.880237178426640 -78.080579611606822 -229.250375461666124
-149.847559904737722 -73.509881141373299 -231.759450147833746
-140.606467843698709 -75.373498819649328 -231.031776395244407
-129.129277973785918 -74.357904759251539 -229.951875091453644
-11.418822786893662 -72.025508336556086 -226.464603886503113
73.611946799179478 -72.065974467658577 -228.851843563520191
-141.501588076893512 -73.009217241834321 -238.424064628161233
72.580768836818578 -73.470631243334125 -229.430785023118148
-18.601932833159314 -77.212494970351571 -230.916848530555569
-140.398580860102925 -79.503805187452599 -231.450592177610247
79.182801673628873 -76.912551012862608 -229.473981834998796
11.585770837369209 -77.238042076647261 -234.541427017606480
-139.691090068043678 -80.346232100019790 -237.385770529976298
-148.246768705030064 -75.527805308780927 -236.067229343791041
18.581002844815441 -70.277987843578060 -232.507057701031158
-0.820318309736232 -76.049503476413861 -238.841268992416929
-25.867659805818707 -73.667155740413023 -238.532695625988509
0.116763030000242 -69.899463489277977 -238.769314684743932
-158.894669026020068 -78.625109118651423 -239.965540460593758
9.794629885970583 -72.471590757056390 -244.630772548889041
-162.852139721472184 -77.193199670295456 -241.038899327886924
-10.948401701716881 -75.036469223563770 -238.909001065318563
63.374202580947085 -73.311076050378020 -239.919803957772871
-11.271192094951088 -73.021019104010605 -239.349282053792621
-23.033046779325904 -73.363919188775029 -245.684852479441219
-23.165930843474928 -73.621687156208893 -243.085740006898078
-10.961646867515869 -76.040547886139478 -242.093021461945369
-144.514846462204503 -76.636256196338167 -233.166006402821353
9.925209628150267 -72.838347942703905 -243.415843426602009
66.091464298592925 -72.007759701883813 -244.382545477593055
16.534665516224507 -71.318948845327128 -246.177085315263042
-164.137403219944957 -75.081461485342771 -243.883141304050810
-48.661738307455785 -73.528337947769018 -242.291538458168617
5.971937713066759 -80.164624543945109 -249.226393432669994
18.864440075729394 -73.370040478438824 -245.265907294054131
-52.328696510638579 -73.885186195179742 -248.724074032660809
-1.010034577277620 -69.877766418322310 -249.456822608064186
22.912601902271284 -77.931105484772957 -248.926197402347412
-167.249160559220371 -74.903591804991677 -251.105663287685303
-65.609269465497562 -77.932997811550180 -249.764879493074062
-49.698912113420853 -73.399766935858949 -248.916411300906788
-79.200842902075621 -74.101987583126899 -253.052440781030981
-159.089867522340796 -77.332244084697905 -249.243356022372467
-148.942532814332111 -70.589353582912835 -251.785432733111776
-58.161937300288990 -76.360501566427146 -251.233347638526510
-66.852602016111121 -74.615504273094473 -251.594686365385570
-151.715150333616492 -74.437615638615142 -254.956867738373859
-150.072591599369758 -76.976795747346813 -254.539170455206857
-73.974718820874031 -71.857067219735185 -256.119295384550185
-91.533314712461276 -72.804925255223566 -257.080657684409175
-162.538463108385059 -72.005085791890991 -254.594608115832983
-154.834730058117003 -76.508891092453823 -262.018221113073139
-132.805369424195561 -77.326378629998288 -260.400371956519621
-81.217980391492517 -74.952603230804343 -253.129752686188766
-160.279135365667514 -73.682590082315315 -255.287590107317413
-139.917830293058415 -74.302031393306919 -259.088161426777560
-83.420778918711804 -74.146807764758620 -253.062260695394201
-94.760693326907372 -73.054391264933102 -262.242541583616060
-143.092401207991827 -76.897329318665683 -258.209955539542989
-91.547041286908566 -74.810853191057035 -257.980588676076025
-150.666981756409712 -74.642360205544975 -258.313321090301486
-100.384699662598862 -74.799006563475615 -257.524064753497214
-166.714124553281749 -75.785822102132826 -261.260221054374369
-159.451956618738421 -77.692794060604257 -265.767131959588482
-124.409079259557600 -78.429722759229520 -258.686940256669459
-149.703929595027034 -76.276035063626281 -261.729634072091244
-109.909488627743357 -72.792197967976279 -263.969193214433403
-12.388453232164894 -72.555297612874881 -263.229784746303949
-139.602352388619039 -75.681193541836990 -263.250900604862011
-123.881098301975683 -75.034268579130142 -262.245511415042415
-152.209960147763923 -74.650214677026767 -265.000830725905246
25.618645944774460 -73.917751607322828 -271.865813171344087
-146.500563760186111 -78.291228602170833 -280.933381845275392
-166.271384682736141 -76.760237519230998 -282.552696476619474
-6.075879040145060 -73.816597281148546 -280.737465939961226
-143.725265446612894 -75.995828674643832 -282.788765074607852
-7.422632322472905 -72.335394374240082 -284.497351055212278
14.995764196223019 -73.736083776948718 -287.242373672175006
-134.491407819145451 -74.489481943350270 -288.205570147941160
-66.078324078982575 -76.447901050330273 -288.673647436885858
-31.096284231080205 -76.359505367509598 -289.532578349459300
-110.722056028169192 -75.365538599773046 -286.470532265180509
-93.031256492749705 -78.737102503476407 -292.152647162471055
-87.394067834652247 -75.377592497323761 -293.305096749313293
-47.567855239380158 -75.747927304242566 -293.495944006250625
-113.675164174977837 -79.480030939616810 -290.655480452911092
-111.471560182618319 -76.681736497210011 -292.337580029806134
-30.920046532187147 -71.855400348759105 -290.705108954659579
-113.080810874354640 -75.998721776970740 -295.102685095292088
-124.932320463243244 -71.794925903354184 -292.411385602500161
-142.119357832328660 -77.963336284666710 -295.865695104042061
9.358037088626535 -73.297338550370696 -292.728045978682360
18.887019495067474 -75.057745792820540 -294.444557950338549
-157.662122417080525 -76.275472667940221 -295.243261086327607
-155.946888333629175 -79.800307049138695 -303.050163871582072
-144.583218490774357 -77.473570414968918 -312.799317635334887
-149.619051852248873 -75.102497789736276 -313.201389006526426
-150.140109951009123 -77.780438551669306 -315.904879089067663
29.425373157032009 -74.804791126737271 -15.950186858000293
31.297119943569911 -70.108242512239826 -19.318428610087494
22.018994480445269 -72.307343533682257 -25.378881601069654
29.588344383129211 -69.988344820350704 -40.327902779889357
-57.371405319660262 -72.561475013171744 -51.405464784383213
-64.454799021872006 -73.188614668348237 -51.887120225468337
-38.040614218257929 -75.961571847404088 -51.813100297892888
-83.651836984070002 -70.307805454365706 -64.800558224245165
82.162750500754953 -74.267769640962058 -74.895610502016567
-14.589105412417130 -71.185328164997770 -72.435903595221433
89.974101421667271 -72.178414115111835 -67.038923852295611
100.257946589519690 -70.921197224835254 -77.572830222733046
-91.685628958786040 -72.412900804822712 -78.253541782872276
68.577948515665469 -71.636033571006209 -81.240158820221296
-40.002239451414482 -77.185711755799218 -87.158341878202734
101.839104312050111 -70.243191210518077 -82.681154465753693
-54.641576587943007 -72.458005081110727 -90.298307388035226
52.044332772018869 -72.440267615653184 -91.496008273415384
72.035332513615870 -76.821020408823301 -91.530656026392720
56.517554853242778 -71.227765410391640 -97.213197600975420
53.904538183063956 -73.786420162923179 -99.486102270623533
75.500273916989428 -74.778816798057747 -96.435414597262906
47.579208501256282 -72.019968454930421 -106.192719837564226
101.490983359763803 -71.988989683426325 -101.384743375829942
107.066582562334446 -75.139366344581020 -106.986627368499143
81.022456456210890 -69.045678476755867 -104.193521189182619
92.915099445313103 -72.720715513574760 -104.122133057596940
101.895942551842751 -71.554269443689279 -95.745303142909421
110.599174145377120 -71.784078064493059 -104.255503421109793
40.679836895986384 -72.377229079966170 -107.145678186893676
113.662396568535314 -68.696786357941704 -119.167091634458686
114.984170966373100 -72.521521418803559 -119.375648214454046
32.520481205996198 -71.187500990468209 -124.605317392746528
45.955317872868761 -73.576101570195888 -119.842309144678424
116.538319309239554 -71.703733721763143 -130.682753711546013
37.476786168647564 -72.105374160244864 -127.683681701557944
116.373078644035544 -74.767556857245197 -128.204068248909209
109.991087233988168 -72.321993188722146 -122.966233418210194
27.759846204080652 -73.534315159460505 -136.650298545595177
-46.618453834940752 -74.327497562177726 -135.702801958089623
-50.811113198951368 -72.424067700711731 -136.754867408097937
112.655992231317015 -70.759656015366858 -135.491383057678604
-67.765666480161357 -77.914987275177623 -142.217371473570438
-71.420719575019831 -75.051353758612450 -142.126250972285277
-57.537734831182831 -74.703201748400033 -142.873480304257299
33.332241448795891 -72.716561477916656 -144.664871603984977
117.633420371608054 -73.085134806855038 -146.362461363810127
-68.008349899629422 -71.297095528755818 -148.879304056051609
-46.568376574737528 -73.718349208985401 -144.196031793228371
34.888399393815440 -73.324697677538794 -152.256656403277873
-66.630694404567677 -75.473647150915639 -149.569208623424913
115.383838303609636 -70.413277786069713 -141.791874507045748
113.356328713660034 -69.697361501916660 -158.044842381069287
117.834183607489464 -72.501390681679283 -153.406328823495386
-36.827299727662528 -76.329229726963575 -154.585750365723158
-63.121863794499284 -74.418417099735137 -166.039956713081040
-67.679386157512454 -71.363837322521860 -158.930373118604706
31.643141181549083 -73.795327011086869 -147.421012269166539
-0.462973839635205 -75.248033842287299 -163.341412359632415
110.725950571536046 -71.120818470186009 -162.110788704328229
113.303115197658570 -69.785522781584874 -153.502642583171166
113.855910013724838 -73.660470894368657 -158.843104159736157
-62.187637349296431 -71.675879411166719 -161.783962474047911
-43.672082807270854 -75.944744197647836 -166.786338201741586
-0.702822522764068 -72.570507581421481 -166.316754072436368
-27.532051664479159 -74.009402785965122 -176.349925847500202
107.599479863545866 -70.737958470483363 -167.740934994893195
-32.706356033523058 -76.766374434258751 -161.522777808701619
111.038529622120905 -70.031197494654464 -168.849220177328363
-40.055093045692850 -74.524558502374006 -175.153628110140403
110.264956388426725 -69.419389965512266 -169.126084229461327
-149.690006944238206 -76.745241741876967 -182.312924011733855
-25.258452708012818 -70.079763254979071 -178.211320157161850
-18.519211786004771 -73.734152361330388 -184.717316917819659
26.669481570328781 -75.884384259963397 -178.164277386221244
16.830367183020481 -72.729534400704907 -184.281693502668134
29.421489517954029 -73.247759599040407 -184.077228119614261
106.105109415390103 -75.370274472106772 -184.207179735617871
-150.057188261538727 -72.973792304498232 -187.168033257892830
-17.892147297058042 -75.846553091085411 -186.199792650665472
103.943912716917410 -72.497427141399115 -179.100745072507522
104.938277765482809 -68.570088411023733 -190.201277816814013
109.940998632707092 -72.641399058772564 -178.266625297586984
100.927857105381307 -73.385460377990086 -194.259837773216447
-149.436646718387010 -76.265597877461730 -198.788527671169533
101.945445865857621 -72.514702054140514 -206.013007743863682
-26.406292828576028 -71.669336229516105 -198.579867077993782
99.370989788554439 -71.483360033139306 -196.318885324453277
-119.447303184229796 -78.352121984577067 -202.156217479642834
-27.879865611386492 -78.175911478998756 -191.526253106277494
-140.125718052804501 -71.635396103325434 -200.514824678693032
97.188733450776056 -71.881064417425264 -199.161034733829609
10.512784407557843 -73.909014811621134 -200.217404392925943
25.660179646277474 -71.648026975932183 -193.619650101611342
-146.198403028006055 -76.064233366865722 -205.156465553351040
-137.072925268478429 -74.757014217863428 -204.240409034229799
-8.154799149669119 -73.091916764847980 -207.988471887080294
-122.499622109337054 -75.082619340944149 -205.843466615371170
-141.989994449248570 -77.928971286643900 -201.920497549491955
5.804446336502069 -73.502605784085873 -200.761971440094896
-22.343291053052251 -75.822767280825701 -202.453810787514072
22.587340610144967 -75.735271791407939 -203.355270677124082
8.576967349540023 -74.500411277476587 -212.971980769727679
87.289878728771413 -69.535991812865149 -209.174161696714407
-16.518456468365173 -71.109672531653700 -213.262442490824640
93.183510377437216 -69.696007706153324 -209.532966530883215
98.972966835387666 -73.557793713013837 -207.526872374094182
-146.987832227636346 -76.660986915467277 -216.791886909847904
97.435096694896231 -73.444413865562410 -212.103772708168549
6.872483402427457 -72.329952695740985 -208.467444997240136
5.554814238676028 -75.357771299450050 -215.574071405098323
-31.087878981299468 -73.439158710441419 -208.406844474055731
-87.502814533320077 -74.128471321053524 -214.954647306796204
-24.295476706179258 -75.108689106390671 -212.218363830243845
87.055392605505105 -71.201515818145452 -217.499716101003855
91.211879734316099 -70.964938570969693 -217.582014355769900
-29.937859053219835 -73.029340873669838 -213.650217365171812
-82.484144450918322 -71.704725213816033 -220.201654641153198
0.941062046520922 -75.309532179723561 -219.894976509354194
83.891447829282498 -68.540327561365075 -213.784733098304201
-149.873376058328773 -79.362251956602435 -224.164043382779539
-163.898086981692416 -74.312674002257495 -216.734198112227460
-159.948215380128232 -78.241667720657944 -224.650031814970475
-19.379003938822397 -74.532897880294101 -228.199414786759547
-151.855382372520324 -78.540791662676810 -225.084897725985797
-3.722081029990743 -74.533971076109978 -225.688616986231182
8.530760856870527 -74.211659059764244 -219.519598386993124
-165.147727036283612 -75.754725434559404 -227.998488767184540
-156.776772975932118 -76.110832803488108 -229.778680674912465
81.355254101261934 -75.122043324136527 -232.014763719206854
2.252270812086643 -72.165663647495975 -227.826947333153015
-155.604468148368994 -71.161093639185992 -228.570291042438754
-140.465252484926083 -77.060230834312577 -226.651480429157004
-17.219905999001433 -72.652459555381057 -225.245301483033131
1.657403550941465 -77.437378166822924 -223.620225214040943
82.016092215915350 -69.611996560992125 -226.213143860777365
-159.263454711522087 -74.159590649274207 -230.316646467493939
-141.985327867589149 -73.260664034624810 -233.182307865600507
-123.090891578512384 -73.643648970409899 -233.078050210466472
80.824862673487942 -73.401028573045238 -227.256563340381973
-113.594837689605910 -74.970165335614155 -231.264750857190194
-144.365006176975783 -75.480097651754761 -231.622757512778350
-148.475547910662897 -74.297479518720934 -233.796341639306490
-146.949392668755195 -76.319085237205371 -233.693024853365614
-153.775112400247082 -76.206564513787512 -231.512159913283568
-163.027991655485977 -76.280792962490565 -231.507125647248358
-131.613818174482219 -75.506325855021984 -237.588192876351428
-131.182587690113763 -76.473077647007258 -235.378882227048905
-151.048207400925861 -79.265490655781946 -235.280230133362267
-143.340763911565858 -72.095314596062153 -239.192572245994398
-149.512405049644713 -76.105836545383468 -237.709252616293327
77.036581907903823 -74.036920763249384 -233.032438151395723
69.375603722016479 -67.451522775399127 -236.668281582682113
-154.927992046578225 -74.315603933046887 -237.824729229164973
73.760268805912901 -67.787413983477478 -233.924547404840865
-17.672858313970920 -72.189080799922053 -238.003589063398721
13.571979132545430 -74.282432791844727 -238.185840532747221
9.073229220900441 -73.928106711184370 -237.154672087351116
-152.326877261976790 -75.806495242963962 -245.084120493155524
16.748904759400272 -72.466028818677543 -242.183849927296535
63.081972758656988 -71.080552696291576 -238.707776263017877
15.521053047730595 -70.628484068990360 -239.046495959690077
7.545393318978140 -73.627645071456200 -242.724957701906845
-4.373212566859285 -71.314764650453682 -241.612948672445100
-18.979656964941224 -72.188474346248967 -244.219691550237542
0.459460950915731 -73.200311743963169 -243.186255215301998
6.077979973960124 -75.824464752052620 -246.158433667301352
59.617401142518361 -73.308580231952845 -242.329105900924532
-53.179986254446106 -77.454644612287424 -246.396970804141063
21.799986740760332 -71.898190468968892 -248.407084346245910
-57.358864684574897 -75.144641243674343 -243.492878568327143
-7.649514399279679 -73.577883198969815 -249.185175376890044
-63.910582598310718 -71.009078915272411 -252.046876757177841
-83.826809261865620 -73.087341661185974 -255.057023175534397
-80.359013793464712 -75.521460692539847 -254.014126519349162
-7.600885237959417 -72.777340347808874 -256.095920989815681
-121.598369394333687 -75.097062926214676 -261.272893351939786
-11.854244226025012 -74.357581258101249 -254.319635058548812
-114.733412395935190 -75.186505275734916 -257.877533544717892
-114.245751515291616 -73.863331093261564 -260.811782721051372
-101.301795557618789 -74.767762069384261 -258.606677794858570
-141.607028360353837 -74.674314192417242 -264.233073730284616
-142.707873121413286 -75.116914156387452 -269.642899827589076
-166.361671798869622 -76.069702109302142 -266.199289007344362
21.834810353072733 -76.371046194016358 -281.343903872116869
-55.642746710961447 -72.366925490738112 -287.105293398701065
-64.829587651299775 -73.377583011209893 -285.489336961774825
-39.697193825638955 -75.657521997455319 -285.454574207526093
-25.601491804842034 -74.667667133573886 -287.942878854699416
