-41.766876220703 -70.365814208984 -68.197418212891 7.760020256042
-38.138236999512 -72.244812011719 -75.076629638672 2.437478542328
74.547561645508 -72.485977172852 -157.034408569336 33.542903900146
73.099990844727 -77.474487304688 -153.123123168945 35.483116149902
-82.706268310547 -60.291450500488 -33.391967773438 10.990320205688
65.318115234375 -75.276550292969 -144.048583984375 25.510669708252
-69.409591674805 -62.651664733887 -35.495361328125 8.751022338867
-47.302986145020 -67.596389770508 -54.632507324219 5.077440261841
-65.998382568359 -66.868202209473 -40.290954589844 2.791089534760
68.033752441406 -75.590927124023 -141.696746826172 27.925447463989
-56.807792663574 -67.608116149902 -46.043457031250 3.366333723068
31.359588623047 -74.100204467773 -119.706756591797 0.889167785645
65.426818847656 -71.646888732910 -129.376907348633 20.236799240112
40.329193115234 -69.165107727051 -117.515274047852 1.899443507195
69.272766113281 -72.559814453125 -121.178863525391 15.372859001160
-66.845901489258 -62.962791442871 -14.704132080078 28.440515518188
45.142715454102 -73.988159179688 -101.925949096680 1.125182867050
-66.623474121094 -61.376289367676 -14.804962158203 28.508577346802
-41.881835937500 -64.731643676758 -30.458465576172 13.471981048584
-70.135932922363 -58.650444030762 -7.460540771484 35.176872253418
-33.522666931152 -66.966735839844 -34.208099365234 12.478643417358
-23.828750610352 -67.156234741211 -38.460235595703 11.057756423950
51.072937011719 -74.404953002930 -100.622100830078 2.570130348206
-27.075538635254 -65.947593688965 -36.443664550781 11.800862312317
-36.151512145996 -68.935234069824 -34.575866699219 12.102392196655
-35.320938110352 -69.425880432129 -27.152557373047 19.440382003784
-50.438026428223 -65.772766113281 -17.955352783203 25.479297637939
-40.103988647461 -68.454185485840 -23.666442871094 21.113595962524
-65.816955566406 -60.090171813965 -6.209503173828 36.731288909912
-55.712768554688 -66.810516357422 -10.223632812500 32.861637115479
-57.993515014648 -66.665649414063 2.778594970703 45.781784057617
-50.511848449707 -66.081176757813 8.731903076172 51.776779174805
-59.833808898926 -65.744560241699 3.283691406250 46.260250091553
-40.801132202148 -64.233184814453 0.786254882813 44.029964447021
-45.052864074707 -63.494354248047 8.051239013672 50.800254821777
-81.815750122070 -76.096305847168 -346.921539306641 54.831901550293
-68.124740600586 -73.657394409180 -347.958557128906 54.583992004395
-82.187515258789 -79.149475097656 -328.358093261719 37.235137939453
-58.758392333984 -76.922615051270 -341.301788330078 49.299415588379
-72.207855224609 -73.945190429688 -322.397583007813 29.089794158936
-68.369476318359 -75.332916259766 -324.992492675781 31.681995391846
-132.897567749023 -75.349464416504 -259.935058593750 1.885080575943
-15.101478576660 -82.807357788086 -331.960998535156 39.527839660645
-10.463043212891 -78.298538208008 -328.393981933594 35.294731140137
-149.647811889648 -68.778808593750 -228.535675048828 1.778343915939
-88.477226257324 -76.512084960938 -276.004028320313 10.048286437988
-146.609100341797 -67.724464416504 -221.140686035156 2.045179843903
2.868164062500 -78.265914916992 -336.204559326172 42.347640991211
-85.437339782715 -76.883682250977 -270.138488769531 13.625449180603
-13.934173583984 -76.012168884277 -310.816009521484 17.388586044312
-100.772201538086 -68.311828613281 -244.399978637695 7.400218486786
-91.169921875000 -69.715431213379 -256.044525146484 1.833423376083
-18.789916992188 -81.045425415039 -297.801788330078 7.445849418640
-99.110954284668 -62.352600097656 -239.252655029297 10.853628158569
-11.620193481445 -85.416198730469 -302.250915527344 12.951090812683
-19.021354675293 -73.715972900391 -293.283416748047 2.325689315796
-16.186950683594 -77.592590332031 -290.449890136719 1.416760921478
-13.041511535645 -73.689308166504 -296.470336914063 3.084439039230
-12.546150207520 -80.691986083984 -290.603729248047 2.467575311661
22.774948120117 -83.093215942383 -314.905609130859 22.699645996094
28.226867675781 -84.579910278320 -317.912109375000 27.964767456055
-7.458122253418 -75.600692749023 -289.254425048828 2.528557062149
29.513275146484 -84.600326538086 -317.758941650391 28.480636596680
-116.784042358398 -70.793083190918 -207.230987548828 4.443023204803
-111.738677978516 -71.108627319336 -207.587783813477 3.056657075882
23.667831420898 -83.398361206055 -314.637084960938 22.856662750244
-12.219482421875 -77.147613525391 -284.512207031250 2.310037851334
0.185386657715 -77.359375000000 -296.632232666016 4.961114883423
-108.342384338379 -70.555587768555 -203.462112426758 3.529585123062
-118.571662902832 -71.220527648926 -195.900253295898 1.945875644684
18.568313598633 -77.060333251953 -303.484588623047 9.986826896667
-20.508583068848 -75.884635925293 -273.942565917969 6.988949298859
31.681747436523 -83.955505371094 -311.512207031250 24.834423065186
-9.850112915039 -75.242309570313 -270.451080322266 3.808924198151
34.620056152344 -80.877609252930 -316.643249511719 30.004804611206
-111.096641540527 -70.819297790527 -196.745834350586 1.813495397568
33.034927368164 -84.709777832031 -309.108459472656 24.424774169922
-109.511444091797 -72.312416076660 -185.214508056641 2.717551231384
-84.443428039551 -69.217788696289 -195.077209472656 16.195444107056
-84.672851562500 -72.577621459961 -199.468276977539 11.744610786438
-94.704551696777 -69.338104248047 -185.509613037109 11.038683891296
-76.989952087402 -70.573867797852 -197.687805175781 11.262628555298
-102.111976623535 -68.448249816895 -176.171875000000 2.342738866806
-97.030197143555 -73.287673950195 -179.831665039063 9.057544708252
-100.614822387695 -70.120979309082 -179.745712280273 5.567211627960
-77.847793579102 -66.979743957520 -183.772399902344 18.352327346802
-87.635559082031 -70.906730651855 -177.402969360352 14.208346366882
-81.627273559570 -68.237533569336 -188.960464477539 21.061447143555
-76.543884277344 -71.114006042480 -184.325164794922 16.982828140259
-15.574195861816 -79.009536743164 -228.043975830078 3.981299161911
-102.102920532227 -69.145393371582 -164.484008789063 1.756769657135
-64.813682556152 -68.418388366699 -187.178100585938 9.582459449768
-102.032264709473 -70.976005554199 -155.067962646484 3.019484043121
-105.860107421875 -71.174926757813 -152.779052734375 5.274755954742
-7.467002868652 -73.957153320313 -221.732604980469 2.940425395966
-8.910964965820 -74.204116821289 -215.151794433594 1.745897650719
-95.359481811523 -67.575553894043 -147.592819213867 2.200246810913
-104.848815917969 -68.652572631836 -147.318801879883 6.429967403412
-93.867584228516 -70.017852783203 -137.828262329102 3.247319459915
4.435424804688 -76.543441772461 -210.521026611328 2.919665098190
-99.268638610840 -68.544822692871 -128.249313354492 7.753992080688
2.901237487793 -75.816780090332 -213.659393310547 4.078516006470
-126.460739135742 -66.031532287598 -102.822357177734 26.651838302612
5.028671264648 -75.844673156738 -202.752532958984 3.054125547409
15.810256958008 -75.228851318359 -199.050750732422 1.542735934258
-124.193161010742 -67.103607177734 -91.863616943359 24.032363891602
7.901596069336 -75.076736450195 -204.970336914063 2.973655700684
8.242324829102 -81.004806518555 -200.129348754883 3.459436893463
-118.203536987305 -62.935630798340 -98.717056274414 17.579643249512
-122.277244567871 -68.119903564453 -89.979156494141 22.801136016846
13.883041381836 -75.628387451172 -194.508529663086 1.913826584816
13.697998046875 -73.949554443359 -192.512145996094 2.816934823990
-111.634536743164 -64.498336791992 -92.368698120117 11.509633064270
-82.978820800781 -67.841262817383 -109.172698974609 2.878241062164
23.189071655273 -75.329467773438 -188.799911499023 2.200824737549
-97.323204040527 -67.512992858887 -101.894897460938 0.629027664661
13.594772338867 -73.061599731445 -179.753143310547 1.271423101425
-102.017776489258 -71.750175476074 -98.827255249023 6.843872070313
-127.402626037598 -67.561767578125 -84.234237670898 27.556592941284
-125.307014465332 -65.854278564453 -78.183044433594 25.889238357544
-124.088615417480 -64.469818115234 -81.191345214844 24.112857818604
-8.208732604980 -73.328941345215 -157.282638549805 8.480499267578
-128.338348388672 -62.783813476563 -72.318023681641 28.974071502686
-20.513282775879 -75.990531921387 -162.859130859375 9.464817047119
-9.647109985352 -72.390388488770 -167.101440429688 3.554520845413
10.051986694336 -79.406181335449 -182.328231811523 5.951021671295
-118.038658142090 -65.450210571289 -74.707122802734 18.526647567749
-79.589660644531 -69.459716796875 -105.983169555664 1.763983249664
-7.966522216797 -76.368240356445 -161.114395141602 4.971514225006
-121.400703430176 -69.311416625977 -74.854095458984 22.452589035034
19.301956176758 -75.287399291992 -182.016693115234 1.797413945198
-126.184593200684 -66.777175903320 -67.042205810547 27.413211822510
-89.132705688477 -65.361793518066 -98.034423828125 7.476100444794
-82.383316040039 -70.414352416992 -97.472320556641 4.133325099945
-90.164184570313 -68.345733642578 -95.366668701172 4.284802913666
-4.571548461914 -74.481002807617 -161.239883422852 2.999054431915
-6.019622802734 -73.272804260254 -159.037399291992 5.821062564850
-119.087127685547 -65.751350402832 -65.228790283203 20.381069183350
-114.759811401367 -67.202926635742 -66.380523681641 16.673307418823
-114.147956848145 -64.639541625977 -57.922729492188 16.389038085938
-98.673805236816 -64.484367370605 -76.477569580078 1.254768371582
-95.585510253906 -66.018768310547 -66.564605712891 2.502912282944
14.698318481445 -75.870651245117 -155.302322387695 3.749109268188
7.837799072266 -70.574035644531 -153.938522338867 1.482757806778
-61.884174346924 -70.265457153320 -95.971206665039 3.633164882660
19.029754638672 -75.393661499023 -143.276672363281 3.396243810654
-110.317527770996 -67.175918579102 -48.889282226563 18.667583465576
-60.371879577637 -70.313072204590 -82.696716308594 6.308650493622
22.285232543945 -74.501335144043 -152.689559936523 0.920516729355
25.319885253906 -75.622344970703 -150.926559448242 2.596879005432
-63.802814483643 -67.452224731445 -79.184051513672 6.837128162384
21.314743041992 -73.675781250000 -149.267944335938 2.367136001587
-67.907806396484 -70.316246032715 -74.490325927734 9.887880325317
18.821166992188 -76.714767456055 -141.871261596680 4.585821628571
24.347625732422 -75.362960815430 -143.893539428711 1.654531121254
26.554077148438 -74.714973449707 -142.078735351563 0.791124105453
83.921020507813 -81.269470214844 -187.228973388672 17.557077407837
19.357360839844 -71.030632019043 -136.723785400391 4.774206638336
33.435195922852 -74.288116455078 -147.889068603516 0.997775852680
37.529876708984 -75.969779968262 -148.613586425781 2.712810039520
32.888626098633 -74.120437622070 -145.444290161133 2.724308490753
32.017181396484 -73.186874389648 -141.928771972656 1.746159076691
79.208511352539 -81.994987487793 -180.986251831055 23.852186203003
84.072128295898 -81.197525024414 -182.593276977539 18.885154724121
40.038558959961 -75.130401611328 -140.741073608398 2.511992931366
73.570877075195 -76.622695922852 -172.158584594727 31.422138214111
73.966461181641 -74.134124755859 -174.410369873047 30.018423080444
72.103652954102 -80.140289306641 -162.031845092773 35.049308776855
68.800338745117 -78.830078125000 -157.115219116211 32.431026458740
71.456512451172 -77.795005798340 -152.706161499023 34.154792785645
-64.962326049805 -70.483047485352 -47.133697509766 1.939433455467
27.007232666016 -74.305152893066 -126.935012817383 2.753422737122
62.621795654297 -77.190826416016 -143.939559936523 23.127353668213
69.870727539063 -77.897628784180 -161.962219238281 34.641273498535
59.459426879883 -73.721130371094 -146.796844482422 20.486364364624
-41.179992675781 -66.964820861816 -64.137237548828 8.008690834045
63.898422241211 -75.442031860352 -147.181304931641 24.913873672485
-75.025848388672 -64.065727233887 -35.671600341797 8.751262664795
-53.071914672852 -66.360717773438 -57.501678466797 8.453661918640
-46.511871337891 -68.341979980469 -61.149810791016 6.798339843750
37.946212768555 -72.296745300293 -123.971755981445 1.365874528885
-79.858825683594 -64.510169982910 -36.504577636719 8.907378196716
70.412704467773 -76.691329956055 -145.114410400391 30.835605621338
-48.046318054199 -69.368682861328 -61.537292480469 6.059113979340
61.725799560547 -72.746238708496 -141.843109130859 21.532396316528
-64.256408691406 -65.064750671387 -41.543792724609 2.254476785660
-48.947776794434 -68.626098632813 -51.583282470703 4.813727378845
-45.056106567383 -68.795578002930 -57.963470458984 5.595308303833
-49.085006713867 -63.821777343750 -54.726654052734 8.439144134521
-71.262756347656 -64.974044799805 -42.394989013672 2.534958124161
64.438034057617 -75.691108703613 -142.653671264648 24.475141525269
-50.280586242676 -68.956451416016 -51.851287841797 5.140877723694
-71.292694091797 -64.623725891113 -35.272888183594 8.737980842590
43.614822387695 -76.030456542969 -113.531951904297 1.641869068146
-65.720603942871 -63.353370666504 -17.351715087891 25.711620330811
50.474822998047 -73.203567504883 -99.299255371094 2.501535415649
50.695938110352 -76.179656982422 -103.643463134766 1.327174901962
-48.802612304688 -66.823310852051 -21.933502197266 21.761983871460
-41.739883422852 -66.599678039551 -23.870025634766 20.222274780273
-46.090011596680 -66.518547058105 -16.125915527344 27.234626770020
-40.231788635254 -68.133178710938 -23.323181152344 21.329793930054
-61.007976531982 -64.829437255859 -4.168609619141 38.796310424805
-58.589950561523 -64.874649047852 1.180389404297 44.161552429199
-51.406898498535 -62.618553161621 -3.307495117188 39.597648620605
-51.609703063965 -64.844924926758 -0.178985595703 42.907508850098
-50.477989196777 -65.933296203613 -6.345764160156 36.854976654053
-50.903724670410 -66.345001220703 0.417175292969 43.615474700928
-41.985404968262 -67.801658630371 6.961364746094 50.402629852295
-83.457633972168 -73.713607788086 -322.568756103516 30.400115966797
-54.616279602051 -75.494583129883 -333.937225341797 42.212951660156
-72.363037109375 -71.441543579102 -318.121856689453 24.921129226685
-64.073898315430 -76.219573974609 -318.340484619141 25.757966995239
-120.791526794434 -78.345230102539 -268.483032226563 5.868228912354
-146.079788208008 -73.360542297363 -245.993392944336 3.104992389679
-14.618682861328 -81.267333984375 -332.053466796875 39.250278472900
-18.696403503418 -79.493522644043 -327.952117919922 35.166091918945
-18.640724182129 -78.258804321289 -323.033569335938 30.144855499268
-150.711074829102 -70.258171081543 -214.617996215820 1.631169199944
9.230224609375 -78.207038879395 -332.229064941406 37.867801666260
-89.978302001953 -72.960617065430 -248.333389282227 3.433744907379
-19.347671508789 -80.784759521484 -309.585845947266 17.886190414429
-100.237091064453 -76.213119506836 -240.449081420898 12.805359840393
-108.779777526855 -74.842308044434 -234.004699707031 5.942598342896
-20.591369628906 -77.585250854492 -291.139648437500 1.444090962410
20.295333862305 -82.069961547852 -322.195465087891 28.754632949829
-8.185859680176 -81.453216552734 -296.395080566406 6.741727352142
-14.485588073730 -80.383102416992 -292.687011718750 3.369581937790
-15.821960449219 -80.852058410645 -280.962860107422 6.361570358276
-10.178909301758 -82.276939392090 -286.550598144531 5.314514160156
25.332992553711 -83.473526000977 -316.694946289063 25.367027282715
3.974548339844 -80.335968017578 -289.890655517578 2.555431604385
-11.940498352051 -78.828460693359 -278.502288818359 3.053948402405
10.032424926758 -75.680206298828 -293.681335449219 2.322682380676
25.366851806641 -84.459838867188 -304.131866455078 15.816516876221
-114.263351440430 -73.313354492188 -206.035049438477 3.594021081924
-118.151832580566 -70.179656982422 -192.277618408203 2.581046104431
-112.935173034668 -70.245727539063 -193.008026123047 2.664314031601
-91.936820983887 -73.184417724609 -201.573593139648 11.063599586487
-84.939834594727 -69.090827941895 -197.688323974609 13.876559257507
-117.448066711426 -70.695114135742 -178.309616088867 7.376454830170
-103.240837097168 -70.114692687988 -192.000930786133 3.641514062881
-96.654724121094 -67.969329833984 -180.836227416992 7.493804931641
-86.727935791016 -74.432098388672 -193.381637573242 17.334535598755
-107.546051025391 -73.954284667969 -174.946548461914 4.558400630951
-108.575462341309 -71.176406860352 -174.579833984375 1.933744668961
-72.146446228027 -69.441802978516 -195.699691772461 12.770054817200
-74.099853515625 -72.083618164063 -192.535476684570 14.513938903809
-93.469528198242 -69.645683288574 -175.526031494141 8.069719314575
-73.084442138672 -70.887794494629 -187.177230834961 15.542556762695
-87.893501281738 -68.532592773438 -173.062362670898 13.344834327698
-15.208747863770 -79.009353637695 -234.582794189453 5.371788501740
-73.791976928711 -68.589401245117 -182.548278808594 14.612406730652
-71.667999267578 -75.216659545898 -183.136764526367 12.880833625793
-14.596138000488 -73.133918762207 -214.526153564453 2.103184700012
-11.245407104492 -78.138549804688 -222.125579833984 1.778765916824
-123.676528930664 -66.869468688965 -107.787231445313 24.671789169312
-95.903907775879 -69.859771728516 -123.891128540039 3.430893659592
-88.454200744629 -72.069450378418 -114.965881347656 2.066087245941
-121.297554016113 -64.901947021484 -87.886810302734 20.547798156738
-93.440292358398 -69.549606323242 -116.210815429688 3.418891429901
-118.248435974121 -70.145668029785 -84.159194946289 19.926759719849
-86.585044860840 -70.027076721191 -105.315032958984 2.009181499481
-114.278480529785 -68.926475524902 -81.994323730469 16.286367416382
-110.805465698242 -66.485511779785 -77.223999023438 11.567970275879
-111.530029296875 -62.867675781250 -74.601287841797 12.046117782593
-97.994384765625 -66.843887329102 -64.809295654297 3.378281354904
-99.000869750977 -63.805404663086 -62.334350585938 4.053992748260
-62.772232055664 -71.122840881348 -88.861145019531 3.123141527176
-62.345653533936 -69.492637634277 -93.700607299805 2.371936798096
-74.666839599609 -72.074897766113 -74.206298828125 7.518822193146
-65.045013427734 -69.507553100586 -87.026412963867 5.211753368378
-100.740097045898 -65.028106689453 -54.289093017578 8.215671539307
18.491302490234 -75.463088989258 -150.605682373047 3.948617935181
-82.639205932617 -65.713928222656 -67.851318359375 7.433919429779
-95.561927795410 -65.036758422852 -52.535430908203 5.056619167328
-83.578613281250 -64.938095092773 -64.035888671875 7.370082855225
17.926452636719 -75.278106689453 -137.572326660156 6.099208354950
38.173843383789 -75.392280578613 -144.185470581055 3.047133207321
79.546615600586 -82.665184020996 -178.482452392578 24.603862762451
49.112319946289 -73.259674072266 -145.550689697266 10.525667190552
75.984573364258 -78.856376647949 -172.146484375000 29.118690490723
67.950805664063 -75.942962646484 -158.551223754883 31.633846282959
82.954360961914 -80.805740356445 -167.474121093750 23.579845428467
-85.731475830078 -66.237113952637 -41.002136230469 6.542535305023
-80.700347900391 -62.896026611328 -39.682250976563 5.538781642914
73.379699707031 -78.763969421387 -153.678207397461 35.193138122559
62.117538452148 -77.153503417969 -146.485870361328 23.264135360718
74.792114257813 -80.083511352539 -159.869766235352 33.213722229004
-73.914642333984 -63.904380798340 -38.367309570313 5.843140602112
-69.980621337891 -68.652694702148 -46.633880615234 2.629198074341
-59.318305969238 -69.975837707520 -51.449676513672 3.035983800888
-67.569366455078 -67.042228698730 -47.550109863281 2.135916948318
-71.849685668945 -66.206268310547 -41.947021484375 3.693414211273
-57.335144042969 -68.586036682129 -51.023925781250 0.845651447773
-72.054489135742 -68.319534301758 -38.811401367188 7.288921356201
-59.284835815430 -66.072578430176 -49.532257080078 3.434820652008
-53.328132629395 -67.798736572266 -47.889129638672 0.976833760738
-57.161209106445 -67.092384338379 -44.452056884766 2.613500356674
-52.096801757813 -70.993675231934 -49.231842041016 3.594996452332
40.799301147461 -74.343185424805 -117.364868164063 3.103052854538
64.735092163086 -79.134094238281 -140.425155639648 24.916379928589
-70.917755126953 -70.010139465332 -31.349548339844 12.982825279236
67.671493530273 -76.261581420898 -133.890014648438 24.650968551636
45.945388793945 -78.858825683594 -110.720764160156 2.258800745010
69.331039428711 -70.742027282715 -117.040344238281 11.032664299011
-53.646057128906 -66.164047241211 -16.535491943359 26.779027938843
-41.905044555664 -66.510223388672 -27.821563720703 16.353740692139
-45.683456420898 -70.802284240723 -21.107574462891 23.870002746582
-65.604316711426 -69.549079895020 -3.943420410156 38.749176025391
-41.407455444336 -71.891868591309 -25.617309570313 20.328382492065
-35.038490295410 -70.076736450195 -30.580505371094 16.346075057983
-36.943565368652 -65.893630981445 -21.056457519531 23.894844055176
-58.255744934082 -63.583984375000 -7.473785400391 35.531818389893
-85.659011840820 -74.260833740234 -339.797607421875 47.208511352539
-80.079055786133 -73.818847656250 -337.807678222656 45.557266235352
-73.558486938477 -77.558784484863 -339.618774414063 46.541736602783
-63.549476623535 -83.881050109863 -342.538574218750 50.630615234375
-76.928794860840 -72.494087219238 -326.994476318359 34.331413269043
-78.595771789551 -73.755538940430 -317.488372802734 25.608333587646
-115.100082397461 -73.901214599609 -274.841461181641 10.653966903687
-149.162231445313 -70.177825927734 -240.475341796875 4.526278972626
-93.489898681641 -75.617446899414 -275.846740722656 11.097871780396
-18.921142578125 -82.315444946289 -324.685607910156 32.728603363037
6.493759155273 -83.127616882324 -339.139434814453 45.574859619141
-14.341690063477 -81.651947021484 -305.361572265625 14.021121025085
-17.065940856934 -84.494155883789 -303.062774658203 13.708909988403
14.854690551758 -82.325317382813 -325.729980468750 31.769607543945
-112.213722229004 -75.119163513184 -221.496063232422 3.325275897980
-112.779693603516 -72.760993957520 -220.239837646484 4.359567165375
-20.089843750000 -81.375732421875 -287.934478759766 2.180291414261
-111.262664794922 -71.185791015625 -215.446151733398 7.977938175201
-111.855232238770 -72.594490051270 -208.880004882813 4.755074977875
-132.484451293945 -71.980300903320 -194.453262329102 1.703769326210
-115.759590148926 -75.245285034180 -206.769744873047 6.090166568756
-17.328567504883 -82.247055053711 -279.620361328125 7.746133804321
-106.980484008789 -70.661155700684 -209.337387084961 7.285792350769
-14.357574462891 -81.449386596680 -280.106201171875 6.116637229919
23.842590332031 -82.517303466797 -307.060302734375 16.290407180786
23.501495361328 -82.132293701172 -298.603454589844 10.537061691284
-104.702423095703 -72.661460876465 -197.173324584961 5.704454898834
-115.108283996582 -70.788650512695 -191.793701171875 2.513873338699
-93.117477416992 -73.109306335449 -200.081558227539 12.936707496643
-120.544006347656 -74.282432556152 -179.224807739258 11.378241539001
-99.906143188477 -70.356224060059 -184.751083374023 5.939492702484
-114.721199035645 -77.141708374023 -175.842529296875 9.594995498657
-95.079185485840 -74.629180908203 -200.096176147461 12.956183433533
-91.252693176270 -78.556625366211 -199.820343017578 12.772291183472
-108.106750488281 -70.971946716309 -175.608688354492 2.601141214371
-89.085281372070 -69.874900817871 -192.765670776367 17.767274856567
-102.779647827148 -72.659973144531 -175.958816528320 4.816939830780
-98.215835571289 -71.244590759277 -177.698562622070 5.931630134583
-83.856285095215 -69.623207092285 -187.833648681641 21.697416305542
-83.121963500977 -76.650970458984 -188.214294433594 19.178339004517
-77.728973388672 -78.006851196289 -191.210052490234 14.638586997986
-112.612838745117 -73.414268493652 -168.661407470703 6.664872169495
-106.035415649414 -73.438575744629 -158.851745605469 6.652969360352
-104.705444335938 -71.190002441406 -171.403152465820 2.513019561768
-9.692649841309 -75.637275695801 -226.606414794922 1.023644924164
-69.867080688477 -73.116416931152 -189.232910156250 12.997758865356
-10.818733215332 -77.922676086426 -223.535980224609 0.814629793167
-94.476188659668 -70.213996887207 -142.043670654297 3.335971117020
-93.925582885742 -66.518524169922 -133.841751098633 2.063289403915
-93.937835693359 -73.570030212402 -133.888763427734 5.357452392578
-98.271209716797 -74.736328125000 -130.547271728516 9.122264862061
-92.780204772949 -69.551002502441 -124.420684814453 2.107393503189
-96.010528564453 -70.371490478516 -123.506072998047 3.468699216843
-115.861755371094 -69.636489868164 -97.454635620117 18.128986358643
-92.180984497070 -71.139701843262 -116.166854858398 1.613088846207
-101.581619262695 -71.360626220703 -92.442733764648 6.667181015015
-114.529830932617 -65.765541076660 -84.244781494141 14.755441665649
-96.661582946777 -68.804794311523 -98.240325927734 1.983978271484
-121.681243896484 -65.562026977539 -81.173217773438 22.005445480347
-110.642890930176 -64.731201171875 -82.643951416016 11.165885925293
-95.376678466797 -73.490722656250 -98.188827514648 3.964371442795
-101.076004028320 -69.576629638672 -90.579086303711 5.573268413544
-103.324172973633 -63.483001708984 -82.616073608398 5.032830238342
-85.625106811523 -66.327972412109 -74.623931884766 7.915806770325
-64.877655029297 -68.247177124023 -82.761169433594 5.915882110596
-92.264160156250 -66.864860534668 -63.483551025391 3.649936914444
-70.561538696289 -70.793556213379 -76.488311767578 8.711277961731
-68.420379638672 -73.299400329590 -78.333648681641 7.844412326813
-72.433563232422 -68.203285217285 -72.506774902344 10.914680480957
-78.010353088379 -68.602172851563 -66.652954101563 6.876476764679
-64.936798095703 -72.176414489746 -73.941253662109 8.975897789001
30.177764892578 -77.338691711426 -147.186264038086 1.445914864540
-92.881256103516 -65.618865966797 -51.226837158203 3.895934104919
31.440658569336 -75.638122558594 -149.088760375977 2.603561401367
34.766860961914 -79.705024719238 -142.648742675781 1.906607270241
31.600677490234 -74.566787719727 -141.345001220703 2.588976144791
40.681991577148 -80.251708984375 -148.917266845703 7.232830524445
-88.536735534668 -69.229324340820 -57.626556396484 3.260028362274
29.598312377930 -74.767135620117 -132.498825073242 0.603964328766
45.438461303711 -77.773666381836 -151.891647338867 8.976582527161
74.467514038086 -80.838630676270 -163.373382568359 32.565750122070
75.686187744141 -80.745719909668 -163.515716552734 31.357158660889
-79.844757080078 -65.830780029297 -42.600769042969 4.225204944611
31.583679199219 -75.067123413086 -128.471679687500 2.354175090790
56.973068237305 -76.933670043945 -142.350753784180 17.355859756470
-65.058029174805 -73.111816406250 -46.231750488281 3.687717676163
-58.248725891113 -70.397193908691 -51.196929931641 2.491332530975
-59.009597778320 -68.076782226563 -51.310119628906 2.337954759598
61.643463134766 -78.064682006836 -142.083633422852 22.079029083252
-61.911567687988 -70.316925048828 -39.650970458984 4.885457038879
65.929931640625 -80.006225585938 -143.111267089844 26.807161331177
69.273315429688 -78.000122070313 -142.090744018555 29.457874298096
-75.979675292969 -65.030433654785 -27.121368408203 17.285167694092
-58.800437927246 -62.200912475586 -15.171813964844 27.963420867920
-60.836265563965 -70.189987182617 -12.260284423828 30.746711730957
-52.558609008789 -69.630790710449 -10.691284179688 33.020374298096
70.427474975586 -73.728515625000 -106.812850952148 5.685816764832
-57.479202270508 -68.850868225098 0.217742919922 43.361110687256
-63.444553375244 -75.227554321289 -339.225402832031 46.308311462402
-63.129993438721 -73.197242736816 -321.785186767578 29.178556442261
-136.929336547852 -75.933441162109 -258.337219238281 1.390901327133
-145.253707885742 -75.243225097656 -251.324737548828 1.185607075691
-106.895751953125 -77.868690490723 -275.358306884766 10.827525138855
-100.407043457031 -73.068206787109 -275.430908203125 9.392869949341
-84.803413391113 -80.048873901367 -271.876586914063 13.127831459045
-94.850334167480 -79.104103088379 -260.360961914063 6.816423892975
-19.721191406250 -81.422454833984 -312.409729003906 20.662643432617
-145.580444335938 -76.618347167969 -210.616485595703 2.343772888184
-100.710227966309 -74.332916259766 -235.296066284180 7.611261367798
-20.523254394531 -79.466918945313 -296.612426757813 5.118188858032
-17.009269714355 -80.792343139648 -298.509674072266 8.029585838318
-12.730087280273 -80.491561889648 -298.863311767578 7.431926727295
23.403976440430 -84.498016357422 -323.781127929688 31.420642852783
-19.604911804199 -83.026260375977 -291.042175292969 3.694129467010
23.162231445313 -87.446418762207 -311.636199951172 21.466526031494
-118.635192871094 -70.735214233398 -200.304107666016 2.987981557846
-129.222915649414 -71.778366088867 -194.036026000977 2.364539384842
11.461166381836 -85.005630493164 -288.053100585938 5.635780811310
-114.890174865723 -73.431976318359 -202.471099853516 2.834005832672
-108.211471557617 -68.925041198730 -193.779190063477 1.166354537010
-110.612915039063 -68.160392761230 -186.638549804688 2.098063468933
-83.350120544434 -72.965599060059 -197.733367919922 12.923069953918
-99.650833129883 -72.456916809082 -182.557571411133 6.862026214600
-87.460510253906 -76.513839721680 -190.835494995117 19.194164276123
-100.971099853516 -70.801506042480 -173.814697265625 2.621692895889
-95.917930603027 -74.024787902832 -180.066909790039 10.225189208984
-103.678749084473 -75.572250366211 -183.758850097656 6.811734676361
-107.741416931152 -73.739280700684 -174.480453491211 4.135121345520
-86.984710693359 -76.112831115723 -185.144683837891 19.710702896118
-107.647315979004 -72.305747985840 -171.445663452148 3.012195587158
-74.927474975586 -72.667182922363 -195.463775634766 12.065275192261
-75.916473388672 -69.992630004883 -187.664871215820 18.438640594482
-9.427772521973 -79.045700073242 -237.520080566406 5.389717102051
-78.567192077637 -79.185119628906 -188.216201782227 17.636739730835
-16.471847534180 -74.607208251953 -226.526916503906 1.016830682755
-13.295303344727 -79.292587280273 -223.814422607422 2.345418930054
-9.137008666992 -81.671936035156 -220.298431396484 2.368652582169
-106.052513122559 -72.970451354980 -157.050933837891 7.122952461243
-97.760093688965 -71.737236022949 -157.248489379883 4.255262374878
-101.090911865234 -74.926399230957 -153.215454101563 4.675614833832
-101.703170776367 -70.876129150391 -140.178237915039 7.647532939911
-97.266334533691 -72.723388671875 -146.132507324219 4.818565845490
-130.572937011719 -68.209175109863 -100.376739501953 31.097539901733
-131.803436279297 -67.997650146484 -98.975402832031 32.053058624268
-93.887229919434 -72.671066284180 -120.454116821289 2.114294767380
-121.393028259277 -70.924667358398 -104.694442749023 23.691221237183
-93.845901489258 -73.803749084473 -120.975906372070 3.141260862350
-122.043403625488 -74.140716552734 -92.213928222656 25.232578277588
-88.439239501953 -73.578536987305 -111.318450927734 2.700191497803
-92.399993896484 -70.553466796875 -118.864639282227 0.743933320045
-110.118515014648 -69.076980590820 -86.500015258789 12.333996772766
-100.443153381348 -68.353775024414 -96.606826782227 3.995859861374
-81.548614501953 -70.810089111328 -109.687057495117 2.938991546631
-88.026458740234 -75.070365905762 -103.236633300781 5.310092449188
-84.464378356934 -70.015579223633 -104.149780273438 2.523587942123
-85.785369873047 -74.186340332031 -100.264694213867 4.908418655396
-103.278442382813 -71.756164550781 -93.413803100586 8.004461288452
-103.275856018066 -69.377700805664 -86.798294067383 7.022610664368
-94.907165527344 -70.961868286133 -87.847503662109 2.703725576401
-95.759338378906 -74.326202392578 -94.418014526367 3.091140508652
-90.997055053711 -71.230682373047 -93.530578613281 3.392274618149
-82.614318847656 -71.621330261230 -100.141403198242 2.079374074936
-104.257499694824 -69.294204711914 -72.063201904297 7.940750598907
-103.709182739258 -68.514671325684 -64.813446044922 8.300940513611
-103.052955627441 -69.484916687012 -62.172729492188 9.180656433105
-91.083473205566 -64.613311767578 -67.898498535156 5.424993515015
-83.683975219727 -73.078018188477 -71.077514648438 2.742843389511
-79.799545288086 -68.381668090820 -82.488159179688 10.380471229553
-89.330574035645 -67.287872314453 -64.547241210938 3.318560838699
-99.234909057617 -66.446182250977 -60.521087646484 6.322381019592
-85.592857360840 -68.487129211426 -70.689605712891 5.872132778168
-84.022018432617 -72.157920837402 -69.207122802734 4.306642532349
-94.564147949219 -68.287193298340 -59.992889404297 4.329252243042
-84.398391723633 -74.526473999023 -67.206848144531 3.715199470520
-78.000518798828 -71.199180603027 -71.022949218750 7.320827007294
19.053863525391 -74.457565307617 -136.880172729492 5.861376285553
33.433837890625 -78.828880310059 -143.168045043945 1.131355762482
41.690338134766 -82.233749389648 -146.462677001953 7.821872234344
39.074371337891 -75.525054931641 -143.618148803711 3.337938547134
22.623840332031 -74.643714904785 -135.748794555664 4.257340908051
23.498367309570 -76.178504943848 -127.896865844727 3.802978515625
65.589202880859 -81.038993835449 -155.401428222656 29.446203231812
75.018264770508 -80.498283386230 -159.332839965820 33.216815948486
-78.400154113770 -70.058303833008 -41.263214111328 7.003901004791
71.538543701172 -81.490295410156 -154.099884033203 35.111637115479
67.873001098633 -78.731948852539 -153.225921630859 30.931589126587
-86.232086181641 -64.744842529297 -31.342956542969 14.932846069336
-80.339981079102 -68.931587219238 -35.799530029297 11.394434928894
-78.905715942383 -65.321868896484 -34.388092041016 11.121305465698
45.509735107422 -76.419570922852 -123.573638916016 2.085968494415
-74.746971130371 -67.861381530762 -28.345550537109 16.445974349976
49.533203125000 -76.898284912109 -113.156616210938 2.649538993835
-66.195556640625 -66.312438964844 -24.711608886719 18.052745819092
-63.322967529297 -68.255767822266 -18.325378417969 24.378082275391
-63.845123291016 -68.357749938965 -13.594665527344 29.078075408936
-64.028839111328 -74.286140441895 -15.285491943359 28.119363784790
-56.645706176758 -70.093132019043 -13.634002685547 29.794857025146
-67.124282836914 -68.839492797852 -10.826324462891 31.916162490845
-63.250728607178 -68.372734069824 -12.659637451172 30.039281845093
-62.905796051025 -70.545173645020 -11.171936035156 31.653659820557
-59.626403808594 -69.128562927246 -13.799957275391 29.353677749634
-56.931663513184 -69.260749816895 -16.135833740234 27.182476043701
65.530548095703 -76.586929321289 -111.679855346680 12.196424484253
-55.572135925293 -69.042572021484 -9.548370361328 33.736305236816
-64.878646850586 -71.240814208984 -4.715484619141 38.083602905273
-65.213562011719 -72.435928344727 -8.048278808594 34.902690887451
-58.621437072754 -70.320564270020 -7.220428466797 36.063552856445
-59.781127929688 -73.897323608398 -11.397583007813 32.235847473145
-56.118041992188 -67.338378906250 -10.856811523438 32.241195678711
64.099273681641 -75.952026367188 -101.397079467773 7.428606033325
-52.816467285156 -70.847930908203 -10.256408691406 33.596176147461
-56.408607482910 -71.606910705566 -8.781402587891 34.846122741699
-83.009872436523 -85.827911376953 -336.035247802734 45.836490631104
-69.661209106445 -76.230064392090 -341.364074707031 48.041633605957
-69.002502441406 -83.530433654785 -340.463989257813 48.137111663818
-82.383712768555 -74.325866699219 -317.859832763672 26.168622970581
-73.753860473633 -87.632614135742 -319.784820556641 30.201082229614
-64.176193237305 -78.735092163086 -326.109375000000 33.621345520020
-134.141021728516 -76.896430969238 -262.430541992188 3.096190929413
-130.853469848633 -75.955589294434 -267.786621093750 4.309414863586
-5.474121093750 -83.479812622070 -335.010833740234 43.036617279053
-152.620437622070 -74.735473632813 -222.077682495117 2.453724622726
-0.947731018066 -76.710700988770 -340.318054199219 46.523311614990
-19.512809753418 -81.300750732422 -317.365478515625 25.536523818970
11.175033569336 -82.324829101563 -330.804260253906 36.889102935791
-19.056579589844 -78.400062561035 -309.837646484375 17.736276626587
-102.268470764160 -75.288330078125 -244.726715087891 10.594017982483
-18.891830444336 -84.926788330078 -302.872497558594 13.157628059387
-111.245246887207 -78.321830749512 -237.002685546875 9.121072769165
-18.220474243164 -82.542076110840 -300.492431640625 10.396878242493
-14.907775878906 -84.643814086914 -301.511901855469 12.024097442627
-143.612762451172 -72.929443359375 -206.130447387695 3.006223201752
-22.820663452148 -82.780532836914 -294.307220458984 4.931684494019
-18.178115844727 -77.523330688477 -289.391021728516 1.242122650146
-8.595344543457 -81.065818786621 -297.797637939453 7.919858455658
-16.131385803223 -82.780990600586 -286.762329101563 3.689341306686
-116.012283325195 -75.358963012695 -198.117584228516 3.801623106003
14.211196899414 -79.691482543945 -297.817321777344 4.003079414368
-109.203140258789 -71.058395385742 -189.755676269531 2.401262760162
-112.743568420410 -75.946220397949 -200.679046630859 4.528433799744
-105.314582824707 -72.811073303223 -186.377838134766 4.027206420898
-114.888603210449 -74.294708251953 -188.598007202148 5.534955501556
-118.260208129883 -74.984565734863 -179.957366943359 10.291072845459
-105.712966918945 -72.962768554688 -185.586318969727 4.280560493469
-82.032287597656 -77.547698974609 -199.939422607422 8.823163986206
-96.849967956543 -75.767723083496 -177.595489501953 10.098121643066
-82.451644897461 -79.794845581055 -193.550506591797 13.852998733521
-103.523651123047 -75.596992492676 -169.674057006836 6.282654285431
-9.176269531250 -80.973052978516 -239.946090698242 7.426857948303
-15.294792175293 -79.421447753906 -231.712066650391 5.196167945862
-104.480232238770 -80.524711608887 -162.253143310547 10.985815048218
-9.655067443848 -78.321487426758 -226.446289062500 1.830848574638
-99.126380920410 -71.232589721680 -161.151672363281 2.048479318619
-101.846054077148 -76.979751586914 -157.538696289063 8.259659767151
-5.213378906250 -79.292236328125 -217.246856689453 1.205383181572
-103.672874450684 -74.097808837891 -157.047302246094 6.657689094543
-105.025039672852 -75.103378295898 -155.171768188477 7.011836528778
-103.588058471680 -73.686294555664 -144.895034790039 8.572239875793
-94.950874328613 -73.676651000977 -145.709136962891 5.058810234070
-91.068176269531 -70.961715698242 -127.517181396484 2.975004196167
-100.225700378418 -67.736267089844 -132.039474487305 7.474721431732
-95.158676147461 -72.693542480469 -140.453613281250 5.941547870636
-97.540832519531 -72.193069458008 -133.471954345703 7.565989017487
-120.194854736328 -69.236312866211 -105.312469482422 22.024177551270
-95.858459472656 -72.708663940430 -123.734191894531 4.774797916412
-114.979278564453 -70.507415771484 -97.215606689453 17.567312240601
-119.383789062500 -72.540328979492 -90.785232543945 22.214452743530
-122.986930847168 -72.924011230469 -88.374160766602 25.441507339478
-95.005676269531 -73.439178466797 -101.328323364258 4.347444534302
-100.967147827148 -68.928215026855 -97.823928833008 4.762512207031
-92.222686767578 -73.017951965332 -98.427383422852 3.623169422150
-107.704048156738 -68.096153259277 -84.924774169922 9.665161132813
-90.954666137695 -68.875350952148 -95.231964111328 3.359565019608
-108.824989318848 -69.109031677246 -80.930816650391 11.735089302063
-112.024291992188 -69.784774780273 -76.819396972656 13.735914230347
-101.588485717773 -71.062561035156 -57.170318603516 12.238716125488
-89.315307617188 -65.635200500488 -61.588104248047 2.164825439453
-77.262405395508 -72.860130310059 -70.210998535156 6.180418968201
-98.961151123047 -71.353256225586 -55.388336181641 10.333847045898
26.304321289063 -73.887649536133 -140.222381591797 1.581814289093
38.228713989258 -81.574417114258 -149.087387084961 5.260982990265
29.334213256836 -75.136726379395 -136.823165893555 2.662075757980
-86.908111572266 -70.840660095215 -46.610260009766 5.856580257416
24.863952636719 -79.640472412109 -133.460098266602 5.242630958557
-82.743637084961 -66.225570678711 -39.103759765625 7.467154502869
29.754959106445 -75.075874328613 -129.463882446289 2.090799808502
-81.302688598633 -68.483116149902 -39.615600585938 7.738953590393
54.219406127930 -77.613510131836 -144.234451293945 15.398639678955
-83.012893676758 -73.259796142578 -36.491729736328 12.947414398193
-80.299194335938 -70.226799011230 -38.623107910156 9.624897956848
-83.652290344238 -70.087127685547 -37.360382080078 10.496528625488
-79.062309265137 -71.299682617188 -36.384796142578 11.545904159546
67.064987182617 -80.181015014648 -146.810516357422 28.647459030151
67.765136718750 -80.612823486328 -140.735183715820 28.004396438599
-77.310775756836 -70.258399963379 -39.929382324219 7.466793537140
-79.308738708496 -73.498870849609 -33.011230468750 15.167481422424
-81.312805175781 -67.322479248047 -31.935485839844 14.233929634094
-76.158325195313 -72.277008056641 -36.025299072266 11.119256019592
64.264038085938 -81.137825012207 -139.134613037109 24.420623779297
67.893264770508 -80.463081359863 -137.779479980469 26.956737518311
-79.423553466797 -68.758033752441 -29.661041259766 16.695953369141
-70.856864929199 -70.831863403320 -35.698822021484 9.077229499817
-75.994972229004 -72.874938964844 -31.800598144531 15.212849617004
-70.967063903809 -70.992744445801 -34.437927246094 10.271828651428
-71.655067443848 -68.107719421387 -34.611328125000 10.506373405457
-72.243759155273 -66.727043151855 -31.547332763672 12.829624176025
-73.317047119141 -72.143066406250 -30.394134521484 14.967828750610
-62.834064483643 -72.935661315918 -13.783660888672 29.379245758057
-63.122909545898 -70.378234863281 -17.636077880859 25.201274871826
-64.683029174805 -70.055908203125 -19.756072998047 22.998620986938
68.351394653320 -79.121536254883 -117.600219726563 16.826145172119
-66.282958984375 -72.286666870117 -11.721771240234 31.272394180298
-58.710594177246 -71.119430541992 -13.764556884766 29.717638015747
54.108657836914 -72.960350036621 -100.235992431641 2.137454271317
64.823135375977 -78.815628051758 -102.076614379883 8.038046836853
-58.535560607910 -69.054466247559 -5.341796875000 37.854877471924
-81.012298583984 -74.050498962402 -331.271881103516 39.389785766602
-62.646492004395 -81.197067260742 -336.859558105469 44.733684539795
-56.382995605469 -76.097900390625 -336.160980224609 44.550796508789
-62.235496520996 -84.810173034668 -328.820220947266 37.976673126221
-72.889045715332 -73.301544189453 -318.031646728516 24.809009552002
-55.764221191406 -77.192901611328 -327.350402832031 35.966491699219
-14.981773376465 -86.167404174805 -330.597900390625 39.217044830322
-17.136734008789 -83.418502807617 -328.818786621094 36.776371002197
-86.985366821289 -77.559265136719 -267.095306396484 10.695300102234
-19.683181762695 -85.923126220703 -315.792388916016 24.968620300293
-93.597007751465 -74.898254394531 -256.662384033203 2.456784486771
-94.930236816406 -72.835693359375 -247.926300048828 3.984793424606
-115.007041931152 -77.506469726563 -236.779052734375 7.669466495514
-111.500320434570 -78.952613830566 -235.860565185547 8.738855361938
-14.925582885742 -78.787765502930 -305.227111816406 12.969820022583
23.401062011719 -80.948036193848 -325.313446044922 32.346221923828
-111.986679077148 -78.188705444336 -226.707366943359 4.694122791290
-12.682487487793 -82.214981079102 -290.108062744141 3.968416690826
-8.600883483887 -84.882263183594 -295.751220703125 8.375846862793
23.556732177734 -85.421508789063 -319.124694824219 27.378147125244
-111.649482727051 -73.175720214844 -217.593841552734 6.436338424683
-14.129081726074 -86.060348510742 -288.776123046875 6.915143489838
-104.536399841309 -72.273689270020 -208.664245605469 9.322739601135
-3.221641540527 -82.197204589844 -296.137878417969 5.300148010254
0.194023132324 -83.594436645508 -290.664337158203 5.749792098999
-109.951568603516 -76.444229125977 -200.342468261719 6.129400253296
-125.740974426270 -76.071052551270 -183.681823730469 11.078095436096
-104.673431396484 -80.569396972656 -201.287063598633 12.106697082520
-114.986145019531 -73.725601196289 -192.716003417969 2.826362609863
-96.391052246094 -74.146286010742 -202.595031738281 10.832258224487
-116.870491027832 -76.916000366211 -194.098648071289 4.342501640320
-107.159347534180 -74.445236206055 -193.957656860352 5.406236171722
-106.700851440430 -73.083694458008 -193.387725830078 3.921793699265
-97.676757812500 -72.840782165527 -195.374374389648 10.367069244385
-106.929122924805 -72.260231018066 -180.423324584961 2.698633909225
-10.880439758301 -81.807548522949 -250.969940185547 5.008957862854
-77.324340820313 -76.694389343262 -198.816680908203 7.608993053436
-9.753440856934 -81.839462280273 -244.084823608398 6.636224746704
-11.375465393066 -80.548614501953 -245.021865844727 7.044080734253
-11.540344238281 -79.372268676758 -245.206924438477 6.017391204834
-78.529800415039 -78.111633300781 -194.215133666992 11.855388641357
-11.027053833008 -80.605674743652 -228.436370849609 1.959652185440
-10.243850708008 -80.195877075195 -231.314025878906 3.073547124863
-124.559440612793 -70.205039978027 -102.880401611328 26.862213134766
-129.812545776367 -74.186386108398 -101.519134521484 32.685001373291
-127.326408386230 -70.840721130371 -95.394332885742 28.545261383057
-121.236412048340 -73.114326477051 -95.225616455078 24.117704391479
-118.028839111328 -70.253082275391 -89.345001220703 19.980567932129
-117.906082153320 -68.691535949707 -88.196533203125 19.014272689819
-111.260772705078 -69.233604431152 -93.196121215820 13.630238533020
-109.856239318848 -73.701248168945 -85.469955444336 13.921181678772
-92.022125244141 -70.335128784180 -98.983520507813 3.619195461273
-99.333076477051 -70.679565429688 -88.836532592773 4.396800041199
-104.513671875000 -69.529685974121 -72.998168945313 7.874658584595
-98.597198486328 -75.942222595215 -65.689178466797 9.052022933960
-99.722915649414 -71.517211914063 -59.739593505859 9.981245994568
-94.142593383789 -70.853424072266 -61.781463623047 4.035886764526
-98.883865356445 -71.424057006836 -58.244476318359 9.772332191467
-97.539077758789 -73.831497192383 -59.316467285156 8.893307685852
-94.196533203125 -70.269454956055 -59.142181396484 5.249554634094
-91.519699096680 -70.576164245605 -59.043212890625 3.939818143845
-85.927337646484 -72.663764953613 -57.476257324219 1.263936161995
-93.715263366699 -69.628402709961 -60.213348388672 4.218845844269
-97.520019531250 -71.352966308594 -52.123352050781 9.810719490051
37.091125488281 -80.326156616211 -147.047500610352 4.190469264984
22.888412475586 -74.227218627930 -134.715560913086 4.302431106567
-86.277801513672 -73.124076843262 -52.227355957031 5.199866294861
-93.617622375488 -70.204032897949 -51.550964355469 7.052571773529
-92.858833312988 -69.347061157227 -49.408630371094 7.692074298859
38.181076049805 -78.515411376953 -143.413345336914 1.952044487000
-90.995826721191 -71.904899597168 -51.491363525391 7.809706687927
-80.992828369141 -68.241767883301 -40.384857177734 7.005426883698
32.106903076172 -78.477600097656 -131.133499145508 2.104059696198
-81.507629394531 -71.585762023926 -42.047058105469 7.862815380096
-77.477218627930 -72.048545837402 -42.165771484375 6.467319488525
-74.253967285156 -70.970611572266 -41.877929687500 4.951119899750
-75.036811828613 -71.417243957520 -41.951354980469 5.241551399231
65.105026245117 -78.341934204102 -140.149993896484 24.965059280396
-74.825149536133 -67.747001647949 -31.245819091797 13.725348472595
70.201614379883 -78.917297363281 -132.469848632813 26.527276992798
69.743255615234 -79.916389465332 -111.390884399414 12.936038017273
59.590057373047 -79.546035766602 -103.311752319336 5.250237941742
68.506622314453 -82.058303833008 -103.505996704102 9.403862953186
-78.508346557617 -82.506423950195 -335.350952148438 43.769683837891
-58.127281188965 -73.640533447266 -328.441070556641 36.770530700684
-63.447311401367 -73.919525146484 -323.079711914063 30.372903823853
-122.288955688477 -78.577850341797 -268.170227050781 5.435961723328
