# This PCD file was generated using the MATLAB® pcwrite function
# from Computer Vision Toolbox®.
# .PCD v.7 - Point Cloud Data file format
VERSION .7
FIELDS x y z
SIZE 4 4 4
TYPE F F F
COUNT 1 1 1
WIDTH 1414
HEIGHT 1
VIEWPOINT 0 0 0 1 0 0 0
POINTS 1414
DATA ascii
90.887848 -77.503601 -203.330368
110.623154 -74.516983 -149.406326
-13.545362 -75.710594 -292.211945
-43.063190 -82.172241 -77.703415
22.191175 -70.113350 -253.304382
54.336010 -62.757759 -92.940811
47.348503 -64.362915 -88.209229
-3.747185 -85.430351 -259.242371
-84.893463 -87.632988 -98.791641
58.720818 -66.146454 -83.784256
61.381851 -60.867653 -89.885529
4.698769 -87.502708 -260.482025
23.807627 -69.023674 -265.185455
-47.515408 -68.262650 -49.833782
75.539604 -79.016739 -89.641556
-81.534668 -73.083649 -56.872936
-122.796455 -76.994736 -287.156342
-122.157120 -75.141418 -290.099854
-149.118195 -70.539223 -264.716309
-151.616989 -65.867134 -266.332214
-150.234589 -88.311119 -280.907196
-140.283752 -89.901161 -289.778046
-99.210037 -67.750237 -78.697060
65.440147 -76.723305 -233.375549
-155.918365 -81.485069 -278.868469
-162.031891 -70.424355 -280.698822
-174.168488 -75.410034 -271.903412
-68.439453 -72.269073 -101.234734
-156.335236 -84.421288 -270.235840
22.229240 -78.376320 -173.400360
18.891212 -81.136871 -181.395706
-96.717094 -66.458984 -72.515167
15.669703 -76.854370 -178.878342
67.484886 -70.797455 -238.781723
-160.066727 -78.948318 -282.816742
-68.294350 -82.139404 -93.881676
-170.307083 -73.808205 -287.654510
-148.576050 -86.838737 -296.218567
-155.289230 -89.636169 -287.130371
-151.270477 -82.654991 -290.231537
-79.917572 -70.130081 -107.027885
-77.045776 -68.258865 -109.692467
13.289999 -64.685722 -147.886475
-135.356293 -68.728783 -259.677795
95.173752 -60.665985 -62.685326
25.372953 -67.009857 -136.137161
22.224131 -61.928257 -138.967087
94.950890 -77.483299 -77.307022
-72.257141 -78.126755 -62.432892
-156.419998 -76.273415 -313.716583
-161.812271 -74.828140 -311.142242
70.891846 -72.985687 -76.473328
-145.576355 -87.483833 -288.427765
-60.812115 -86.351837 -201.417114
-148.166916 -92.619888 -286.527435
-149.132477 -84.410835 -296.536163
-152.783875 -88.477615 -296.961975
-58.221859 -86.831711 -204.575760
-152.765869 -74.561592 -313.619934
29.124632 -69.977814 -134.775146
21.245920 -65.271149 -139.777771
-78.728714 -65.907906 -111.439644
-79.609642 -62.234207 -110.998573
93.226547 -64.146065 -68.153336
-82.587532 -70.539589 -114.831711
-62.247719 -81.983124 -73.345688
-66.151230 -79.969116 -71.557198
-32.316929 -88.029373 -188.798019
-44.986584 -75.629257 -152.013824
-26.748465 -88.324837 -188.345490
-19.340612 -68.679916 -198.278427
-45.047752 -67.868927 -154.600586
-15.689674 -72.758812 -199.010422
-36.693535 -87.851616 -194.459946
-107.763329 -71.392235 -222.310181
-45.228531 -87.436127 -202.973923
7.218130 -85.197891 -267.795258
29.928398 -72.214615 -260.508301
7.672807 -85.638168 -261.825226
24.516550 -71.902336 -261.606354
-1.203994 -85.559341 -256.753387
-45.486217 -74.357819 -207.377228
-96.875298 -78.645973 -222.068970
-45.756485 -78.758751 -66.858284
111.017776 -81.004616 -150.558807
-0.651117 -86.276978 -250.278122
-55.156570 -86.299454 -199.050049
-151.625214 -70.576355 -175.200119
-58.357624 -79.690697 -70.546638
-153.739410 -75.223106 -179.475128
-156.956726 -65.595154 -176.449326
-3.498369 -64.811066 -260.164429
49.903698 -66.210251 -112.359840
-54.375134 -88.351105 -207.653564
-74.358566 -65.955154 -106.640839
-79.000359 -66.683327 -114.482147
28.086206 -78.855728 -154.735779
-151.853760 -85.959656 -247.314667
-155.190765 -90.018776 -254.059265
-170.386108 -68.262772 -252.880539
75.567436 -72.653618 -233.412231
-149.105179 -74.049164 -279.218262
-87.775597 -76.106773 -68.920326
-149.074432 -83.862068 -259.800476
-134.042847 -67.429855 -289.421844
-153.642883 -68.958931 -279.759613
-162.669601 -75.172585 -294.460358
-151.266739 -84.508461 -302.651398
-109.205734 -69.916351 -253.882416
92.012138 -77.569466 -211.685806
-131.657791 -77.535576 -259.123291
-56.629852 -79.121330 -55.640282
-118.340073 -72.781380 -262.656769
-121.184669 -68.139297 -259.152832
-94.770935 -77.252380 -93.022385
-140.990112 -87.609283 -264.369598
15.458071 -84.710243 -272.592346
50.854916 -78.741165 -105.757278
66.476585 -65.391678 -75.314903
0.416171 -86.806770 -268.564697
-166.418839 -74.861923 -255.137421
12.062158 -68.019707 -151.247833
84.339813 -67.582016 -110.846436
-131.733749 -72.518051 -281.026276
-148.805359 -87.982208 -260.958801
80.398956 -70.868622 -232.611847
-148.252365 -75.284119 -275.244995
-136.856186 -68.586731 -285.883545
-163.039597 -78.112999 -279.720642
-153.765259 -89.200768 -264.718475
-154.253983 -71.038612 -277.793121
-166.408752 -70.972908 -260.325775
-133.599152 -69.089760 -293.759399
27.185802 -76.509682 -172.980804
12.550130 -71.446053 -154.570618
-72.151398 -83.642487 -103.865242
13.786497 -66.303986 -150.189987
25.780739 -72.077354 -169.589188
85.656723 -68.556473 -106.566566
84.325378 -70.909409 -70.222649
39.097965 -81.979912 -112.596756
-57.032440 -82.454353 -209.122070
53.203144 -70.495537 -102.523888
4.121385 -87.854843 -271.851654
-101.801842 -79.701492 -94.776817
-0.721763 -85.723251 -272.288055
-64.070564 -82.410431 -69.418777
2.243776 -84.304710 -279.307404
-83.566895 -83.862175 -82.483238
1.415615 -82.189827 -282.505493
21.677862 -76.402885 -271.670624
-64.667793 -89.834450 -209.949875
-62.646530 -82.631569 -208.301270
54.339478 -77.656151 -93.455276
36.348972 -79.676025 -114.778732
-2.532771 -87.622604 -269.389435
-76.536102 -74.514595 -104.331024
-130.213669 -71.088013 -258.166107
-84.986855 -83.119492 -84.471252
-152.975815 -83.052025 -288.534180
-160.612015 -84.589577 -286.397339
-85.870995 -81.747650 -84.178474
-146.161224 -84.103897 -294.351349
-164.284088 -72.167816 -283.252350
-147.397400 -73.125648 -310.515198
-66.604179 -85.165878 -82.777748
-129.914047 -71.822594 -266.703583
-127.583023 -70.860786 -266.418915
-56.314461 -84.713173 -79.387856
116.454330 -73.816666 -142.750931
114.948181 -77.444504 -138.660461
-41.660118 -84.565926 -82.177574
10.989030 -80.757027 -290.687073
12.075466 -72.749107 -286.575775
-107.635170 -66.335258 -167.532913
-63.576653 -84.584198 -212.647537
-66.356972 -83.682503 -205.389236
46.009109 -73.274834 -110.399742
-76.093689 -60.816643 -109.151245
41.737965 -82.027115 -112.837395
102.705978 -77.762573 -167.502975
-86.261124 -86.907509 -89.255547
-74.000206 -83.373840 -89.257751
-153.264923 -72.201912 -176.304810
-150.544510 -70.443169 -173.422241
-83.254448 -69.597496 -108.866562
-155.342346 -66.694374 -182.151596
-5.137919 -68.899536 -267.336914
-150.293030 -64.573181 -175.337448
-66.998062 -79.915474 -77.486885
-118.696320 -75.387207 -253.099289
-57.112289 -76.580032 -55.718647
89.455864 -79.493614 -206.436371
-45.357246 -81.495354 -199.337357
-57.132149 -84.158180 -182.817215
-94.597511 -77.631668 -88.641312
57.655437 -75.685265 -92.169235
-143.051590 -74.182404 -295.161072
-125.450935 -76.346413 -256.696625
-84.673500 -85.722694 -102.388580
-160.737656 -79.173752 -289.195862
-147.653091 -78.435150 -304.988800
-152.172546 -70.278252 -288.172943
-147.023819 -74.100288 -295.075562
-156.345551 -69.929520 -286.838257
57.130043 -60.222057 -84.913292
55.308628 -62.866566 -95.714226
51.053913 -63.673340 -95.140488
-145.848434 -68.340088 -288.686859
-153.861481 -69.426010 -299.225922
61.852406 -62.134716 -86.269165
46.215435 -67.339294 -97.071518
86.560616 -60.977379 -67.701859
-109.955467 -78.157478 -261.507843
-89.012123 -84.542397 -104.555069
-86.444229 -82.166382 -105.922707
26.748493 -63.727173 -254.349457
-11.942950 -79.892906 -291.921021
-13.201610 -71.909744 -286.035553
-6.561502 -70.151306 -293.170197
25.739161 -74.793114 -257.984283
-11.502326 -68.630783 -286.850647
111.799469 -77.890396 -164.589935
-24.082954 -84.634674 -182.714706
26.707657 -75.121574 -143.099625
30.754744 -62.262093 -133.942719
-41.425034 -71.673584 -152.958252
-25.219053 -86.871864 -185.257797
-114.377136 -71.852440 -231.091721
-25.170055 -84.680084 -185.079132
-46.029232 -72.288857 -157.022125
-118.034775 -69.758408 -236.131577
-43.506371 -85.165802 -194.040375
-54.607082 -88.578758 -201.100830
-53.507538 -84.873573 -205.211288
-44.025978 -76.308090 -64.416199
-52.241291 -82.374748 -75.685791
-154.797867 -87.325722 -229.303391
-135.826874 -79.733322 -198.209229
-148.824707 -85.701294 -220.433029
-54.041782 -58.818298 -138.080902
-49.361721 -68.711739 -143.651505
-22.430576 -74.673622 -245.055954
-143.000015 -84.549400 -221.600708
5.692626 -76.087418 -215.289978
10.297284 -80.654404 -211.928055
-34.133133 -81.827103 -241.288879
-149.224060 -88.544106 -223.621964
-147.406601 -83.642578 -225.510040
-143.075912 -83.975021 -226.294083
-26.262501 -78.996132 -216.235092
-157.904190 -84.846924 -232.345810
-170.037567 -69.465729 -229.615829
15.493874 -73.125320 -184.651520
29.688711 -73.056168 -153.405472
-147.230240 -87.101738 -228.659821
-150.477463 -86.673386 -235.104568
-146.507446 -85.715729 -237.926880
-154.322800 -86.897461 -232.813644
-169.888229 -72.155617 -235.763153
5.055423 -70.573593 -216.503983
-27.393808 -84.532394 -222.852905
-148.861847 -83.835617 -250.806000
-82.437286 -73.952034 -212.769455
0.146366 -69.244286 -161.671951
-50.362789 -74.797516 -240.472717
-59.582176 -79.611359 -243.895660
16.906599 -69.343758 -179.365631
-171.468430 -76.500847 -262.179169
97.373772 -73.310959 -103.189018
-134.916290 -77.899582 -298.680542
-156.305023 -71.140465 -275.267273
7.647095 -73.599777 -150.280426
29.419434 -75.092979 -168.495102
64.994423 -74.263649 -92.243172
-146.890045 -85.596657 -253.204605
23.540756 -70.548897 -172.174347
12.123135 -69.727608 -156.228943
63.840916 -68.552383 -88.127174
-145.168732 -86.401024 -264.096436
-168.499390 -75.673882 -255.490433
-156.615479 -88.892052 -256.741669
7.532082 -62.333019 -278.973206
66.631859 -59.558380 -66.816383
-51.732101 -79.778580 -70.579140
8.665211 -88.771820 -255.460342
-75.698830 -75.432327 -246.742676
25.828751 -71.637352 -259.088348
106.515060 -77.502464 -157.308334
14.592746 -71.264221 -173.645309
-167.006866 -74.990334 -265.206696
-152.565063 -88.225349 -264.117981
14.303463 -68.747482 -183.521423
-6.119729 -82.462318 -269.258606
6.598122 -78.197632 -294.951691
81.111626 -75.288612 -98.503014
77.758110 -66.499855 -109.720268
-6.216316 -85.431183 -274.444824
7.413860 -87.141464 -271.162567
42.914108 -76.812645 -116.106049
-85.270897 -79.344963 -218.842224
20.088299 -70.618568 -269.534332
59.418591 -73.695389 -235.013657
37.570724 -73.167259 -106.712151
-91.735138 -81.138123 -104.922760
-5.093067 -84.391792 -273.991638
37.736755 -80.265800 -110.079491
-1.105445 -60.882706 -250.095551
-58.087807 -80.136505 -94.529289
-162.870682 -79.957748 -269.067963
-157.367523 -74.482887 -259.879150
-149.871246 -89.634216 -277.522797
-171.272324 -74.330574 -281.040558
69.957962 -68.382767 -106.484871
-155.813446 -70.624382 -259.991699
-87.892296 -60.247349 -53.646156
-150.602249 -64.956528 -261.741699
26.299824 -70.864716 -157.991699
-155.469894 -80.821968 -269.828491
-149.473618 -81.731911 -272.445404
-149.524002 -73.626038 -252.871231
20.213428 -69.387077 -164.477356
27.695454 -71.759529 -153.072723
-163.211441 -70.712425 -272.742981
-164.272537 -72.602249 -269.572571
-126.854683 -76.511375 -259.667664
46.378746 -73.035286 -106.706802
-158.554626 -76.945541 -306.990356
29.082083 -75.850937 -123.691147
-36.553490 -79.343025 -179.398102
-94.110672 -78.729683 -108.315063
-152.097870 -80.923073 -293.696045
-33.706936 -80.053955 -176.283554
-142.444473 -83.051697 -288.306763
-70.468613 -84.051369 -216.128204
-144.757935 -81.788200 -294.950256
-63.293888 -83.044731 -206.325775
-59.896889 -80.919029 -202.099976
-49.415970 -80.890366 -193.550522
-155.632599 -82.182755 -298.250275
-62.810349 -82.614075 -213.539825
-155.688873 -67.127312 -310.752869
-83.660255 -69.143021 -99.474480
-64.175850 -82.855347 -78.213211
-48.916943 -77.801208 -62.574146
-89.767319 -80.438896 -110.512741
8.574897 -83.051704 -253.160873
-53.906273 -80.132294 -79.945190
-49.635563 -84.892036 -75.042717
-136.670151 -84.023872 -257.053131
-36.166073 -76.862801 -163.198486
-19.303387 -80.974167 -178.892838
-11.913213 -77.619835 -177.797882
86.294357 -70.519119 -73.669754
-134.596954 -81.301056 -262.972900
27.916140 -78.539528 -138.580322
-152.482697 -86.360588 -302.465088
-10.115580 -75.103340 -173.320770
-153.297852 -80.931252 -314.184387
29.391562 -77.867928 -134.589157
19.404108 -75.153694 -141.526611
81.658531 -73.980400 -82.183395
-8.415810 -76.461945 -166.042801
65.617775 -65.357803 -72.713615
89.483330 -77.248734 -79.628357
-53.817047 -79.886887 -67.911858
-41.869747 -82.188858 -74.846077
-167.766617 -77.263412 -285.770538
-141.158463 -78.760925 -252.959473
-100.907097 -78.267593 -221.258316
-43.776638 -83.537025 -77.618111
-41.413807 -79.637146 -210.273605
75.149994 -76.212273 -228.974854
-6.776669 -79.848221 -251.758179
104.183212 -67.114922 -127.125885
-69.745758 -60.147957 -96.438103
61.973732 -59.526318 -71.853073
95.629951 -73.211800 -81.076706
-41.452095 -82.753349 -85.395775
-41.543201 -79.859261 -247.562943
-139.387756 -81.592987 -286.875488
-73.383835 -81.091805 -209.023621
-133.041565 -77.155525 -284.133453
-76.829163 -85.146652 -79.132607
21.159481 -66.395798 -144.938156
-76.062347 -83.626831 -83.657578
-88.734138 -70.315689 -107.238342
51.600636 -63.939922 -99.026581
-26.785421 -73.008911 -294.131470
-75.165947 -85.424599 -85.118416
-78.755188 -67.221115 -103.763878
-85.901894 -65.742126 -109.311539
49.532791 -64.066307 -103.832245
-144.640762 -69.284584 -269.244781
-133.039612 -73.080269 -280.815216
-161.174728 -78.255417 -254.688812
-163.083160 -76.452965 -251.288467
-47.087929 -81.709000 -88.361099
-157.832550 -81.159126 -256.413055
-128.494263 -72.014923 -287.728851
-129.006119 -68.144745 -289.391693
-151.539581 -66.302376 -275.024750
-154.699203 -70.777649 -268.279694
-151.610580 -82.044342 -262.367065
88.749184 -75.671135 -97.705650
-67.228500 -82.089668 -101.533821
-50.594685 -81.080704 -66.713959
-81.046486 -84.148361 -103.123817
46.158894 -69.765793 -99.214134
52.768757 -67.310432 -94.148148
-36.795151 -72.175514 -176.348526
-158.360962 -76.360977 -298.585693
-153.409561 -83.674759 -304.623230
-152.906754 -83.491219 -302.206757
71.985840 -71.034645 -68.804779
64.781700 -67.586594 -78.946487
58.382256 -69.948402 -90.677788
37.025127 -71.856194 -111.136589
-33.783669 -70.433037 -179.704895
-124.441467 -71.992065 -264.533752
-152.588730 -71.779388 -296.044525
77.403008 -71.339958 -65.310921
-33.169632 -74.609703 -175.055847
-116.013847 -70.214920 -257.051361
-119.492180 -71.236588 -257.364746
48.963676 -70.832054 -96.418137
56.623253 -64.570854 -83.762550
81.599564 -65.475372 -63.063606
-155.815948 -68.981339 -287.839661
-156.581711 -70.615318 -293.277893
-148.105896 -66.814568 -295.052155
-18.194895 -83.995995 -177.340408
-39.184242 -83.293388 -163.486877
-21.419502 -84.929375 -182.352966
13.102179 -79.057106 -222.416382
-153.373199 -81.041451 -187.288116
-44.210541 -75.422943 -160.494049
-60.868992 -74.727257 -175.189331
-16.618277 -82.140930 -211.762527
21.573730 -84.464088 -246.723282
-34.563862 -83.559998 -194.157272
-4.185388 -68.189919 -237.057144
-92.372009 -69.577362 -143.791641
-46.016533 -72.790230 -201.043991
-49.079540 -84.112495 -186.695663
-46.236542 -81.994347 -194.329544
-94.452621 -77.205132 -221.342255
-44.450184 -72.043762 -61.632847
12.044068 -79.652298 -252.226395
-127.942322 -77.964798 -228.323914
-151.103241 -77.449463 -203.768372
-32.716629 -76.786423 -72.185326
-155.025833 -83.004425 -192.424911
-157.177429 -70.760132 -199.015472
-131.733261 -68.778534 -224.460358
-140.392700 -65.569679 -202.488739
-147.280228 -64.076805 -196.838089
-68.932701 -74.545738 -153.180542
8.337799 -79.365150 -245.711700
-71.468109 -73.039902 -151.373016
-8.853238 -70.734238 -212.209763
-73.266113 -74.420288 -251.525055
-13.276293 -82.166702 -217.336380
-88.154076 -59.504078 -116.356842
-43.364937 -77.600838 -287.863190
-25.426628 -74.605400 -64.438255
-141.875137 -69.520607 -184.475723
-150.210785 -65.830460 -184.307587
-23.301281 -80.026993 -203.564392
-153.437149 -76.924675 -193.847885
-154.842148 -84.979622 -200.481613
-159.577011 -69.653534 -195.789108
-165.313034 -66.542725 -203.542252
-149.460754 -62.775677 -196.162109
-118.909866 -74.560204 -229.002762
36.148556 -76.271088 -141.038376
-52.314243 -81.194687 -193.370575
-48.911724 -84.313866 -196.722397
-149.737762 -84.843727 -205.408981
-150.960800 -85.783730 -206.194290
-149.523300 -84.154694 -214.116989
-17.543173 -61.828106 -54.605999
-52.368492 -74.947906 -289.792908
-83.887085 -74.338379 -252.735947
-109.973549 -72.822533 -227.529922
-146.651810 -83.700401 -199.991348
-148.764771 -67.871414 -192.757751
-32.464417 -61.946331 -72.703163
-151.990265 -69.436966 -193.474365
-37.473400 -58.880646 -74.578751
-40.553944 -81.722969 -200.206009
-53.661583 -77.293335 -183.437515
78.288986 -78.234566 -73.893494
92.801186 -65.523643 -72.413933
48.786488 -71.992371 -248.740128
-69.266945 -84.654175 -71.705200
2.483336 -82.720177 -280.267548
9.463932 -77.819679 -278.816284
-73.206535 -83.991318 -208.150864
-86.607491 -80.672592 -89.959625
-84.546066 -82.182625 -80.524544
-103.865494 -73.709671 -225.891602
-52.553780 -69.040558 -50.815277
92.810692 -73.819069 -200.766724
-116.528214 -68.096375 -205.112930
-142.286942 -83.758842 -226.181198
-154.691544 -78.142570 -215.756470
15.495817 -78.036140 -194.853729
-166.567032 -69.539207 -218.339890
-12.407946 -66.787209 -247.441650
-71.429680 -63.847569 -115.550713
-148.029907 -84.246147 -221.921997
15.821862 -72.713829 -202.955017
-32.617073 -82.237206 -239.631271
98.815971 -68.962296 -84.528259
-8.300458 -75.367393 -245.352127
-149.026993 -81.736481 -221.305466
-116.338730 -62.835846 -201.861542
-164.826599 -76.072212 -227.941605
-157.276535 -81.628349 -227.651749
-104.020172 -75.063843 -292.997742
-154.866394 -77.876945 -251.232483
-145.542068 -82.847305 -234.757172
-155.286774 -73.432976 -244.796234
-0.304429 -79.349785 -248.449280
10.275380 -82.785446 -237.764420
6.060789 -77.464622 -241.107742
-34.304165 -66.219040 -51.517136
-35.291569 -87.289322 -211.269608
-63.179237 -79.566101 -167.114700
10.086348 -85.042824 -238.005768
-12.732035 -74.220581 -207.046738
35.222607 -83.842224 -123.093544
30.992250 -75.581917 -115.710838
12.701131 -88.831688 -246.358688
14.144732 -83.238876 -242.317566
-98.522842 -71.686165 -145.739136
-2.393848 -68.885002 -239.189957
-148.069366 -81.770523 -208.124603
-160.094757 -72.350739 -210.854935
48.280182 -78.427795 -117.501274
-134.335007 -69.204674 -234.388626
36.648193 -79.962425 -128.222900
-139.142120 -83.206703 -229.845703
12.144215 -87.523926 -245.377792
-92.555077 -70.970451 -144.390717
1.440497 -69.197151 -236.703690
-5.513439 -81.286224 -229.417572
-72.071510 -73.681129 -161.049698
-17.508921 -78.178398 -211.223068
102.282104 -78.765289 -192.965683
18.559250 -79.715088 -249.780731
34.845387 -69.016449 -134.255463
-79.395523 -63.315792 -120.420624
17.613295 -86.951576 -250.179230
-85.247513 -65.749908 -126.771866
6.468568 -78.033981 -293.966736
-9.287601 -85.581718 -257.130585
-169.204239 -77.790863 -275.042206
90.529976 -72.622841 -83.994049
-153.656815 -77.526031 -260.236176
78.921028 -72.102745 -98.813332
80.231331 -69.184036 -106.826981
-159.547333 -72.369019 -259.593323
20.570551 -80.883156 -152.774185
-141.702728 -85.376053 -257.241943
27.562275 -79.778839 -151.294861
85.779472 -79.186150 -94.169678
-64.700401 -74.059402 -245.068268
18.453358 -79.915154 -159.519867
-154.864670 -83.911369 -261.628265
-165.688110 -69.437241 -264.500824
-148.028915 -81.741737 -265.138672
-115.435432 -78.411057 -291.510559
-164.007538 -65.343132 -255.741730
-161.922028 -75.962692 -254.079987
85.413757 -75.907021 -221.752625
-155.612808 -82.425781 -259.621185
-47.583508 -81.453743 -88.523949
-13.243108 -81.373871 -261.806122
18.065775 -66.751556 -39.811813
-12.636157 -71.086281 -274.876373
-10.949121 -67.639832 -267.794403
-10.809969 -76.212051 -279.973785
-9.227264 -69.147324 -282.610901
-69.349861 -81.968445 -246.735687
-8.319086 -85.742386 -265.780975
-11.172573 -82.264183 -262.707764
43.546169 -70.714058 -96.420547
10.446642 -88.607803 -273.109070
-71.805405 -62.339909 -95.199043
45.939632 -81.854851 -107.604042
-92.436470 -82.536308 -100.741844
104.776260 -78.401352 -175.307846
-67.920769 -64.264740 -50.298325
-69.239708 -79.685707 -205.843384
-58.099346 -84.868362 -186.345718
3.407933 -84.306549 -280.368896
9.573071 -81.854759 -278.850861
59.918354 -75.121910 -238.465897
19.061317 -72.533455 -274.094666
-137.977585 -87.382332 -290.306580
-152.314819 -79.632195 -280.471069
18.124872 -76.183701 -177.448029
2.213087 -76.995087 -161.769791
20.857206 -86.110458 -172.724670
27.225403 -76.586220 -172.761765
-160.821289 -71.858932 -278.898590
-157.912216 -77.022591 -276.699341
-66.931351 -76.315277 -96.568878
-154.776550 -85.483147 -279.979126
-161.886490 -74.239937 -281.343872
-62.083382 -79.101265 -65.802025
26.144165 -67.037605 -137.173508
46.605434 -70.135971 -92.875168
-70.797203 -79.591888 -75.887352
51.575172 -68.205887 -102.960800
-87.293800 -67.629379 -109.696968
21.134161 -69.149048 -145.241714
86.941177 -69.582207 -63.966534
-38.725967 -78.309990 -209.253723
-48.117306 -80.359795 -160.318344
-23.383053 -74.241905 -194.163605
-51.555309 -63.674953 -44.305843
32.748737 -80.381050 -147.684937
-82.556549 -79.721329 -253.961243
31.851583 -77.774460 -146.138306
-37.569653 -81.819733 -77.140022
-146.512558 -81.859192 -189.301208
-81.045105 -80.532356 -78.873756
87.922348 -75.952034 -97.025284
-45.803707 -81.920860 -87.939102
-54.756931 -84.150230 -92.913864
111.108803 -68.736130 -162.993805
-86.693672 -84.643837 -96.030357
-51.134563 -76.816284 -62.956852
48.499802 -66.590187 -250.132980
-47.356182 -80.427673 -198.686279
53.795082 -59.091404 -96.670975
-78.957619 -79.327156 -102.493004
-34.209255 -80.851334 -188.392838
-23.903574 -83.308121 -199.647964
-39.327999 -83.942268 -188.463928
-25.535780 -81.144478 -198.042862
2.359316 -85.739853 -230.439209
-5.047414 -81.697731 -223.036865
4.488891 -84.060280 -223.017151
10.866231 -85.692650 -219.498856
-1.027734 -81.818199 -232.576401
-1.670002 -75.293365 -230.062393
-52.114754 -81.096573 -185.836975
-27.598190 -82.484627 -186.835953
-43.579426 -79.497520 -168.696075
-91.057388 -73.678474 -221.539871
-43.698013 -72.446167 -202.187592
-52.579784 -72.717720 -55.310371
-50.240513 -80.052467 -184.370804
-46.580807 -82.289307 -193.192108
-146.669098 -72.816124 -204.526871
-61.718021 -75.395630 -295.392059
-148.498642 -79.128777 -193.818375
-144.121948 -66.054176 -200.391144
-127.785210 -63.059807 -230.425568
-158.935867 -64.982002 -197.303421
-156.832581 -62.775539 -203.781113
-89.513878 -79.454361 -252.246445
30.225416 -82.928658 -134.322845
-148.257095 -80.282005 -199.480087
30.254850 -76.857613 -132.931686
37.342239 -72.937340 -119.637253
-29.198854 -80.108261 -219.981354
-135.626602 -84.973640 -196.562637
36.713558 -70.614601 -42.137428
105.115387 -68.262108 -108.405724
-54.717705 -83.764114 -188.274628
-40.450970 -84.595940 -200.435318
3.648022 -68.876915 -283.211060
-139.257538 -82.571480 -198.393311
12.132460 -84.055069 -237.655624
38.836601 -76.516243 -129.105606
-108.707916 -71.367256 -225.986832
-16.937424 -72.810928 -196.029236
-47.726883 -74.204262 -161.878464
-22.013710 -81.012489 -204.268784
-83.198746 -71.688179 -122.490265
-66.539658 -69.069054 -46.807549
-35.650585 -71.972588 -212.295822
-47.034138 -69.204918 -158.911621
38.797073 -81.656013 -127.791534
-150.641998 -84.961357 -200.854065
-164.840424 -70.407967 -211.360260
29.720102 -72.003540 -143.139847
35.324253 -76.226677 -132.162018
-29.219790 -71.105392 -214.358139
41.352901 -79.938675 -118.039345
41.908882 -78.103302 -122.731598
-98.729050 -67.991966 -141.557343
0.047786 -71.763458 -241.302841
-139.010712 -82.483879 -229.541046
33.765053 -79.325371 -125.457146
-138.854248 -69.879616 -233.044403
-149.930847 -87.357536 -207.044357
-164.720383 -69.892624 -212.575974
29.614647 -72.364075 -134.374863
-88.422661 -74.390907 -248.119568
107.225227 -78.297585 -188.209579
-151.831451 -81.947670 -212.640991
-109.385513 -74.230858 -227.344696
-164.920746 -70.148895 -212.521317
39.188969 -82.488228 -118.547821
40.036663 -79.047363 -123.002396
-119.934868 -66.256248 -230.218826
-29.042162 -73.995522 -199.619308
-26.207338 -80.450668 -192.903687
5.563774 -82.472023 -222.838440
4.669449 -76.685204 -228.397598
-28.249353 -69.898346 -198.600952
-145.652451 -83.238525 -210.726944
11.736449 -84.176750 -230.536713
2.487746 -75.685722 -229.128403
-28.462654 -81.074760 -199.602066
-2.575185 -63.991215 -240.694351
-97.091431 -67.177162 -142.907166
-6.534511 -80.304893 -228.000504
12.592376 -84.243958 -207.057007
-8.365746 -79.957413 -244.430954
-152.214279 -83.050117 -234.392548
-116.503731 -68.175613 -187.441574
10.627789 -85.469452 -236.572449
5.865110 -74.711716 -239.242218
32.900417 -75.120522 -123.246948
-21.517599 -78.804558 -66.813286
-66.045631 -81.699211 -165.799530
5.333420 -84.384941 -244.146698
0.741755 -79.182289 -245.936935
-57.642063 -72.252365 -153.928040
-49.759857 -79.412781 -151.780167
-65.355087 -82.623573 -175.820770
10.855516 -82.603668 -246.977448
8.387664 -78.872345 -248.084641
-87.816925 -65.878128 -133.078796
32.296509 -70.124451 -259.108734
-40.218212 -82.953392 -74.393333
3.545033 -86.904015 -251.308121
3.122064 -66.886932 -274.345093
-85.133736 -74.536934 -113.868156
-28.291523 -78.466774 -286.181274
7.457525 -84.249207 -248.095078
-28.461166 -80.353027 -292.936249
-40.273052 -78.905098 -65.113419
-68.457771 -73.526161 -57.404186
91.093346 -76.521645 -208.163147
-141.953415 -83.412392 -255.646133
-101.280334 -59.026646 -103.826317
114.028618 -74.644943 -126.767204
21.106575 -71.926949 -32.821281
-11.245722 -84.684090 -256.248779
-70.196053 -69.042419 -47.817848
93.836655 -78.009453 -213.826828
49.135956 -68.965782 -101.300720
-73.741936 -59.682091 -104.738152
-165.009521 -72.859818 -293.146271
-32.114662 -79.302353 -180.626526
-36.941307 -83.253281 -177.808411
-157.920914 -83.223877 -292.643250
-140.326050 -81.523560 -294.813354
-147.514847 -86.778183 -284.814362
-153.325623 -81.630569 -297.579773
-156.889069 -71.084442 -309.655792
-98.623573 -70.224236 -88.187927
-84.781380 -73.130363 -108.391685
-55.417465 -81.644157 -70.393242
-81.408539 -78.979820 -108.770744
-50.445656 -83.860352 -73.656067
-99.749641 -74.920311 -116.093788
-77.957291 -81.620926 -71.668045
-46.816620 -79.534439 -241.563034
71.927635 -59.690319 -109.571388
-1.782794 -78.208961 -285.852325
68.941872 -60.500637 -106.518066
-143.136642 -72.445862 -297.383606
-134.498734 -75.016373 -256.740112
-163.592163 -81.677490 -287.172943
-156.102585 -74.174934 -283.738556
-144.201324 -72.989670 -293.150360
-147.615021 -67.729874 -287.409393
-159.258392 -69.869263 -295.912201
61.600712 -60.968098 -88.225975
-39.707932 -79.371704 -70.700317
-72.738274 -77.937943 -101.655945
-93.495979 -78.316574 -220.111572
-108.923485 -68.633186 -261.085693
-43.524422 -76.894859 -207.055984
-48.228237 -82.003456 -158.530273
-58.223766 -70.839294 -151.269333
-65.197563 -81.081924 -171.027420
-152.572083 -77.355988 -211.414825
30.353920 -83.813522 -133.562790
35.438168 -79.363258 -141.813828
-53.691566 -77.476067 -291.400909
-154.381454 -67.240822 -217.388931
-127.012833 -64.304604 -233.770157
37.538692 -73.223015 -119.447517
-105.837654 -74.545815 -260.244904
-98.214668 -71.789871 -118.974174
30.989304 -77.028076 -147.103027
14.193666 -74.755264 -235.158279
-36.337528 -80.906906 -210.489792
-17.039574 -71.671310 -203.871185
-22.246181 -80.649261 -190.836685
-148.716782 -75.002045 -185.711563
-45.683926 -82.210487 -288.551178
-17.544334 -69.784653 -71.099869
39.909657 -73.097717 -121.555389
-35.471615 -76.488152 -82.387939
-152.379486 -69.495331 -206.398758
-146.099426 -63.214470 -207.133759
31.868961 -78.565834 -140.758926
26.086805 -82.863876 -147.030243
21.439577 -78.204025 -147.046997
22.637484 -74.947533 -141.923981
29.970907 -82.818718 -144.031128
-11.907552 -78.321930 -171.979477
-10.090331 -85.160789 -175.429077
-98.719032 -71.563858 -101.944496
-39.696545 -75.791878 -69.980927
-69.762901 -74.348724 -159.576065
-30.332979 -75.460526 -193.756409
-60.590111 -84.464813 -180.976273
35.669117 -67.193390 -251.658630
4.819004 -75.708885 -227.792282
-19.463642 -75.231796 -211.657440
-66.489395 -73.168259 -164.643127
34.776726 -74.717560 -260.040222
-2.217118 -83.239540 -239.118179
-38.196636 -81.719711 -206.759140
-60.962368 -82.535545 -177.127258
-14.429699 -68.014732 -209.381668
-39.838825 -81.890724 -170.090469
-28.977512 -83.064117 -184.262039
-92.710754 -64.562515 -138.438416
-24.070147 -65.285240 -68.695320
-40.562309 -82.749847 -176.864594
-33.137844 -80.361183 -182.853409
-34.006981 -62.059860 -69.625961
-43.302319 -82.872314 -195.607056
-52.309673 -79.595589 -191.700760
-63.543613 -70.720703 -49.543880
57.807636 -69.565903 -239.425888
-27.887457 -80.382423 -179.679672
-35.526821 -81.888687 -175.564957
43.585884 -76.509254 -110.055527
48.689381 -69.048683 -245.744583
28.163404 -77.533562 -124.422264
28.897446 -76.686691 -131.487732
-60.405693 -74.933647 -178.142609
-41.089642 -85.537292 -193.308136
-16.748159 -83.359703 -211.563004
-65.838089 -77.252647 -162.432983
-164.965988 -74.454636 -202.767014
-38.078533 -78.623642 -62.339798
33.207314 -82.247269 -127.095757
-148.456268 -71.357559 -195.359573
-50.750900 -75.563278 -292.173157
-149.964005 -86.095551 -201.861435
-145.638092 -69.496277 -194.864517
-84.441063 -73.208138 -254.007248
-108.835625 -69.183769 -226.823074
-154.619125 -65.198494 -197.667694
-51.845802 -85.101173 -205.011536
-150.639755 -82.390480 -205.150452
-81.111656 -68.356712 -49.301067
77.714027 -65.707481 -108.154915
-78.781296 -86.715889 -214.711029
-82.823936 -71.535759 -57.818523
9.737416 -81.770691 -220.249695
4.941221 -78.349693 -222.463074
-30.236879 -63.672771 -69.656456
-24.385336 -81.963181 -187.209000
-42.328407 -81.031616 -167.806061
6.841843 -84.994926 -222.922729
3.817139 -76.132935 -220.391724
-5.906233 -81.607132 -229.513123
-49.434124 -78.531494 -164.935226
-90.764847 -77.674103 -113.258057
38.002930 -76.854195 -255.334946
-90.372780 -76.285950 -252.558716
13.240230 -81.489693 -225.462006
-138.920441 -83.257614 -232.071915
19.454763 -75.196442 -191.347427
36.874527 -60.591919 -21.594259
10.071568 -79.193092 -211.040710
5.766921 -80.802818 -210.705856
-154.435974 -75.217644 -246.454391
-148.122238 -80.022079 -229.670044
-149.408951 -81.036507 -231.905609
-110.842476 -66.304634 -184.303345
19.274565 -74.539871 -189.470093
-21.779480 -80.563316 -209.403564
-67.259682 -79.095329 -163.091354
5.462506 -85.105965 -242.482361
9.292687 -78.134834 -245.978592
-51.594395 -75.417824 -152.089386
-141.713043 -75.316772 -228.700089
-152.983826 -80.970024 -245.744171
-114.435066 -75.092079 -196.331573
-90.935661 -70.117485 -292.717743
-165.241562 -70.057457 -244.203400
-153.130234 -70.385506 -231.147293
-151.050812 -68.483704 -231.510193
-7.012001 -79.238693 -235.545410
-6.658175 -75.587059 -220.353256
-75.513992 -76.871239 -147.842575
-159.421661 -74.895493 -229.574051
-147.288986 -87.100258 -250.128754
-11.909566 -69.500526 -220.686188
-152.079758 -67.613914 -228.926163
-115.672020 -67.907234 -198.167435
-148.920227 -65.746063 -230.686478
1.117793 -79.074142 -240.208939
-25.560688 -77.315994 -215.750793
5.464126 -82.885429 -249.813202
-59.767841 -74.991043 -177.257553
10.233936 -76.555817 -250.086121
-34.177269 -79.948425 -208.080261
31.976637 -64.205009 -260.476166
34.766376 -67.436920 -130.485703
-127.633362 -78.043427 -285.259613
-153.386932 -74.947922 -273.362213
-90.665405 -73.233231 -216.740662
-154.502441 -87.602440 -251.843307
-155.016693 -79.620392 -256.215454
85.736588 -76.690712 -218.294296
-73.017426 -75.939499 -60.616486
-161.557098 -67.858208 -260.910126
-167.714478 -69.644737 -248.732407
-150.395920 -71.696648 -269.287720
-127.359680 -72.610008 -285.968536
-127.823883 -71.559807 -285.189850
-151.744202 -64.755508 -273.178558
-155.518890 -67.511581 -272.454803
-139.969299 -83.835190 -261.292084
-144.088257 -79.193390 -260.056824
-150.863907 -85.681778 -259.411377
-151.902924 -79.143608 -252.693954
-160.611801 -69.617760 -252.298111
90.589767 -70.657524 -104.717392
-168.528168 -71.687950 -258.369049
-44.625168 -79.585861 -192.806183
-47.130203 -76.196342 -184.574036
58.646351 -72.138557 -237.995193
-99.287292 -75.526100 -88.026093
11.463266 -85.051178 -253.901855
18.110252 -79.153404 -250.464935
-131.037781 -76.705482 -294.870789
17.435431 -79.008926 -163.384659
28.847511 -80.420547 -154.744446
25.994764 -79.472740 -154.378204
81.573448 -77.348740 -94.809784
-153.416199 -74.924843 -267.062225
-150.850754 -70.329681 -266.730774
-56.539246 -65.424271 -85.796677
-168.170990 -76.910477 -259.891754
-155.170013 -83.131187 -263.078308
-162.841568 -77.207527 -265.758820
-108.018890 -75.146248 -288.942383
-166.593948 -75.203629 -271.281006
-147.717606 -79.358398 -252.955841
-146.200043 -83.081802 -258.786407
23.983400 -79.873329 -152.502594
24.653828 -77.884003 -153.563843
17.939278 -80.738480 -165.422363
-156.916351 -83.533890 -266.445587
12.835364 -83.225342 -268.309021
68.924400 -73.526398 -79.557945
-58.174152 -79.947746 -68.046806
-84.236168 -72.516426 -100.024017
-51.173527 -72.688393 -88.213417
-158.886505 -80.212868 -250.442764
-72.718468 -76.505295 -69.742569
-53.892986 -79.093140 -251.334915
84.399399 -72.510300 -225.819580
73.665962 -57.637878 -108.695007
-117.418625 -76.417618 -295.311249
-145.795517 -67.894424 -260.770477
-158.348770 -66.629158 -259.358124
-46.892094 -80.397446 -243.407455
-130.107574 -76.261101 -223.864212
-155.941116 -75.252396 -201.448105
-35.088345 -81.577682 -74.790001
-150.605927 -69.447037 -199.939285
-126.357277 -70.798698 -229.551651
-149.980331 -65.429504 -200.647461
-145.659225 -64.492020 -202.452194
-31.882164 -80.708015 -77.962128
14.187618 -81.598267 -226.099228
-170.287857 -75.556686 -264.555176
-152.781799 -77.998627 -279.875031
-134.662964 -79.573235 -295.288513
77.526855 -80.192825 -87.604469
74.691231 -75.941154 -94.345749
32.198288 -79.059875 -166.794022
-81.121429 -77.364929 -213.661713
1.567425 -74.319069 -159.693069
16.603430 -77.981186 -175.788040
-50.072075 -78.566116 -241.343979
-83.432396 -80.129272 -79.193298
-63.058071 -70.070419 -133.440353
-37.374722 -80.653618 -82.909180
5.128497 -72.632149 -200.198853
-24.064482 -73.597603 -242.991714
-88.483185 -79.170921 -99.554085
43.677948 -69.756516 -252.542068
-75.217491 -73.877693 -102.908592
-59.586689 -67.130142 -48.545162
-111.100410 -69.366234 -260.991913
-164.064560 -75.831367 -285.507568
37.930992 -80.111107 -115.970131
28.415455 -71.568832 -138.894241
-87.398216 -75.645187 -257.182739
-27.641951 -70.583031 -78.421860
-145.315308 -71.242699 -197.004547
-161.795105 -73.254074 -210.233704
-151.221878 -60.750336 -198.476807
42.279587 -82.246193 -122.103302
38.776169 -79.340622 -120.200256
50.951656 -77.936363 -98.234688
22.878170 -81.770103 -145.502441
20.794456 -72.388771 -148.711136
-94.098030 -76.473984 -254.137741
38.539101 -71.115173 -258.993011
-53.890179 -82.718849 -149.196411
-43.833725 -82.138443 -160.525269
-16.351206 -76.204742 -201.388443
-32.498104 -83.161362 -208.045639
-49.581448 -82.491325 -158.138260
-63.366035 -81.856453 -174.859604
-153.759293 -80.642273 -186.993164
-19.256416 -63.859161 -64.851669
-42.187443 -83.385284 -162.855576
24.242607 -83.470726 -161.686066
25.926680 -80.849915 -159.579666
19.247578 -78.686455 -151.200775
-61.731022 -81.203392 -253.262344
-99.845840 -74.040245 -211.939621
23.581503 -82.798027 -164.675385
28.577765 -75.335579 -163.696350
21.342466 -80.091057 -158.156937
-4.428651 -78.597267 -169.402328
24.735472 -83.100098 -161.913818
22.345631 -81.139511 -163.967361
-25.841208 -79.278351 -189.305618
-44.602375 -80.018753 -166.538467
-31.907648 -79.646004 -170.571136
-35.180649 -83.311111 -165.893417
-25.183435 -82.603271 -181.508820
60.134022 -73.539886 -239.588196
93.690689 -75.370522 -206.092545
-97.541656 -71.916527 -83.362221
-37.179668 -67.718124 -52.926266
-58.901871 -82.378960 -171.801651
3.513299 -80.536644 -232.565353
-135.137436 -66.374542 -231.736481
29.631666 -74.113121 -116.596817
-26.000463 -74.451874 -193.446381
-59.150162 -80.210922 -171.131226
-21.775911 -65.561325 -192.106750
8.748940 -72.725006 -225.324341
-82.767113 -68.437767 -134.880096
-26.203136 -74.804939 -201.638870
-62.646290 -78.045235 -172.135681
-28.082710 -82.511185 -191.029327
-22.872238 -69.036606 -203.089828
-10.820514 -81.007118 -211.038742
-130.264420 -84.725967 -202.122330
12.838292 -76.850983 -186.478928
-22.468750 -77.457695 -217.159393
-136.892166 -78.084717 -202.366379
14.936198 -79.577415 -229.981171
-17.994225 -80.514496 -199.578568
-41.953835 -77.643326 -154.337631
-39.078217 -74.812645 -156.825500
-92.167229 -65.210846 -120.307327
-106.550102 -75.654335 -257.641052
-157.981430 -80.566093 -202.846008
-163.972992 -72.333656 -198.527725
91.895638 -63.297745 -63.791313
57.826069 -70.634018 -88.639458
76.746971 -68.332008 -69.147301
-37.757717 -73.857460 -172.418381
77.550079 -70.717789 -70.913513
-118.197243 -75.779007 -262.053802
-34.051708 -74.667053 -173.547134
43.968445 -73.066864 -100.026184
-161.267105 -78.133888 -305.172119
34.263027 -78.526321 -107.760094
48.393883 -74.644485 -96.225899
70.564484 -71.338974 -77.067329
-143.315186 -78.706413 -285.327423
-37.383934 -71.956795 -184.215836
38.282707 -70.276833 -105.265976
53.842907 -72.615959 -92.287636
-52.965714 -82.188362 -203.869034
-159.664078 -82.088501 -305.105591
-154.930649 -75.355537 -300.792297
66.328186 -70.765205 -76.691437
-155.297333 -70.540474 -300.653503
-37.984917 -69.556129 -177.443420
-33.779945 -68.197166 -180.363495
-146.691742 -69.721558 -288.756958
-147.029922 -71.489510 -282.289154
-157.361221 -67.387352 -299.666412
-152.827835 -66.648918 -289.733673
25.736013 -66.656982 -264.337067
-50.932049 -81.813034 -204.126785
-161.229538 -77.759590 -242.487686
14.430489 -80.215431 -203.491486
15.908798 -81.680115 -239.350739
-20.132616 -82.268105 -210.533112
31.372002 -67.378853 -262.545776
42.884136 -75.081345 -118.529327
-36.705967 -80.772636 -208.823242
95.945656 -75.030411 -201.577774
13.829575 -83.798714 -246.304703
-85.684982 -63.249481 -124.443153
-14.483401 -77.959106 -211.302811
11.901668 -85.398003 -212.343460
-9.224191 -78.029770 -231.778030
18.934082 -81.620323 -190.365494
-153.923691 -77.634041 -215.101669
-161.369965 -72.900024 -218.565430
-72.803925 -57.836334 -121.141754
-93.028824 -74.174500 -291.617188
-146.159470 -71.450333 -233.288437
-149.244446 -72.871742 -233.449066
-122.709663 -66.663864 -204.514648
16.431442 -79.256310 -186.121658
18.961506 -81.996681 -186.678558
-15.098969 -81.613838 -217.206573
-152.904068 -81.228371 -224.571899
-162.711563 -69.895523 -223.240417
-8.593331 -82.497070 -222.300354
-164.395523 -75.076233 -218.389877
-7.035284 -84.795906 -232.379501
-9.765996 -65.560745 -250.295471
-144.082306 -86.345932 -226.074402
-152.638840 -83.194260 -225.832840
-167.258560 -71.603020 -225.968842
-117.838188 -72.415756 -204.037750
22.577539 -77.565666 -184.329132
-161.770248 -74.716721 -230.634399
-103.541405 -77.771538 -293.589935
-148.746475 -77.961967 -247.356689
-156.236694 -80.294640 -229.133026
-153.018356 -84.017944 -237.846893
-163.317093 -69.981438 -242.402740
-128.319687 -71.787338 -206.615189
-162.651947 -75.596092 -202.512863
-154.356323 -76.685272 -203.171066
10.911746 -76.913788 -237.705536
3.795082 -78.130013 -240.880630
-59.572018 -77.858749 -167.007126
-34.292217 -79.732422 -216.502960
-21.496485 -77.966370 -206.595367
-47.690525 -84.376984 -246.126602
96.523315 -73.990150 -83.973114
-38.503696 -79.746475 -246.209656
18.026011 -68.158836 -198.608047
-58.706940 -64.759682 -124.738754
-162.534012 -76.919609 -285.777924
-134.228836 -76.738419 -260.016388
-150.106033 -78.844376 -289.595337
-156.766251 -79.014084 -285.457184
-149.388107 -77.584763 -291.937317
-155.641479 -71.097832 -289.247986
-145.828018 -75.260788 -302.180023
-127.651100 -71.398888 -259.412140
73.835876 -66.148224 -61.940033
92.510559 -70.888077 -70.394897
-118.870468 -72.587303 -261.261780
-59.497814 -75.364449 -62.956841
-118.385071 -74.076347 -263.278351
-47.492054 -80.197792 -62.607670
-81.168701 -75.745964 -70.964775
-68.353302 -63.538025 -99.334717
-86.583946 -78.925697 -73.972557
6.856850 -81.618202 -290.601074
-32.498631 -80.209602 -76.044464
-37.821381 -77.373215 -84.146385
42.295799 -80.561836 -110.995529
50.574741 -68.694633 -248.035767
8.943297 -74.867767 -237.312485
-89.739784 -73.443832 -135.700790
33.640892 -82.501259 -123.307785
33.358929 -76.913315 -116.903984
-17.236958 -76.534126 -203.238251
-78.964584 -73.369598 -255.465897
36.372829 -79.528259 -129.228760
11.817223 -76.858055 -235.227783
32.469067 -72.587906 -148.527496
-35.424747 -72.896774 -172.098709
-37.689049 -79.913788 -168.295517
-32.614136 -76.380363 -173.771133
-19.525600 -79.312798 -183.789764
-4.767215 -78.539703 -165.609756
20.790596 -80.251213 -167.172287
24.496078 -78.188148 -173.190826
22.824282 -79.570183 -175.875000
-164.567398 -71.771416 -222.456909
-152.199799 -76.731270 -224.454254
12.888346 -78.980698 -181.868301
20.062122 -73.419456 -205.667908
-58.533630 -71.478340 -129.367325
15.139926 -78.654518 -190.721695
16.947718 -80.678246 -201.970764
-10.455261 -82.900749 -222.883667
42.238075 -70.287666 -119.121964
-32.612423 -75.852081 -206.266937
-25.389563 -78.297600 -218.343948
-63.400860 -78.523888 -178.595718
35.936729 -73.184792 -130.848068
9.585975 -74.904694 -196.835251
-25.617741 -70.552856 -222.676941
-55.985920 -77.057098 -139.971954
12.389583 -81.396805 -200.705353
6.226281 -77.597443 -202.034256
39.006344 -61.106636 -23.742870
8.326198 -78.045815 -207.205124
9.301321 -76.515907 -207.839767
-33.320515 -81.090019 -241.279938
7.566193 -81.162567 -213.593277
14.152336 -77.686920 -214.765320
19.149065 -69.618156 -25.473843
-74.517197 -67.774330 -49.873013
19.952036 -68.642067 -20.728411
-74.203781 -81.955162 -215.538910
-107.070282 -77.051437 -287.955597
-70.770515 -73.780052 -253.234512
-153.471878 -80.542213 -231.209183
-7.835908 -80.923607 -216.495422
-105.519844 -66.428719 -288.605713
-162.666290 -70.687111 -230.623352
-152.354538 -70.566902 -245.730255
-152.090820 -65.149475 -244.619949
-23.088408 -78.957596 -183.070145
-0.412492 -81.882629 -221.368988
5.229754 -78.014244 -220.425552
-123.563889 -68.818489 -205.997665
-152.970444 -80.029236 -222.805298
-160.757095 -66.628044 -225.987503
2.980475 -82.129494 -230.105011
-11.443477 -80.226204 -248.803818
-161.646027 -76.739731 -232.621231
-157.978165 -78.482124 -235.733215
-24.230234 -78.479301 -243.357376
107.624008 -72.484673 -110.977631
-29.078709 -84.304291 -240.333694
35.984886 -62.919464 -21.146826
-25.979906 -81.481262 -242.092743
108.393478 -70.401604 -145.334564
-52.779896 -80.849434 -245.157959
-43.405983 -77.972832 -246.289032
-87.607178 -65.563690 -52.783867
-89.224571 -73.151825 -61.903553
107.837219 -79.012970 -126.455933
-73.826065 -77.808479 -217.107910
-51.659042 -77.987877 -244.522491
-85.519638 -75.250565 -211.179077
-57.774475 -80.007324 -249.624603
-51.737381 -81.199394 -248.591583
-152.610382 -77.731720 -267.968414
-133.309555 -80.844185 -284.789917
82.043633 -70.942459 -221.433884
-112.015892 -72.314957 -292.564392
-153.044250 -70.210899 -254.945145
-149.218094 -62.565662 -255.011795
-27.350304 -67.163292 -55.182896
36.261318 -72.278450 -118.141693
-79.742073 -63.169487 -132.518631
-4.553503 -79.632317 -245.719711
20.869093 -73.597000 -36.420483
107.781204 -73.836449 -123.381927
-11.030574 -82.437790 -257.027344
-13.547272 -82.666748 -256.984497
73.932755 -67.018127 -228.705765
61.532658 -63.396866 -72.851006
-70.234955 -58.894238 -97.119240
16.390682 -77.122292 -170.814285
-159.073959 -73.260117 -267.423767
-152.706299 -82.930611 -264.051575
86.793510 -79.544907 -92.332825
72.834358 -74.595268 -225.869522
-16.555124 -81.500908 -264.234161
-11.107566 -76.967651 -271.512726
-5.148727 -66.834152 -257.471771
-90.784607 -74.940460 -215.912445
-88.217018 -65.229256 -53.404308
86.835136 -78.099327 -77.997429
81.135117 -75.110634 -77.109367
13.671547 -79.555000 -279.604492
71.597641 -68.974075 -70.551414
-46.327873 -81.520615 -60.766521
-79.581909 -77.344315 -65.314377
-38.178314 -78.898590 -66.829880
-86.045296 -75.638977 -72.261864
76.336876 -79.908287 -226.408539
-77.525940 -78.691887 -67.799423
-38.035187 -78.000839 -70.575211
-1.031559 -74.430061 -229.493378
-30.713654 -81.110291 -70.712234
-1.381564 -80.744751 -239.217453
-82.121803 -75.345833 -213.875732
-52.626614 -74.918259 -91.456261
-64.424461 -76.260117 -94.907715
50.084427 -77.011909 -100.259171
102.266106 -72.907890 -176.603226
-133.733231 -80.281181 -263.359650
46.925014 -78.665710 -107.766563
-109.408058 -75.856834 -257.576477
-160.803879 -76.920609 -307.288513
-38.322002 -73.281693 -53.069077
49.265945 -79.289291 -110.477272
-90.732765 -81.267685 -112.602951
43.391338 -78.553078 -112.503746
-38.740242 -63.514950 -76.820602
-133.957779 -64.757187 -259.648102
26.046421 -71.864258 -140.129349
26.777367 -74.372795 -136.886230
-170.529800 -74.507286 -212.713760
-27.884460 -75.952377 -61.195042
33.799534 -79.198105 -117.270782
-29.919319 -65.987106 -71.504982
6.090823 -71.709015 -237.364166
31.474918 -76.083717 -125.496429
-156.236664 -74.504120 -206.360657
-33.817879 -69.832481 -79.127022
-158.949905 -71.539253 -205.674332
-85.637482 -71.242096 -129.998016
40.691368 -75.691139 -125.309639
-100.623558 -69.058456 -144.508026
-17.225574 -63.230423 -56.690952
-146.205124 -74.061951 -188.630478
-43.648571 -72.671120 -289.427734
-147.167725 -69.607407 -185.710571
14.301827 -69.040497 -248.030167
29.852568 -76.081398 -138.590515
34.027596 -79.757271 -133.231522
-30.002434 -76.750893 -73.633507
-153.060181 -77.523529 -193.803238
-155.772537 -70.890862 -194.892548
36.403103 -75.197922 -140.999725
-28.343798 -76.572365 -223.100754
-53.107620 -75.671883 -146.358749
31.066616 -81.521713 -154.637100
-94.125710 -69.448151 -254.417313
40.048290 -70.045486 -253.751694
-55.578632 -81.701180 -151.228714
-46.418591 -78.798149 -160.295135
-47.229206 -79.661972 -150.024246
-52.237080 -78.974419 -155.124451
-16.650818 -81.036804 -196.633072
29.327261 -78.929588 -153.795044
-170.675827 -74.324928 -248.164230
31.735914 -83.518837 -151.097061
-39.825180 -77.546669 -154.812637
-19.957872 -77.741394 -195.621948
-50.292995 -62.367367 -46.411007
19.475286 -65.885735 -248.137741
-52.728069 -78.506989 -155.132050
-33.977043 -78.760437 -212.873016
-54.512859 -62.257271 -42.794022
1.459141 -74.752968 -244.388702
-2.015465 -75.646156 -225.278549
-69.456657 -79.594528 -155.853058
-15.221491 -77.693855 -210.835052
15.410857 -81.119331 -246.424728
-31.051567 -74.526466 -191.852463
-56.353630 -81.698753 -156.578598
-44.985443 -76.376740 -166.204361
-21.772066 -80.103401 -193.318787
-90.488213 -76.949829 -260.497437
13.185355 -78.927635 -223.211853
86.051117 -73.928673 -84.434639
91.445953 -73.863991 -90.333160
-2.544057 -80.483795 -162.929626
-3.016629 -81.536392 -168.657043
-46.130932 -76.198509 -166.889297
-24.269720 -80.585083 -187.748810
27.198774 -73.692993 -127.089745
-56.773655 -79.090256 -188.424789
-46.556400 -81.711899 -199.537231
-29.055414 -76.751358 -168.921356
-36.764370 -80.033104 -173.403137
-26.829060 -78.840385 -183.357483
20.458536 -79.643318 -181.363464
13.747623 -78.106972 -171.089813
-157.806488 -80.349159 -303.340210
-151.490051 -81.504623 -297.509644
-33.740330 -81.218849 -174.790771
-48.117447 -79.299683 -191.367569
-51.669121 -80.467636 -193.403809
-70.048172 -77.831024 -209.233322
36.779053 -77.909035 -109.989388
-69.157776 -80.083267 -213.053726
43.977291 -75.791573 -99.246971
42.764774 -77.031403 -103.756065
-37.039444 -77.973991 -180.305832
-158.509933 -71.771034 -307.708435
-158.747910 -68.178986 -297.101654
-150.636322 -68.383369 -301.515228
-161.527939 -71.658188 -293.346466
-60.696293 -80.277367 -173.364151
34.455017 -63.618900 -256.833618
28.892698 -69.867744 -129.548843
