9.877505302429 -74.295295715332 -290.673706054688 -1.207519531250 1.353724360466 0.601045608521 -0.114936828613
-139.190765380859 -75.259315490723 -293.159606933594 -0.236968994141 3.054189682007 -2.842864990234 -1.090888977051
-148.428771972656 -74.170707702637 -300.125030517578 -1.432495117188 2.205664873123 -1.661453247070 -0.229103088379
-145.185836791992 -74.862243652344 -303.219360351563 0.991516113281 2.030539989471 -1.561157226563 0.838317871094
-154.530105590820 -74.408805847168 -313.060455322266 -1.572753906250 2.181627035141 0.703018188477 -1.338546752930
22.355812072754 -71.286987304688 -13.743997573853 2.946777343750 3.940720081329 -2.487001419067 0.812774658203
41.755458831787 -67.431915283203 -14.899958610535 -0.718760490417 2.403371810913 0.609012603760 2.211036682129
38.399703979492 -69.588005065918 -17.668004989624 1.019239425659 1.296489477158 -0.675228118896 0.431396484375
42.380996704102 -71.009979248047 -21.766674041748 0.774793624878 1.503878831863 -1.207015991211 -0.452171325684
40.414161682129 -68.845718383789 -24.962207794189 0.431440353394 3.729243040085 -3.390869140625 -1.491012573242
43.456996917725 -71.007102966309 -20.564357757568 0.106748580933 0.699410021305 0.021049499512 0.690895080566
21.108856201172 -71.492233276367 -23.820735931396 -0.075820922852 1.231140494347 -1.167053222656 0.384635925293
20.265838623047 -69.586074829102 -27.256830215454 -1.329978942871 1.398632287979 0.394634246826 -0.177742004395
42.768749237061 -74.030677795410 -28.720167160034 2.919351577759 3.822693824768 0.527317047119 -2.410873413086
37.655590057373 -71.576660156250 -33.104305267334 1.661464691162 2.857120513916 -2.116207122803 -0.961425781250
33.276638031006 -71.218986511230 -36.277477264404 0.863281250000 1.629723429680 -1.042549133301 -0.907653808594
34.200733184814 -69.151649475098 -39.058433532715 0.269592285156 1.515943169594 0.830413818359 1.239280700684
-63.759323120117 -69.621406555176 -49.903854370117 -1.468490600586 2.360243320465 1.847572326660 0.027565002441
-53.577835083008 -70.963333129883 -49.001762390137 0.989044189453 2.593596458435 2.301422119141 -0.672302246094
-82.316322326660 -70.614219665527 -50.072048187256 -0.553665161133 3.077993631363 -0.702934265137 -2.945060729980
-76.601661682129 -70.792144775391 -51.441001892090 -0.890522003174 1.893557429314 1.647544860840 0.279510498047
-77.328712463379 -71.058349609375 -56.611553192139 1.054462432861 2.784949541092 2.204040527344 1.336509704590
-28.164295196533 -71.122619628906 -57.127540588379 -2.500915527344 2.533061981201 0.386129379272 -0.112823486328
-26.154029846191 -73.981788635254 -60.175231933594 0.674411773682 1.566446900368 -1.344049453735 0.438697814941
-19.807346343994 -69.742935180664 -63.276756286621 2.819602966309 4.227451801300 -2.792884826660 1.456359863281
74.910034179688 -70.785377502441 -66.146026611328 1.220626831055 2.651389598846 -1.625152587891 -1.702590942383
75.207542419434 -71.075546264648 -66.095855712891 1.270797729492 2.710840702057 -1.327644348145 -1.992759704590
71.449996948242 -70.005714416504 -69.239723205566 -0.167922973633 0.691757321358 -0.668319702148 0.060653686523
69.598045349121 -72.465774536133 -69.937164306641 -0.865364074707 3.585773706436 -2.520271301270 -2.399406433105
-35.545158386230 -67.836128234863 -74.315856933594 1.340652465820 2.952062368393 0.444320678711 2.592277526855
-51.454902648926 -71.956169128418 -85.325355529785 -0.184371948242 1.884098887444 -1.853027343750 0.286575317383
95.672821044922 -72.851600646973 -85.898742675781 -0.536384582520 2.694391489029 -2.639549255371 0.069404602051
48.587047576904 -67.635055541992 -86.408592224121 2.417129516602 3.892726659775 -3.048713684082 -0.127082824707
-68.792663574219 -66.915130615234 -90.542030334473 2.289962768555 5.130752086639 -2.910514831543 -3.550998687744
50.280334472656 -69.887474060059 -88.950950622559 0.863494873047 1.800613522530 1.365299224854 0.795326232910
-65.699333190918 -69.668350219727 -94.101432800293 -0.597442626953 2.114695310593 -1.581939697266 1.269828796387
56.260410308838 -70.023406982422 -95.907386779785 1.447021484375 1.783305048943 -0.399539947510 -0.962638854980
102.555511474609 -70.636711120605 -96.169700622559 1.214866638184 1.887537479401 -1.039703369141 -1.002952575684
65.496276855469 -73.469139099121 -94.391342163086 -1.971328735352 4.570183753967 4.090610504150 -0.517059326172
92.262245178223 -71.218315124512 -99.309310913086 -0.271881103516 2.670117139816 -0.284912109375 2.640914916992
103.453041076660 -72.268150329590 -103.456840515137 0.345413208008 0.464388340712 -0.112266540527 0.289382934570
-97.261207580566 -70.948486328125 -100.143638610840 2.154541015625 4.003540992737 0.285675048828 -3.362243652344
52.324672698975 -71.642807006836 -104.411735534668 0.666343688965 2.206292390823 2.102535247803 0.055297851563
36.561016082764 -69.778648376465 -104.186401367188 2.880462646484 4.072235584259 -2.841335296631 0.461357116699
41.976974487305 -73.945037841797 -103.553634643555 1.256446838379 1.775717854500 1.233657836914 -0.229354858398
-98.342643737793 -69.077171325684 -106.893417358398 1.701004028320 3.065911769867 -1.962631225586 -1.629257202148
-86.747955322266 -73.195632934570 -113.145683288574 -1.523643493652 2.822070360184 -1.044525146484 2.133438110352
36.622264862061 -70.116294860840 -113.948310852051 -0.246963500977 1.111052632332 0.994365692139 0.429748535156
-99.789993286133 -71.601356506348 -113.992736816406 3.859794616699 5.888186454773 -3.947265625000 -2.047393798828
41.762821197510 -68.751632690430 -116.420906066895 0.780654907227 1.738980889320 -1.076812744141 1.120315551758
105.770057678223 -72.462013244629 -114.404525756836 -0.168106079102 1.053379297256 -0.883911132813 -0.547767639160
110.454330444336 -72.991020202637 -117.530654907227 0.393585205078 1.322024703026 -0.786384582520 -0.987136840820
104.981575012207 -69.593574523926 -119.847152709961 0.308891296387 2.894562959671 -1.029968261719 2.687423706055
109.662033081055 -71.625518798828 -122.307502746582 -0.835868835449 1.070768952370 -0.655044555664 -0.137062072754
39.300861358643 -75.505683898926 -122.733062744141 0.905715942383 1.910814881325 -1.531471252441 0.696769714355
32.674461364746 -68.589385986328 -124.416511535645 -0.293411254883 0.618977129459 -0.426971435547 -0.338729858398
40.114101409912 -73.249237060547 -128.970230102539 0.190139770508 0.572922050953 0.526630401611 0.121437072754
32.715854644775 -73.196708679199 -126.478866577148 -2.321266174316 2.899659156799 -1.634925842285 -0.588867187500
-58.635581970215 -68.749465942383 -128.076538085938 -0.266578674316 0.674859046936 -0.553474426270 0.279350280762
-54.615959167480 -72.402793884277 -131.307861328125 1.282226562500 1.895683646202 0.235466003418 -1.376251220703
-59.723464965820 -71.321640014648 -131.505020141602 -0.300125122070 0.483049958944 0.161903381348 -0.342124938965
-53.640941619873 -70.035751342773 -137.296813964844 -1.574951171875 3.253251314163 -2.754245758057 0.719238281250
28.418350219727 -71.366355895996 -131.412994384766 -0.619659423828 1.115401506424 -0.915884017944 -0.145942687988
-82.926826477051 -68.923881530762 -133.903274536133 0.362197875977 3.022358417511 -2.052314758301 -2.188941955566
115.393417358398 -71.773910522461 -144.376708984375 -0.340759277344 1.921018958092 -1.864707946777 0.311546325684
33.406703948975 -73.287994384766 -137.253479003906 -0.038558959961 1.837697386742 -1.746074676514 0.571723937988
31.436218261719 -72.279159545898 -142.997360229492 -1.041931152344 2.285862445831 -0.134166717529 -2.030158996582
-67.934623718262 -68.106361389160 -143.881256103516 -2.531707763672 2.917272090912 -0.202354431152 1.435264587402
-70.923912048340 -71.308776855469 -146.859848022461 1.480422973633 1.544030547142 -0.354461669922 0.258331298828
-75.489135742188 -69.610374450684 -146.908981323242 -0.722137451172 1.314368009567 0.361686706543 1.036949157715
106.438217163086 -70.031677246094 -146.833816528320 -3.258605957031 5.209962368011 -4.061119079590 0.180297851563
-69.537902832031 -73.939239501953 -151.377746582031 -0.009643554688 0.774033904076 -0.688262939453 0.354019165039
-73.401000976563 -71.282341003418 -145.964889526367 0.831329345703 1.327820062637 -0.324592590332 0.983177185059
-40.847518920898 -72.409385681152 -153.496658325195 1.411865234375 1.646767973900 -0.515003204346 -0.673240661621
21.178117752075 -71.152717590332 -153.529968261719 0.762619018555 1.367646098137 -0.268823623657 1.102996826172
30.606060028076 -70.607780456543 -149.771453857422 0.946441650391 0.956381082535 -0.136463165283 -0.017051696777
5.333693027496 -72.653259277344 -153.269134521484 1.405105590820 2.322215318680 -1.807874202728 -0.387237548828
11.238669395447 -71.281166076660 -155.068664550781 0.678833007813 2.195307970047 -0.359138488770 2.056594848633
22.653162002563 -73.305633544922 -151.457489013672 -0.345825195313 1.320125937462 -0.396125793457 -1.210876464844
-37.866863250732 -71.941108703613 -151.419891357422 1.900299072266 1.980934858322 0.228359222412 0.510704040527
-69.968757629395 -67.788780212402 -159.127197265625 -1.188552856445 4.198596000671 -3.297889709473 2.310729980469
-41.151710510254 -70.259147644043 -156.060409545898 -1.069732666016 1.648916482925 -1.152061462402 -0.497344970703
26.871381759644 -70.179656982422 -161.278594970703 0.205993652344 1.764636993408 0.984859466553 -1.449676513672
-68.041374206543 -73.459625244141 -164.196350097656 0.610534667969 1.293245553970 -0.588645935059 -0.976333618164
-68.442199707031 -72.417579650879 -163.630004882813 1.176879882813 1.538966536522 -0.989471435547 0.065711975098
-47.830776214600 -72.681739807129 -158.873184204102 -1.663940429688 1.761356115341 0.058818817139 -0.574645996094
15.624947547913 -70.010589599609 -162.161056518555 -2.373199462891 2.504933118820 0.798011779785 0.076103210449
17.309112548828 -72.195411682129 -167.415481567383 -0.770080566406 1.983651518822 -1.520851135254 1.014328002930
109.981788635254 -71.355003356934 -166.414596557617 -1.968475341797 2.547686100006 0.685302734375 -1.464981079102
-29.660463333130 -71.094276428223 -170.625625610352 0.357467651367 0.772257924080 0.415529251099 0.543998718262
109.684875488281 -74.390411376953 -169.521041870117 -0.255783081055 0.338715910912 -0.123062133789 0.184822082520
-148.092971801758 -69.522239685059 -173.203460693359 1.155502319336 1.820867061615 -0.049240112305 -1.406394958496
15.507114410400 -71.617515563965 -174.811004638672 0.635391235352 3.467332124710 -1.821296691895 -2.881240844727
109.897521972656 -70.765342712402 -171.435272216797 -1.503585815430 1.663609385490 0.250724792480 -0.666305541992
23.087291717529 -70.041473388672 -179.071914672852 0.611648559570 1.285407185555 -0.451910018921 1.036308288574
100.380187988281 -72.071861267090 -181.540756225586 1.839447021484 4.043264389038 -3.219284057617 1.612648010254
-22.481519699097 -69.354827880859 -182.119171142578 -0.818344116211 1.821274161339 1.436027526855 0.764968872070
-33.131526947021 -76.188278198242 -182.534011840820 1.634658813477 1.703887820244 -0.005657196045 -0.480720520020
9.549761772156 -72.430801391602 -189.281387329102 0.490966796875 2.667845249176 -2.604632377625 -0.303710937500
-30.663377761841 -75.323257446289 -189.197586059570 0.036849975586 1.947480678558 1.597581863403 1.113128662109
-151.108581542969 -72.438278198242 -188.148788452148 0.883895874023 1.344980001450 -0.315292358398 -0.963478088379
96.144836425781 -74.695625305176 -190.663848876953 0.542358398438 3.578520536423 -3.050819396973 -1.790016174316
-134.870788574219 -71.184066772461 -193.461044311523 2.125381469727 3.188697814941 -1.944992065430 1.366584777832
18.397104263306 -72.626037597656 -194.743270874023 1.645217895508 2.002952098846 -0.932010650635 0.660629272461
101.317352294922 -72.848686218262 -193.230133056641 -0.092025756836 0.744449973106 -0.477798461914 0.563423156738
-123.867103576660 -71.297851562500 -198.845321655273 -0.854675292969 1.598770618439 -1.252532958984 -0.506713867188
101.576354980469 -74.133522033691 -193.833114624023 -0.695007324219 1.025350213051 -0.218795776367 -0.721412658691
10.165879249573 -72.736213684082 -196.074691772461 -0.385635375977 0.931322515011 0.846820831299 0.039260864258
-157.198562622070 -67.893890380859 -199.861480712891 2.034667968750 2.755161046982 0.762344360352 1.694068908691
16.153268814087 -73.203231811523 -198.490554809570 2.421508789063 2.892829418182 -1.494392395020 0.521102905273
-160.317581176758 -70.112045288086 -200.744750976563 1.151397705078 2.674751520157 -2.356674194336 -0.524085998535
6.718035221100 -73.048309326172 -196.305023193359 -0.615966796875 2.686852455139 -2.601023197174 -0.272834777832
-124.002830505371 -69.925544738770 -199.467880249023 0.865188598633 2.148964405060 -1.722427368164 0.950126647949
5.725959777832 -70.539947509766 -205.767074584961 -0.459884643555 3.473069667816 0.252220630646 3.433235168457
-26.270624160767 -69.194061279297 -198.025894165039 0.334472656250 1.487194538116 -0.862770080566 -1.164260864258
-163.892105102539 -70.544654846191 -203.724929809570 0.287155151367 1.215467453003 1.180709838867 -0.028762817383
-159.259521484375 -73.939392089844 -203.503997802734 0.256652832031 3.242438316345 2.313049316406 -2.257728576660
-156.216522216797 -72.231391906738 -206.671585083008 0.901535034180 3.107156515121 -2.953689575195 -0.342597961426
-26.231176376343 -71.756759643555 -206.253448486328 -2.127471923828 4.244897842407 -2.952497482300 -2.185356140137
-155.525421142578 -71.104461669922 -206.817596435547 0.755523681641 2.511035680771 -2.262588500977 0.784332275391
-163.004974365234 -72.266532897949 -204.543334960938 -0.782684326172 1.733910918236 -1.432403564453 -0.584869384766
-152.629928588867 -72.570999145508 -205.367248535156 -0.742279052734 1.201666474342 -0.864624023438 -0.381378173828
2.718478918076 -73.644332885742 -208.718933105469 2.175796508789 3.234125375748 -2.392166852951 0.054908752441
17.357341766357 -72.713485717773 -205.710189819336 0.771301269531 2.462053537369 -2.330921173096 0.183326721191
96.797119140625 -72.969947814941 -207.852157592773 2.142013549805 2.175944805145 -0.293609619141 -0.245574951172
-152.645629882813 -75.542068481445 -210.047958374023 1.601211547852 3.173007011414 -2.208984375000 -1.620025634766
-165.463287353516 -69.928260803223 -215.341613769531 0.737426757813 1.636518239975 1.399993896484 -0.417625427246
82.029113769531 -74.103576660156 -213.358978271484 3.069900512695 3.778779268265 -1.823928833008 1.236190795898
-147.915039062500 -73.648994445801 -216.669723510742 0.764099121094 1.775056838989 -1.109893798828 1.155471801758
-6.849851131439 -69.904464721680 -216.087249755859 -0.813934326172 1.452730417252 1.026329994202 -0.628158569336
5.203939914703 -72.233169555664 -213.728118896484 -1.168838500977 1.923997640610 -1.274662017822 0.843101501465
15.023526191711 -68.494148254395 -215.542236328125 0.650955200195 0.750062227249 0.335711479187 -0.161705017090
13.459817886353 -70.231636047363 -220.219909667969 -0.346023559570 0.578138232231 -0.143645286560 -0.440315246582
-145.845672607422 -73.291870117188 -220.712295532227 0.768707275391 1.057216644287 0.474029541016 0.549629211426
-18.718021392822 -72.500503540039 -222.183914184570 0.705139160156 1.627421975136 -0.699853897095 1.288986206055
-23.846641540527 -71.936317443848 -220.206481933594 1.558624267578 1.684669852257 -0.579444885254 -0.270271301270
-100.439338684082 -72.098670959473 -219.898300170898 0.069549560547 1.158318638802 -0.693313598633 0.925300598145
-2.668792963028 -70.266250610352 -224.267608642578 1.040023803711 2.330648422241 -1.325747013092 -1.610176086426
79.751037597656 -71.256454467773 -225.677932739258 0.511550903320 0.820676863194 -0.548377990723 -0.333328247070
75.618942260742 -72.602767944336 -220.277099609375 3.881668090820 4.442353725433 -2.076660156250 0.595520019531
-101.030761718750 -70.288177490234 -223.566818237305 0.292068481445 1.445127606392 -1.341384887695 -0.451416015625
9.720612525940 -71.242523193359 -228.819671630859 -0.827850341797 1.987528443336 1.478645324707 -1.038528442383
84.891014099121 -73.419609069824 -221.671539306641 0.925949096680 1.218949079514 0.785858154297 -0.104316711426
-108.763885498047 -74.103645324707 -226.095687866211 -1.291610717773 1.851889967918 0.914276123047 -0.961944580078
71.580833435059 -75.088752746582 -221.302368164063 2.856399536133 7.008800029755 -6.114768981934 -1.890464782715
-5.324443817139 -74.779533386230 -226.478927612305 -0.161834716797 2.706752777100 2.612634181976 0.688812255859
-21.399862289429 -71.550445556641 -228.619140625000 -3.070510864258 3.288527250290 -0.192199707031 1.161651611328
-10.611022949219 -71.686874389648 -230.808624267578 -0.482376098633 1.613003134727 0.452573776245 -1.471145629883
70.012870788574 -72.946754455566 -232.032241821289 0.229385375977 0.787217915058 0.641304016113 0.394744873047
6.161534786224 -71.705154418945 -234.739776611328 0.066040039063 0.411101877689 -0.317072391510 -0.253196716309
-126.252876281738 -68.323287963867 -232.794738769531 1.158203125000 2.251570224762 0.106842041016 -1.927879333496
-165.138824462891 -72.526306152344 -230.707489013672 0.011108398438 1.159193277359 -1.032638549805 0.526557922363
73.093116760254 -72.515579223633 -232.512161254883 -1.883926391602 2.448593139648 -1.558380126953 0.133720397949
-125.644165039063 -71.276611328125 -237.393646240234 -1.989669799805 2.545495271683 -0.795921325684 1.373779296875
-9.043666839600 -71.372055053711 -235.411224365234 1.063613891602 1.824972629547 -0.923295021057 -1.160507202148
72.190666198730 -71.485832214355 -235.168014526367 -0.358840942383 0.737309753895 0.398849487305 0.505744934082
8.897313117981 -71.233161926270 -236.833511352539 -1.458023071289 1.543092250824 -0.345002174377 -0.369155883789
-4.744877815247 -73.361495971680 -237.570068359375 1.054565429688 1.209594368935 0.555397987366 0.206260681152
-11.334913253784 -71.253761291504 -240.337692260742 1.003326416016 1.648148775101 -1.293150901794 -0.193626403809
68.698066711426 -73.002662658691 -238.697738647461 -1.159271240234 1.654927611351 0.110366821289 1.175880432129
12.925902366638 -71.612724304199 -236.332321166992 0.542678833008 1.798813223839 1.491555213928 0.846458435059
-147.237457275391 -73.582954406738 -245.882644653320 0.167388916016 2.998359680176 2.976043701172 -0.324508666992
50.658737182617 -70.999099731445 -244.361343383789 -0.502975463867 0.811249494553 0.636131286621 0.021873474121
-13.665900230408 -71.719123840332 -243.692245483398 1.160934448242 2.120368242264 -0.842419624329 -1.561576843262
-70.399307250977 -72.160789489746 -247.523574829102 -0.136138916016 1.445951223373 -1.358612060547 0.475830078125
54.998382568359 -70.310142517090 -245.921981811523 -0.175430297852 0.623540341854 -0.488132476807 0.346054077148
-68.757225036621 -74.103950500488 -250.717025756836 1.203002929688 1.525163173676 0.258911132813 0.901039123535
48.558753967285 -72.553863525391 -249.091613769531 0.971649169922 0.993455708027 -0.171325683594 -0.116188049316
-92.708976745605 -71.803550720215 -253.012466430664 -0.794448852539 1.746773242950 1.546989440918 -0.163986206055
18.637027740479 -72.218887329102 -251.877044677734 -0.918060302734 1.194795489311 -0.680685043335 0.348381042480
43.856876373291 -73.290969848633 -252.612945556641 0.303207397461 1.927083730698 -0.910816192627 -1.670967102051
-137.898361206055 -72.246818542480 -255.476776123047 -0.284210205078 2.053437232971 -1.635925292969 1.208129882813
-169.522491455078 -74.307060241699 -259.203796386719 1.957702636719 4.073264122009 -3.450637817383 -0.923027038574
-110.602760314941 -74.939079284668 -262.281250000000 -2.120697021484 2.555350303650 0.417091369629 -1.363265991211
-145.961990356445 -73.929672241211 -262.037994384766 1.855560302734 2.385466575623 -1.428390502930 -0.455024719238
-146.179733276367 -72.766754150391 -264.348663330078 1.488830566406 1.691060900688 -0.650802612305 -0.468536376953
-16.348506927490 -70.889678955078 -262.206390380859 0.437103271484 1.897952556610 -1.053849220276 1.516761779785
20.500661849976 -70.568519592285 -270.787994384766 -1.717407226563 3.421720743179 -2.916225433350 0.504295349121
-11.181199073792 -72.730216979980 -278.081390380859 0.176330566406 1.049644231796 -0.633106231689 -0.818435668945
-158.760147094727 -73.010017395020 -279.783843994141 2.044158935547 3.598092556000 0.752899169922 -2.863708496094
-131.413467407227 -73.861831665039 -282.091705322266 1.552490234375 2.088826894760 -0.920074462891 1.051872253418
-157.167068481445 -71.943145751953 -287.454223632813 1.290405273438 2.379419088364 -1.285354614258 -1.531127929688
-91.971343994141 -74.277725219727 -285.874603271484 1.169097900391 1.511886715889 0.146667480469 0.947364807129
-86.668067932129 -72.110183715820 -284.773895263672 2.207061767578 2.294731378555 -0.036628723145 0.627159118652
-48.439117431641 -73.391548156738 -285.591217041016 -0.556976318359 2.006780624390 0.361408233643 1.893760681152
-15.586579322815 -71.937904357910 -284.001678466797 1.779083251953 4.147721767426 -3.290038108826 1.792793273926
-38.791625976563 -73.050422668457 -288.212432861328 -0.010437011719 1.676614761353 -1.514228820801 -0.719749450684
-14.769510269165 -72.934730529785 -287.428924560547 1.074890136719 1.188089132309 -0.506114959717 0.003829956055
-33.882839202881 -73.277305603027 -285.283325195313 0.844543457031 1.880719065666 -0.356357574463 1.642211914063
-14.945313453674 -70.454879760742 -289.358795166016 -0.622619628906 0.951912164688 0.713903427124 0.093933105469
-49.244895935059 -71.604583740234 -291.952270507813 -1.097869873047 2.722186326981 2.490703582764 -0.037086486816
-7.747466087341 -70.659133911133 -287.605102539063 0.352691650391 1.742171049118 -1.703741073608 -0.089637756348
-74.402153015137 -73.005226135254 -291.432281494141 -0.861755371094 2.904283046722 -2.571990966797 -1.037834167480
-88.716102600098 -73.269454956055 -291.908752441406 -0.077178955078 2.208524703979 2.199096679688 0.188674926758
-103.705528259277 -74.267845153809 -292.476715087891 -1.549133300781 2.142061471939 0.839515686035 -1.218124389648
-119.361633300781 -74.026947021484 -291.965972900391 -0.168182373047 1.279359221458 1.189147949219 -0.440910339355
-135.081954956055 -70.790924072266 -295.746124267578 -1.963470458984 2.108559370041 0.348495483398 -0.685096740723
-151.794677734375 -72.667076110840 -297.030364990234 -0.247619628906 1.547452569008 -0.557266235352 1.422233581543
-157.709106445313 -72.354843139648 -306.720489501953 1.132110595703 1.586073994637 -0.999679565430 -0.484352111816
-149.648742675781 -72.140335083008 -311.884948730469 1.253753662109 1.798904776573 -0.299942016602 1.254669189453
39.938270568848 -69.315040588379 -12.346041679382 1.835156440735 2.221488952637 -1.208175659180 0.327911376953
19.327224731445 -65.877708435059 -17.294981002808 0.569025039673 3.719720363617 -3.605123519897 -0.718063354492
40.349128723145 -70.748802185059 -18.576255798340 0.110988616943 1.472386121750 1.274196624756 -0.729400634766
20.303386688232 -67.052543640137 -20.754093170166 -0.900617599487 3.221688032150 -0.646913528442 3.024841308594
37.564647674561 -71.541824340820 -32.166912078857 1.977123260498 3.468726396561 -2.819404602051 0.417137145996
21.361925125122 -68.529045104980 -35.105049133301 0.825820922852 2.724349260330 -2.146072387695 1.460983276367
31.617044448853 -70.662696838379 -37.857872009277 0.916614532471 1.547569870949 -1.192140579224 0.365501403809
-64.695617675781 -68.542259216309 -49.180042266846 -0.744678497314 1.615483045578 0.911277770996 1.106712341309
-48.225299835205 -67.978210449219 -47.816234588623 -1.065162658691 1.315433144569 0.461269378662 -0.618888854980
-47.324691772461 -66.553390502930 -52.464530944824 -0.635341644287 5.572144031525 -2.523395538330 4.927230834961
-45.817626953125 -67.576438903809 -45.307849884033 1.319347381592 1.414893388748 -0.260341644287 -0.439849853516
-37.875373840332 -70.152824401855 -51.567649841309 0.447719573975 2.327291250229 -2.149387359619 0.771987915039
-30.877416610718 -68.469665527344 -53.632411956787 -1.947792053223 2.113794326782 -0.758781433105 -0.313819885254
-21.316320419312 -68.755569458008 -65.729637145996 0.366722106934 4.961075305939 -4.301858901978 2.443725585938
74.073440551758 -71.437553405762 -68.521141052246 1.097763061523 1.452383637428 -0.419494628906 0.853439331055
94.269584655762 -70.740402221680 -70.545951843262 -0.291374206543 1.030389070511 0.335639953613 0.929595947266
-21.638952255249 -68.846084594727 -74.021453857422 -1.214591979980 1.231820225716 0.199478149414 -0.048538208008
69.936378479004 -69.388175964355 -71.826263427734 -1.518157958984 1.863910079002 -1.024421691895 -0.346290588379
-47.733314514160 -69.527648925781 -80.364212036133 3.970848083496 4.054347991943 -0.810966491699 0.111526489258
62.864837646484 -67.117202758789 -80.290000915527 0.336807250977 1.864665985107 -0.630283355713 -1.722290039063
55.833778381348 -72.243331909180 -85.197952270508 -0.393768310547 2.585583686829 -1.893291473389 -1.716285705566
57.788948059082 -68.830444335938 -87.162010192871 1.040275573730 2.063541173935 1.778861999512 0.108070373535
50.817638397217 -73.700897216797 -90.284790039063 0.404502868652 1.936586737633 -1.723941802979 -0.784072875977
-64.865928649902 -69.148391723633 -89.686759948730 2.471389770508 3.017330646515 -1.076412200928 -1.355674743652
-101.800262451172 -69.991043090820 -93.661010742188 2.960823059082 6.150999069214 -5.270767211914 -1.134605407715
46.144943237305 -70.867401123047 -92.957489013672 1.289024353027 1.524724602699 -0.341529846191 -0.739295959473
100.899734497070 -72.151130676270 -94.366249084473 -0.520439147949 2.101699590683 1.040664672852 -1.750228881836
59.546127319336 -69.372215270996 -94.771957397461 1.071929931641 1.629557728767 -0.373199462891 1.169250488281
70.724578857422 -69.874671936035 -98.076004028320 -0.318275451660 1.067459344864 0.798355102539 0.633087158203
-76.366439819336 -66.286407470703 -99.495826721191 0.095581054688 1.484902501106 -1.326354980469 0.660743713379
51.674900054932 -68.729080200195 -104.070152282715 -1.392692565918 2.236875057220 0.434356689453 -1.695686340332
104.322799682617 -70.637115478516 -103.078254699707 0.731651306152 0.874083697796 -0.418983459473 -0.230567932129
73.016067504883 -68.628883361816 -101.619224548340 -1.083946228027 1.974654555321 0.102569580078 1.647361755371
99.825729370117 -72.644378662109 -100.007476806641 -1.967300415039 2.171200752258 0.857788085938 -0.328697204590
87.582168579102 -68.133293151855 -101.648742675781 2.882255554199 3.612943410873 0.590003967285 2.097106933594
103.035644531250 -69.412834167480 -104.505821228027 2.028129577637 2.090881586075 -0.261207580566 0.436172485352
47.396213531494 -72.341743469238 -101.847869873047 -2.621856689453 2.675145149231 0.480430603027 -0.226837158203
-91.276588439941 -70.259841918945 -112.036903381348 -0.120422363281 3.359106302261 1.617103576660 2.941780090332
39.525360107422 -69.138641357422 -113.736656188965 1.027793884277 1.289668083191 0.143962860107 0.765609741211
-97.435729980469 -69.679580688477 -114.348175048828 3.504356384277 3.851486682892 -1.593002319336 -0.125617980957
40.967689514160 -68.907554626465 -115.452476501465 -0.688026428223 1.995772361755 1.586292266846 0.996696472168
-81.163825988770 -70.383491516113 -118.319007873535 0.491378784180 1.351210236549 -0.565666198730 1.124427795410
42.584075927734 -67.952560424805 -112.650955200195 -0.694442749023 0.999963700771 0.004661560059 -0.719482421875
110.074195861816 -70.209495544434 -112.919174194336 -0.628509521484 0.959129810333 0.561256408691 0.458145141602
34.469413757324 -70.911178588867 -121.821022033691 1.158630371094 1.494041919708 -0.930332183838 0.155624389648
-84.458786010742 -69.112998962402 -117.938575744629 -0.064430236816 1.109406471252 0.746955871582 0.817733764648
-87.750526428223 -71.268218994141 -121.200393676758 2.820640563965 3.140791416168 -1.268035888672 -0.548309326172
33.437595367432 -71.160552978516 -124.736808776855 -0.579208374023 1.806663632393 -0.913185119629 1.447288513184
-88.408744812012 -70.645225524902 -127.761184692383 0.245819091797 1.516758918762 0.225898742676 -1.479560852051
35.094440460205 -71.672782897949 -121.414222717285 1.565429687500 1.706163287163 -0.305305480957 -0.605979919434
-81.072311401367 -69.631233215332 -125.500083923340 1.994766235352 2.076375007629 -0.489822387695 -0.303833007813
-51.747535705566 -68.575317382813 -130.321105957031 0.189712524414 1.017884373665 0.646770477295 0.762748718262
-58.304706573486 -71.602165222168 -128.521514892578 1.271194458008 1.653284192085 0.763984680176 -0.730575561523
-51.137641906738 -70.765602111816 -131.610183715820 1.094039916992 1.578255176544 0.523067474365 1.010131835938
28.897279739380 -68.878150939941 -132.495681762695 1.005767822266 2.596628904343 -1.918209075928 1.432266235352
-62.012660980225 -70.137802124023 -135.748855590820 -0.576629638672 0.993379175663 0.621093750000 -0.518211364746
31.198022842407 -70.978080749512 -136.838500976563 0.955200195313 1.172572970390 -0.501724243164 0.459121704102
-72.372360229492 -69.074623107910 -136.579421997070 -0.101745605469 0.376080393791 0.298164367676 -0.205383300781
113.359642028809 -72.348175048828 -142.424438476563 1.061508178711 1.140334725380 0.274017333984 -0.313812255859
24.621290206909 -69.387878417969 -139.459121704102 -0.355911254883 1.723425149918 0.233343124390 1.670051574707
23.791917800903 -71.761840820313 -139.983230590820 -0.880020141602 1.274824261665 -0.596029281616 -0.703910827637
-72.595809936523 -67.897041320801 -142.833969116211 -0.971069335938 1.359014511108 0.912025451660 -0.268615722656
-57.182834625244 -70.525276184082 -148.229980468750 -2.626007080078 2.991581678391 -0.177623748779 1.422004699707
27.423904418945 -71.702079772949 -141.091674804688 0.024078369141 1.676125526428 0.228509902954 1.660301208496
-54.533523559570 -69.315101623535 -147.270355224609 0.619430541992 1.189970612526 -0.477874755859 -0.896644592285
23.447410583496 -70.209609985352 -151.743133544922 -0.211914062500 0.954541265965 -0.557058334351 -0.745605468750
-75.464210510254 -70.339546203613 -151.498107910156 -1.695739746094 2.619135379791 -1.963447570801 0.359458923340
-58.106700897217 -69.695236206055 -151.622894287109 -1.194320678711 4.928794860840 -4.443374633789 -1.767211914063
-48.694171905518 -68.072891235352 -150.711532592773 0.121520996094 0.867886126041 0.740844726563 -0.435440063477
6.219318866730 -70.444679260254 -148.138824462891 1.744003295898 3.202240943909 -2.652822971344 0.418724060059
112.916152954102 -70.586212158203 -150.658874511719 1.494934082031 1.968307018280 -1.197158813477 -0.454109191895
-53.550369262695 -69.716323852539 -153.777160644531 -1.549819946289 1.863235831261 -1.030658721924 -0.086303710938
27.606626510620 -69.047409057617 -158.157241821289 0.485519409180 1.941330075264 -1.776922225952 0.612846374512
-38.557525634766 -71.530868530273 -154.350646972656 0.763580322266 1.101321816444 -0.663360595703 -0.435668945313
27.922191619873 -72.169952392578 -157.009109497070 -0.581115722656 3.262842655182 -2.896579742432 -1.385017395020
-41.505130767822 -71.919952392578 -157.340591430664 -2.432067871094 2.706245660782 -1.172615051270 -0.183807373047
-37.759868621826 -66.516342163086 -159.135925292969 0.173828125000 4.520766735077 3.754291534424 2.512451171875
-47.245738983154 -70.400909423828 -160.197830200195 1.821289062500 1.890732049942 -0.243461608887 -0.445533752441
-46.575248718262 -71.573875427246 -157.074829101563 0.134414672852 1.424744009972 1.314346313477 0.533218383789
4.114265918732 -70.421920776367 -159.313995361328 1.006668090820 1.419697761536 -1.000876903534 -0.020164489746
-47.776500701904 -69.304718017578 -162.784332275391 -0.765213012695 1.268198728561 -0.774223327637 0.650657653809
21.875303268433 -68.604362487793 -158.065399169922 0.519989013672 1.917526721954 -1.560607910156 -0.985404968262
-39.244636535645 -72.221763610840 -161.807159423828 -0.845840454102 1.192193150520 -0.790752410889 -0.283882141113
-35.153549194336 -68.690940856934 -164.859893798828 -1.831130981445 2.456531047821 0.296733856201 1.610420227051
24.696775436401 -71.904525756836 -166.508850097656 -0.776382446289 2.608269691467 0.611196517944 -2.413864135742
-34.883617401123 -67.874305725098 -168.830276489258 1.299087524414 3.537958621979 3.287212371826 0.154136657715
-34.151756286621 -70.398406982422 -175.876342773438 0.206375122070 0.638788163662 -0.554706573486 0.240333557129
112.401893615723 -70.315063476563 -167.457962036133 0.807083129883 2.131539583206 -1.862594604492 0.650245666504
14.654929161072 -72.638450622559 -174.188430786133 2.059387207031 4.008329868317 -3.107857704163 1.472023010254
-37.088920593262 -69.684127807617 -170.897857666016 -0.768493652344 2.121886968613 1.081909179688 -1.655685424805
-30.874904632568 -70.083671569824 -169.184951782227 -0.126968383789 1.273225545883 -1.263814926147 0.088058471680
-40.669689178467 -68.425628662109 -172.949234008789 -2.408401489258 2.474277257919 -0.377155303955 0.423561096191
-142.391571044922 -71.197059631348 -177.181930541992 -2.071289062500 2.766177177429 1.592864990234 0.907897949219
-25.850202560425 -69.227813720703 -181.414260864258 0.460235595703 1.354572296143 -0.985412597656 0.807472229004
14.574288368225 -68.069480895996 -173.618408203125 1.827987670898 3.372142553329 -2.754122734070 0.666793823242
106.283882141113 -70.216316223145 -179.235763549805 -1.093444824219 1.960150480270 1.543891906738 0.512802124023
106.882392883301 -71.076782226563 -178.950149536133 -0.416900634766 2.075630903244 -0.218894958496 2.021514892578
-24.478893280029 -72.102958679199 -177.841339111328 -1.177902221680 1.340577840805 0.630460739136 0.110519409180
12.124214172363 -71.793563842773 -182.310531616211 -0.672500610352 2.867406129837 -2.680827140808 0.763496398926
-144.600189208984 -68.580223083496 -183.318527221680 -1.737930297852 3.113501548767 2.414718627930 -0.917945861816
-29.318567276001 -70.330726623535 -184.170700073242 1.012680053711 1.217695713043 -0.675895690918 -0.020660400391
-29.379640579224 -68.824592590332 -185.343872070313 -0.160491943359 1.665987014771 -0.736968994141 1.485473632813
21.860721588135 -72.738754272461 -184.306304931641 -0.009231567383 2.909677743912 -0.811332702637 -2.794258117676
20.146785736084 -75.591865539551 -190.142410278320 0.770233154297 1.677766799927 -1.359395980835 0.611297607422
-114.847099304199 -67.446662902832 -187.822845458984 -0.934158325195 1.648093700409 -1.340789794922 0.214111328125
11.950101852417 -69.665344238281 -189.705062866211 0.067291259766 2.471124887466 -0.204292297363 2.461746215820
20.364505767822 -71.658958435059 -189.456466674805 0.724517822266 2.651986360550 -2.523662567139 0.373138427734
-22.864610671997 -69.894454956055 -189.112228393555 1.316268920898 1.804882764816 -0.148212432861 -1.225997924805
-115.803375244141 -68.508605957031 -197.134719848633 -0.616790771484 1.424670577049 -1.149772644043 -0.572082519531
100.459732055664 -67.121894836426 -190.778289794922 2.592056274414 5.201114177704 0.685081481934 4.456848144531
-122.655326843262 -67.594352722168 -194.404525756836 0.088546752930 2.221180438995 1.685897827148 1.443450927734
-139.781341552734 -70.158348083496 -196.248992919922 1.114364624023 1.476861596107 0.941390991211 0.230422973633
-117.228614807129 -70.701164245605 -200.022689819336 -2.662246704102 3.919465541840 -2.867355346680 -0.230056762695
-114.909492492676 -70.810241699219 -201.841918945313 0.088867187500 1.773409962654 -1.760314941406 -0.195899963379
98.244682312012 -73.725242614746 -200.299804687500 -0.250335693359 0.597910940647 -0.451446533203 0.301704406738
-13.531173706055 -68.290878295898 -202.947998046875 1.772354125977 2.062510251999 -0.205279350281 -1.034683227539
-20.426734924316 -70.975158691406 -205.173171997070 -0.137756347656 0.436178326607 -0.397356033325 -0.115684509277
97.095512390137 -69.565002441406 -201.933761596680 0.010299682617 1.287571787834 1.168838500977 0.539955139160
-130.994400024414 -68.733032226563 -205.181945800781 -0.881149291992 1.688846945763 1.343048095703 -0.521537780762
-22.304958343506 -70.021797180176 -203.408294677734 0.717681884766 1.290756940842 0.973720550537 -0.450393676758
6.489579200745 -73.215354919434 -208.369735717773 -0.136718750000 2.044493436813 -1.440402030945 -1.444473266602
-146.745132446289 -70.588890075684 -205.976562500000 0.567886352539 1.719031214714 -1.000015258789 1.277709960938
-10.389439582825 -73.203300476074 -210.181625366211 -0.868728637695 1.574793100357 -1.274778366089 0.316581726074
12.616421699524 -69.631713867188 -207.681396484375 0.847061157227 2.237372398376 1.139609336853 -1.729049682617
92.165451049805 -72.267288208008 -210.125305175781 1.043334960938 1.864614009857 0.832435607910 1.302032470703
96.248886108398 -71.405303955078 -209.480850219727 0.513320922852 1.646857619286 -0.841842651367 1.319068908691
17.795385360718 -70.096076965332 -208.167007446289 -0.727523803711 1.993346214294 1.786712646484 0.501792907715
11.760664939880 -71.825767517090 -211.410659790039 0.702636718750 1.387446999550 -0.935686111450 -0.745521545410
-95.030441284180 -72.166656494141 -212.751098632813 1.948547363281 2.191418170929 -0.987571716309 -0.173721313477
-92.400749206543 -69.927505493164 -216.359588623047 0.996353149414 1.626777768135 -0.898735046387 0.919761657715
83.485870361328 -71.487686157227 -218.850143432617 0.236541748047 1.583060264587 -1.178115844727 -1.030616760254
8.502958297729 -74.562500000000 -222.354949951172 0.012145996094 0.570527911186 0.249698638916 0.512840270996
-103.881080627441 -72.781051635742 -218.444610595703 1.716125488281 1.832306385040 0.424575805664 -0.481658935547
-15.716773033142 -70.393196105957 -217.447692871094 -0.560729980469 0.718058586121 -0.433652877808 -0.114608764648
-20.179395675659 -71.186759948730 -222.415161132813 -1.897155761719 2.583876848221 -0.375921249390 1.713447570801
7.479269027710 -70.119560241699 -223.001052856445 -0.746612548828 0.761708617210 -0.102136135101 -0.111076354980
-8.944182395935 -70.830413818359 -223.920104980469 0.008682250977 0.378567099571 0.261651039124 0.273452758789
-126.181312561035 -66.402488708496 -223.965850830078 1.337570190430 1.417192578316 0.467895507813 -0.020362854004
-9.917410850525 -70.106369018555 -225.526351928711 -0.302093505859 1.954249262810 0.401078224182 1.888641357422
-106.255798339844 -70.004684448242 -226.070312500000 1.991195678711 2.203413248062 -0.877571105957 -0.346466064453
-141.580352783203 -72.536285400391 -223.260345458984 0.474502563477 0.675029635429 0.424087524414 -0.225082397461
-116.900016784668 -70.398254394531 -226.420501708984 1.359619140625 1.440178751945 -0.441360473633 0.175361633301
78.251029968262 -68.493911743164 -225.897140502930 -0.179611206055 1.101348996162 0.963630676270 0.502120971680
14.331958770752 -70.726844787598 -228.403778076172 0.953063964844 1.032578468323 0.209025382996 -0.337928771973
-169.477127075195 -72.623039245605 -226.014587402344 -1.325973510742 2.897022247314 -2.569015502930 -0.186256408691
-110.452072143555 -69.717048645020 -232.618743896484 -0.546432495117 0.853155434132 0.505676269531 -0.416625976563
-118.408668518066 -71.481979370117 -233.122589111328 -1.514602661133 1.926690459251 -1.058509826660 0.545593261719
74.423233032227 -71.488288879395 -231.728179931641 -1.190582275391 1.244595050812 0.090034484863 -0.351318359375
10.400741577148 -71.982261657715 -235.071533203125 0.303955078125 1.638546824455 1.158426284790 -1.118255615234
-3.620629072189 -73.907150268555 -231.755142211914 -1.882858276367 2.142245054245 0.247959852219 -0.991249084473
13.951116561890 -72.118980407715 -236.470428466797 1.868133544922 1.994996786118 -0.462988853455 0.525100708008
-2.609550952911 -70.567123413086 -237.767395019531 -0.754653930664 1.875543832779 1.321638107300 1.096099853516
70.354064941406 -70.578002929688 -234.186920166016 -1.197998046875 1.223588347435 -0.161697387695 0.189270019531
-6.002542018890 -71.441818237305 -237.653717041016 1.602111816406 1.998911738396 -1.092595100403 -0.484893798828
7.726377964020 -71.093345642090 -234.975143432617 -0.169326782227 1.309276938438 1.247770786285 0.358612060547
-4.783023834229 -74.285789489746 -234.637145996094 0.335235595703 1.947991132736 1.917201995850 -0.081382751465
-0.622473001480 -73.448844909668 -238.427825927734 -0.930191040039 1.091467142105 -0.457325994968 0.341903686523
2.217365026474 -73.419395446777 -241.541000366211 0.254852294922 1.011163592339 -0.434252977371 0.876884460449
62.233627319336 -70.909904479980 -241.188598632813 0.542953491211 0.954259514809 0.591247558594 -0.515983581543
7.149504184723 -68.615592956543 -243.180084228516 -1.046035766602 1.480171561241 -1.034249782562 0.164451599121
51.444717407227 -71.467178344727 -246.687835693359 0.650085449219 2.107735872269 -1.225376129150 1.586944580078
-15.127093315125 -72.557121276855 -246.025177001953 0.103775024414 3.437436819077 -3.434789657593 -0.086158752441
-15.480298042297 -72.549453735352 -246.877258300781 2.451156616211 2.719752550125 -0.855619430542 -0.810432434082
-75.434181213379 -68.919486999512 -253.622085571289 -1.587249755859 2.023682832718 -0.248260498047 1.230567932129
33.780551910400 -71.731254577637 -252.814636230469 0.665451049805 2.664986610413 -2.149162292480 -1.428436279297
-80.877433776855 -71.073532104492 -253.520126342773 0.488128662109 1.772313117981 -1.281753540039 -1.122467041016
-156.772644042969 -70.287994384766 -255.062728881836 2.012222290039 2.052246093750 -0.389328002930 0.105354309082
-84.909423828125 -70.379837036133 -256.314025878906 0.203247070313 1.694342017174 1.081459045410 1.288383483887
-138.545166015625 -70.069053649902 -254.142730712891 1.513702392578 2.355111122131 1.700408935547 0.603210449219
36.936573028564 -73.560180664063 -252.704833984375 1.349792480469 2.165395259857 0.165355682373 -1.685127258301
-112.393028259277 -72.029716491699 -257.252960205078 1.459472656250 1.809733748436 0.196327209473 -1.051918029785
-93.414604187012 -69.380516052246 -255.884597778320 -0.306777954102 1.929046273232 0.440635681152 -1.852821350098
-155.254623413086 -68.624931335449 -258.607147216797 -1.540130615234 1.663228869438 -0.131729125977 0.613983154297
-111.907363891602 -70.217430114746 -261.510192871094 0.006591796875 2.133564233780 -1.900886535645 0.968856811523
-167.524871826172 -72.838500976563 -261.781127929688 -0.619628906250 1.671169400215 -1.453018188477 0.545532226563
-155.444641113281 -71.935966491699 -264.120117187500 1.665557861328 2.937353849411 1.095809936523 2.157119750977
-151.816085815430 -68.657905578613 -266.868011474609 0.862945556641 1.316079139709 0.089797973633 -0.989608764648
-17.582963943481 -70.821113586426 -262.919372558594 -0.275878906250 2.797448158264 -2.288306236267 1.585327148438
23.101106643677 -70.975120544434 -265.279022216797 -0.386016845703 2.026307344437 -1.676530838013 1.070587158203
-156.974899291992 -72.384391784668 -268.182922363281 0.491912841797 2.640697956085 -0.505004882813 2.544853210449
-14.937573432922 -69.866508483887 -265.481903076172 -0.579315185547 0.914094805717 -0.538772583008 0.457916259766
-162.470779418945 -72.673873901367 -269.510864257813 -0.829589843750 3.288126707077 -2.610000610352 -1.819740295410
-17.300596237183 -68.154479980469 -272.116424560547 1.093109130859 3.877362966537 -3.182597160339 1.926170349121
19.179969787598 -73.375038146973 -274.504760742188 1.502258300781 2.419367074966 -1.317716598511 -1.363883972168
-162.367385864258 -69.540199279785 -282.128784179688 -1.342926025391 1.381068468094 0.079467773438 -0.312385559082
-164.112106323242 -70.816429138184 -278.696990966797 2.088867187500 3.108075141907 -1.665252685547 -1.588615417480
-158.656585693359 -68.793121337891 -281.621734619141 0.206268310547 1.614678859711 0.856460571289 1.353187561035
-126.261268615723 -68.968025207520 -282.763824462891 2.084472656250 2.326381683350 -0.565269470215 0.864578247070
13.069231987000 -70.333908081055 -282.992614746094 0.825744628906 3.396795749664 0.166864395142 3.290672302246
-138.326675415039 -67.115921020508 -286.064025878906 1.254821777344 2.552042245865 -1.859756469727 1.216407775879
-92.458061218262 -69.915458679199 -285.481597900391 3.064025878906 3.583017826080 1.820777893066 -0.366783142090
-79.750152587891 -71.840843200684 -283.442840576172 2.010131835938 4.908023357391 -4.476371765137 -0.100784301758
-75.129272460938 -69.476432800293 -286.302154541016 1.215209960938 1.545781970024 -0.558227539063 0.775299072266
-71.451690673828 -72.185905456543 -285.651763916016 -0.382690429688 1.345145821571 -0.804641723633 1.007728576660
-56.215503692627 -72.412170410156 -287.164215087891 1.909179687500 1.938672304153 -0.288307189941 0.174247741699
-160.080047607422 -69.944839477539 -284.884429931641 1.711791992188 2.464206457138 1.042236328125 -1.433815002441
-70.637443542480 -69.399154663086 -285.981231689453 3.292755126953 3.789946317673 -1.786781311035 0.573471069336
-62.176731109619 -73.400535583496 -288.574310302734 -0.970520019531 1.792284846306 1.473758697510 -0.313705444336
3.148704051971 -71.443145751953 -290.018524169922 1.670104980469 2.080173969269 -1.234763145447 0.115036010742
-80.471557617188 -74.956222534180 -292.151824951172 -1.166168212891 2.614994525909 2.216049194336 0.753242492676
-105.324951171875 -70.507087707520 -290.585845947266 0.418579101563 1.544684052467 0.912925720215 1.173629760742
-123.804008483887 -74.074066162109 -289.430603027344 0.518554687500 1.441182613373 0.510696411133 1.243904113770
-155.700469970703 -71.127029418945 -293.859039306641 1.039642333984 1.464680314064 0.554779052734 -0.869857788086
-129.567993164063 -68.633003234863 -295.097534179688 -2.074279785156 3.092861890793 -1.589126586914 -1.654640197754
-146.996215820313 -71.851814270020 -308.189453125000 0.054504394531 2.449538707733 -0.096527099609 -2.447029113770
-153.654815673828 -69.927360534668 -312.220275878906 0.637817382813 2.398445844650 -0.920440673828 -2.120971679688
37.876697540283 -64.321441650391 -21.519601821899 -2.438180923462 3.397516250610 2.360363006592 0.164550781250
47.504219055176 -66.574630737305 -23.641571044922 -1.418834686279 3.239868402481 -1.967407226563 2.147781372070
43.637264251709 -66.590248107910 -31.810054779053 -0.836931228638 0.898958384991 0.263591766357 -0.195426940918
-53.659713745117 -65.841339111328 -49.312889099121 -2.265560150146 3.464834928513 -0.167087554932 2.616180419922
-75.724540710449 -67.535858154297 -45.938659667969 2.578529357910 2.823602914810 0.131469726563 -1.143081665039
-36.005722045898 -70.093963623047 -48.846488952637 0.261848449707 0.933384835720 0.802722930908 0.397842407227
-90.928390502930 -69.612289428711 -63.372642517090 -0.873249053955 1.250301718712 -0.890922546387 0.083351135254
78.940727233887 -66.351814270020 -61.055423736572 1.725273132324 2.123145103455 0.287727355957 1.203491210938
83.880287170410 -71.003707885742 -64.803009033203 -0.069892883301 0.878131031990 0.799613952637 -0.356155395508
-16.807399749756 -67.055114746094 -68.350776672363 1.886032104492 2.275038719177 -1.268126487732 -0.102661132813
92.307151794434 -66.636627197266 -71.360694885254 -1.049430847168 4.755074977875 -4.033843994141 2.288566589355
64.570655822754 -71.119819641113 -69.088539123535 0.295539855957 6.686039924622 -4.705703735352 -4.740478515625
-42.371795654297 -64.478462219238 -77.714065551758 0.110069274902 1.637033581734 -0.997451782227 -1.293388366699
-46.888751983643 -69.318130493164 -78.644104003906 0.365669250488 4.729280948639 -4.593727111816 -1.063041687012
58.661170959473 -68.350097656250 -83.223823547363 1.580360412598 2.847663640976 0.934101104736 2.176948547363
60.608283996582 -69.940444946289 -88.624061584473 0.058540344238 2.150379419327 1.599136352539 1.436477661133
99.456359863281 -70.826911926270 -87.834640502930 1.711067199707 2.201879978180 -1.165313720703 -0.750045776367
-62.295532226563 -68.433418273926 -86.800643920898 0.902343750000 3.823550701141 -2.290203094482 -2.925796508789
