# This PCD file was generated using the MATLAB® pcwrite function
# from Computer Vision Toolbox®.
# .PCD v.7 - Point Cloud Data file format
VERSION .7
FIELDS x y z
SIZE 4 4 4
TYPE F F F
COUNT 1 1 1
WIDTH 1420
HEIGHT 1
VIEWPOINT 0 0 0 1 0 0 0
POINTS 1420
DATA ascii
-21.612072 -79.609802 -189.485092
-2.035259 -69.134323 -227.943878
-28.636797 -79.071396 -193.555038
-24.144852 -71.103149 -205.292099
21.061880 -74.393425 -261.690857
-150.966675 -76.071762 -240.618118
-68.249542 -74.593040 -247.997208
-23.996496 -79.659714 -178.503769
-103.474571 -74.102371 -218.371933
-149.129898 -72.917595 -279.612213
67.211533 -66.820488 -96.514938
-99.881081 -63.473907 -71.453354
-153.165283 -73.668900 -252.018936
51.423454 -74.042435 -101.971169
-34.031746 -76.357101 -65.329308
-143.773300 -62.097973 -175.086166
57.650810 -70.448738 -103.759941
96.374619 -73.007401 -206.597733
105.105392 -75.464714 -179.659592
-104.794800 -69.579643 -151.080475
-76.199112 -73.863159 -135.107788
-86.487450 -62.048496 -113.071220
-97.474182 -69.373589 -147.280380
42.033432 -72.351669 -38.021099
17.376970 -71.027290 -193.851303
107.539131 -76.969841 -161.553085
-55.415337 -80.975098 -67.792198
-120.930840 -66.883438 -199.472260
26.956779 -71.722641 -161.935638
-54.520412 -86.914063 -85.854027
-36.100498 -77.446442 -235.650436
-27.664213 -83.231865 -185.945831
76.114494 -68.722260 -67.297226
-86.919350 -84.013451 -96.115410
-56.799427 -70.025192 -284.360687
41.010181 -73.760216 -102.238487
-77.905266 -65.675606 -104.778160
-168.603455 -74.320129 -283.338501
-10.289614 -73.535202 -214.582397
28.361887 -68.094925 -16.019373
-59.873016 -78.904793 -178.036316
-77.604507 -74.181198 -205.112717
15.052068 -79.218811 -248.702026
-16.014355 -72.277000 -230.376099
-152.987885 -71.395538 -289.393036
-85.543999 -64.533722 -105.074348
-18.453068 -73.154472 -224.089966
25.352049 -82.376190 -151.550125
37.662296 -76.244385 -133.452881
35.236664 -72.643539 -12.594380
-73.791481 -76.412483 -52.086281
-153.828705 -63.972420 -282.159302
-72.923256 -79.560081 -210.298203
-16.672148 -72.156464 -231.169693
-30.630941 -73.134697 -56.606071
92.125229 -74.785248 -201.022064
-156.526611 -62.259903 -262.755127
-80.513359 -64.556816 -45.324448
-84.755508 -75.582649 -215.299408
-158.623337 -61.580692 -251.829987
-39.895981 -70.727638 -169.321945
8.378864 -82.801704 -271.807037
-80.933441 -66.671547 -121.242538
43.290318 -65.675720 -246.966827
-49.350750 -81.786240 -153.543808
-47.841152 -76.115440 -149.162079
-11.691017 -76.574684 -249.254120
51.740162 -74.025444 -239.868073
14.207724 -78.254021 -205.793274
-157.120651 -83.294312 -257.181488
6.793590 -78.159233 -248.058685
13.503136 -83.032104 -261.348297
-30.055016 -77.928383 -172.361740
12.990834 -70.248657 -148.031754
-137.849747 -73.968277 -202.490570
-43.161896 -81.097443 -198.352036
-53.572495 -70.375648 -132.552246
40.857239 -74.694878 -123.613510
29.992359 -78.249908 -124.318260
8.378687 -64.701317 -240.408539
-55.676155 -75.467339 -243.283035
-162.634628 -63.976685 -199.175064
-13.296279 -79.498840 -173.262878
103.724747 -80.001396 -182.913818
104.869774 -73.382904 -178.961548
-11.851241 -74.727692 -201.300705
18.016300 -78.881813 -170.801483
-43.649239 -80.863922 -58.107937
102.744850 -76.602509 -188.037582
-69.544357 -74.989853 -286.568878
-130.361526 -71.863678 -279.525452
-76.486359 -65.119598 -101.471596
-1.715636 -73.521576 -220.091537
-96.282288 -65.289986 -76.068100
-81.102623 -86.701332 -82.812012
21.702066 -66.349556 -259.271973
23.498436 -68.296524 -140.834991
24.067127 -72.511566 -35.534065
-168.195786 -68.852890 -257.501190
67.612091 -70.858955 -78.375633
-31.609474 -72.032906 -75.217491
-26.265799 -77.861137 -188.617828
39.736992 -78.964882 -124.702377
-9.609351 -62.217361 -58.135426
-50.072937 -74.802101 -86.634323
19.965490 -66.076073 -268.488678
25.288961 -70.814011 -150.414444
24.408104 -73.684540 -136.031570
-108.554886 -69.919968 -221.640106
10.017300 -79.251587 -232.609451
99.390839 -70.208191 -74.544853
7.292487 -69.925102 -231.597626
-13.742663 -67.938309 -206.345871
99.807518 -70.337563 -198.172043
-56.184082 -69.931038 -85.494453
100.078766 -63.890701 -104.650093
-162.140884 -73.416451 -222.606995
22.013872 -70.511810 -33.290253
7.885770 -65.934052 -286.249207
-154.591187 -72.457893 -292.219879
-151.010376 -74.723053 -224.116043
-83.581673 -64.860497 -47.781322
60.717789 -68.969620 -95.647041
-115.554260 -71.408813 -283.024567
-149.391205 -78.386635 -203.489136
-71.129715 -84.344849 -207.182022
21.702316 -77.717964 -140.491730
44.716568 -71.772308 -25.850033
-12.769941 -78.449043 -207.631302
-31.875660 -80.091309 -178.730713
-87.938560 -76.539345 -104.963905
-161.964996 -71.228920 -281.381165
-154.664902 -67.000900 -255.921524
53.965210 -72.556229 -245.793182
-43.820324 -76.103363 -240.556168
-27.366705 -77.851471 -222.090485
-56.183907 -73.529877 -139.125427
-156.064896 -78.792595 -195.193695
-151.560410 -69.492882 -291.181091
-11.155609 -76.254669 -219.174652
-51.658474 -84.637405 -198.258133
-43.649391 -81.452393 -160.766632
13.557204 -80.704681 -232.352844
-152.809052 -61.904003 -203.823334
36.294521 -76.387558 -132.898621
57.655388 -71.504448 -239.517197
-25.714407 -78.648590 -181.054291
-169.446609 -72.827675 -236.543137
2.977970 -77.030945 -244.074493
-50.163548 -79.450211 -141.599380
-158.160309 -67.591965 -176.510162
-41.757698 -78.671356 -167.663132
102.209076 -73.018532 -102.930992
37.763149 -78.603584 -128.238251
22.026220 -79.039085 -143.832642
-36.333828 -69.022285 -176.449066
57.190552 -68.765137 -242.260483
70.192780 -74.410660 -82.563087
-150.272095 -78.784485 -280.468628
66.440407 -71.281219 -240.643723
111.767204 -71.092262 -145.691666
-56.202396 -78.883514 -199.861084
55.576260 -68.861649 -248.479507
33.963032 -61.138737 -14.966088
-103.035942 -68.098007 -220.254715
-60.400387 -64.812424 -135.308441
-97.165268 -71.504280 -282.987823
-60.588818 -83.798332 -76.698822
-148.866821 -85.219360 -284.484772
-56.367752 -78.187523 -53.120510
24.679562 -74.343910 -182.126236
-76.344582 -69.863640 -135.943329
-60.317642 -82.221138 -205.276199
11.937862 -71.277939 -238.772324
-47.142017 -75.178886 -54.373360
-61.562160 -84.528267 -83.258995
53.704815 -63.469059 -29.691233
6.431712 -77.766045 -207.108582
-151.267395 -66.918739 -239.890045
72.526276 -72.250290 -99.413704
-153.399475 -79.061287 -183.700378
-27.201645 -82.078491 -238.503021
20.101255 -65.829437 -173.537994
41.857357 -79.242455 -128.380798
-106.678665 -67.960571 -290.071716
2.713433 -73.738876 -240.492828
-42.776012 -75.352257 -198.428009
-76.452118 -63.083752 -121.280388
-17.868811 -75.064552 -274.282257
77.973175 -79.330574 -227.712906
96.316231 -77.206299 -205.821136
25.091917 -80.318481 -160.698318
-44.026115 -88.369591 -188.672653
-154.178131 -61.982738 -173.913773
40.459396 -67.076660 -36.193687
-152.237793 -66.000664 -184.965485
44.810272 -66.879333 -37.506332
-2.658806 -85.099411 -261.791595
-40.263153 -78.023628 -158.288788
-68.938408 -82.396461 -208.238113
24.138657 -72.833290 -21.351057
-49.105602 -69.793358 -140.361313
-39.167202 -74.868500 -205.080627
-34.266346 -77.165520 -212.453125
68.441948 -74.371361 -74.830811
-161.674179 -71.358284 -264.638641
65.452675 -65.980240 -86.097008
-167.422028 -69.142754 -287.135468
-43.607025 -73.532188 -54.598209
-72.284660 -74.184479 -149.173065
20.743465 -67.486900 -188.590271
-60.872555 -67.659714 -139.365585
-22.711721 -80.570847 -204.258896
12.936318 -74.473557 -202.213242
3.333321 -64.187546 -240.133133
92.196251 -77.275169 -93.192917
-38.677151 -76.031113 -287.267578
-86.819481 -69.574081 -62.026154
-156.440979 -68.708832 -241.512512
-160.204742 -73.034317 -291.962067
-132.368149 -72.652191 -251.325134
33.822304 -66.132408 -35.869076
-55.534836 -74.044930 -88.717621
-52.349293 -61.088440 -81.895393
16.605980 -79.302025 -193.324081
-149.675934 -73.481842 -188.618286
-77.439903 -82.560936 -77.394836
75.114067 -75.719635 -235.836029
-32.381638 -75.883949 -168.513519
-98.801292 -64.088196 -76.935486
-50.268734 -78.454781 -155.569016
-153.852478 -81.368172 -186.150574
-145.220978 -82.911461 -283.586395
-155.275116 -80.828667 -227.594955
-76.378098 -68.727394 -114.881378
8.252891 -81.032852 -245.223312
-43.901066 -78.999619 -157.871582
47.274803 -68.525070 -96.552887
12.787790 -70.660721 -184.730270
-159.723541 -79.800362 -250.603394
-4.919016 -64.844154 -267.483185
-157.106537 -82.573753 -278.303284
31.709074 -61.587734 -18.872229
29.378880 -74.967056 -161.918350
-41.059143 -73.936142 -148.960617
92.025803 -66.129868 -64.607407
-148.446121 -77.412521 -287.387848
-149.632889 -73.632416 -256.877014
-76.879601 -63.275673 -100.708328
23.652239 -77.329292 -134.590790
81.801529 -65.991577 -60.548183
17.730673 -74.946236 -222.969437
-32.113750 -70.937859 -168.054596
-151.546799 -66.527298 -293.167084
81.196609 -69.735161 -106.128929
-149.648010 -80.951805 -289.920074
-6.185966 -63.111710 -246.028046
-47.329475 -82.116379 -150.037506
-92.938705 -64.979950 -125.470230
44.398918 -67.781837 -16.102135
-135.711273 -65.467606 -288.519165
35.690521 -70.246048 -19.255386
25.818232 -66.629799 -25.788136
-46.535595 -73.229622 -164.003876
-73.559654 -58.981716 -105.156700
-37.070152 -63.910728 -43.472343
-33.964508 -80.690010 -208.879135
-18.474211 -71.378792 -257.993591
-67.388268 -59.274601 -41.579285
-134.327972 -65.590416 -249.643692
23.261019 -73.789360 -178.922134
105.317329 -62.098110 -73.094620
7.001668 -73.665398 -191.219376
10.497561 -72.353325 -156.017944
-93.425873 -65.552277 -64.223557
-28.864758 -65.779976 -177.612274
-1.432101 -62.462074 -261.360870
-54.567337 -69.257683 -44.037605
15.284604 -76.234627 -190.027237
109.444778 -77.091415 -143.625977
-54.936367 -73.161964 -168.726822
-148.673691 -76.324348 -254.440384
83.524017 -76.421669 -213.640747
32.711620 -70.204758 -257.689911
-152.570038 -67.040115 -223.701202
11.292462 -78.882599 -230.716705
26.156372 -67.236855 -148.330688
-10.084935 -76.512787 -211.399094
61.091537 -59.374462 -84.663521
30.324757 -77.297951 -158.953781
-27.233591 -62.203232 -46.340313
100.868195 -65.655342 -96.484428
15.109834 -67.177437 -182.269547
-84.320961 -75.352463 -67.659409
21.489738 -77.059631 -183.599884
-96.159065 -66.706139 -94.987190
-21.528395 -67.902458 -210.468231
-10.041628 -71.717537 -228.892746
-56.975895 -60.308784 -41.013500
-29.620495 -75.930359 -214.323486
-164.639282 -68.911339 -225.895401
-75.812294 -61.939442 -102.878090
-154.668839 -68.101631 -294.802307
1.021436 -81.267624 -247.387161
-165.023560 -68.105156 -210.268616
-2.486044 -73.185913 -223.080078
-16.147606 -71.211853 -199.088821
-97.743652 -64.653076 -112.784409
-37.223969 -79.385147 -240.119965
-73.437988 -71.077927 -248.104950
-69.511795 -81.473305 -66.793861
-77.380234 -73.023750 -55.769531
-23.137562 -78.583099 -198.816360
-55.400177 -68.649315 -139.190170
17.161852 -69.558144 -165.388718
53.024811 -72.223206 -247.714767
-53.579369 -75.589615 -153.001587
-98.355202 -68.658333 -117.598503
-5.034979 -75.552666 -235.406647
-7.013467 -70.931908 -238.358948
44.665886 -66.406410 -14.226439
-126.345459 -64.608864 -281.637390
-154.493042 -63.753571 -199.447388
-10.499278 -65.465576 -63.617695
88.098618 -72.374672 -209.645981
-148.218048 -69.813835 -258.237366
-147.730042 -72.762398 -203.365555
-14.513567 -67.514748 -69.908394
-169.097748 -69.661217 -214.648010
3.596389 -72.238701 -222.970032
-73.627106 -65.510735 -42.270275
-16.590183 -77.186859 -181.485413
-6.553905 -65.339539 -64.122437
-32.480320 -71.986290 -214.374176
6.144594 -72.952438 -241.971817
-147.832306 -78.746620 -254.765930
-105.327820 -60.244453 -166.157364
-159.120331 -81.433014 -250.461761
-151.091751 -78.936691 -262.190369
51.872753 -72.385468 -24.245293
-71.124840 -71.557556 -135.712250
-74.349236 -76.758263 -97.612007
-17.244854 -79.316971 -205.680161
-64.628952 -88.463829 -93.760300
-78.958519 -65.057648 -120.935936
-46.424484 -71.133812 -80.182953
41.744816 -76.094315 -123.032829
-86.101753 -68.629990 -124.213051
-98.790359 -64.607857 -142.629547
-151.591812 -78.139359 -181.698990
-81.526863 -82.081970 -86.843102
93.117599 -75.448883 -92.236565
-26.180727 -69.276314 -51.703201
87.307961 -59.480186 -62.453491
9.315492 -77.073105 -211.791809
-151.840332 -72.122597 -286.822144
107.082611 -72.230072 -186.401428
13.866402 -73.888161 -186.974319
21.216068 -71.030876 -163.469330
-22.141188 -72.325668 -262.790863
25.538492 -66.214432 -258.105652
-59.416832 -80.914360 -91.992661
-16.419901 -66.204048 -248.282089
-62.214581 -65.771347 -115.595238
101.462936 -73.496674 -195.549957
-168.739334 -68.540306 -245.055923
-71.448570 -83.856285 -87.324867
-30.238468 -66.023834 -184.012634
-8.454701 -77.981041 -220.448288
-81.880035 -85.737785 -100.030342
-161.331940 -72.685532 -297.957581
-147.111572 -68.640068 -237.707245
12.653190 -72.488174 -216.823822
71.636200 -76.872536 -85.476189
-59.130955 -77.021202 -288.815582
18.648457 -67.395424 -181.388077
10.023495 -75.329391 -214.272629
-65.295929 -76.108398 -96.802208
-72.776268 -67.065002 -98.190529
-154.797638 -76.388779 -238.541534
16.682051 -74.071266 -198.075302
-74.168777 -77.369209 -99.186394
-7.815498 -78.698578 -218.208038
-151.286926 -58.860077 -220.846375
51.060192 -64.158134 -94.690598
-149.726425 -71.348740 -197.366104
12.898974 -74.576897 -258.225769
-155.684418 -72.875427 -239.045914
-70.095253 -84.146172 -86.582306
108.472557 -75.388161 -148.395050
15.778115 -76.240021 -234.513504
42.877686 -79.263962 -111.444504
29.813864 -71.654846 -146.831146
16.957354 -72.931755 -175.672302
-53.885895 -86.373451 -82.791260
43.179977 -74.623192 -117.485283
-49.422340 -64.372551 -78.601479
46.489281 -75.764420 -101.056839
-156.229233 -63.232418 -238.526871
-76.056068 -86.733604 -93.494278
-7.911911 -61.430305 -56.779556
-43.544563 -74.601028 -171.110092
40.353275 -79.999359 -121.869591
-132.431503 -71.793610 -194.354828
105.092186 -74.313545 -183.131287
-85.196022 -69.984894 -125.544373
-156.210541 -66.113808 -292.882996
9.639608 -79.961472 -220.903030
-90.515427 -70.396614 -131.753342
-52.904842 -73.477081 -134.710236
-122.940933 -62.832993 -195.596100
-163.059158 -72.479759 -259.353729
22.150560 -71.531181 -263.034363
15.865983 -76.133598 -182.725739
-161.234695 -69.622314 -269.695374
-26.744183 -64.692223 -49.088348
-16.831888 -73.224617 -222.630234
7.867402 -79.010590 -212.230621
-106.961174 -67.953873 -171.055862
-147.013962 -67.549644 -186.317261
-160.871078 -64.898521 -276.685516
-13.292974 -68.382179 -234.947708
-58.437561 -59.617741 -38.141426
-155.018204 -77.755943 -273.724915
-16.334013 -78.016365 -178.448578
7.027248 -70.006569 -157.695587
-147.757843 -69.937729 -235.701218
60.128674 -73.021629 -245.109985
-47.290676 -76.815636 -155.403320
-64.764732 -79.176811 -161.338379
-162.573883 -67.140213 -199.037567
-50.140102 -79.657227 -198.181488
40.712299 -63.119396 -35.484806
-2.089447 -84.906639 -268.141388
111.481010 -74.492790 -157.270615
53.626301 -72.264183 -86.597275
-152.274750 -65.303352 -232.092194
4.740273 -76.794159 -210.503601
-141.609009 -80.079926 -189.949585
3.490164 -68.035339 -289.673859
3.555470 -56.584076 -273.894867
-50.616779 -87.962852 -79.999374
-47.354603 -80.626091 -245.109375
75.606834 -67.988930 -232.204987
-170.765945 -70.442841 -254.252274
-79.825256 -70.544708 -99.774086
28.049900 -64.382072 -28.114172
-157.351242 -61.647079 -287.793732
-58.822563 -74.384758 -141.499039
-72.922150 -73.586578 -97.094223
88.673828 -71.770279 -209.535706
-58.902664 -59.052361 -111.137909
-69.559097 -68.388893 -45.364723
-2.432699 -72.051651 -161.832550
73.915703 -75.009720 -102.338829
-158.257629 -70.836090 -213.956161
-151.483017 -69.703156 -233.105743
-88.049850 -79.218483 -100.978119
6.132999 -74.446983 -191.696320
-98.440552 -67.768555 -151.069153
-99.527084 -65.012901 -106.703629
51.997204 -74.040352 -105.284752
61.443298 -68.212624 -81.692085
80.034088 -75.960281 -79.455193
78.296379 -79.380905 -222.772598
-43.161655 -77.718719 -243.483734
-10.490952 -80.427879 -271.989136
46.994183 -74.176826 -36.572384
-20.862350 -65.701698 -53.262352
-47.556011 -72.619316 -164.190475
45.478451 -73.636452 -120.042267
24.563713 -68.031319 -35.137321
-152.935104 -76.827187 -298.597809
-38.459538 -77.707245 -170.728821
-146.859558 -69.786629 -248.322357
-49.509148 -75.602089 -193.888794
73.597885 -70.603210 -102.296425
-0.922842 -75.365692 -242.591187
-34.452370 -71.005219 -288.075348
-14.731155 -82.521667 -264.887238
-76.149712 -77.775513 -154.238174
-133.222275 -74.813667 -261.235321
45.821899 -63.015377 -23.752363
-44.915894 -83.429085 -82.372406
78.841873 -75.116539 -223.965057
-38.308498 -72.689743 -286.880585
-112.062523 -71.962311 -222.866989
77.015144 -70.661880 -69.335670
-30.814161 -77.983070 -287.638580
-10.051513 -76.029427 -289.097992
-48.393318 -73.384171 -158.922974
-156.514191 -76.765526 -301.863800
-130.358139 -63.588772 -221.238037
-68.026520 -83.151398 -75.290268
-84.804695 -67.364319 -124.002510
-54.958336 -66.608948 -139.497635
-62.118664 -61.129581 -131.437103
-12.516878 -61.684471 -243.519592
0.683299 -79.080780 -211.537735
63.619942 -59.604683 -92.489685
21.937159 -81.422592 -158.702179
19.046818 -80.121155 -174.824371
-69.282806 -73.598953 -289.266907
-145.641541 -78.657532 -228.899796
28.963192 -71.943604 -135.506729
-37.326843 -78.810669 -166.231293
-156.256409 -60.873177 -223.261703
-71.682663 -83.606827 -202.081100
-59.654266 -73.577377 -284.651611
-69.833748 -71.098557 -140.024658
12.298666 -73.978142 -170.207123
11.722445 -76.528183 -151.223129
-26.499176 -74.621590 -215.927490
28.293173 -80.175209 -139.695618
-44.115078 -62.433453 -45.287598
53.906391 -64.594566 -87.186554
-46.748356 -69.952988 -44.748764
-145.251038 -78.979820 -193.360001
35.699005 -64.202835 -12.834569
-12.561548 -63.736797 -237.446640
-83.734428 -81.943115 -105.680565
43.256248 -75.050636 -104.377922
-17.724760 -66.754265 -66.341034
-117.399475 -70.712502 -285.614471
25.047085 -71.705704 -161.479202
14.765546 -77.425331 -194.390930
-91.749420 -70.837303 -219.896805
-58.290840 -81.339516 -62.080353
39.408298 -68.292496 -111.048172
-105.507500 -63.568672 -167.433060
91.477242 -70.492279 -199.575989
-153.604355 -77.351494 -212.143295
-22.727201 -76.824753 -213.169479
-152.088394 -81.508423 -194.845016
-90.911324 -67.505043 -135.104706
46.800995 -71.285149 -248.758698
-41.684139 -70.750694 -157.823944
98.343315 -66.865128 -70.881546
-17.721434 -76.798180 -200.001999
28.554996 -71.168793 -134.925797
47.939190 -72.139519 -247.633179
-62.328388 -73.074806 -159.584625
52.341606 -65.469421 -33.261387
111.338379 -70.739403 -130.300003
-22.543688 -69.008141 -55.952080
-95.557869 -66.011856 -75.551781
-55.302612 -79.032036 -246.146927
112.164238 -72.933929 -147.152344
-76.251472 -75.459290 -208.697876
-79.267578 -85.018623 -81.453995
51.160019 -68.047447 -26.524408
-139.428406 -66.287079 -229.649689
-67.810760 -66.594193 -123.910492
-149.190323 -70.988579 -266.447113
92.145226 -69.138351 -107.358368
19.302578 -69.573189 -181.107971
-161.092667 -70.551544 -229.086777
-150.383789 -77.770866 -181.510712
0.345472 -76.380737 -225.035919
-119.521400 -64.895477 -253.290817
111.402809 -81.295677 -146.807312
-84.301971 -73.223930 -58.142387
-165.442505 -67.209740 -245.084869
-58.074879 -82.578140 -181.237930
-103.266273 -63.782173 -150.621445
-124.681000 -64.234573 -229.823608
68.305038 -74.948349 -91.011467
-111.029106 -69.602669 -190.768356
-98.889877 -68.425644 -115.855042
-172.074875 -71.023964 -261.632294
-9.915616 -77.061203 -230.160156
12.048810 -72.463173 -278.653870
-44.705341 -67.657028 -163.985641
-39.895168 -83.290657 -78.871803
50.375320 -64.956772 -88.314400
102.285362 -72.787270 -197.245041
99.019844 -70.331841 -99.724220
-59.880531 -64.845543 -120.169975
112.576508 -80.565178 -126.938217
-47.895103 -76.154343 -184.095383
-90.340500 -66.480698 -57.583260
-30.450832 -75.138786 -58.364693
-31.279808 -74.058975 -57.162315
-132.294250 -72.139572 -228.051620
41.839123 -69.756035 -257.982544
-3.716874 -70.899193 -222.478668
-152.713470 -79.085175 -237.390625
-50.834843 -77.173416 -181.293182
16.445494 -77.441620 -181.221054
22.916191 -70.264236 -152.211746
-40.010494 -75.309143 -239.353012
67.721054 -69.113182 -100.997719
-155.718842 -67.850471 -248.183151
-150.852325 -62.906685 -284.091919
43.778992 -61.995789 -115.528641
-99.039474 -65.614204 -85.312035
47.666592 -73.249886 -31.018753
52.248737 -69.352287 -106.895988
30.751310 -76.912010 -121.454788
107.396049 -70.608528 -134.293091
-165.863815 -68.026237 -201.689606
-19.442440 -71.573372 -201.799179
-7.717968 -68.683548 -230.289871
-45.199024 -62.931847 -43.845631
-33.678635 -75.855988 -190.151321
11.423374 -75.174004 -239.078796
18.459282 -77.526138 -244.542633
111.234238 -75.078323 -110.808067
43.188576 -74.585083 -100.368134
60.285328 -68.434875 -91.983673
8.478771 -70.404602 -210.860779
41.251907 -72.136078 -20.328524
-137.470825 -73.534126 -197.569901
25.984816 -69.914070 -150.562744
93.791954 -75.804756 -93.060158
-82.350418 -84.084839 -97.318954
-3.517422 -81.657700 -251.258820
-150.045547 -74.808792 -187.097015
-152.983582 -79.616959 -253.202072
108.033783 -75.812065 -174.173691
-37.755840 -71.631973 -290.659363
-167.765305 -67.377632 -289.493713
-152.952698 -67.116638 -292.584137
4.805651 -77.990471 -242.624008
-18.064659 -69.239998 -201.844757
-80.121925 -73.829155 -213.085159
-22.193209 -70.386589 -259.296356
-29.246645 -83.124428 -73.280128
-158.512741 -69.489258 -220.423889
-26.254698 -71.776543 -195.589859
-153.591415 -75.897316 -210.850983
82.333015 -77.610878 -83.851730
-71.904106 -73.559639 -137.517960
-154.228836 -77.635857 -251.092682
-140.635452 -69.234207 -219.562820
-152.416962 -66.189125 -201.499359
-23.672960 -75.378174 -173.781677
85.705292 -71.159996 -224.661514
-131.893982 -67.325409 -201.830307
-15.975244 -68.781502 -242.653336
-138.864502 -67.004013 -200.531052
-155.304352 -76.908073 -201.742996
86.837959 -71.247032 -216.502304
104.100952 -74.367386 -105.532585
-20.832329 -74.017204 -223.371658
-51.250462 -69.550789 -283.484283
102.953468 -73.494621 -199.238129
-79.995750 -65.817024 -134.533112
12.269261 -74.949318 -195.308121
-153.707245 -72.511368 -172.093048
80.935570 -61.854584 -62.739666
-26.751823 -74.558434 -212.210922
-90.704758 -77.222649 -111.110931
-27.386288 -76.009117 -173.917725
-64.471596 -67.287643 -123.364700
8.986683 -70.791885 -152.757751
-63.052044 -80.406914 -168.031174
7.642808 -72.904846 -291.365784
-151.529465 -80.100456 -192.964005
-109.623825 -66.808868 -222.820724
-149.832565 -61.859566 -180.074524
94.020309 -68.786613 -67.188889
4.367884 -72.385788 -233.348053
-19.185116 -71.998642 -258.353485
18.283937 -67.787834 -178.335602
-129.775070 -66.443039 -286.508850
-82.617699 -59.961143 -122.986450
12.612143 -79.359230 -195.852066
-10.951168 -74.099091 -222.510544
-7.633089 -68.128456 -289.323883
-32.400162 -75.355728 -59.331074
114.718964 -72.554428 -137.669373
-3.022225 -77.097816 -287.254456
-84.844238 -75.315369 -107.998085
-4.247781 -81.087090 -275.088196
73.695374 -81.289207 -91.903236
99.820015 -67.246063 -72.376534
20.669331 -62.189342 -140.005417
-52.084244 -77.419701 -150.193817
115.461647 -75.189468 -135.620804
-44.587128 -78.416306 -84.093758
-69.866768 -85.372765 -88.276428
-14.759774 -77.438087 -209.361908
81.561722 -76.318085 -70.194427
-152.275360 -76.215477 -207.354538
20.648417 -74.738678 -171.398468
31.970076 -63.075905 -35.729523
-66.216225 -60.799667 -104.481384
-97.213318 -66.152351 -149.503998
-147.663406 -73.354385 -195.155716
-58.781170 -61.996792 -132.834335
-52.482563 -67.736931 -42.459854
-31.312820 -67.376129 -47.888100
-44.225540 -79.401894 -196.125381
52.637802 -73.390190 -30.150427
101.825226 -68.502792 -91.631851
-160.622147 -74.304764 -288.452881
-154.607208 -62.790054 -273.662201
-79.666740 -69.255196 -116.278282
-23.677414 -73.859718 -238.486252
11.709197 -78.276207 -204.561249
11.314631 -72.443687 -212.982605
-76.711166 -67.675117 -105.181572
24.102310 -62.985279 -27.258577
-152.016205 -78.289566 -182.138748
-10.920563 -75.645248 -277.257355
-40.554516 -82.396034 -204.532547
-160.576736 -67.407738 -194.933472
19.414669 -67.557304 -178.809250
94.446159 -73.233124 -204.510391
-160.527725 -72.292725 -263.218628
-157.732635 -79.702011 -297.014923
-140.393539 -69.871460 -191.443497
82.468567 -74.304382 -102.601807
39.955582 -68.222900 -15.423452
-145.103867 -62.811474 -224.797073
-160.282059 -70.189407 -265.783234
-26.757267 -65.882851 -190.768784
-24.109274 -76.808456 -203.910583
21.693327 -63.771820 -139.268600
73.484825 -75.960785 -226.326233
-109.508965 -65.393089 -175.681534
-156.255173 -63.385078 -174.092209
-55.641975 -73.156853 -129.809433
-4.047249 -71.965065 -291.724121
-77.459114 -86.637405 -99.088577
-117.671829 -64.745956 -254.418793
-60.303616 -77.895348 -242.006622
-157.209183 -78.977074 -288.776703
-141.591217 -69.177643 -220.602036
-63.879494 -81.531090 -62.496128
36.954674 -71.576790 -121.649239
79.435997 -80.033669 -92.575500
-37.379955 -77.305420 -174.242111
4.154325 -76.961334 -208.966370
-118.381256 -71.399162 -255.068207
-84.572968 -76.531769 -108.639946
-99.068398 -68.413795 -78.394775
-153.059616 -65.833069 -309.102539
-65.471939 -75.883583 -148.161514
28.868824 -61.458313 -138.949081
15.627279 -69.809601 -276.108612
-22.850960 -78.136375 -239.892944
-163.579849 -68.133720 -287.126831
-58.436558 -65.609901 -138.553726
-83.889938 -63.499779 -122.360985
-22.855591 -71.956505 -240.054047
115.582932 -76.450027 -142.136307
-39.796570 -75.272499 -53.626720
65.788612 -71.398018 -74.418793
52.276028 -67.741959 -27.121174
-8.557555 -86.361160 -265.518799
50.784710 -70.700020 -105.657906
-64.226578 -78.104797 -97.193810
13.199011 -78.114349 -229.671143
-99.447495 -66.079185 -145.520859
33.434151 -82.350220 -133.301804
-23.612808 -65.874374 -67.440201
37.149525 -76.170631 -112.908226
-80.565887 -63.116508 -43.027088
-149.857803 -84.042389 -232.417007
92.430069 -71.086380 -215.116516
-171.706833 -69.787491 -258.871582
81.483116 -78.240379 -79.704926
-154.271988 -80.939980 -252.413467
-50.374012 -78.962311 -243.625870
9.285535 -69.662956 -217.357224
-149.815979 -74.676430 -181.079407
-24.794487 -81.958855 -223.816818
-2.491903 -84.892944 -257.105438
3.499026 -78.961349 -216.515381
-11.712360 -81.674858 -268.643250
-54.811852 -79.821564 -55.356857
-4.279598 -58.347820 -247.956909
-156.330460 -76.762665 -277.920807
6.210476 -75.019203 -160.632751
-18.704233 -78.334244 -212.303925
-40.608704 -80.334862 -164.110504
82.118660 -76.050491 -222.614777
21.482491 -80.789490 -169.471268
52.567032 -75.860138 -244.876968
-151.404480 -78.814835 -201.548599
-71.497482 -87.565071 -90.903374
-87.547508 -78.372498 -101.539490
-108.824806 -71.816101 -220.438522
-67.566551 -76.707893 -164.927017
-159.100983 -77.360863 -244.717300
13.152972 -77.927933 -252.362152
-97.213089 -73.724243 -217.634674
107.968430 -71.472107 -134.788528
0.084634 -73.898422 -240.779877
-158.863113 -65.044037 -297.037628
-160.130005 -66.451981 -289.256775
61.547230 -71.348213 -92.493851
8.613121 -76.820618 -283.257172
85.061844 -69.202728 -216.649780
-40.576725 -86.060127 -74.916489
-95.360657 -74.828400 -102.347740
78.827515 -72.839233 -226.926102
-68.871101 -85.744148 -75.622566
-64.991745 -81.091446 -96.971687
-60.637852 -68.057472 -136.071167
74.479889 -70.699509 -232.322250
-100.575912 -71.600937 -248.721329
-15.103772 -78.344650 -209.935562
52.700600 -78.599373 -106.604683
17.883614 -80.340073 -180.619812
-141.163727 -66.173615 -252.268555
42.608109 -76.457458 -103.187035
45.962635 -71.030319 -96.557831
-124.020660 -68.243248 -286.954407
-69.668640 -67.272629 -285.133026
104.567734 -72.357384 -101.390793
-103.629105 -69.593948 -216.495605
-171.042831 -69.132637 -271.519897
-41.781574 -70.486092 -150.493088
-89.706039 -73.548439 -288.563141
-83.259224 -61.859112 -110.850594
-154.210281 -72.295860 -210.433945
2.976032 -63.477436 -244.274323
-147.877106 -64.275955 -214.254135
-157.537552 -77.134148 -260.828033
-151.268005 -64.534111 -282.942047
-89.217041 -59.614697 -55.618816
-168.614594 -73.762871 -251.127228
-126.173759 -68.557510 -252.660736
-116.434868 -69.189369 -226.922119
-97.415543 -58.496101 -63.696434
-146.478607 -69.971779 -273.250641
-65.555908 -78.258881 -156.518250
108.997620 -73.364777 -101.391815
-18.354795 -72.334106 -263.556366
-65.205162 -62.316338 -107.523796
-56.562160 -86.186882 -78.685730
24.279617 -78.154800 -135.721436
-110.180222 -65.971382 -163.236877
-70.549370 -62.000137 -117.690109
-88.041847 -70.187073 -253.276611
-147.608627 -72.732483 -202.732040
-14.701697 -71.766632 -222.837906
41.972260 -65.883804 -17.582537
-10.279212 -81.408104 -171.723221
-128.660995 -61.574238 -191.163986
-5.740157 -80.082611 -231.499527
-96.941154 -62.448784 -115.510109
16.928604 -76.771835 -224.842667
-159.353745 -68.667229 -211.359436
-75.892509 -70.349731 -245.105209
8.239911 -79.247734 -242.441498
-86.888641 -68.331177 -125.954178
-56.193302 -62.895531 -139.013947
57.523033 -70.314072 -241.161240
-166.133179 -73.825294 -231.996674
-47.163357 -78.662018 -197.616241
-78.912674 -81.136444 -208.603165
-77.020454 -71.993370 -147.549118
-20.421043 -80.033241 -194.112686
7.687343 -81.308525 -210.996368
106.373917 -71.632133 -114.289413
-32.744911 -70.676682 -174.207169
43.593182 -78.225838 -121.019623
-5.353971 -79.497543 -220.571060
-163.203003 -69.738846 -233.795166
27.864880 -64.075432 -41.300850
-27.156763 -77.871216 -185.756241
112.753914 -75.752998 -172.640305
-15.876190 -76.921043 -204.479721
57.036835 -70.081528 -238.720093
78.710823 -77.279472 -220.421051
-159.958633 -77.730957 -310.006744
-133.423782 -72.691101 -221.815094
48.458530 -65.744141 -94.028679
-17.550985 -75.287300 -65.388725
77.711273 -68.068161 -221.850235
-68.623055 -77.097229 -247.160995
-156.258408 -63.575375 -297.009613
30.898239 -72.803795 -132.722046
32.771416 -74.892159 -149.691940
53.578197 -75.364403 -100.363503
22.230566 -63.723885 -149.683075
48.614105 -73.979912 -112.698982
-40.031559 -74.686226 -59.244045
30.439106 -78.385147 -148.224854
-36.950745 -75.337524 -205.471527
-149.313950 -59.219353 -201.482010
-18.575949 -68.340965 -204.311203
9.762185 -70.171547 -229.396927
-89.816444 -73.886108 -214.673233
-31.079735 -68.072449 -176.882965
-77.206802 -87.033813 -92.772614
-8.412688 -75.897621 -285.429077
109.339790 -69.243187 -158.686859
-107.403023 -74.569031 -284.693634
-61.336025 -64.189674 -116.858467
-155.705475 -72.374619 -193.765106
80.746185 -77.258881 -88.895599
-84.590988 -68.112976 -128.004990
-8.683610 -77.491035 -211.461334
-69.032654 -58.066433 -91.581116
27.171755 -70.149956 -164.420883
99.457764 -77.386971 -188.166687
-25.912338 -67.846924 -192.969711
-107.084892 -70.740883 -218.245193
-153.605286 -67.301971 -258.396423
-14.984912 -69.062721 -60.374161
-160.361191 -64.057159 -253.219727
65.728355 -76.373093 -235.710052
-33.299458 -78.530426 -190.166580
-31.117783 -76.731285 -183.146103
-164.767807 -69.301758 -274.289215
-61.196262 -80.907288 -58.739574
41.423950 -74.207382 -117.660217
43.621399 -64.202415 -32.419952
-86.522095 -70.915581 -247.959976
24.283550 -69.000763 -154.831207
-33.085400 -76.042091 -75.878586
102.301613 -70.737572 -98.993759
-155.044388 -57.498150 -219.243744
-42.173954 -73.083237 -167.595810
-154.377838 -59.190655 -228.769699
-39.429565 -75.774284 -169.923065
-88.307823 -67.863884 -127.411240
99.732010 -67.113121 -72.654823
-2.971291 -76.995834 -236.820908
3.593397 -61.731964 -240.843307
-26.516855 -75.320503 -174.752747
-35.471619 -70.391006 -47.210117
11.635597 -83.420654 -263.985199
-94.352493 -68.213577 -143.606827
-150.852280 -78.341507 -193.456711
-84.660957 -72.456581 -129.058533
26.098492 -75.451614 -145.148056
29.670647 -71.296028 -156.035736
-147.375565 -73.567383 -209.685883
88.457649 -76.767326 -207.947357
-162.424545 -64.835167 -218.373154
-152.860825 -76.415993 -225.597824
42.754936 -78.192162 -106.235786
-109.417099 -69.121735 -289.270294
0.325887 -76.283028 -284.978821
-2.461794 -82.708488 -275.789825
-154.529373 -72.352020 -214.434204
-83.493134 -68.758331 -102.391747
-30.472357 -75.428711 -238.550156
98.111862 -73.160797 -200.913651
-11.265692 -63.705528 -251.662399
-77.818077 -68.813217 -125.548149
-150.273804 -71.152504 -172.469727
28.346046 -80.917000 -135.145691
-73.844917 -68.929268 -143.928375
-2.807046 -79.621262 -232.398026
23.191206 -78.668098 -151.218582
86.016258 -68.747459 -64.807915
-33.457386 -80.729073 -172.589447
-153.084412 -81.987724 -286.340210
-49.377373 -67.896614 -140.220779
-29.794048 -71.369194 -191.275253
4.732556 -82.761963 -251.713058
16.683077 -75.114304 -238.333984
-168.421982 -73.664284 -216.648956
-27.668072 -70.829529 -188.525375
-169.278992 -72.172691 -228.340057
8.730122 -70.637657 -222.516327
-160.328354 -83.419884 -286.435547
45.724766 -69.670647 -254.056473
3.408989 -69.805351 -242.697052
67.159370 -72.085213 -232.441635
-149.910706 -64.489456 -213.022949
91.328323 -62.770416 -59.983616
-13.480460 -81.933464 -270.870575
-19.615160 -68.541084 -54.641201
-8.044492 -64.347015 -289.489136
18.991671 -68.183479 -162.513260
-58.506107 -66.974396 -138.952148
38.741714 -66.238960 -251.657761
-47.387024 -85.779152 -83.645027
28.341282 -65.429710 -141.009262
-123.148445 -64.216431 -192.455124
-160.147400 -73.725990 -298.777313
66.260956 -67.417320 -228.989044
21.076523 -71.696053 -177.364822
-95.097313 -62.666683 -58.720409
-156.505814 -63.944130 -239.164886
-166.289169 -74.452682 -249.085938
-147.169861 -71.106354 -287.443726
113.980324 -76.681709 -142.861847
-19.153589 -80.406837 -201.386047
37.022541 -61.627148 -126.276199
-88.346840 -66.291031 -135.635910
32.240437 -65.463158 -35.990353
5.117842 -67.237770 -213.487549
-100.573700 -62.127991 -149.188507
-42.798855 -78.237984 -240.752701
-137.353394 -66.013351 -256.486786
10.565304 -78.188362 -220.311279
101.993874 -73.601105 -178.522583
-3.544304 -59.734173 -258.021637
43.175190 -78.712151 -128.339676
-21.624411 -71.973495 -193.487839
-166.727234 -66.369164 -202.995789
-70.173622 -62.782532 -97.195404
8.599685 -70.818398 -286.031647
-23.382896 -78.206520 -237.079575
22.670202 -78.169060 -186.243179
-38.194855 -75.146400 -204.526382
50.143398 -67.628922 -99.590790
-78.737831 -74.426315 -248.612000
-0.835556 -68.873268 -230.936081
-46.308533 -82.190727 -164.736984
-30.032379 -76.009460 -166.207275
58.507679 -71.283463 -235.816025
-57.455723 -73.097458 -137.921951
-125.900795 -66.312134 -194.092300
-122.575165 -70.871643 -224.207550
-43.094131 -74.888794 -152.342834
4.283030 -62.295021 -246.008606
-30.506613 -73.518745 -76.898285
-41.788155 -77.584740 -56.170387
-12.900358 -73.022453 -231.888931
11.238249 -65.397446 -194.542877
-148.496872 -64.425591 -228.274933
90.615906 -76.746346 -210.282120
-32.098068 -69.804153 -49.128624
-22.037020 -75.289429 -71.915817
41.669590 -67.651054 -249.816299
-149.606369 -85.219101 -282.981689
32.000896 -62.955723 -34.277512
-40.375076 -76.672035 -238.602905
21.912266 -63.892475 -143.960892
38.869484 -75.823975 -107.596642
-61.554073 -78.794632 -173.695313
-4.437308 -73.075150 -244.291382
-157.067520 -66.313942 -291.218384
-46.973511 -62.662418 -40.376293
4.465853 -71.463234 -163.234482
-59.213829 -72.097076 -49.594440
-16.526817 -72.498978 -63.635956
-163.182922 -68.078369 -248.059021
92.174728 -71.394249 -211.976654
7.463407 -84.233009 -239.354263
104.378189 -72.374290 -116.529091
21.182207 -70.772820 -185.278107
-144.973709 -79.405167 -282.729431
-149.766632 -72.769753 -216.880844
-153.577286 -73.933487 -188.582397
-86.513466 -66.043289 -130.859207
-64.889343 -58.839199 -114.608444
-152.124481 -78.696800 -232.243134
-15.027107 -68.279648 -255.283722
-6.160827 -72.480591 -240.332962
-150.255249 -65.921593 -232.004257
-146.046463 -82.020798 -183.843475
-6.960217 -78.907990 -249.746124
-48.014938 -74.761841 -56.162998
-77.704666 -73.215919 -94.462250
9.827724 -83.992599 -240.235153
88.208206 -70.171425 -110.004440
105.591545 -74.635757 -131.889374
43.775013 -64.602760 -25.087914
24.500706 -72.910019 -183.242371
50.972996 -70.730988 -244.500504
9.572099 -71.441338 -238.528671
109.281700 -76.941864 -138.533859
-99.699875 -62.366547 -89.840027
-159.445114 -68.304398 -192.324066
-18.015371 -67.932289 -277.524841
-61.598942 -65.127480 -112.732948
-8.391221 -83.037933 -272.363647
-122.511292 -75.383820 -248.686264
5.138723 -70.820961 -223.405518
16.351532 -73.638458 -219.631256
15.826544 -73.662407 -246.253601
36.372124 -69.358063 -115.550880
-44.857391 -73.680374 -283.777588
-85.713150 -59.724113 -49.386810
16.364624 -75.273422 -202.404053
92.759895 -75.267990 -76.007904
29.257841 -71.199982 -159.749649
16.784164 -70.641426 -146.481247
32.669014 -78.146545 -124.542511
-0.527048 -74.700745 -243.326691
-22.736851 -77.192963 -70.523041
-151.831253 -67.392021 -222.913574
9.531671 -66.606361 -154.136658
20.070576 -78.670197 -146.394089
30.271093 -65.869965 -253.267685
-3.419915 -69.673523 -221.568771
29.841896 -68.037849 -32.065758
-30.278418 -82.798409 -186.067184
-61.865788 -75.448044 -167.314240
-134.182785 -65.392342 -262.207947
-30.314627 -78.938118 -75.753044
111.819412 -73.665344 -153.893570
-148.001984 -72.032448 -271.198090
-87.086937 -65.223595 -129.472672
-151.355225 -75.034843 -187.203629
-134.614639 -62.516346 -197.885071
-25.645294 -73.021576 -207.259827
11.818462 -83.020241 -263.080780
-42.117771 -78.176857 -192.359253
-152.416702 -79.544991 -231.078079
8.949558 -71.732147 -194.840103
-47.655281 -71.592323 -285.775818
93.312286 -78.095161 -203.422119
63.546059 -70.514778 -242.277451
-28.751881 -73.008614 -182.188995
13.067479 -69.383682 -211.487717
40.527203 -79.058708 -113.037979
-75.222076 -63.441303 -121.358383
-43.691776 -68.764671 -152.139160
-66.427444 -73.632088 -168.397934
-7.976804 -62.890038 -243.095276
103.505669 -74.620712 -175.207611
-162.106689 -66.240906 -281.160522
-64.780777 -63.386242 -94.638741
-138.033691 -72.459610 -249.205444
-3.426217 -62.912842 -285.390289
-164.417236 -66.630295 -236.034378
-140.689545 -74.917816 -288.968201
32.857224 -80.978722 -126.120377
83.065872 -69.813171 -223.479355
32.988556 -78.955467 -121.583496
-73.577202 -70.240456 -139.151337
110.030220 -73.590897 -165.158905
79.924538 -76.201508 -75.773979
-94.452110 -68.203590 -136.697403
-77.545944 -73.478867 -138.628342
-82.369171 -72.865845 -207.140854
48.787537 -68.047211 -97.098480
24.287762 -78.754166 -171.731903
-1.797358 -83.735344 -251.736633
-130.661621 -65.435585 -257.559479
-54.437847 -79.386719 -187.012070
-23.946730 -66.724052 -205.451294
36.171612 -76.986992 -110.870308
-171.535873 -71.989532 -229.374496
40.860779 -71.842407 -15.932350
-105.345650 -61.767536 -167.835754
-19.848476 -74.063835 -288.960541
-136.301453 -73.677887 -251.369522
-149.988464 -73.127678 -275.086395
-46.888908 -74.576210 -156.891113
-26.691315 -65.507828 -47.920376
-70.850410 -63.493221 -100.002007
-146.355087 -63.929264 -218.540573
-13.139403 -67.229050 -231.682114
61.004574 -66.080528 -83.955109
-57.041142 -82.913849 -205.135635
-10.997021 -82.009651 -256.263245
-65.566040 -79.794838 -59.818966
70.837196 -68.690689 -105.220970
-8.485758 -66.549927 -266.567444
-150.484451 -61.283051 -171.449509
-90.486725 -68.734680 -255.101929
-97.414581 -72.927597 -216.705719
-158.200165 -76.196838 -226.637527
14.239330 -75.188812 -207.603409
27.984734 -65.059776 -25.540813
-26.441906 -73.541702 -288.907867
-10.705190 -76.077568 -171.937012
-16.845438 -77.245461 -230.901520
-59.951241 -77.635872 -183.907394
3.762725 -72.515808 -155.738068
-82.016174 -71.636543 -100.999542
-34.733566 -68.641083 -170.262146
20.354387 -65.333748 -255.040070
-35.744564 -82.297546 -69.368713
-53.009472 -79.463585 -198.299377
-74.495613 -68.988647 -135.933701
-98.526154 -73.903191 -286.873535
-77.357903 -80.839394 -69.256409
-58.783813 -68.679482 -119.464943
-61.276340 -62.134449 -134.587723
47.655891 -66.508293 -107.574593
-4.787949 -66.235107 -239.188568
-92.626068 -72.061417 -81.569374
-149.510757 -83.635582 -253.182526
-51.581654 -78.564430 -59.555695
-63.570171 -67.650589 -129.452835
15.870176 -75.988045 -163.124954
-144.154205 -73.860878 -284.673737
44.587444 -69.204651 -29.105944
-142.278168 -67.339203 -255.142395
-130.173050 -63.234837 -226.383057
-154.557419 -78.650620 -243.779297
-153.462479 -82.591560 -189.405792
-130.938568 -70.380760 -199.034225
-156.439102 -63.814907 -175.365829
31.581911 -68.432175 -127.000771
-4.533728 -85.670052 -249.854309
-24.809086 -74.024155 -53.098911
15.354827 -77.012260 -195.035263
9.177963 -73.282745 -160.853668
-154.254852 -68.988586 -290.960602
56.926460 -67.887688 -244.106186
-72.009827 -69.101570 -135.709900
-67.683731 -81.714523 -203.470154
-16.564915 -80.805061 -265.040253
46.156715 -71.167770 -247.774628
14.214096 -84.655952 -263.619385
-12.717142 -69.456245 -209.381927
-40.448544 -76.183418 -152.403275
-125.331207 -70.865700 -289.669830
-39.541462 -68.924980 -156.751892
-35.912415 -68.820747 -44.354782
-36.202446 -61.440319 -43.275612
45.187405 -70.664413 -99.894409
-77.975189 -63.543327 -101.408791
-150.529877 -80.089790 -230.656326
-39.869251 -74.322739 -176.930359
7.116294 -83.760979 -279.266327
10.800506 -73.361450 -244.070404
85.125114 -71.482216 -69.948143
22.657740 -73.355019 -29.669788
-62.747295 -79.670410 -91.349022
32.355762 -70.018501 -255.362610
-21.888494 -72.827301 -198.300674
-5.889196 -68.449242 -291.028625
-75.305946 -66.854790 -134.942474
-143.912354 -79.931488 -286.296783
71.733963 -73.981674 -74.749390
107.156166 -80.868301 -173.633667
-58.395779 -63.990360 -140.312042
20.958185 -70.496864 -171.138947
-61.942810 -68.098976 -129.937134
-152.505768 -75.578094 -261.117218
-158.438721 -68.942436 -274.679016
101.291771 -77.888603 -200.305725
-161.652771 -69.277466 -275.505280
-147.037659 -72.425964 -284.843781
-8.148005 -67.874107 -223.954697
33.780666 -78.802238 -155.326477
-37.384205 -70.718727 -168.938293
15.172581 -72.794914 -241.151169
102.806686 -59.954136 -69.474655
37.310677 -71.166054 -135.634308
-120.300163 -64.413712 -201.299118
-66.021530 -69.953491 -165.440002
64.889679 -76.448364 -239.774384
-23.964264 -77.526939 -183.156738
47.246296 -61.829746 -19.377855
-143.135330 -67.125427 -184.119110
33.806873 -83.369911 -125.591164
-48.732346 -69.302574 -82.545059
5.081441 -73.787689 -197.337952
-11.250550 -65.095261 -252.598434
36.986225 -71.565453 -40.469193
16.654163 -69.825783 -184.156342
-25.097689 -75.534332 -181.507767
-10.965181 -71.301399 -230.911057
-68.837608 -70.274353 -157.071854
-10.729712 -79.391685 -288.193970
17.472826 -68.020905 -251.474915
-63.315948 -61.699131 -125.314140
31.103651 -74.059692 -118.577019
-78.181702 -62.750927 -126.281349
11.477376 -82.544754 -245.591461
93.409355 -75.056396 -80.030121
12.070491 -64.528809 -287.381714
24.953569 -71.480606 -163.729309
-88.278252 -75.405464 -285.693298
16.875744 -62.243496 -276.462616
-157.482025 -79.871674 -274.585419
-151.201309 -62.340778 -241.702621
-38.774216 -76.290901 -76.538628
-13.103325 -68.016251 -205.451767
89.492165 -79.023438 -206.490356
-25.673439 -74.690727 -223.240280
83.126839 -77.651085 -222.211441
19.165840 -62.879753 -144.926147
-19.182169 -73.426598 -195.904129
-21.480787 -71.981995 -219.922546
-15.183314 -73.442375 -207.884811
-68.012856 -87.453377 -95.907234
15.946339 -68.737671 -170.031082
10.593442 -66.325127 -202.212662
-53.893936 -80.752502 -182.580658
-76.394493 -79.532860 -99.319382
-74.972122 -80.125244 -208.245438
16.180710 -76.613426 -235.380737
99.215149 -77.013893 -195.167114
-78.670670 -69.033516 -246.123856
73.720718 -73.078964 -231.736923
112.635101 -72.018768 -111.684151
3.003710 -74.613953 -230.547699
19.358782 -78.016914 -155.354370
-6.255856 -69.813454 -234.638229
37.855877 -70.875931 -103.115654
30.520405 -79.979713 -152.203308
-30.679073 -62.555721 -69.805542
-165.343506 -67.803894 -253.615921
-154.117462 -61.432610 -235.961090
11.642457 -68.729736 -211.154709
-98.892731 -63.340199 -158.696991
-17.674603 -75.395164 -288.667999
-148.722122 -68.619492 -239.072815
-62.494816 -76.767700 -170.729477
49.438477 -78.173904 -111.283798
-13.625842 -81.378952 -264.098267
-168.233795 -66.861748 -234.120361
-143.903076 -66.251640 -283.404083
50.445713 -68.129158 -32.402550
-163.815033 -64.897278 -206.345520
-113.147850 -70.807678 -193.233795
13.031974 -83.007690 -232.739090
-29.791819 -72.793159 -60.086620
-131.668991 -66.880730 -220.676178
-58.924084 -61.027042 -115.948708
-74.937286 -69.836525 -100.013092
38.449265 -66.314445 -36.992180
39.576618 -71.223145 -12.305151
-147.065903 -81.164703 -188.977844
-84.431839 -64.239243 -103.077629
-60.895180 -77.397133 -176.367035
-152.471832 -82.099678 -217.224564
-93.239998 -77.778801 -95.954552
-17.491257 -76.414894 -189.793854
14.016353 -74.278297 -249.792236
-62.991924 -79.446289 -60.770493
-97.577660 -74.408226 -285.813354
-151.912354 -63.286163 -273.537598
-135.726547 -62.689350 -221.766022
109.398537 -72.318436 -175.715607
-148.987442 -74.197159 -214.263779
-62.068470 -77.142143 -93.736397
27.971594 -69.438919 -263.292114
-11.491641 -72.517807 -207.739258
-61.902393 -73.032295 -288.602112
10.575891 -81.922379 -241.677811
-71.716698 -76.569603 -161.123779
-33.974812 -74.935493 -285.634186
-117.235886 -66.458611 -255.255722
39.103409 -73.371559 -122.614799
-155.615555 -77.743256 -282.938568
10.125003 -76.495361 -277.356964
82.138367 -69.760155 -67.384773
43.929924 -63.743778 -28.054089
12.557501 -66.602180 -197.683151
-164.596161 -72.938911 -221.782043
-75.735680 -78.799019 -96.568504
-154.386520 -74.657799 -302.012115
48.603931 -63.209854 -37.311386
-71.369789 -74.134888 -204.779221
77.806992 -72.056129 -218.869339
0.328897 -74.474129 -291.831146
105.605148 -70.615486 -178.775391
-26.195923 -79.960030 -186.942184
-160.636063 -75.165916 -206.436600
47.305038 -79.227295 -109.296608
-162.136612 -70.653168 -291.605072
43.555439 -65.326408 -16.192812
-149.351700 -69.112175 -261.060455
101.251022 -71.554352 -199.330490
44.862267 -60.956371 -25.521587
29.850241 -62.134727 -22.215137
45.764233 -64.829063 -100.085938
-162.558929 -69.468437 -291.145721
2.618065 -74.717888 -155.680222
103.123604 -70.472672 -99.112381
17.122723 -61.988487 -147.686310
-22.111435 -71.915916 -224.096802
-18.671682 -67.557045 -193.629333
-0.659747 -64.751923 -238.534439
23.391596 -66.748955 -256.891571
-117.444016 -70.307678 -259.135071
1.580000 -77.468529 -286.336456
23.950958 -66.163170 -165.245987
-55.141315 -78.118507 -281.009949
-14.272482 -68.947922 -210.312210
-78.401962 -69.183311 -287.130737
-57.322952 -73.638466 -172.504578
-57.560104 -81.308044 -197.897079
3.388305 -85.806442 -263.471344
83.322868 -72.355499 -214.794144
-4.546708 -64.319237 -278.395294
-71.410767 -68.084015 -96.317932
33.302025 -74.452972 -136.507034
-28.387077 -72.325981 -241.493744
107.381798 -75.599770 -140.501205
-41.374699 -66.911400 -161.377975
-40.758118 -74.723877 -286.905640
-22.332535 -78.567482 -177.051498
-39.422535 -62.345131 -76.278152
33.696861 -77.738281 -147.352768
-52.130852 -70.517326 -142.409943
-3.416040 -64.768288 -271.600250
-86.189575 -61.661812 -109.754204
6.969661 -74.767044 -232.879486
-53.899727 -73.263229 -129.898422
-69.471687 -60.828938 -106.273079
0.562415 -64.094482 -264.811707
-10.812861 -76.980751 -223.130798
-10.826525 -79.176353 -287.895111
45.375805 -77.021919 -252.728973
7.907195 -82.377411 -250.934692
-83.964104 -76.260536 -107.987656
5.288776 -59.955219 -262.045502
37.116184 -71.672150 -256.395752
68.276901 -65.376274 -67.068993
-18.165520 -69.556465 -250.887085
21.626871 -77.474808 -178.210342
-154.143570 -84.203171 -284.430878
12.050994 -81.417717 -197.797043
-17.675444 -78.529770 -198.969101
29.708918 -75.106125 -130.675354
-99.510765 -59.039280 -108.793991
-1.499017 -62.892456 -266.932129
53.161629 -75.675903 -103.673393
-14.322845 -74.083618 -280.718323
-44.079231 -80.169884 -156.456985
-121.367096 -72.000237 -251.220459
-57.057114 -70.749115 -286.974121
-43.534729 -72.267998 -78.882698
-155.015091 -63.725452 -273.632935
-28.935322 -71.359169 -201.095093
-82.215225 -61.154243 -110.585457
32.807785 -60.742462 -8.372364
32.315502 -75.539658 -155.002411
-154.231812 -65.665573 -244.332504
13.890018 -77.703720 -266.918549
