# This PCD file was generated using the MATLAB® pcwrite function
# from Computer Vision Toolbox®.
# .PCD v.7 - Point Cloud Data file format
VERSION .7
FIELDS x y z
SIZE 4 4 4
TYPE F F F
COUNT 1 1 1
WIDTH 1415
HEIGHT 1
VIEWPOINT 0 0 0 1 0 0 0
POINTS 1415
DATA ascii
-154.224304 -79.848511 -288.597595
-148.578720 -74.126579 -286.806824
-107.559837 -75.063095 -291.081055
-152.455246 -77.866493 -292.767731
-148.730850 -78.557068 -290.214661
-72.367020 -78.408691 -292.493011
-166.046509 -77.440529 -290.530426
-123.355217 -73.340630 -292.016479
-43.459785 -79.509186 -287.536255
-153.651886 -75.596565 -289.418854
-133.363632 -71.944077 -294.193146
-18.829853 -74.476135 -293.208405
-128.229355 -73.436905 -294.069885
5.621961 -77.343483 -293.444763
15.139375 -74.641037 -291.553253
-133.810501 -73.379028 -292.486877
-145.854050 -77.142097 -297.999115
-156.182877 -77.854195 -314.804962
-74.701775 -70.159195 -52.500706
-24.733677 -69.764282 -63.419071
-22.744732 -76.258469 -64.574150
70.240074 -72.990685 -75.471046
88.623512 -74.623848 -73.967941
-39.358452 -74.038673 -78.693459
72.933479 -74.322784 -77.905884
87.163773 -78.152084 -80.450851
65.634872 -74.791077 -81.989487
70.422920 -74.173454 -87.212669
-52.065075 -75.740746 -86.170174
-94.090637 -76.297806 -88.739716
56.502651 -76.734657 -92.429611
47.937950 -76.299309 -97.698349
91.608276 -72.711365 -97.418121
-94.320091 -70.509483 -102.156982
79.771431 -72.005447 -97.570824
70.933655 -75.334167 -98.489136
89.508430 -76.617088 -96.536339
81.031380 -74.626152 -96.350784
80.827019 -77.547485 -96.883659
-87.482445 -76.003365 -102.728615
40.399975 -73.581497 -105.621445
103.419304 -75.986618 -108.884323
106.041786 -75.616516 -108.871231
46.168076 -77.258736 -117.526993
109.216072 -77.354607 -119.145462
114.846870 -77.898193 -132.939316
-53.255806 -72.726242 -131.241409
25.556705 -74.572441 -133.546799
38.796108 -77.411095 -132.447525
23.395908 -72.563675 -141.839691
111.205742 -77.825264 -136.466354
109.945335 -76.041679 -129.919022
-75.268295 -74.601021 -148.493774
-45.667007 -74.095169 -142.770950
-72.852180 -72.908264 -151.558914
18.060486 -73.726570 -148.851547
110.889656 -73.490753 -147.600510
-55.275105 -75.826546 -150.952591
-72.886818 -73.359360 -151.261993
-40.549431 -77.755341 -152.297638
30.764196 -70.604912 -152.287552
108.397141 -72.732498 -149.420242
113.842957 -74.526550 -158.735306
-69.828979 -71.745583 -155.301254
-74.193329 -76.155762 -161.396439
20.220650 -78.226105 -162.450668
-61.560909 -72.722961 -166.988159
-34.312241 -73.505333 -162.296265
6.360480 -76.093315 -162.764984
107.236961 -73.606293 -159.950424
6.368801 -77.664452 -166.270493
-34.317760 -75.118660 -165.471588
-3.398163 -71.227135 -165.248764
106.160172 -72.712990 -166.376526
-42.869602 -72.363457 -165.516907
27.798132 -72.541328 -171.333939
111.586922 -78.235832 -170.620132
-58.598324 -71.976173 -176.322159
-29.589123 -77.171730 -174.390152
101.595367 -75.500275 -172.460327
27.691391 -73.342224 -168.827713
106.229248 -77.135017 -173.446152
-38.238533 -71.881187 -178.058121
107.055138 -77.834930 -178.950974
-63.225388 -72.443130 -177.785446
-26.864372 -78.434959 -178.562775
-147.673920 -69.917328 -184.739563
-55.462601 -73.877914 -180.799683
-148.361099 -74.650146 -187.391113
-35.325260 -72.900810 -184.890060
25.577433 -78.555672 -180.888962
105.202347 -76.011932 -181.597382
-35.298454 -75.004295 -183.729523
9.803894 -75.648521 -190.129883
16.272346 -74.779060 -202.831116
-149.360626 -74.887001 -190.874374
103.928650 -77.459976 -193.862289
-22.474546 -72.695778 -192.907562
100.133476 -76.285408 -186.617004
11.700137 -72.806839 -188.796844
-137.922577 -74.107437 -204.722900
-139.870697 -74.090080 -200.925766
99.213623 -77.911613 -199.698853
-12.974616 -78.519165 -199.993393
-17.383097 -75.858047 -202.611191
9.575831 -77.021416 -206.700897
-151.001190 -72.791206 -207.076019
-147.211365 -75.679672 -209.178268
99.095627 -71.552017 -203.031799
-83.143570 -74.261337 -208.565933
-37.079819 -75.446907 -201.520645
17.908432 -77.683304 -212.583633
-26.120104 -75.440422 -210.867172
-77.485565 -73.141518 -208.205643
90.066650 -75.542213 -208.173050
-81.313484 -72.435692 -212.759003
-148.182709 -74.788765 -219.751526
-80.852455 -73.501167 -213.620804
-14.157284 -70.589676 -209.529068
-21.477739 -72.678238 -218.621887
17.609205 -75.081230 -212.556610
-6.311106 -76.452911 -219.037003
-89.104164 -77.775467 -219.277054
91.736008 -74.767181 -212.079117
-99.246315 -73.715584 -216.234283
-152.994766 -73.699844 -225.265137
-25.950771 -74.055031 -223.415741
16.903683 -75.655846 -215.301300
-102.839180 -74.742653 -220.609192
6.584843 -72.208679 -218.262115
-26.530338 -75.034584 -215.360825
82.106018 -73.956032 -222.769989
-146.129242 -73.702911 -220.265182
9.587220 -73.904495 -225.144089
-10.243153 -77.978554 -225.255081
16.737629 -69.571175 -221.813889
82.832710 -76.307831 -220.829376
-14.323907 -77.249023 -228.127640
-131.294632 -75.604218 -227.471008
-14.606761 -75.229485 -224.079605
16.058268 -75.634872 -230.402695
-127.453468 -76.506844 -228.104126
-152.296448 -71.370224 -230.749054
-143.104523 -73.444389 -229.970139
-131.611526 -72.690254 -228.845032
-13.894763 -73.079819 -224.849182
71.121445 -75.113693 -226.859375
-143.912476 -71.101585 -237.379288
70.060303 -76.497192 -227.435104
-21.177614 -78.123131 -229.304459
-142.991165 -77.580704 -230.365189
76.580437 -80.092102 -227.430008
9.016603 -78.872017 -232.795044
-142.277985 -78.472801 -236.292419
-150.724609 -73.449104 -235.038467
16.163357 -72.065392 -230.768219
-3.339804 -77.419167 -237.156311
-28.325905 -74.452522 -236.971909
-2.259939 -71.292305 -237.114227
-161.424957 -76.319542 -238.966736
7.380463 -74.122063 -242.918427
-165.343323 -74.801941 -240.065521
-13.441137 -76.170967 -237.274536
60.905155 -76.182396 -237.965530
-13.714964 -74.151062 -237.727371
-25.454258 -74.255669 -244.113007
-25.604292 -74.495628 -241.513123
-13.464089 -77.192383 -240.452972
-147.032059 -74.627800 -232.114655
7.497231 -74.484917 -241.700928
63.671227 -74.967865 -242.423325
14.152123 -73.135406 -244.441223
-166.566757 -72.676903 -242.927063
-51.094177 -73.804153 -240.832428
3.399287 -81.749763 -247.488327
16.429514 -75.235031 -243.508392
-54.740757 -74.111748 -247.279083
-3.339949 -71.304581 -247.806580
20.385963 -79.909668 -247.125427
-169.642441 -72.467308 -250.164185
-68.107475 -77.855019 -248.356308
-52.099571 -73.688789 -247.462448
-81.591797 -73.727142 -251.725204
-161.550049 -75.074768 -248.252335
-151.237457 -68.584419 -250.786682
-60.619267 -76.464661 -249.800446
-69.265259 -74.519829 -250.209930
-154.085358 -72.384880 -253.949036
-152.504257 -74.959221 -253.510025
-76.301620 -71.621834 -254.781250
-93.873245 -72.165977 -255.815140
-164.850494 -69.698982 -253.648193
-157.221985 -74.422691 -261.012573
-135.224823 -75.743797 -259.292633
-83.627861 -74.530975 -251.806747
-162.627914 -71.432518 -254.321869
-142.270432 -72.547310 -258.028687
-85.811546 -73.673744 -251.753479
-97.083328 -72.369301 -260.989807
-145.508377 -75.062996 -257.150238
-93.929855 -74.176079 -256.704010
-153.027832 -72.632874 -257.299622
-102.766716 -73.955872 -256.286713
-169.084442 -73.418945 -260.311218
-161.849380 -75.519859 -264.775299
-126.863976 -77.032684 -257.535950
-152.088425 -74.307755 -260.702545
-112.214333 -71.764160 -262.785004
-14.718349 -73.793976 -261.614807
-141.969284 -73.956871 -262.182312
-126.241692 -73.670540 -261.110870
-154.541794 -72.642471 -263.993774
23.283457 -76.089699 -270.074677
-148.850342 -76.505135 -279.880463
-168.572968 -74.523331 -281.595825
-8.361650 -75.300529 -279.087097
-146.014343 -74.285469 -281.736206
-9.657328 -73.809570 -282.861053
12.733927 -75.747345 -285.498932
-136.724670 -73.025085 -287.120300
-68.374443 -76.578606 -287.274384
-33.396473 -77.309639 -287.978790
-112.989876 -74.444595 -285.275146
-95.358200 -78.259132 -290.860077
-89.639328 -75.038345 -292.006104
-49.832115 -76.337021 -292.018433
-116.020065 -78.512711 -289.450317
-113.744621 -75.776009 -291.138062
-33.110252 -72.817535 -289.175415
-115.325607 -75.071297 -293.914032
-127.087372 -70.577583 -291.298553
-144.398514 -76.363472 -294.794800
7.131604 -75.208351 -291.011871
16.624258 -77.199806 -292.676361
-159.900238 -74.310669 -294.250610
-158.234070 -77.918404 -302.030212
-146.777435 -75.911865 -311.741638
-151.754852 -73.426476 -312.179138
-152.326553 -76.106743 -314.870056
25.967781 -75.623520 -14.143713
27.962965 -70.990875 -17.529554
18.662251 -73.007439 -23.618801
26.347822 -70.949570 -38.546734
-60.599834 -71.559471 -49.995098
-67.693787 -72.024208 -50.504658
-41.351974 -75.411018 -50.298264
-86.762741 -68.769958 -63.518768
78.956375 -76.646706 -72.856949
-17.707026 -71.298393 -70.843056
86.780449 -74.695587 -64.977402
97.136017 -73.737534 -75.472435
-94.785484 -70.763161 -76.995369
65.464027 -73.735138 -79.276085
-43.189571 -76.788231 -85.644539
98.754501 -73.125313 -80.577370
-57.701088 -71.738686 -88.875443
48.960415 -74.211922 -89.600487
68.843834 -79.057114 -89.522324
53.485233 -73.136139 -95.304420
50.823086 -75.646011 -97.574692
72.376503 -77.123810 -94.422905
44.569550 -73.770561 -104.318939
98.446228 -74.967865 -99.272377
103.970917 -78.278725 -104.831985
78.064133 -71.564606 -102.188057
89.867470 -75.515106 -102.043648
98.836952 -74.510933 -93.633690
107.568977 -74.991272 -102.103844
37.667889 -73.972435 -105.300468
110.767441 -72.060196 -117.018555
112.000587 -75.915779 -117.200096
29.613649 -72.691406 -122.802406
42.968548 -75.365326 -117.966774
113.621986 -75.198112 -128.504547
34.560406 -73.741768 -125.853653
113.374718 -78.243248 -126.009720
107.028999 -75.620270 -120.813820
24.851452 -74.994545 -134.855194
-49.528519 -74.050232 -134.232895
-53.671108 -72.055649 -135.314041
109.783440 -74.190994 -133.335480
-70.725395 -77.180969 -140.821167
-74.313065 -74.232536 -140.762085
-60.422649 -74.211960 -141.449707
30.475813 -74.351929 -142.849396
114.752022 -76.692940 -144.171371
-70.785095 -70.596855 -147.520615
-49.427727 -73.490273 -142.729065
32.050011 -75.038887 -150.430740
-69.502213 -74.808174 -148.181290
112.545692 -73.943726 -139.625656
110.605339 -73.272354 -155.891159
114.996628 -76.153717 -151.217407
-39.705563 -76.385750 -153.060913
-65.898933 -73.927734 -164.641907
-70.414551 -70.727859 -157.569595
28.773895 -75.406578 -145.606995
-3.288592 -76.200943 -161.661209
107.960007 -74.657059 -159.960770
110.530556 -73.333672 -151.348816
111.015839 -77.250458 -156.665253
-64.919350 -71.183762 -160.397064
-46.486988 -75.910721 -165.293655
-3.453164 -73.535362 -164.652359
-30.265245 -74.405632 -174.796188
104.867554 -74.233223 -165.606750
-35.566132 -76.957802 -159.977097
108.326881 -73.612991 -166.703674
-42.801922 -74.622299 -173.652557
107.568977 -72.984901 -166.987350
-152.427017 -74.329781 -181.285187
-27.892681 -70.540550 -176.669205
-21.212534 -74.387466 -183.124954
23.885159 -77.552399 -176.359955
14.148658 -74.203812 -182.538269
26.723284 -75.013924 -182.275146
103.336449 -78.922173 -182.053589
-152.685303 -70.578217 -186.162659
-20.628510 -76.522209 -184.592926
101.220856 -75.971062 -176.972748
102.354233 -72.130531 -188.090317
107.209320 -76.249931 -176.111267
98.250145 -76.874001 -192.139908
-152.091675 -73.948982 -197.761902
99.338295 -76.093391 -203.893082
-28.989649 -72.217682 -197.033524
96.746910 -74.947792 -194.216324
-122.144913 -76.752197 -200.985077
-30.644812 -78.648338 -189.950623
-142.668015 -69.546646 -199.472504
94.568222 -75.310577 -197.065872
7.873894 -75.325615 -198.495056
23.041361 -73.380821 -191.842850
-148.822266 -73.858955 -204.116440
-139.672821 -72.759438 -203.167206
-10.735977 -74.117844 -206.353149
-125.104309 -73.433327 -204.703842
-144.672424 -75.802925 -200.851593
3.178694 -74.812752 -199.062714
-25.007942 -76.486351 -200.866394
19.915983 -77.450180 -201.569229
5.979691 -75.943611 -211.254608
84.769875 -72.792084 -207.135574
-19.028397 -71.971123 -211.675018
90.659668 -73.091309 -207.467377
96.348846 -77.075500 -205.414322
-149.575348 -74.502701 -215.751770
94.833740 -76.952126 -209.998535
4.306905 -73.708710 -206.769745
2.949593 -76.745010 -213.865280
-33.668911 -73.933334 -206.871216
-90.055901 -73.345695 -213.665009
-26.900938 -75.782021 -210.643311
84.532440 -74.498573 -215.452744
88.693626 -74.359306 -215.517929
-32.487110 -73.579948 -212.111618
-84.959579 -71.069061 -218.903046
-1.643155 -76.613693 -218.206787
81.415436 -71.743546 -211.766602
-152.491333 -77.177521 -223.121582
-166.426361 -71.760971 -215.781998
-162.535126 -75.825401 -223.658401
-21.903694 -75.410904 -226.605347
-154.449677 -76.315338 -224.055740
-6.261992 -75.762405 -224.025238
5.968388 -75.690750 -217.803864
-167.660812 -73.236961 -227.043564
-159.292847 -73.797920 -228.784653
78.804939 -78.367004 -229.970993
-0.224918 -73.545944 -226.150146
-158.010696 -68.870094 -227.598480
-143.021500 -75.109245 -225.580002
-19.714075 -73.564636 -223.652145
-0.960593 -78.778595 -221.917007
79.569084 -72.841248 -224.197083
-161.731033 -71.792366 -229.344421
-144.424484 -71.312164 -232.138412
-125.544739 -72.134422 -231.948318
78.294350 -76.607330 -225.224792
-116.090073 -73.671455 -230.085663
-146.861938 -73.466766 -230.577179
-150.934418 -72.201019 -232.775467
-149.456253 -74.256996 -232.654205
-156.286819 -73.973282 -230.504257
-165.538849 -73.832008 -230.539810
-134.089294 -73.823509 -236.485809
-133.690216 -74.787575 -234.269302
-153.615768 -77.116051 -234.243225
-145.726532 -70.149445 -238.160980
-151.996307 -74.006752 -236.682861
74.517159 -77.187363 -231.013794
67.027473 -70.445953 -234.719910
-157.368149 -72.091583 -236.832230
71.391273 -70.868393 -231.954956
-20.101227 -73.162712 -236.414688
11.086822 -75.984039 -236.446915
6.593160 -75.519249 -235.437668
-154.771286 -73.683502 -244.071671
14.322390 -74.264656 -240.440796
60.659786 -73.938881 -236.767166
13.124222 -72.381371 -237.319122
5.096714 -75.214676 -241.016235
-6.769414 -72.618668 -239.969864
-21.380909 -73.166695 -242.636429
-1.975283 -74.625069 -241.511292
3.593272 -77.396042 -244.443985
57.159828 -76.105995 -240.391434
-55.685020 -77.647247 -244.936066
19.412054 -73.849655 -246.644623
-59.821369 -75.224243 -242.063339
-10.064981 -74.847504 -247.543900
-66.238060 -70.985497 -250.669022
-86.184189 -72.616364 -253.755844
-82.778587 -75.124657 -252.684143
-9.967983 -74.087250 -254.458679
-123.965248 -73.780991 -260.127808
-14.264622 -75.557991 -252.692551
-117.118912 -74.011139 -256.701630
-116.587921 -72.716225 -259.640961
-103.678169 -73.909386 -257.373535
-143.945709 -72.909134 -263.178894
-145.033295 -73.356445 -268.591034
-168.717468 -73.738777 -265.247040
19.484262 -78.507568 -279.555725
-57.853416 -72.732964 -285.682404
-67.068184 -73.520309 -284.101624
-41.996143 -76.384613 -283.942871
-27.870626 -75.737282 -286.374146
-96.126183 -76.226097 -289.962708
-30.657255 -72.873894 -285.678833
-3.937146 -74.987579 -285.791382
-167.179047 -73.921120 -290.942444
-15.718345 -76.937248 -285.625580
6.536131 -76.207542 -287.416473
14.239192 -79.371719 -282.957275
-56.801010 -76.897797 -287.865601
-33.014420 -75.229156 -291.447968
14.440238 -73.266068 -292.479736
-70.686234 -73.195030 -293.375763
-40.062260 -72.240456 -289.233215
-17.663517 -72.911407 -289.793915
15.234845 -77.318398 -290.376648
-11.344661 -76.602341 -293.906708
4.176005 -73.901619 -293.328552
14.435417 -77.048447 -289.960968
-134.660843 -73.160812 -295.572998
-144.696259 -76.421013 -300.465973
-150.579285 -74.588257 -314.617645
40.381863 -72.058372 -12.784644
27.460163 -72.388260 -11.038956
36.649632 -72.746727 -14.522839
19.400303 -69.414894 -18.067955
42.402496 -70.704979 -21.437689
23.010269 -70.813362 -23.263062
21.246775 -72.895218 -26.788639
22.397322 -73.539207 -37.551369
37.056423 -74.788757 -29.882597
23.852209 -76.151680 -35.553841
40.666901 -71.555107 -36.741013
29.466276 -73.291771 -38.605923
36.340710 -74.123405 -35.031361
28.567352 -71.917297 -39.162926
41.224369 -72.826324 -40.228344
31.322182 -72.282196 -38.168015
-43.267307 -70.632133 -48.319118
-32.353870 -67.554474 -50.621632
-91.634537 -70.537498 -55.388092
-91.213005 -72.973434 -66.126602
75.757729 -75.626671 -65.203880
82.238899 -73.037987 -70.968658
-21.712965 -70.676582 -73.331451
-90.330933 -72.252464 -72.283089
-27.216263 -71.912384 -76.560905
-51.633560 -73.518234 -85.031799
63.996880 -69.548759 -84.924713
50.847385 -72.204819 -92.042397
97.623375 -71.685524 -89.662949
67.608421 -74.804710 -95.152184
-70.126312 -73.766724 -91.318817
-64.006882 -70.627701 -98.118912
42.994972 -73.602310 -96.276772
75.627342 -71.950150 -98.342216
52.707653 -80.207901 -103.681366
99.447075 -73.084656 -94.775993
-96.941147 -73.895073 -107.835030
38.171486 -73.460266 -109.574684
105.336243 -74.390945 -106.769638
46.820938 -73.124992 -110.045311
99.788231 -74.472061 -107.833611
-87.092972 -72.452919 -115.772835
34.137920 -76.317139 -110.780327
105.009369 -72.493347 -114.839943
103.097000 -71.010551 -113.871216
103.881874 -73.923218 -113.145096
108.879662 -72.610008 -112.555611
38.212959 -74.857269 -109.038261
30.444710 -70.811462 -116.297096
39.276268 -72.838966 -112.995766
105.214394 -74.899124 -119.777473
38.568062 -71.675682 -122.112518
107.611061 -72.859016 -130.142120
109.474373 -72.442604 -129.011993
31.997055 -71.054237 -119.576691
-79.542038 -72.401749 -125.706581
112.431709 -71.277901 -132.175888
-55.902580 -72.895325 -137.453201
34.026947 -74.081711 -133.631821
-74.803329 -73.004044 -135.626282
25.391575 -75.355553 -130.654892
-81.052315 -73.204834 -143.073425
-46.800678 -75.790421 -141.751465
-75.491585 -73.382660 -138.371048
108.704247 -72.871651 -135.008606
115.740639 -71.993233 -139.479431
116.665657 -76.839073 -144.218811
-78.786308 -71.786987 -143.885269
6.617842 -69.504036 -150.043793
-53.451797 -73.519051 -149.276169
-52.176083 -73.866714 -155.168076
105.614296 -74.204933 -159.650208
-42.876488 -74.735748 -149.005341
12.661782 -71.300262 -156.839981
20.981230 -75.010735 -156.613571
113.461761 -73.287231 -162.529388
28.541925 -72.983948 -164.674469
-2.180455 -74.633957 -162.777405
30.524567 -74.274902 -159.704346
-69.124107 -71.273163 -157.770370
-67.114456 -72.556305 -159.176056
-70.134972 -71.602959 -165.735229
113.439186 -70.594734 -159.353119
-45.865318 -73.215462 -162.778183
16.484829 -73.612495 -164.578247
-65.170738 -71.965469 -169.653656
-64.268074 -71.276482 -171.405182
-42.633606 -73.889847 -159.995300
-34.802876 -75.243118 -168.249863
113.778252 -76.039131 -169.151199
-38.130951 -68.706200 -179.506851
12.545655 -74.469154 -172.232132
109.639679 -76.675461 -182.198792
-148.781616 -74.182266 -176.952667
-147.091568 -72.253670 -174.450058
-149.754913 -70.760773 -180.869507
-143.517853 -73.890762 -183.591171
-32.897732 -71.979424 -185.120514
-24.148115 -73.423523 -185.228012
22.302351 -70.140236 -190.082382
-142.462036 -71.759087 -187.550461
-148.288635 -72.841530 -189.438553
-22.322483 -70.829567 -185.965149
10.033051 -73.817543 -181.655624
-150.293945 -72.493484 -195.163727
-32.591831 -73.959892 -187.559525
99.115936 -74.103973 -186.404068
105.285675 -73.149849 -187.809235
23.244181 -69.377220 -192.436371
-14.506406 -73.601723 -187.884201
-28.697609 -75.217896 -192.898560
-156.223541 -73.535118 -200.106079
-133.532623 -73.545105 -197.572205
-126.092995 -70.067177 -195.706146
-125.580467 -71.073509 -198.276581
-23.373198 -69.329834 -195.690369
11.711226 -75.509422 -191.529068
91.774452 -77.584435 -199.329056
-150.957108 -68.917183 -196.388611
-145.932663 -70.130051 -199.629578
-151.757187 -71.910599 -201.088303
-155.813889 -70.220329 -198.464874
-25.634748 -72.878471 -199.167938
-11.629405 -71.973930 -194.788712
-147.190094 -68.726044 -203.060547
-19.308142 -72.634811 -200.662033
-162.267471 -71.675240 -201.714828
-135.219879 -72.338539 -200.160828
14.923863 -75.428017 -206.118698
-162.097153 -69.240410 -205.189377
-146.917603 -73.889954 -207.366989
7.414507 -71.724449 -202.043503
-154.939621 -69.923210 -203.663498
-25.424486 -72.769928 -201.404892
96.502121 -74.759201 -197.515839
-159.191299 -73.336830 -213.511154
-165.289993 -75.327919 -208.757080
-77.631012 -71.005913 -208.487076
88.521957 -73.471733 -207.354843
-4.485734 -72.393288 -217.781494
-155.248825 -71.299553 -213.903290
-88.328255 -72.994347 -213.753906
-10.075558 -76.021713 -210.714737
14.919795 -73.498512 -219.076324
-145.580597 -73.208733 -220.968704
-4.264279 -77.388557 -220.243958
-20.065306 -74.419846 -217.784698
-15.268223 -70.436249 -219.986908
89.580177 -74.221649 -217.462219
-21.431744 -72.176193 -216.410980
-32.428696 -72.797218 -216.842514
-108.170181 -68.656540 -225.338303
-16.754930 -71.922508 -222.783325
91.762787 -72.274323 -217.356781
76.838051 -74.919601 -218.994232
6.523134 -74.821205 -218.616913
-11.777775 -71.464058 -224.928131
77.987961 -74.720566 -220.557724
-123.008736 -75.838806 -225.862244
-20.654085 -71.608559 -222.829498
-97.771477 -72.236214 -224.075912
-103.133232 -72.917435 -224.677811
-132.162903 -74.578453 -229.488937
80.693413 -74.281296 -222.163574
-123.786522 -73.270905 -228.018677
4.159142 -73.096558 -228.141541
80.623657 -72.833580 -222.989243
-16.285765 -74.566696 -230.128510
-14.136691 -74.267303 -226.993866
-2.453961 -78.533493 -229.318497
9.690603 -75.527306 -226.722992
88.287437 -75.487381 -224.942490
9.426661 -72.304893 -230.758652
4.991346 -73.412430 -228.829742
-9.561883 -74.156555 -230.786911
-7.310563 -74.449905 -229.645752
18.223948 -72.634285 -232.005157
-12.967427 -71.209213 -232.841919
70.575722 -74.790344 -238.459900
-9.582425 -72.212257 -238.396103
18.511837 -74.857712 -234.995300
-163.318024 -71.231232 -241.594269
-6.044926 -71.613564 -236.627045
-8.550667 -74.463875 -239.751404
-168.025497 -73.111824 -251.971542
-11.246244 -72.158623 -244.015594
15.181737 -71.386978 -244.839462
-148.005478 -74.590431 -252.776367
-73.644859 -72.660591 -250.640640
-62.038895 -74.157166 -247.122818
51.944420 -72.059113 -245.758301
-75.085640 -72.813919 -247.061691
16.493982 -74.585281 -248.818054
-73.460983 -73.632065 -251.524033
-15.770498 -72.066521 -245.593002
-145.880890 -75.371788 -253.668503
46.244614 -70.959969 -249.015976
-80.397865 -75.364128 -255.990753
-103.094048 -70.234337 -255.559204
-99.718842 -74.644196 -255.053680
-120.260429 -71.053307 -253.717041
-106.167702 -70.689552 -257.703888
-106.175064 -72.767448 -258.668304
21.263973 -71.621284 -257.822815
-129.635788 -70.658333 -265.877655
-14.065829 -74.751099 -275.185883
-147.837723 -70.567894 -284.295929
-168.900482 -74.408607 -286.694855
-125.168045 -74.068275 -284.849274
-114.367203 -70.238716 -287.510010
-75.786736 -69.395050 -284.794128
-57.752350 -74.208321 -286.755707
-42.151054 -72.648918 -285.994171
-15.602344 -76.843582 -289.433044
-14.032146 -71.597748 -291.395752
-38.664299 -75.549850 -290.056946
-34.668758 -73.539688 -288.627960
-19.271046 -70.890541 -288.481354
-72.078171 -72.525467 -293.238251
-55.836048 -72.926315 -291.138062
-17.920988 -70.498634 -291.212372
-14.065001 -75.401085 -289.351349
-4.010048 -73.166695 -291.939697
2.184725 -70.791328 -291.722595
-92.465088 -73.447220 -293.382355
-140.082382 -74.667259 -295.884735
-116.640038 -74.122528 -293.295868
-153.868668 -71.813759 -295.966248
-152.258484 -73.676079 -300.526184
-147.006683 -71.489548 -301.015350
41.860973 -69.372276 -20.105244
17.274736 -74.092865 -22.565113
46.934719 -68.918190 -23.879417
44.582741 -72.504524 -33.890690
85.407822 -71.969238 -68.572891
93.395721 -73.834167 -72.207077
99.088776 -71.872475 -76.371101
96.217873 -72.819237 -81.746559
54.664448 -73.033516 -88.124741
43.514931 -77.073891 -89.990730
61.302341 -71.073471 -89.448181
-67.198685 -68.928123 -93.274200
68.765686 -71.617546 -86.413971
98.932625 -66.377350 -97.232124
72.605621 -73.014511 -99.660255
92.392288 -71.383591 -100.916718
-86.472649 -72.184998 -103.790451
43.191048 -71.090759 -97.025291
-88.416649 -72.585129 -102.626030
49.310547 -73.557449 -109.177040
35.830441 -77.072128 -102.563133
100.241150 -71.552856 -101.560936
35.299191 -71.838966 -104.958015
40.808186 -73.228294 -117.491501
40.912365 -71.940575 -111.999939
108.251884 -71.304085 -110.599167
-83.102890 -75.303520 -121.828362
110.466385 -75.767151 -122.165276
38.299873 -68.824043 -123.769165
38.758770 -71.469131 -119.224487
33.210114 -72.542381 -119.927567
-57.480068 -75.675751 -129.588699
28.415482 -71.267700 -122.579948
-79.046478 -69.939987 -138.128433
-57.072922 -74.856079 -132.641998
-81.188774 -69.527649 -135.222687
33.854919 -70.410942 -129.820541
-61.339684 -72.713211 -133.714569
33.432575 -71.526855 -132.453537
-73.637886 -69.841408 -139.892395
-60.899975 -69.396904 -140.890823
24.036335 -72.959122 -141.817169
109.237587 -75.298698 -141.370285
113.588249 -68.947922 -135.401947
29.053709 -72.284103 -140.646973
-49.886608 -73.061951 -140.211578
105.233299 -70.770859 -150.574097
-77.232391 -71.464409 -143.380905
-60.306885 -71.744453 -142.435410
29.985119 -68.510399 -146.613434
-79.207954 -72.880013 -146.491287
-72.259216 -71.611504 -150.520798
113.263245 -76.337685 -147.805252
-66.237038 -71.124619 -155.317291
-40.947731 -69.303741 -152.185638
24.041059 -70.736824 -145.211365
-74.873749 -72.041237 -146.335037
10.753705 -71.741783 -149.141785
30.269445 -71.775902 -156.105911
29.358158 -70.078590 -149.423508
13.590219 -76.395737 -153.461655
-51.540382 -73.232574 -153.289429
23.130348 -73.546013 -152.399490
-47.853912 -70.954857 -150.197586
3.096340 -72.347847 -153.523438
18.798065 -71.433540 -149.271179
-70.505569 -71.081772 -157.676163
-48.282745 -69.078560 -154.153961
-69.834160 -71.198196 -154.022507
16.528299 -71.102882 -157.816727
22.540604 -71.404770 -149.367126
0.955521 -72.195511 -164.021667
19.666927 -72.030930 -152.878708
29.194284 -72.057487 -166.371033
-48.925877 -73.145195 -163.245956
-38.440052 -77.885277 -163.103683
-42.484253 -72.630219 -160.792480
26.181831 -72.570793 -157.921082
-45.862553 -70.285141 -166.803207
-41.372955 -70.495216 -166.348404
19.758678 -70.989868 -165.076279
-41.397274 -72.490501 -175.149704
26.361765 -68.958496 -169.361435
110.077393 -69.742821 -163.292404
-35.098080 -71.890785 -171.897766
101.209511 -70.494240 -171.719742
-36.106655 -71.623550 -177.307281
-38.930161 -74.843903 -181.310303
19.603205 -75.020180 -176.297943
104.325333 -73.153641 -180.427719
-32.978527 -70.531662 -182.768997
-36.722427 -71.456360 -177.400711
-24.679411 -75.467712 -186.569977
-150.485184 -72.052094 -189.980118
11.448858 -72.032120 -182.755585
103.570396 -71.485298 -189.553650
-160.364914 -71.068550 -194.241455
-24.404556 -69.197510 -189.311386
-117.008888 -73.302475 -198.062622
-132.189835 -72.987419 -196.455597
-109.228569 -72.261223 -200.444534
-114.986534 -70.942787 -200.942398
-13.704210 -73.004822 -196.009735
18.737370 -71.229004 -195.439224
-17.109953 -68.657616 -201.600006
-128.005005 -71.714920 -206.406555
-22.133865 -68.636543 -202.778015
-130.660706 -70.552208 -203.810715
-16.744453 -72.330719 -199.946793
-147.380142 -70.430084 -203.875229
90.575211 -69.122971 -205.066193
-165.821609 -66.801750 -202.763626
-3.901104 -73.982239 -217.401077
10.244848 -73.519470 -209.290176
9.176156 -74.502357 -216.424988
81.516335 -72.731430 -215.373764
7.338468 -73.354675 -212.498245
11.473642 -71.532623 -214.166214
-16.989983 -75.457191 -215.577621
-91.621651 -72.252655 -214.935303
-99.127090 -71.958626 -217.151535
-1.087975 -71.334579 -218.679169
-167.543640 -73.356682 -223.237671
14.060348 -70.446617 -219.016129
-145.700867 -70.993843 -222.313858
11.932957 -72.769211 -224.351074
-135.681808 -73.044632 -225.805511
-116.932793 -72.771805 -227.938110
15.700620 -71.694000 -220.254028
77.336800 -72.781418 -220.078171
5.704986 -72.401329 -222.942184
-110.837585 -71.173134 -231.606613
71.368637 -73.670593 -226.574875
83.036484 -73.899796 -228.134216
-126.122147 -71.605278 -235.943665
-118.000740 -71.845016 -231.220932
-11.011470 -69.235626 -227.490524
71.035973 -73.494774 -230.174637
63.719490 -73.360252 -232.061188
72.321106 -72.296806 -228.273056
-136.171692 -68.500175 -235.081268
69.231300 -73.880287 -231.160202
65.277023 -70.648483 -234.199219
-167.093506 -70.189560 -231.837845
0.557114 -78.800446 -240.447479
18.492977 -73.813942 -238.840729
-6.864379 -69.926857 -240.330200
14.917163 -67.735733 -238.728775
65.346840 -73.764969 -236.997681
8.101702 -70.779655 -242.876755
-11.760281 -66.564453 -240.528351
-1.411667 -69.366463 -237.066345
64.112579 -73.476715 -241.319489
2.220803 -73.036728 -242.107208
-7.826298 -73.213753 -242.785660
13.434934 -74.930550 -242.307114
-168.342743 -73.217918 -242.431259
55.235882 -73.142830 -246.240936
49.223251 -67.347153 -249.933395
57.360725 -73.522675 -241.770386
-12.941621 -70.787392 -247.632568
56.383537 -72.636757 -244.664612
-74.660568 -71.666367 -250.215179
49.996468 -73.197395 -247.697510
-89.495346 -71.881111 -252.992447
-123.927834 -72.986153 -257.512482
-133.149567 -71.794235 -253.881241
45.361115 -74.332573 -250.947479
-133.325058 -74.318398 -254.112366
-109.919998 -70.210403 -255.806625
-116.774422 -69.719040 -258.244690
-84.486954 -72.499992 -255.116516
-111.682289 -70.279839 -259.874146
-124.756264 -75.110840 -263.256775
-147.110428 -69.339401 -268.712433
-15.931728 -71.178558 -265.370056
-171.991943 -73.627205 -265.791748
-15.145608 -71.983452 -273.516022
-159.609222 -68.551224 -268.514771
-153.267792 -72.014000 -274.575867
-170.464355 -71.654739 -278.848999
-14.752850 -72.609909 -279.067932
-130.693100 -74.235443 -284.057281
-158.503693 -71.529358 -287.421692
-144.474930 -70.906693 -282.022278
-135.419495 -74.666779 -281.445221
-8.659353 -66.956635 -284.167175
-126.384575 -75.367714 -284.267975
-141.506653 -69.873383 -286.640533
-116.229919 -74.854294 -286.470612
-79.451080 -70.341682 -288.441467
-61.186947 -72.936455 -287.254303
-7.482884 -73.535881 -287.483551
-54.412785 -71.149628 -285.850891
-57.669403 -70.032425 -288.802002
-70.851784 -70.526703 -290.626892
-88.476517 -71.247246 -294.262512
-95.499992 -69.877090 -289.546600
-160.781021 -70.887192 -292.684662
-161.527267 -72.689301 -294.928467
-125.071075 -74.706253 -294.716400
-145.082748 -72.051453 -296.035126
-153.418503 -74.103722 -304.853302
-150.764984 -74.232948 -313.236206
44.885452 -69.701378 -13.734201
13.837465 -72.711082 -29.170870
39.103550 -67.879044 -33.827049
-18.061430 -74.175385 -66.069214
79.233131 -69.706879 -63.879086
86.123367 -67.612061 -64.663635
75.321617 -74.497604 -64.234070
70.194443 -72.652992 -68.052071
88.710953 -73.868500 -73.569664
-98.644096 -67.664116 -70.804886
65.338173 -72.045959 -74.275581
-39.014919 -72.047409 -77.292351
96.537819 -71.476814 -84.438187
59.140141 -68.842224 -89.350510
104.782539 -75.949646 -92.104652
99.257492 -74.992157 -96.928886
70.051399 -71.293205 -99.476105
-82.440430 -69.728844 -101.887177
52.114143 -71.296783 -103.245338
104.895943 -68.978050 -104.526955
44.891403 -71.993523 -111.476631
77.669968 -70.340981 -104.175430
39.409557 -70.920052 -106.586128
101.987251 -71.116112 -101.746117
45.330280 -70.733727 -106.866974
105.022308 -76.178772 -108.358757
107.932213 -74.330276 -109.762032
-81.607994 -68.917717 -114.522499
-85.099243 -69.115280 -119.750282
41.781631 -74.206520 -119.140022
111.673775 -73.033333 -119.701431
111.580109 -71.182098 -121.999931
-89.337860 -69.937408 -127.397514
103.881836 -73.233406 -124.250488
-61.413700 -75.064270 -131.910507
-88.269173 -71.126114 -127.695877
-74.642830 -71.021332 -127.412605
-61.288036 -67.176422 -126.920273
29.567209 -70.862228 -129.396957
40.365837 -69.700348 -133.828217
-75.144524 -70.526848 -136.879349
26.686972 -69.292915 -130.203461
109.752617 -71.456184 -141.331573
-42.058964 -71.040298 -148.213089
28.509809 -72.033264 -148.067566
112.018997 -69.880760 -146.102005
33.620819 -71.760338 -141.912460
108.432388 -70.240494 -139.246552
-54.203178 -71.183716 -149.440323
-73.117859 -68.391579 -151.230865
-56.952721 -71.416725 -152.625687
-43.802811 -74.378197 -164.885880
2.899835 -72.404503 -155.327621
108.016701 -71.654846 -151.929581
107.216530 -71.338379 -158.047775
8.265392 -70.544846 -156.861038
1.563008 -71.176636 -160.787033
17.428581 -70.433731 -154.575409
23.861065 -69.882790 -154.920761
107.041008 -71.043983 -164.051025
107.885704 -74.502602 -166.114655
22.335651 -68.640106 -173.668839
23.267630 -73.213448 -163.066849
110.501175 -69.562950 -160.383209
-30.685381 -69.923286 -176.986893
108.538780 -71.681671 -166.161118
15.857458 -71.660751 -166.926315
19.955368 -71.067513 -167.012695
106.921494 -71.650726 -171.271759
25.102705 -70.359673 -169.616608
110.789970 -70.837570 -182.087540
-39.846798 -70.367928 -177.598206
23.483200 -70.801170 -170.356537
105.990112 -71.343491 -182.283905
21.548010 -72.178200 -177.827667
-153.327927 -69.200081 -187.516983
-29.651575 -68.129890 -189.130295
23.110977 -69.176376 -184.161652
-115.180222 -72.149231 -192.508591
-112.270241 -68.378456 -191.950775
22.328299 -71.745064 -187.788452
10.192129 -69.306419 -184.418533
-28.316772 -68.501808 -190.002487
-31.093578 -74.772911 -188.988861
-29.471670 -71.350174 -186.966339
13.276676 -69.170647 -179.343048
-152.231995 -70.555702 -196.100189
-146.754623 -70.255104 -193.817825
-145.746002 -73.469398 -199.269379
-24.334911 -70.096184 -191.123932
12.317056 -69.033127 -198.942841
97.459114 -70.627235 -191.871567
-115.068893 -69.602264 -199.004379
19.908150 -74.403198 -197.634445
-16.692486 -70.010201 -195.218719
-19.061567 -70.419525 -198.413849
99.630539 -70.322289 -198.047852
6.587588 -72.982971 -198.702728
-23.329807 -69.329010 -196.227554
-122.654449 -73.583954 -203.806931
-135.478088 -70.772583 -204.157455
-115.350060 -66.364594 -205.623489
-143.477890 -73.336884 -204.317245
16.158562 -70.784683 -197.096710
92.496269 -72.663727 -200.438278
-167.229263 -66.090919 -202.669403
98.689873 -71.109970 -200.718689
-22.919060 -74.604431 -205.783066
93.381813 -69.453903 -209.155701
86.846794 -72.845139 -210.185150
10.857868 -72.814720 -205.383682
18.559595 -70.630310 -211.347031
11.591840 -68.376205 -207.285095
-11.977480 -71.464432 -222.061508
-95.577866 -72.711555 -219.081329
-11.653591 -73.112518 -211.932968
87.886414 -71.695839 -214.988953
-94.708328 -72.914963 -218.149323
-102.256866 -68.568398 -221.783997
-95.588562 -71.438583 -219.990021
87.112297 -73.075882 -220.660110
-136.378159 -71.096107 -226.060303
-133.527802 -74.536499 -227.575867
-117.743416 -70.644440 -225.543335
-114.208946 -68.168716 -223.889496
-134.406967 -69.297050 -228.100540
-112.786423 -77.315392 -228.146774
-113.264549 -70.649101 -228.738724
-7.965191 -74.357597 -224.267487
-17.052917 -73.364151 -222.892090
-1.998814 -69.316704 -230.049393
-11.217338 -68.415672 -226.698563
14.389271 -72.072609 -232.950058
-19.894449 -69.532639 -228.912567
-167.952225 -68.994026 -223.511429
-5.106735 -71.244637 -233.099319
79.798531 -68.826530 -230.012466
9.965266 -73.079506 -233.130814
-6.878402 -70.562645 -234.434372
-157.828018 -68.480110 -237.641541
-143.311920 -69.294281 -231.399246
61.623959 -70.308403 -234.887268
-6.650743 -72.193787 -233.764206
8.279287 -73.326942 -230.218323
68.397400 -73.708069 -229.186615
75.971336 -72.009995 -233.150940
70.119377 -72.742004 -240.271225
-2.555532 -74.062103 -235.292221
57.099037 -69.927353 -236.999283
-19.958004 -73.769501 -239.493515
-16.194742 -69.005089 -240.141251
7.290557 -71.265686 -238.870773
63.823711 -74.719093 -236.848862
64.522049 -70.154045 -239.629379
48.747272 -71.787239 -245.238754
60.222946 -74.662376 -241.721603
-16.376745 -75.700996 -249.377243
-84.386314 -68.522400 -254.582809
-77.652344 -69.110725 -253.275665
43.402706 -74.310776 -246.932648
-149.960342 -71.906670 -251.679703
35.239223 -71.573532 -255.472748
-92.867882 -74.463959 -252.354965
-157.031036 -67.134811 -255.800262
-141.114929 -64.808762 -254.278656
44.373413 -71.434662 -252.671722
-125.735458 -67.140846 -258.673645
-117.664078 -71.185379 -256.053284
-93.123680 -67.147079 -257.571259
-14.519177 -68.199738 -250.121704
31.115595 -71.255646 -256.487885
24.215702 -69.021111 -258.822968
-159.689011 -66.453514 -261.438385
-115.471062 -73.565399 -263.341461
-14.642188 -71.059036 -261.667328
-133.482941 -70.675247 -266.235138
-14.777707 -70.181763 -270.031128
-165.521210 -70.007980 -273.679749
-7.883900 -72.398125 -279.125366
-161.386002 -71.147163 -288.914307
-164.466141 -72.584511 -279.024200
-143.146179 -71.110466 -286.149078
-170.727463 -72.702766 -285.852051
13.510995 -73.758316 -287.418488
-103.703972 -72.066399 -287.110596
-87.721550 -67.108047 -286.439850
-168.327271 -68.050880 -285.773926
-92.606316 -74.902466 -284.448669
-154.242493 -71.312210 -289.523895
-75.964218 -72.118004 -293.924988
-71.167343 -70.544083 -288.987976
-83.050804 -72.179008 -291.690399
-4.234688 -68.948997 -288.582245
-88.567833 -71.098900 -289.072632
-99.530464 -72.484993 -291.460907
-117.180145 -71.363510 -293.368866
-117.090508 -68.408356 -293.520599
-134.697205 -70.352043 -293.078583
-143.261398 -71.203651 -301.753326
-144.591736 -72.475357 -312.705780
20.911568 -68.088310 -14.475152
29.360357 -69.333603 -15.641262
26.402500 -71.963448 -17.508635
41.242397 -68.130974 -19.699783
22.092918 -69.927979 -30.956209
-77.558739 -67.824974 -47.319916
87.229645 -66.178345 -64.171333
-20.071974 -68.062660 -67.247017
100.236694 -69.357201 -71.400856
92.705055 -74.145683 -74.162865
66.166435 -71.676582 -77.317917
67.944466 -73.543465 -81.412666
-46.992584 -73.018059 -82.372986
58.846142 -73.565437 -81.281067
-96.678452 -69.970985 -88.753571
-51.489361 -67.576286 -85.255623
-58.178032 -76.373192 -87.586594
98.814690 -75.867363 -96.035942
56.988071 -73.411980 -91.158226
63.658237 -69.646080 -89.861610
-97.873314 -64.344818 -97.392853
105.646431 -71.953865 -91.494308
41.952267 -69.009827 -98.008865
99.258812 -70.272087 -96.591469
104.680473 -68.546173 -104.423790
99.183319 -70.890564 -103.012886
71.730652 -72.622429 -99.448410
85.222824 -72.551018 -105.146393
47.986023 -70.158752 -110.186859
108.546188 -68.468124 -101.984695
44.112793 -72.870773 -104.437645
38.446804 -68.445526 -100.660744
110.719376 -71.026428 -108.705162
-80.569908 -66.990211 -109.920898
44.094749 -69.531593 -111.894608
32.762569 -72.208000 -114.178490
103.439583 -68.342400 -108.530136
37.397732 -67.512787 -110.603928
-90.070831 -69.130707 -113.202003
-97.543152 -66.624443 -115.222420
102.097473 -73.743355 -117.546585
-96.729454 -70.803352 -119.011223
37.040295 -72.313225 -120.338699
35.041580 -69.985146 -119.864494
-85.306946 -69.187973 -124.480476
30.622028 -68.551140 -133.835602
109.039780 -72.037407 -129.573776
-54.396973 -69.474625 -136.005264
-90.047760 -68.372696 -131.949890
36.118488 -73.512413 -130.711609
-90.840286 -65.345863 -136.211349
-90.635857 -71.579903 -139.904175
-51.420113 -70.925079 -136.712753
-72.566193 -67.814285 -139.653244
-52.478931 -68.777641 -133.393555
113.689522 -68.160477 -135.885345
-74.982376 -70.990852 -136.936676
34.713108 -70.602554 -130.381760
-80.398972 -68.485687 -140.340500
-75.085670 -69.252968 -135.902390
-93.087006 -67.469826 -140.468765
-55.500885 -67.638397 -147.009644
29.804525 -66.475151 -144.949936
25.919218 -68.548599 -148.711487
17.500998 -65.630768 -143.628952
111.177513 -70.128693 -144.648941
-95.079124 -67.968369 -152.828583
11.410961 -71.622871 -151.706985
-73.497833 -69.013756 -153.449615
21.867058 -69.242188 -148.995239
-50.704575 -68.685089 -155.339432
8.003369 -68.748161 -152.612991
13.576195 -72.444077 -157.685211
16.312363 -74.304115 -163.141815
-50.393917 -71.621765 -162.451782
-40.731125 -68.783867 -154.669083
-47.866932 -70.053085 -160.920944
-105.066948 -69.889580 -172.367691
20.373198 -71.211647 -173.282028
-36.108467 -69.584312 -175.744690
14.104395 -73.755760 -177.586731
-144.982086 -69.166519 -176.554382
-33.602020 -66.925865 -172.594955
-156.367050 -73.524162 -178.711533
22.154545 -66.091965 -181.073349
-34.323181 -70.784935 -171.239029
-109.001503 -67.754997 -178.173203
-108.417015 -73.410728 -183.973511
-31.243809 -65.615067 -184.988785
-24.933914 -73.743156 -181.426865
12.755257 -69.209290 -188.616302
15.831964 -67.846512 -196.539063
12.612748 -70.018936 -186.293549
-144.103012 -68.207649 -188.289261
20.364794 -66.849815 -189.226486
6.394466 -69.971649 -196.142059
-138.268478 -67.822182 -195.201599
-115.506958 -69.063850 -195.963898
13.786246 -68.597137 -200.530334
-117.511673 -68.328033 -197.364853
-108.952415 -64.825935 -192.687012
-166.458130 -70.412338 -201.126328
-25.431950 -68.925148 -199.728989
11.787056 -68.683426 -199.610657
-144.074615 -69.522659 -204.783386
-136.861343 -71.147369 -207.111588
-21.157675 -68.344116 -206.975952
-12.995700 -71.060402 -204.134628
-15.852588 -70.591087 -205.565887
-141.913376 -72.463440 -205.236862
-17.538015 -70.331161 -212.548645
-11.477974 -73.623291 -213.853302
16.543825 -67.735619 -210.340805
-15.889098 -73.283211 -211.105087
9.462607 -70.407227 -209.442825
-11.361261 -70.943192 -215.187088
-21.991938 -67.497169 -211.689163
11.741241 -74.525345 -220.350998
-2.518799 -74.873055 -219.270554
10.312566 -66.909081 -220.606873
-6.898376 -72.114815 -226.440247
-159.655594 -69.943031 -226.345901
79.907021 -72.808662 -218.834732
-136.115494 -67.636169 -225.196899
-135.912430 -71.080498 -223.962662
-9.270469 -70.875038 -224.828064
7.783622 -70.129936 -233.271286
-157.709976 -69.047745 -230.595383
87.135803 -69.344749 -218.692703
-3.000280 -69.051414 -225.296509
-0.251930 -70.872719 -222.494308
73.192139 -73.178101 -228.161682
-0.122743 -68.125893 -234.399826
-15.561940 -71.993301 -226.808594
-127.254997 -68.041672 -235.089600
-4.998991 -69.989754 -236.466187
1.691596 -68.142685 -231.493896
65.320724 -68.808113 -237.191910
-158.961655 -70.627083 -239.333023
-13.146475 -69.722931 -244.364700
-169.808548 -71.581451 -240.013046
9.189732 -67.719246 -241.538086
-165.286926 -70.117470 -240.151215
-161.409103 -70.777481 -247.228058
56.377785 -70.542282 -244.247421
61.586311 -71.937019 -241.612411
55.490166 -71.126816 -243.501511
51.123390 -70.528511 -248.000381
-156.106934 -70.200020 -245.127090
-157.122986 -67.194427 -249.584900
-13.978335 -73.041077 -249.092850
-152.025146 -69.101738 -247.805954
19.040861 -71.845093 -250.577988
-170.353775 -73.921959 -252.312027
-168.237289 -67.810699 -249.586472
-82.770851 -71.284836 -249.286133
-169.972794 -69.095245 -261.092590
-85.953079 -69.521271 -257.162689
41.939377 -69.755508 -252.400696
21.676886 -73.740898 -255.630859
-159.199509 -70.320122 -263.039795
-101.347725 -64.498184 -260.254822
38.673691 -70.800323 -254.969696
-105.419128 -75.928856 -259.672699
-154.579575 -65.438950 -266.096588
-105.753616 -68.792175 -259.160858
-168.405045 -71.378304 -260.918732
-113.632446 -70.837135 -264.071014
-153.791016 -71.663246 -266.887787
-159.079910 -68.047470 -264.768341
-166.564636 -68.919334 -265.043365
-164.594421 -67.891563 -263.578308
-166.213837 -69.575233 -266.997345
-166.244019 -70.152100 -263.975494
25.278580 -71.807770 -264.622650
-150.370209 -72.845467 -264.774292
-150.116455 -69.340080 -285.331665
24.324223 -71.496529 -275.800171
-12.093824 -72.085068 -274.197693
-126.135895 -68.664185 -285.298706
-136.674911 -70.820465 -287.076965
-134.756500 -68.916573 -289.501678
-127.180672 -70.490150 -286.808502
-114.645210 -68.871857 -290.688507
-105.642639 -66.723854 -286.269348
9.018146 -73.440063 -291.974457
-85.298981 -70.865067 -290.432251
-149.428238 -70.461853 -289.466736
-102.007133 -70.267715 -291.389862
-129.529938 -67.537598 -292.835693
9.275418 -73.118462 -287.693665
-112.325241 -65.052872 -289.883057
2.630382 -70.905991 -292.773682
-143.513992 -69.421379 -289.871704
-153.223480 -70.382935 -297.117493
-158.102402 -69.539558 -315.359985
-155.331589 -69.144157 -313.022858
45.092495 -71.548988 -23.693317
20.655016 -69.555611 -34.778873
28.167147 -70.490555 -35.826199
-47.454540 -70.992088 -47.420719
-15.122978 -67.389259 -61.873600
91.921005 -70.882355 -67.005959
66.306450 -65.603508 -68.476295
-26.538662 -69.080444 -74.155289
-100.278503 -72.588264 -86.814522
-44.776070 -69.118637 -82.478561
59.256191 -68.868813 -80.372231
59.957050 -71.942894 -84.863014
51.245354 -67.352844 -86.584137
-61.116402 -67.855385 -90.379921
64.598160 -65.924553 -88.185265
41.509838 -72.640701 -96.959442
66.287254 -71.197021 -93.522705
-64.426712 -67.137779 -96.124519
47.941525 -71.326836 -92.198631
43.530605 -71.094185 -97.447723
101.211487 -67.094879 -99.062790
-68.639519 -68.787949 -98.999046
108.461014 -69.227501 -98.794563
-81.155952 -70.802628 -101.338654
52.399609 -72.065735 -103.937141
45.877956 -67.757561 -99.745209
89.735321 -67.960938 -102.424835
82.424118 -68.183929 -105.316826
52.708916 -69.401276 -103.507256
-78.333008 -69.406029 -111.266739
-78.809219 -68.046860 -115.132965
-82.347282 -69.987465 -118.562599
-95.161034 -73.334732 -118.786530
102.929298 -64.842850 -114.985741
-90.351921 -71.029831 -119.295021
-78.599579 -65.304337 -121.451241
107.563545 -68.552780 -114.450317
-63.527046 -61.653454 -118.118172
111.870644 -73.076599 -129.775284
108.192451 -71.129402 -127.802925
105.394508 -70.745987 -124.212448
-95.213829 -69.218239 -138.097443
-48.758224 -68.943642 -141.676453
-80.835976 -66.878899 -144.678864
-70.980095 -68.914497 -149.067642
-71.920593 -67.545509 -148.041489
-56.866238 -68.305771 -143.579620
-48.639328 -72.621735 -145.850662
14.710913 -69.387794 -145.657791
-95.844765 -65.824600 -143.218628
-47.374096 -67.633354 -147.136017
-53.797043 -63.231705 -147.608627
-43.685452 -67.303329 -154.677292
25.993647 -71.502838 -161.024765
-51.669239 -69.308052 -150.870560
-102.059952 -64.817390 -149.862000
-46.895741 -66.259865 -156.672699
24.047926 -71.234543 -147.324936
-100.068977 -73.506302 -163.363937
21.144306 -71.342392 -156.846207
-109.092247 -66.174858 -170.311050
-102.578995 -69.051476 -164.059555
20.705616 -69.221191 -164.139709
24.732285 -67.767418 -167.020996
-109.728058 -70.847397 -174.101563
-143.477264 -66.642685 -175.413513
-21.067694 -69.665329 -189.001434
-28.731846 -68.421028 -181.377670
-116.594330 -69.968567 -187.531052
-145.025742 -64.398987 -187.887177
-104.704147 -66.237122 -182.077408
-159.234100 -68.751930 -191.515839
-132.421509 -72.757439 -195.956787
-134.380173 -70.596130 -196.939636
-21.055353 -67.605743 -189.058289
-121.464439 -69.355728 -198.631287
-118.115005 -65.628578 -199.604401
-28.103540 -71.140320 -194.265228
-155.452682 -66.330994 -198.877151
-133.298096 -70.544807 -205.604263
-125.989082 -66.739143 -205.224335
17.014095 -71.440033 -201.092224
-163.070114 -68.048798 -204.255676
10.259557 -68.597397 -214.626663
12.954866 -70.567482 -214.002014
-18.022736 -65.978279 -208.665833
-5.993472 -69.609192 -215.891464
-171.024155 -66.049721 -211.501221
-160.057938 -65.361046 -214.020798
-95.638947 -68.788635 -218.896057
-99.518906 -70.484322 -223.244797
-161.823395 -69.117630 -226.260895
-107.408493 -67.167137 -219.872879
-13.044040 -67.868721 -213.801132
-128.347168 -70.405815 -223.092239
-143.002563 -69.406654 -224.989365
-4.040068 -70.903938 -220.818695
-135.172867 -67.261948 -225.644440
-124.656944 -72.661011 -223.943237
-115.229553 -70.886589 -225.406952
-0.490911 -64.971741 -227.646317
-108.076324 -67.526810 -231.289078
-161.319000 -63.632774 -224.092255
-147.521164 -67.851845 -227.779709
-166.285294 -68.062363 -226.340149
-8.802223 -68.983871 -226.272903
-9.219313 -69.664909 -232.158112
77.560890 -72.076866 -224.196426
-0.966431 -71.407097 -228.994141
-143.750122 -68.605118 -237.162628
-15.074745 -67.939278 -228.834137
73.220528 -70.241745 -226.812958
73.868378 -70.375526 -231.857742
-135.380661 -67.446144 -233.360596
-158.247513 -71.081673 -229.533096
-114.993652 -67.625992 -233.632309
-125.477318 -64.823570 -236.466873
-164.475784 -67.398544 -236.069702
-160.875900 -69.030602 -236.861481
-147.506073 -65.226311 -235.208130
-13.534643 -68.527580 -234.979340
-5.933081 -68.933945 -240.034149
-161.447861 -67.219742 -241.856552
4.706703 -70.455177 -237.633957
2.069785 -70.298790 -236.121826
-160.838913 -68.373360 -239.999008
16.046648 -73.390671 -241.563217
50.075356 -72.185997 -244.341385
49.866360 -72.128387 -243.378464
-16.674343 -70.581177 -246.605438
47.537193 -68.799019 -248.190552
-162.170212 -65.678772 -251.313980
-159.847824 -68.924248 -248.628052
-161.230621 -72.080299 -250.702332
54.015087 -69.753105 -247.676224
-92.917122 -68.011475 -253.259277
