-145.672882080078 -79.745353698730 -245.999267578125 2.072433471680 2.246860265732 -0.273391723633 -0.823806762695
-152.910720825195 -81.314140319824 -251.157348632813 1.373489379883 3.351006507874 -0.570892333984 -3.002807617188
-155.069259643555 -76.629501342773 -254.395812988281 1.792968750000 3.077245712280 0.344085693359 2.477157592773
-142.626602172852 -77.913200378418 -256.359863281250 1.751373291016 2.093436717987 -0.972946166992 0.607078552246
17.340213775635 -76.794097900391 -258.577484130859 -1.173522949219 3.929042816162 -3.378301620483 -1.627052307129
-155.725936889648 -81.373672485352 -261.081848144531 -0.191558837891 1.432218194008 -0.824569702148 -1.155265808105
-7.973165988922 -80.544784545898 -266.891479492188 -0.966613769531 1.176875829697 0.661767482758 -0.112953186035
9.409262657166 -81.018440246582 -279.478698730469 0.472900390625 1.162399530411 -0.250446319580 -1.031898498535
-153.897445678711 -77.083038330078 -278.079498291016 -0.836975097656 3.083313226700 -1.719085693359 2.418891906738
-139.925399780273 -81.047760009766 -281.846588134766 2.279388427734 4.518982887268 3.884109497070 0.373214721680
-154.554519653320 -84.402999877930 -286.878479003906 1.444030761719 2.644676446915 -0.911819458008 2.019325256348
-154.171051025391 -78.181602478027 -292.343750000000 1.184509277344 2.930058717728 1.484848022461 -2.231010437012
-150.351791381836 -78.256340026855 -293.679168701172 1.083099365234 1.977765679359 1.504348754883 0.689483642578
-155.227798461914 -76.119277954102 -298.662506103516 1.622070312500 2.450799942017 -1.757461547852 0.535385131836
-48.721401214600 -75.318794250488 -65.564819335938 -2.787612915039 4.420602321625 -1.968410491943 2.810035705566
-48.510181427002 -75.950729370117 -65.273368835449 -2.496162414551 3.750022411346 -1.757190704346 2.178100585938
-34.345947265625 -77.361030578613 -64.056755065918 -2.835075378418 3.010406494141 0.684146881104 -0.746215820313
-51.617301940918 -78.614326477051 -69.313880920410 -0.883369445801 3.295770883560 1.765445709229 2.639122009277
-73.989303588867 -75.719963073730 -68.054504394531 0.201164245605 3.024568796158 1.477836608887 2.631263732910
-75.123756408691 -76.067367553711 -71.366744995117 -3.111076354980 3.874625444412 0.343383789063 2.283859252930
-38.064891815186 -78.447853088379 -67.479568481445 0.803878784180 2.729430675507 -2.600135803223 0.207038879395
-29.529159545898 -74.715042114258 -74.440521240234 1.858474731445 3.797653198242 -3.295444488525 -0.329071044922
-55.909652709961 -77.250244140625 -88.906822204590 1.432144165039 2.977273941040 -1.896659851074 -1.793266296387
-84.119674682617 -76.848587036133 -89.562118530273 1.044204711914 3.800961494446 1.063995361328 3.496406555176
-86.992256164551 -76.495513916016 -96.783035278320 2.463813781738 4.161816120148 3.334922790527 0.358642578125
-89.517486572266 -72.085777282715 -101.803291320801 -2.556442260742 5.470689296722 0.809692382813 4.768379211426
43.839042663574 -73.633842468262 -113.335075378418 -0.216300964355 2.246896028519 -0.399230957031 -2.200538635254
43.471759796143 -78.071014404297 -107.479064941406 -0.549530029297 2.114183902740 1.014362335205 -1.771682739258
42.741596221924 -74.943763732910 -116.839225769043 -0.422988891602 2.072380304337 -1.210849761963 -1.627784729004
40.142547607422 -80.613815307617 -119.185508728027 0.326255798340 0.894542038441 -0.803504943848 0.219413757324
33.123455047607 -73.889236450195 -121.535964965820 -0.709434509277 0.905612885952 -0.555625915527 -0.090095520020
33.069568634033 -77.051841735840 -128.350814819336 0.277481079102 3.488511562347 2.950765609741 1.840026855469
34.690692901611 -79.414962768555 -129.033874511719 1.375732421875 1.854331851006 -0.988067626953 -0.754737854004
36.285697937012 -79.298255920410 -139.171844482422 1.116439819336 1.557981967926 0.173545837402 -1.072731018066
30.600322723389 -79.157775878906 -145.799774169922 -2.284729003906 2.413961410522 -0.742059707642 0.237846374512
35.428958892822 -79.415420532227 -146.701705932617 1.253051757813 2.312469005585 1.914859771729 -0.332695007324
-41.895267486572 -77.414299011230 -151.840194702148 -1.281158447266 1.833803534508 -0.013916015625 1.311973571777
-43.976642608643 -78.510643005371 -154.445587158203 0.408843994141 1.828737258911 -1.637947082520 -0.703033447266
-38.552021026611 -78.028984069824 -153.870483398438 0.109893798828 2.490104436874 -1.602771759033 -1.902542114258
25.714591979980 -78.964202880859 -154.777877807617 0.214218139648 1.562573432922 -0.795463562012 1.327774047852
27.786973953247 -76.259971618652 -152.925750732422 1.700027465820 2.309557914734 1.563310623169 -0.004966735840
-40.683086395264 -74.809982299805 -156.757980346680 -2.556365966797 3.065041065216 -1.078880310059 -1.302108764648
-41.199100494385 -78.271301269531 -156.898300170898 -0.891021728516 1.622923970222 1.235931396484 0.558959960938
-33.263755798340 -79.200195312500 -159.450851440430 0.692947387695 1.225887775421 0.826686859131 -0.582420349121
27.992616653442 -80.816635131836 -158.560424804688 -1.260421752930 1.759625196457 -0.037948608398 -1.227264404297
23.416578292847 -76.836692810059 -163.306610107422 -1.701950073242 1.726240277290 -0.259584426880 -0.126045227051
-62.378131866455 -78.477890014648 -163.739395141602 1.932388305664 2.004410505295 -0.530673980713 -0.043838500977
23.623081207275 -77.580726623535 -167.097747802734 -0.799316406250 2.582968711853 2.222352981567 -1.045928955078
27.296474456787 -77.153450012207 -169.119720458984 0.349304199219 1.918947815895 1.783658981323 -0.615554809570
-58.212211608887 -78.049827575684 -166.260910034180 0.467666625977 1.521405339241 1.305366516113 0.626083374023
-35.098850250244 -79.067047119141 -169.908767700195 -1.400009155273 1.556813359261 -0.006107330322 -0.680885314941
-28.617042541504 -77.171401977539 -168.521530151367 -1.016174316406 1.833015918732 1.307395935059 -0.786163330078
-29.531682968140 -78.198493957520 -173.580123901367 -1.530410766602 2.715988636017 -0.916612625122 -2.047988891602
-10.722956657410 -73.561370849609 -176.330917358398 -0.473220825195 2.424318790436 -0.511849403381 2.321937561035
-29.568067550659 -78.975685119629 -175.525878906250 2.838790893555 3.338800907135 -1.276403427124 -1.208160400391
-25.465414047241 -78.982200622559 -179.422500610352 -1.469940185547 2.281918287277 1.245517730713 1.222747802734
-49.229351043701 -81.638015747070 -183.338897705078 0.019210815430 1.005178689957 -0.962776184082 0.288230895996
-23.386112213135 -77.900566101074 -184.438446044922 -2.105850219727 2.328108549118 -0.754432678223 0.645225524902
-51.456638336182 -75.426956176758 -187.432861328125 1.351318359375 1.418382406235 -0.137565612793 -0.408439636230
-30.581905364990 -77.454681396484 -189.179916381836 0.562637329102 1.737981915474 0.265531539917 1.622810363770
-51.208183288574 -73.644424438477 -191.660934448242 -0.400024414063 2.824995994568 -0.853816986084 2.663002014160
-30.711608886719 -76.584747314453 -187.885803222656 1.178878784180 1.847965002060 1.418277740479 -0.117080688477
-20.576913833618 -79.265083312988 -188.382324218750 -2.256286621094 2.348972320557 0.454713821411 -0.469123840332
-143.349334716797 -78.921501159668 -193.707611083984 -0.570236206055 1.899619102478 1.177551269531 -1.377227783203
-19.006481170654 -78.675727844238 -191.506530761719 1.288345336914 1.770378947258 -1.061918258667 -0.588844299316
-49.766670227051 -78.670379638672 -195.941513061523 0.857574462891 1.839929103851 -1.174888610840 -1.126739501953
-50.036903381348 -79.221473693848 -196.682052612305 0.117034912109 2.217475891113 -1.445121765137 -1.677833557129
-140.505691528320 -79.176612854004 -196.693923950195 -1.346435546875 2.481039762497 1.422515869141 -1.522865295410
-56.635780334473 -76.547874450684 -197.839874267578 4.379806518555 5.153728961945 -0.048267364502 2.715858459473
-20.204807281494 -79.664161682129 -200.086395263672 -1.116912841797 1.871362328529 -1.145109176636 0.971199035645
-13.896982192993 -80.729385375977 -196.158859252930 1.291900634766 2.867354631424 0.857469558716 -2.411941528320
-11.079414367676 -79.236297607422 -203.553344726563 0.901687622070 3.094969987869 -0.927603721619 -2.811645507813
-51.365726470947 -77.873207092285 -202.005081176758 0.277267456055 0.416485130787 0.102825164795 0.293273925781
14.833798408508 -75.653091430664 -201.691085815430 1.034210205078 2.581669569016 0.084157943726 2.363967895508
-10.906422615051 -77.938201904297 -207.210037231445 2.388778686523 2.860284566879 -0.559609413147 1.470306396484
18.831453323364 -76.595077514648 -205.479568481445 -0.321487426758 1.259059190750 0.032535552979 -1.216888427734
-33.639251708984 -78.061195373535 -206.767974853516 -0.618911743164 2.008398056030 1.816677093506 -0.591857910156
-31.427631378174 -78.224166870117 -203.099624633789 0.760833740234 0.947579801083 0.498785018921 0.265052795410
-15.041425704956 -76.373924255371 -209.067413330078 2.765899658203 3.701360225677 -0.532124519348 2.401397705078
-29.835170745850 -79.866630554199 -211.844818115234 0.268997192383 0.805502474308 -0.456754684448 0.606506347656
8.349967002869 -78.797637939453 -215.323837280273 -2.092239379883 2.177522182465 0.532545089722 -0.283782958984
-11.677183151245 -79.347427368164 -217.757019042969 0.876068115234 1.803990483284 -0.786725044250 -1.366729736328
12.771172523499 -83.810035705566 -220.003555297852 1.484359741211 3.433319330215 -1.143631935120 -2.876884460449
-0.844851016998 -77.051422119141 -225.972702026367 1.104034423828 1.140655994415 0.282671928406 -0.047966003418
-145.391616821289 -78.064872741699 -222.833663940430 -0.072845458984 1.065076231956 -0.633499145508 0.853088378906
-148.816390991211 -80.136749267578 -226.140472412109 0.485824584961 0.499827653170 -0.077819824219 -0.088012695313
17.846521377563 -79.999588012695 -231.593582153320 0.093795776367 1.472456216812 -0.877756118774 -1.178504943848
-139.875228881836 -78.278701782227 -228.316772460938 0.245819091797 1.933471798897 0.720108032227 -1.777450561523
12.354585647583 -79.291572570801 -234.916366577148 0.002853393555 1.802430272102 -0.205455780029 1.790679931641
14.924052238464 -79.507537841797 -235.839614868164 -1.657958984375 1.723654031754 -0.469305992126 0.043670654297
-152.291748046875 -75.804397583008 -238.349151611328 -3.093353271484 3.166783332825 -0.269226074219 0.622253417969
-143.317367553711 -82.872093200684 -234.396179199219 -0.535095214844 2.066833019257 1.817932128906 0.824981689453
-38.977313995361 -77.444366455078 -240.352630615234 -0.620986938477 2.654441356659 -2.538223266602 0.466751098633
-38.658466339111 -76.217842102051 -240.241699218750 -0.441772460938 2.589412927628 -2.316799163818 1.068801879883
-33.717658996582 -77.165412902832 -241.543334960938 0.693466186523 1.558712005615 0.439674377441 -1.324905395508
7.350018978119 -78.575065612793 -237.320404052734 -1.504776000977 2.354791641235 -1.327728748322 -1.232002258301
-41.581012725830 -79.100807189941 -241.771408081055 -0.314407348633 1.317653417587 1.173973083496 0.509063720703
1.725468039513 -77.589126586914 -246.935241699219 -0.327560424805 1.520401239395 -0.653784871101 1.333000183105
7.214286804199 -76.446609497070 -250.060546875000 -3.341094970703 4.314818859100 -1.790750503540 2.061058044434
-8.806406974792 -82.345993041992 -254.663314819336 0.765548706055 2.460614919662 0.367724418640 -2.309402465820
-8.050457000732 -81.284713745117 -260.876647949219 -1.459838867188 1.484344244003 -0.107272148132 0.246253967285
-154.982376098633 -79.318656921387 -257.470977783203 -1.282196044922 1.369198441505 0.430969238281 -0.211997985840
-145.786590576172 -77.170783996582 -259.703277587891 -0.537750244141 1.672487020493 1.440383911133 -0.658279418945
-12.871053695679 -78.944145202637 -262.413940429688 -2.426940917969 2.947737932205 -1.499677658081 0.741676330566
-7.472351074219 -80.264190673828 -267.925140380859 -0.292877197266 1.872180819511 1.656469345093 0.821823120117
17.996868133545 -77.598655700684 -269.145751953125 1.365661621094 2.091551303864 -1.259647369385 0.960647583008
10.726222038269 -82.602073669434 -272.248687744141 1.221984863281 2.002890586853 1.586063385010 -0.052215576172
2.340981960297 -77.592788696289 -275.358947753906 -0.495605468750 4.292483329773 0.175510883331 4.260162353516
-147.652404785156 -76.667839050293 -286.951965332031 0.719421386719 2.235904693604 1.588012695313 -1.399971008301
-151.338592529297 -82.133331298828 -285.991943359375 1.069183349609 1.833052635193 -0.646041870117 -1.341476440430
-140.277343750000 -78.439697265625 -287.854553222656 0.106353759766 1.159838080406 0.728637695313 -0.896102905273
-62.067947387695 -73.194396972656 -59.383872985840 -1.503143310547 3.795759916306 -2.381473541260 2.544982910156
-62.615352630615 -78.675712585449 -63.057960510254 -1.908245086670 3.087383985519 -2.388977050781 -0.428169250488
-53.371017456055 -75.804046630859 -62.547969818115 -0.137481689453 3.298676013947 0.044509887695 3.295509338379
-46.204128265381 -77.608886718750 -61.145748138428 1.631458282471 1.798123240471 0.548862457275 0.519943237305
-39.160552978516 -74.598281860352 -62.639671325684 -1.333007812500 3.261205673218 1.209857940674 2.719337463379
-35.795261383057 -77.195884704590 -60.638671875000 0.583007812500 1.123842239380 -0.765167236328 -0.581069946289
-41.112255096436 -76.292327880859 -61.641860961914 -0.335197448730 1.309164881706 -0.741844177246 1.025291442871
-31.432651519775 -77.249946594238 -63.626682281494 3.290805816650 3.332108020782 0.468105316162 0.233276367188
-28.789461135864 -77.071029663086 -71.515144348145 -1.089431762695 1.598865151405 -1.066062927246 0.482719421387
-28.505897521973 -71.806632995605 -77.944999694824 0.779502868652 0.983021795750 0.209695816040 0.561012268066
-30.382854461670 -76.634483337402 -76.379432678223 2.608360290527 2.710219621658 -0.674385070801 -0.294876098633
-80.762771606445 -72.019546508789 -80.375427246094 -2.010513305664 6.607075691223 0.718910217285 6.252555847168
-43.179073333740 -77.962989807129 -84.779602050781 0.824592590332 1.032508134842 0.474296569824 0.401451110840
-87.795288085938 -80.626174926758 -101.461639404297 -0.664443969727 1.504463195801 -0.083053588867 1.347229003906
-63.561592102051 -75.358337402344 -97.181640625000 0.348960876465 2.032257318497 1.729804992676 1.008003234863
49.706127166748 -75.629508972168 -104.177276611328 -0.688316345215 1.506165862083 -1.196418762207 0.602775573730
41.143421173096 -73.328697204590 -108.566238403320 0.139877319336 2.462582349777 2.412681579590 -0.472984313965
-89.757339477539 -76.618560791016 -109.670127868652 2.796356201172 3.332842350006 1.768745422363 0.399711608887
37.614799499512 -72.489379882813 -111.108230590820 -0.792549133301 0.977834105492 -0.510166168213 -0.260299682617
44.033885955811 -74.359352111816 -115.636978149414 0.779258728027 1.304800391197 0.081439971924 -1.043373107910
34.252574920654 -74.162063598633 -129.147384643555 0.669433593750 3.966428756714 3.906755447388 -0.147232055664
33.754665374756 -73.798088073730 -126.653755187988 -1.299270629883 2.377500534058 1.782808303833 0.886566162109
39.966686248779 -75.875228881836 -128.712326049805 -0.444503784180 1.657344460487 0.394977569580 -1.546997070313
38.973453521729 -75.801040649414 -132.265457153320 -0.128204345703 1.067460179329 0.203277587891 1.040054321289
27.698064804077 -74.324081420898 -141.373580932617 -1.268890380859 2.194653034210 0.194019317627 -1.780105590820
35.278842926025 -74.738838195801 -139.784500122070 1.533920288086 1.671666979790 0.660469055176 -0.073074340820
29.663112640381 -75.801612854004 -141.661056518555 -2.160888671875 3.400357007980 2.625114440918 -0.041984558105
-49.315658569336 -78.219474792480 -145.505691528320 0.757827758789 1.067612290382 -0.509830474854 -0.552780151367
-40.028835296631 -74.347114562988 -150.343582153320 -0.648468017578 1.103445410728 0.634525299072 -0.628059387207
-47.546718597412 -74.759773254395 -158.235137939453 0.694778442383 0.882606387138 -0.514179229736 0.178596496582
-62.260005950928 -75.292098999023 -159.062667846680 -0.109588623047 1.138925194740 0.152328491211 -1.123359680176
-58.702583312988 -76.925956726074 -160.537048339844 1.146743774414 2.595852136612 2.308856964111 0.304313659668
-64.797439575195 -76.529479980469 -157.221878051758 -0.213546752930 1.197023749352 -0.871772766113 -0.792007446289
-41.280052185059 -76.023742675781 -161.898025512695 0.894653320313 1.863078117371 0.227119445801 1.618354797363
26.884819030762 -79.904769897461 -167.972366333008 -1.640182495117 1.642449378967 0.076231002808 -0.040374755859
16.601385116577 -76.946174621582 -172.457366943359 -0.536682128906 1.160894632339 -1.025217056274 -0.092620849609
-55.205249786377 -77.614631652832 -171.509796142578 1.913787841797 2.365005016327 -1.246669769287 -0.613578796387
-35.134971618652 -76.180839538574 -174.602600097656 -0.596008300781 2.524665594101 0.289821624756 2.436126708984
-32.288249969482 -78.606636047363 -177.444427490234 0.831527709961 1.445950984955 0.715007781982 0.942390441895
24.472473144531 -74.998168945313 -172.164062500000 0.045227050781 1.988208532333 -1.681005477905 1.060729980469
-51.236595153809 -80.180671691895 -174.273345947266 -0.489578247070 3.135652303696 2.771999359131 -1.381538391113
-58.130470275879 -78.136085510254 -177.127258300781 0.162933349609 0.499755948782 -0.255752563477 -0.397239685059
-22.740337371826 -75.448143005371 -179.185531616211 0.395172119141 1.230555653572 -0.114143371582 1.159774780273
20.919521331787 -76.841163635254 -181.914916992188 0.806381225586 1.360662341118 1.094182968140 0.062568664551
-49.281177520752 -77.443328857422 -179.085556030273 0.054122924805 0.848893523216 0.738040924072 -0.415916442871
-49.025623321533 -77.028182983398 -182.001358032227 0.279464721680 1.793990015984 0.231254577637 1.756935119629
23.110479354858 -77.987396240234 -181.073715209961 -0.025924682617 2.009965181351 -1.329479217529 -1.507240295410
-48.122173309326 -77.825874328613 -186.886444091797 -0.117263793945 1.520614862442 0.897369384766 -1.221984863281
-23.104913711548 -76.790878295898 -185.412780761719 -0.329467773438 1.451702952385 -1.278999328613 -0.602539062500
-29.651803970337 -77.989486694336 -189.165390014648 -1.209243774414 1.449103355408 0.225011825562 0.766159057617
17.352062225342 -77.046394348145 -188.417297363281 1.062088012695 1.116608381271 -0.138288497925 -0.315689086914
-26.923702239990 -78.142631530762 -193.451080322266 -0.995254516602 1.152221083641 -0.369749069214 -0.447624206543
-17.749467849731 -78.438873291016 -194.154266357422 -1.359390258789 1.417709708214 0.195095062256 -0.351989746094
-17.974227905273 -74.173881530762 -193.106307983398 -0.017623901367 1.811290264130 -1.311779022217 -1.248878479004
20.033710479736 -77.853912353516 -193.643081665039 1.255096435547 1.932239174843 -1.077219009399 0.998939514160
-141.082275390625 -75.692443847656 -191.674865722656 1.803146362305 3.234178066254 2.056472778320 -1.726119995117
16.350822448730 -75.537605285645 -195.205871582031 1.568908691406 2.042449951172 1.245084762573 0.399864196777
-147.376296997070 -77.820945739746 -193.429061889648 -0.821640014648 2.800801277161 -0.761871337891 -2.566894531250
22.039062500000 -75.564590454102 -198.692947387695 1.451889038086 2.195461988449 1.405454635620 -0.858352661133
-41.555030822754 -78.808952331543 -197.855957031250 0.843948364258 1.063121676445 0.614994049072 0.199401855469
-139.464141845703 -70.580596923828 -197.120468139648 1.125823974609 1.612648963928 0.945007324219 0.663414001465
11.778798103333 -79.272636413574 -198.666412353516 -0.096176147461 2.029359817505 -0.453530311584 -1.975692749023
17.520883560181 -76.502288818359 -201.575973510742 -1.079666137695 2.803287744522 -0.821718215942 2.453063964844
-57.918949127197 -77.162254333496 -204.769363403320 -1.666015625000 1.954843759537 0.268943786621 0.986648559570
18.385200500488 -77.187072753906 -198.835235595703 0.574005126953 1.589259147644 -1.449241638184 0.309776306152
-57.042842864990 -77.493949890137 -203.201187133789 -0.097839355469 1.322753071785 1.145050048828 0.654953002930
-68.745758056641 -78.535095214844 -204.353652954102 1.861740112305 2.341037988663 -0.292633056641 1.388793945313
-20.512876510620 -77.830650329590 -200.781295776367 -0.368865966797 0.518316388130 0.359367370605 -0.058692932129
-15.127466201782 -75.327377319336 -205.479446411133 -0.910324096680 1.689114212990 -1.054801940918 -0.954887390137
-34.399349212646 -78.569412231445 -207.294418334961 -1.145355224609 1.907449483871 1.056579589844 -1.100074768066
19.023569107056 -75.835609436035 -208.597000122070 -0.793746948242 1.573198914528 -0.816509246826 1.085464477539
-78.232460021973 -76.448135375977 -208.215988159180 1.242172241211 1.985360622406 -0.694488525391 -1.384323120117
-149.137969970703 -77.175415039063 -205.223999023438 0.341171264648 1.416508674622 1.369735717773 -0.117996215820
7.632256984711 -80.618148803711 -203.806228637695 -1.008346557617 3.028571605682 -2.698249340057 -0.935379028320
-84.165946960449 -78.978080749512 -209.159118652344 1.273635864258 3.524216175079 -2.462120056152 -2.176216125488
-77.077102661133 -79.931869506836 -212.474548339844 -2.240783691406 2.289673089981 0.219589233398 -0.416259765625
-11.919908523560 -77.357124328613 -216.302703857422 -0.308563232422 2.064136505127 0.496868133545 -1.979537963867
-9.543693542480 -76.277336120605 -216.343414306641 0.340530395508 2.662401914597 -2.428067684174 1.037742614746
-27.188268661499 -76.281639099121 -215.532165527344 -1.057907104492 1.478508591652 0.286630630493 0.992301940918
-145.010208129883 -76.986068725586 -215.122512817383 2.218521118164 2.552471876144 1.203201293945 -0.381553649902
-26.266700744629 -77.305252075195 -219.114761352539 1.670455932617 2.169881105423 -1.380279541016 -0.113090515137
-151.629348754883 -75.606979370117 -216.736160278320 0.029037475586 3.019249439240 -1.924011230469 2.326629638672
-4.582563877106 -76.773323059082 -218.556747436523 -0.655197143555 1.074008345604 0.834376335144 -0.167411804199
13.961020469666 -76.357147216797 -225.479537963867 -1.170578002930 1.724019408226 -0.389023780823 1.204429626465
17.796560287476 -77.860130310059 -221.617065429688 0.537963867188 0.769790709019 -0.427978515625 0.346420288086
15.440935134888 -79.891174316406 -225.883804321289 -0.007980346680 0.886494934559 -0.756782531738 -0.461616516113
12.104701042175 -78.041343688965 -222.928695678711 -1.870117187500 2.063791036606 -0.591042518616 0.642311096191
-1.316411972046 -78.891181945801 -224.631393432617 -0.858840942383 2.136343002319 -0.341944992542 -1.925987243652
-149.370574951172 -74.337837219238 -226.640625000000 0.617568969727 2.068497657776 -0.482986450195 -1.914161682129
-1.918261051178 -78.798538208008 -229.690917968750 1.664047241211 1.863318443298 0.392968893051 0.740592956543
18.712900161743 -73.827476501465 -229.838699340820 0.309005737305 1.772764921188 0.694641113281 -1.601463317871
-141.518722534180 -75.632415771484 -229.419296264648 -0.856704711914 1.530182719231 -0.923385620117 0.868835449219
-146.771026611328 -77.455207824707 -229.581878662109 0.333190917969 0.588872432709 0.129669189453 -0.467910766602
-3.683027982712 -74.723083496094 -236.463989257813 -0.701919555664 1.901977777481 -1.383543968201 -1.100288391113
-27.748647689819 -78.370307922363 -232.393539428711 5.611328125000 5.791230201721 -1.350511550903 -0.476928710938
-150.996597290039 -79.249259948730 -237.032653808594 -2.501251220703 2.945400238037 1.027084350586 -1.167999267578
23.621709823608 -78.369842529297 -245.237121582031 1.589370727539 1.848056793213 -0.465822219849 -0.819892883301
-51.043323516846 -79.691268920898 -240.112167358398 4.139160156250 4.181921958923 0.529495239258 -0.274696350098
9.460757255554 -80.616607666016 -242.249160766602 1.030868530273 1.470523953438 -0.901238441467 0.536209106445
-148.810623168945 -74.854606628418 -247.226715087891 0.363021850586 1.400591254234 1.194519042969 0.634819030762
-8.637074470520 -76.629722595215 -248.303344726563 -0.101425170898 2.824417352676 -2.809349536896 0.273132324219
-134.528472900391 -80.108413696289 -254.517028808594 1.871093750000 3.234565973282 2.101638793945 -1.595161437988
-151.413375854492 -74.446144104004 -255.501068115234 -0.782012939453 2.544788599014 1.873260498047 -1.534698486328
-147.304809570313 -78.418159484863 -260.258300781250 -1.092773437500 2.198120355606 -0.077835083008 -1.905654907227
-146.461105346680 -80.294456481934 -260.278961181641 -0.080749511719 1.920622706413 0.933868408203 1.676353454590
-8.744858741760 -76.644805908203 -267.946441650391 2.531341552734 3.342132091522 -1.218906879425 1.810089111328
15.281998634338 -78.164741516113 -274.744537353516 0.045898437500 1.596979379654 -1.473389625549 -0.614295959473
10.621027946472 -81.143577575684 -279.370391845703 0.581207275391 1.612658619881 0.961318969727 -1.157035827637
-141.759689331055 -76.475601196289 -286.880584716797 0.716369628906 1.461917400360 0.330245971680 -1.230834960938
-143.805328369141 -77.156227111816 -286.230438232422 1.963714599609 2.347365379333 -1.093215942383 -0.677368164063
-150.587677001953 -75.896377563477 -295.551361083984 -0.833007812500 0.894764304161 0.132247924805 0.298683166504
-55.656219482422 -71.045578002930 -55.906284332275 -0.623626708984 4.097664833069 0.248058319092 4.042327880859
-68.539337158203 -74.295913696289 -56.963863372803 0.923248291016 2.864942312241 1.401733398438 2.321777343750
-71.021049499512 -69.366195678711 -64.030685424805 -3.695320129395 8.158306121826 -2.832351684570 6.699279785156
-29.290180206299 -72.638954162598 -64.505577087402 -0.779796600342 3.054227828979 -2.852499008179 0.763854980469
-75.789215087891 -74.377365112305 -66.874977111816 1.380691528320 4.219196319580 -0.322074890137 3.973861694336
-23.921340942383 -75.311767578125 -70.234909057617 -1.618621826172 2.248390197754 0.714797973633 1.387222290039
-46.136589050293 -74.184310913086 -83.644195556641 -0.369277954102 1.646613955498 -0.701469421387 -1.443229675293
-83.940681457520 -77.028907775879 -91.203903198242 -0.597579956055 3.591454744339 1.242988586426 3.316085815430
-90.205947875977 -71.901489257813 -91.559082031250 -0.691459655762 4.030228137970 1.006660461426 3.840736389160
-69.035125732422 -73.293838500977 -96.826431274414 1.944007873535 3.517778396606 -2.536453247070 1.470375061035
-75.912765502930 -74.850753784180 -99.127746582031 0.103729248047 0.833709895611 0.659965515137 -0.498756408691
-77.184593200684 -73.339508056641 -98.678527832031 -0.775535583496 0.978412747383 -0.261466979980 -0.536163330078
-89.372154235840 -73.284004211426 -106.321815490723 0.111198425293 4.980000019073 1.284057617188 4.810325622559
47.618175506592 -74.824821472168 -106.632583618164 -0.011642456055 1.767227172852 -1.569702148438 0.811782836914
47.476486206055 -74.471488952637 -110.960647583008 1.182098388672 1.936682581902 -0.013809204102 1.534011840820
35.006259918213 -74.164581298828 -115.420822143555 -0.424919128418 1.013423919678 0.224838256836 0.892143249512
44.731346130371 -76.707901000977 -115.497871398926 -1.047805786133 1.752786993980 0.276615142822 1.377624511719
36.133766174316 -72.215103149414 -119.611938476563 -1.437454223633 2.366424322128 -1.296772003174 -1.360908508301
31.131366729736 -72.050567626953 -118.625587463379 1.659469604492 2.071641921997 -1.239845275879 -0.025390625000
38.674091339111 -77.973594665527 -122.757034301758 1.762123107910 1.997365832329 -0.827243804932 0.447280883789
32.910652160645 -74.611450195313 -131.637527465820 -1.820709228516 3.201453208923 2.564832687378 -0.596618652344
39.468563079834 -70.395103454590 -137.407699584961 -0.920425415039 1.951663136482 0.506874084473 1.644653320313
32.234588623047 -77.168579101563 -131.724136352539 1.640365600586 2.231330871582 1.460874557495 -0.392280578613
39.995281219482 -77.342788696289 -133.428985595703 -1.291732788086 1.849635958672 1.225105285645 -0.501693725586
36.878433227539 -75.893196105957 -137.598403930664 -0.694473266602 1.382565498352 1.107894897461 0.449180603027
24.005455017090 -76.235267639160 -142.176879882813 -0.301834106445 1.090056300163 -0.162746429443 -1.034713745117
30.274475097656 -76.209922790527 -144.267471313477 -0.752426147461 3.443145751953 -1.067907333374 3.185699462891
25.406454086304 -77.915184020996 -147.276046752930 1.811065673828 2.304816722870 -1.421918869019 -0.101821899414
-52.337726593018 -74.868186950684 -145.123962402344 -0.551376342773 1.925021767616 1.771224975586 -0.514251708984
26.366367340088 -75.950759887695 -153.544692993164 1.081085205078 1.132110714912 0.142704010010 0.304244995117
-42.704242706299 -73.879211425781 -150.228607177734 -0.169677734375 1.683213233948 -0.323455810547 1.643104553223
-43.826534271240 -75.253997802734 -152.575103759766 -2.516174316406 2.914329051971 -1.445747375488 0.268318176270
31.264492034912 -78.281616210938 -155.628555297852 -0.948348999023 1.793188691139 0.237436294556 -1.503257751465
-41.982929229736 -76.162803649902 -154.546707153320 0.307723999023 1.710745453835 0.355766296387 1.644805908203
-65.362640380859 -77.730888366699 -156.270431518555 -0.788467407227 1.264243841171 0.602264404297 -0.783523559570
19.090827941895 -75.042419433594 -163.326187133789 -1.783096313477 1.963067054749 0.794967651367 -0.205490112305
-66.680938720703 -76.386810302734 -158.956665039063 -0.257110595703 0.781384170055 0.737556457520 0.021583557129
-37.962493896484 -75.961135864258 -159.420104980469 -0.822662353516 1.264555215836 -0.813388824463 -0.510612487793
-7.029825210571 -75.930503845215 -161.811401367188 2.192352294922 3.975028753281 -3.301513195038 0.307334899902
-32.477996826172 -72.118820190430 -164.817504882813 -0.585083007813 1.212985396385 -0.804273605347 -0.694374084473
-38.768638610840 -78.072845458984 -161.173385620117 0.264373779297 2.251745939255 -2.173076629639 -0.527450561523
23.212951660156 -72.960914611816 -173.039688110352 -0.079498291016 3.660273551941 3.198169708252 1.778480529785
-8.000893592834 -75.176498413086 -165.040313720703 3.040740966797 3.509337902069 -1.302443504333 1.171745300293
-38.899242401123 -78.569061279297 -165.652908325195 -0.515304565430 0.839007377625 -0.280776977539 0.599632263184
-40.486656188965 -76.707099914551 -168.012161254883 -0.137863159180 1.894658923149 -1.671375274658 0.881607055664
18.880239486694 -77.220672607422 -175.353683471680 -0.232116699219 0.881516516209 -0.845365524292 0.092468261719
-26.070858001709 -78.050430297852 -167.206100463867 3.456329345703 4.011893272400 1.982234954834 0.468849182129
-33.121212005615 -74.278175354004 -172.100372314453 -0.161117553711 2.659980535507 -2.504425048828 0.881698608398
-35.915061950684 -78.659484863281 -168.618606567383 -0.109848022461 0.873487651348 -0.822319030762 -0.273323059082
-35.813674926758 -73.285018920898 -175.842681884766 1.155334472656 1.612319350243 -0.735187530518 0.851043701172
28.401432037354 -77.318000793457 -170.986633300781 0.026947021484 1.710908412933 -1.667221069336 -0.383216857910
-35.347606658936 -74.411079406738 -168.724685668945 -0.114807128906 3.179257869720 -2.225208282471 2.267807006836
27.703330993652 -76.403022766113 -173.684799194336 -1.475509643555 2.167392969131 1.549852371216 -0.344123840332
-28.442417144775 -76.034431457520 -177.989318847656 0.375350952148 1.779670476913 -0.150753021240 1.733093261719
-19.584508895874 -76.999954223633 -171.792785644531 1.470764160156 5.735832691193 -5.134841918945 2.090461730957
-14.096751213074 -75.367904663086 -178.777816772461 -0.204849243164 2.014519691467 0.037675857544 2.003723144531
-23.577283859253 -75.774917602539 -178.369308471680 -1.260208129883 1.282700419426 -0.122426986694 -0.205444335938
-16.079587936401 -73.748619079590 -177.034973144531 -0.348602294922 3.835648775101 -3.143572807312 2.169937133789
-29.502471923828 -75.457229614258 -185.831344604492 0.264846801758 1.405443191528 -0.146137237549 -1.372505187988
-26.228124618530 -78.876541137695 -179.714874267578 -1.762313842773 2.259096860886 0.482807159424 1.328407287598
-31.767763137817 -77.273963928223 -184.987243652344 -0.375900268555 0.899612963200 -0.653663635254 -0.490638732910
-17.338590621948 -75.146240234375 -185.192138671875 0.852493286133 2.394691228867 2.230850219727 0.176376342773
-30.832159042358 -74.974082946777 -185.535644531250 0.560546875000 1.811968207359 -1.475824356079 -0.889358520508
22.603961944580 -78.705421447754 -187.869369506836 -1.617370605469 1.700347185135 0.021604537964 -0.524238586426
-42.764537811279 -78.023200988770 -189.007720947266 3.193252563477 3.539926528931 1.245235443115 0.885215759277
-145.439849853516 -79.254737854004 -184.539947509766 0.615905761719 1.995987653732 1.182952880859 -1.485008239746
-152.292922973633 -74.251502990723 -190.930847167969 -0.671875000000 2.975159645081 -2.392364501953 -1.636077880859
-47.201976776123 -76.360824584961 -191.130081176758 -0.915344238281 1.978063702583 -0.496517181396 1.681770324707
-143.656143188477 -74.438430786133 -193.437637329102 0.040374755859 0.701578736305 -0.517395019531 -0.472106933594
-18.162590026855 -76.559791564941 -194.445404052734 -1.650527954102 2.259156465530 -0.218027114868 1.527091979980
-144.126815795898 -74.706138610840 -196.617813110352 0.134338378906 3.068377494812 0.761917114258 -2.969238281250
9.905950546265 -76.856735229492 -200.583862304688 -0.227966308594 1.270887255669 0.728193283081 -1.016326904297
-20.652729034424 -75.426139831543 -199.253250122070 -0.798767089844 2.079549789429 -0.843027114868 1.725051879883
-14.865915298462 -76.232673645020 -197.279418945313 0.171340942383 2.094766855240 -0.111463546753 2.084770202637
-26.906646728516 -74.164779663086 -207.310775756836 0.681747436523 3.297121524811 2.460018157959 2.086753845215
-34.849388122559 -78.292251586914 -202.756118774414 -0.886932373047 1.269768714905 0.698978424072 0.580596923828
13.297285079956 -74.071617126465 -206.530578613281 0.217880249023 3.367095470428 -2.805109024048 1.849655151367
-62.632007598877 -76.492980957031 -206.677200317383 -0.683898925781 2.563043355942 -2.210128784180 1.103088378906
-67.916809082031 -73.183403015137 -207.085769653320 0.518264770508 3.038636207581 -1.415916442871 2.638160705566
-15.186562538147 -73.780479431152 -209.336212158203 0.499450683594 1.906237721443 1.731917381287 -0.620285034180
-21.008401870728 -73.600547790527 -212.723571777344 -2.242065429688 2.327406406403 -0.013647079468 -0.624320983887
-84.412437438965 -75.198333740234 -211.604461669922 -0.059494018555 0.604333341122 -0.593101501465 -0.099548339844
-74.701782226563 -75.142311096191 -209.892471313477 -0.057495117188 1.236861586571 1.196617126465 -0.307617187500
12.179801940918 -75.672424316406 -211.124114990234 1.174957275391 2.281252384186 -1.044293403625 1.653190612793
-27.059366226196 -76.132827758789 -212.618530273438 0.376281738281 0.629286527634 -0.372608184814 0.339965820313
-14.469641685486 -75.993957519531 -217.720932006836 1.557937622070 1.820878386497 -0.758131027222 0.560058593750
-22.363401412964 -79.253494262695 -215.117980957031 0.403915405273 0.820746123791 -0.696626663208 -0.158706665039
10.895323753357 -74.254745483398 -215.885284423828 -1.871566772461 2.680626153946 1.597608566284 1.063316345215
-19.457529067993 -73.466903686523 -215.810806274414 -1.523834228516 2.098188400269 -1.439062118530 0.097076416016
-27.094543457031 -76.306076049805 -220.653778076172 0.677169799805 1.349043607712 -0.459899902344 -1.072311401367
-7.971092224121 -77.740165710449 -219.236557006836 -1.897766113281 2.099117517471 -0.326923370361 0.835403442383
15.425003051758 -75.625732421875 -221.452682495117 -1.059295654297 1.351685523987 -0.746694564819 -0.383918762207
4.686137199402 -73.173065185547 -222.414947509766 1.298034667969 1.462911128998 0.266282081604 0.619926452637
0.705937981606 -77.368850708008 -219.294509887695 -0.919143676758 2.884737253189 2.628727912903 -0.752777099609
14.951708793640 -77.086624145508 -225.915252685547 1.493911743164 1.675403594971 -0.040234565735 -0.757354736328
-136.859664916992 -75.540283203125 -222.611892700195 1.618164062500 5.093597412109 -3.833908081055 -2.937248229980
-149.297927856445 -70.986816406250 -228.721099853516 -1.462905883789 2.091180562973 -0.410339355469 1.436859130859
4.745745182037 -73.544555664063 -230.574264526367 1.511947631836 2.186367750168 -1.540365695953 -0.348556518555
16.546724319458 -75.942306518555 -227.413681030273 -0.004516601563 1.602218627930 1.554780960083 0.386962890625
9.955080986023 -76.022338867188 -237.243698120117 0.088088989258 1.208927512169 0.019343376160 -1.205558776855
3.234886884689 -76.176353454590 -232.963851928711 -1.080596923828 1.683664679527 -1.059548139572 0.737831115723
1.861387014389 -73.592208862305 -238.993774414063 1.091491699219 2.416922807693 -0.279180049896 2.138275146484
-24.130708694458 -78.045700073242 -235.740890502930 2.263977050781 3.207806348801 2.267427444458 -0.152320861816
7.549881935120 -78.076927185059 -238.984573364258 1.593917846680 2.040852785110 0.338635921478 -1.228752136230
-36.483207702637 -75.886512756348 -236.288970947266 1.985321044922 3.261804103851 -2.552639007568 0.426498413086
-48.309303283691 -78.216232299805 -239.965988159180 1.627548217773 2.593337535858 0.189357757568 -2.010131835938
-25.092323303223 -77.226615905762 -238.239715576172 -0.234848022461 1.484881877899 1.305812835693 0.666763305664
-60.158821105957 -78.447135925293 -245.463455200195 0.277603149414 0.579658210278 0.363513946533 -0.356086730957
-56.229976654053 -78.102722167969 -243.150329589844 0.743057250977 2.067624807358 -1.279197692871 1.444503784180
-48.653724670410 -76.472572326660 -244.710372924805 0.869461059570 1.298576116562 0.611099243164 -0.746253967285
-53.571758270264 -79.257148742676 -243.969543457031 -0.076156616211 1.411255717278 1.379020690918 0.290077209473
-6.437465190887 -78.667594909668 -247.527862548828 0.674057006836 1.985054969788 -0.609740257263 -1.764739990234
-146.674438476563 -77.813323974609 -242.934555053711 -1.448455810547 2.387331485748 1.134170532227 1.521507263184
-143.715515136719 -79.651214599609 -249.454284667969 -1.382583618164 2.297765254974 1.683975219727 -0.729667663574
17.497722625732 -79.614791870117 -253.558517456055 0.368377685547 1.136398077011 1.055377960205 -0.204635620117
-152.280746459961 -73.670585632324 -256.868194580078 -0.048858642578 1.581548333168 1.418579101563 -0.697525024414
-151.373260498047 -76.317077636719 -250.122680664063 -2.532943725586 2.995423078537 -1.368118286133 -0.827651977539
-153.853500366211 -71.056373596191 -258.606994628906 2.163146972656 2.563701868057 1.077987670898 -0.855163574219
-151.448486328125 -76.951629638672 -261.995513916016 1.588745117188 2.184673309326 0.182846069336 1.488372802734
-9.874628067017 -76.059486389160 -269.294433593750 -1.610504150391 3.350054502487 2.555007934570 1.449508666992
-150.914352416992 -75.815032958984 -268.547210693359 0.385864257813 1.460286021233 -0.380172729492 -1.356101989746
-3.727113962173 -79.657653808594 -279.776824951172 -0.294189453125 2.464674472809 0.981984853745 -2.241378784180
3.186203002930 -77.239791870117 -281.003875732422 -1.023315429688 1.925069212914 0.202003002167 1.617996215820
9.135096549988 -75.003829956055 -283.884674072266 -0.739227294922 2.731277942657 0.139971733093 2.625610351563
-143.008987426758 -75.893615722656 -286.149383544922 1.447570800781 1.833336710930 -0.919052124023 -0.648849487305
-32.631088256836 -75.753936767578 -286.967437744141 0.263305664063 1.287263631821 1.226829528809 0.287414550781
-24.399639129639 -76.973861694336 -285.884185791016 1.422302246094 2.203628778458 -1.397354125977 0.938316345215
11.658428192139 -76.947723388672 -288.165863037109 0.692443847656 2.101863861084 1.949577331543 -0.370811462402
-151.698898315430 -80.153121948242 -302.309234619141 -0.609375000000 1.167362928391 -0.994216918945 -0.054138183594
-149.407379150391 -74.931121826172 -299.217590332031 0.192535400391 1.806653141975 1.298919677734 1.240859985352
-151.985855102539 -80.720268249512 -303.116455078125 -1.416595458984 2.008517742157 -1.281173706055 -0.621284484863
-50.106632232666 -73.030075073242 -51.239173889160 0.952610015869 1.357305645943 0.918563842773 0.301750183105
-47.113441467285 -73.517684936523 -54.871433258057 -0.945354461670 2.128029108047 -1.840278625488 -0.498184204102
-52.065742492676 -72.830795288086 -57.455635070801 0.563423156738 3.156403064728 1.174148559570 2.875205993652
-49.114803314209 -75.712928771973 -58.130317687988 -2.189289093018 2.218436241150 -0.046977996826 0.355339050293
-75.313957214355 -72.888511657715 -60.496974945068 -0.550197601318 2.775248765945 -0.320808410645 2.701179504395
-38.493694305420 -75.341453552246 -57.637538909912 0.799819946289 1.445727825165 -0.621311187744 1.031692504883
-31.409084320068 -71.253753662109 -62.428153991699 -1.148204803467 3.885266780853 -2.481006622314 2.760711669922
-27.919898986816 -74.612182617188 -61.264446258545 0.015502929688 1.172147870064 1.008178710938 -0.597717285156
-77.969551086426 -72.448417663574 -66.046562194824 -3.844303131104 4.959302425385 2.631660461426 1.700111389160
-77.360694885254 -75.072204589844 -64.103309631348 -0.625785827637 2.959629774094 1.333839416504 2.566841125488
-20.162405014038 -74.072784423828 -65.177864074707 0.325622558594 0.468036353588 0.203151702881 -0.267875671387
-25.974338531494 -73.570877075195 -72.642089843750 3.656906127930 3.755611419678 0.259376525879 0.815093994141
78.167938232422 -72.969139099121 -80.056915283203 0.942428588867 3.137319564819 1.485244750977 2.597816467285
-36.397853851318 -73.274055480957 -80.124900817871 -0.778518676758 2.139912366867 0.143630981445 1.988090515137
93.312522888184 -74.814216613770 -83.297988891602 1.232711791992 1.920438885689 0.729988098145 1.278915405273
94.921829223633 -70.845466613770 -83.076194763184 0.669082641602 2.502840280533 -1.271537780762 2.049324035645
73.028823852539 -71.407142639160 -83.366676330566 1.545127868652 3.605604171753 2.670982360840 1.865158081055
75.186622619629 -74.393981933594 -86.598281860352 1.423019409180 2.075583219528 0.037864685059 1.510505676270
83.931640625000 -76.989112854004 -88.092735290527 2.113990783691 2.409844875336 -1.053901672363 0.477165222168
87.739906311035 -73.407524108887 -90.750846862793 2.369262695313 4.163006782532 -0.576286315918 3.374183654785
-90.313377380371 -75.548988342285 -91.202865600586 -0.335243225098 0.978950977325 0.899230957031 0.193237304688
-59.692279815674 -73.333389282227 -91.373962402344 -1.102020263672 3.708060264587 -2.847908020020 -2.103492736816
-63.150489807129 -69.261970520020 -91.051055908203 1.694343566895 2.317716598511 0.998481750488 -1.226394653320
-65.567863464355 -73.792884826660 -94.832946777344 0.473793029785 1.068351745605 -0.830177307129 0.477180480957
-75.442848205566 -69.879058837891 -95.530914306641 2.598922729492 2.633054733276 0.409278869629 -0.105209350586
-78.882369995117 -74.258079528809 -100.612518310547 1.228332519531 1.661520361900 0.094345092773 1.114875793457
50.568828582764 -72.687187194824 -105.121315002441 0.635887145996 2.095824003220 -0.213603973389 -1.985572814941
47.722496032715 -73.023323059082 -106.278923034668 0.094421386719 2.800813913345 -0.971378326416 -2.625274658203
42.422237396240 -73.675659179688 -106.671875000000 -1.738716125488 2.012812852859 0.910388946533 -0.446624755859
-90.760940551758 -71.170906066895 -108.657112121582 0.959518432617 4.785456657410 4.650489807129 -0.594024658203
-95.350357055664 -71.000831604004 -108.280403137207 1.336227416992 1.403198957443 0.061073303223 -0.423950195313
-82.204765319824 -73.828361511230 -107.696968078613 -2.056968688965 2.398283243179 1.202735900879 -0.272155761719
39.891956329346 -74.743103027344 -118.593391418457 0.049995422363 4.065743923187 -0.423851013184 4.043281555176
37.463306427002 -73.902496337891 -118.070106506348 0.104377746582 3.050264120102 0.032768249512 -3.048301696777
30.014871597290 -74.089881896973 -121.610969543457 -1.835838317871 3.215755462646 -2.636739730835 0.135589599609
39.171222686768 -74.512649536133 -128.238571166992 0.029251098633 0.441876173019 -0.400485992432 -0.184417724609
33.036205291748 -73.626724243164 -130.424697875977 -0.607879638672 2.785376310349 2.690385818481 0.388107299805
-55.401340484619 -73.033454895020 -130.105590820313 -0.276611328125 1.187909007072 1.143241882324 0.166168212891
-50.274425506592 -73.867340087891 -138.219329833984 -1.166580200195 1.972873330116 0.894203186035 -1.315948486328
-47.060115814209 -73.104263305664 -140.109298706055 0.240036010742 1.249467492104 1.008949279785 0.696830749512
-40.192932128906 -75.680595397949 -150.365768432617 -0.342926025391 1.808161497116 -1.774497985840 0.054832458496
-49.430908203125 -72.867942810059 -146.964355468750 0.487014770508 3.180657386780 2.920185089111 1.162719726563
-50.003856658936 -73.403518676758 -147.612731933594 -0.161361694336 2.434926509857 2.347236633301 0.627143859863
-52.945781707764 -76.685432434082 -144.876220703125 -1.935928344727 2.089722633362 -0.153522491455 -0.771720886230
-69.193199157715 -71.452529907227 -147.847732543945 0.330093383789 1.002007842064 -0.374427795410 -0.868827819824
19.377084732056 -75.550170898438 -153.144485473633 0.473144531250 2.273711442947 -0.902940750122 -2.032386779785
-69.108711242676 -75.067268371582 -152.279052734375 -0.567413330078 1.073116779327 -0.049308776855 -0.909500122070
-65.460121154785 -75.550155639648 -148.804565429688 2.094284057617 2.282120466232 0.487831115723 -0.764244079590
30.515556335449 -77.053939819336 -156.061676025391 -1.381469726563 1.498677849770 -0.511499404907 -0.275581359863
26.329629898071 -74.565521240234 -154.806198120117 -0.180419921875 1.702391028404 0.105966567993 1.689483642578
-67.051269531250 -77.149612426758 -156.134140014648 -0.652175903320 1.283131241798 -1.086364746094 -0.202247619629
-34.482875823975 -76.728912353516 -152.547393798828 1.432983398438 2.915374755859 2.466373443604 -0.602470397949
29.683067321777 -78.420288085938 -160.696533203125 0.571517944336 2.318285226822 -2.120523452759 0.742424011230
-49.572559356689 -76.028518676758 -151.627639770508 -1.732803344727 2.142734766006 -0.269207000732 1.231353759766
113.549232482910 -73.749099731445 -159.082931518555 -1.858856201172 1.876801490784 -0.201530456543 -0.162551879883
29.212982177734 -76.368942260742 -163.236968994141 -0.016143798828 1.934855103493 -0.337259292603 -1.905166625977
-38.180862426758 -73.713462829590 -164.808258056641 -1.881317138672 3.669872045517 -1.896194458008 2.516555786133
110.191818237305 -74.523071289063 -168.630706787109 -0.136138916016 1.067481040955 1.016105651855 -0.297508239746
-58.361824035645 -74.667808532715 -166.357162475586 0.229232788086 1.190347671509 1.163875579834 0.098861694336
28.013448715210 -74.814056396484 -156.470855712891 -1.845077514648 2.946858644485 1.789785385132 1.440948486328
-41.736553192139 -69.455886840820 -163.322525024414 -0.621490478516 1.565387606621 1.044811248779 0.986183166504
30.392189025879 -75.780502319336 -159.823135375977 -1.338790893555 1.498249650002 -0.506937026978 0.442047119141
111.294281005859 -74.652275085449 -168.582397460938 0.098526000977 1.775321125984 1.037368774414 -1.437332153320
27.593355178833 -79.632331848145 -166.083114624023 0.249069213867 0.855422914028 0.784767150879 0.232063293457
-61.390647888184 -74.769035339355 -168.881988525391 -0.918243408203 1.097109079361 0.384735107422 0.460929870605
24.782136917114 -76.469108581543 -172.397048950195 -0.187759399414 1.443642497063 -1.371341705322 -0.410209655762
22.062217712402 -74.899139404297 -168.646636962891 -2.348205566406 2.937178134918 0.661489486694 1.635658264160
-8.903258323669 -75.107276916504 -173.391006469727 0.461868286133 2.260511159897 1.718373298645 1.394195556641
-11.978792190552 -79.316093444824 -177.189361572266 0.638336181641 0.983652472496 0.622331619263 -0.415695190430
-62.785411834717 -75.403030395508 -173.719009399414 -0.453536987305 0.997497856617 0.063217163086 0.886177062988
111.292304992676 -73.917854309082 -174.488616943359 -0.267379760742 0.560775876045 -0.191825866699 0.454071044922
