# This PCD file was generated using the MATLAB® pcwrite function
# from Computer Vision Toolbox®.
# .PCD v.7 - Point Cloud Data file format
VERSION .7
FIELDS x y z
SIZE 4 4 4
TYPE F F F
COUNT 1 1 1
WIDTH 1415
HEIGHT 1
VIEWPOINT 0 0 0 1 0 0 0
POINTS 1415
DATA ascii
-155.723648 -83.874260 -290.627533
-152.409760 -82.612846 -294.495667
-150.339661 -79.305573 -316.774658
-57.305946 -80.051628 -56.373585
-36.706284 -82.163422 -59.915199
-77.213318 -74.107765 -65.808105
-24.975487 -77.583344 -71.895584
-28.317913 -77.404190 -77.961967
-81.816757 -82.385437 -84.714905
89.265091 -75.473289 -82.925438
-39.061832 -81.114288 -82.405182
83.469269 -78.608719 -86.813530
76.851006 -74.993256 -89.679581
85.402550 -74.386543 -87.727005
77.632095 -77.128342 -92.405685
98.843712 -76.720016 -93.725899
-96.317451 -79.052544 -93.824677
53.090832 -74.701118 -102.016273
-93.135666 -76.254349 -115.171074
44.615971 -77.783165 -108.477730
46.550083 -78.416809 -112.324524
43.364536 -82.590134 -115.038979
30.449612 -75.981438 -135.438843
23.662741 -77.592201 -138.114670
31.315575 -74.962936 -146.982071
31.311167 -77.098259 -143.144974
-50.160217 -77.825020 -156.219254
-44.991917 -78.245781 -154.060837
-36.548328 -77.075920 -151.535553
31.411081 -80.098488 -152.441956
20.090509 -73.707726 -167.565979
-33.396164 -75.200966 -165.584717
-38.492462 -75.537460 -160.919647
-43.906078 -79.612381 -153.318069
2.708047 -80.149055 -163.169876
26.617592 -82.326424 -152.146683
31.158438 -77.676796 -160.432678
27.747545 -78.594688 -165.340683
-9.145323 -77.542397 -166.443710
-1.408897 -75.794243 -169.026535
-57.229855 -76.468826 -170.064438
-59.326340 -77.786354 -168.148041
-40.505333 -76.598595 -172.100937
-40.813427 -73.166756 -162.775955
24.296961 -80.470276 -175.976089
-21.422842 -79.991226 -177.144684
-33.695057 -75.559731 -178.710068
-62.773827 -80.545677 -174.762589
104.705795 -81.334435 -182.088425
24.505705 -74.553276 -170.974869
-33.356869 -79.021164 -180.238983
-51.186859 -73.833458 -182.038666
-16.941587 -75.794281 -180.359955
110.568275 -75.361862 -180.138092
-48.766254 -78.561081 -177.920013
18.756178 -76.402611 -188.688004
28.524868 -75.881935 -183.408279
-58.093716 -76.770126 -182.797348
-17.967714 -82.099686 -179.806900
-59.073833 -77.948303 -173.891907
-33.221840 -76.489594 -183.111923
-26.492188 -76.485870 -182.081619
21.544655 -76.114540 -185.748566
-50.218689 -75.736626 -188.855087
102.110733 -79.628326 -185.299835
-47.809086 -79.543335 -191.202591
8.943486 -76.183029 -200.143082
22.121552 -76.120605 -200.304321
-46.385139 -78.831886 -187.594315
-24.840567 -77.670769 -188.376938
103.199417 -77.729378 -191.932419
100.455910 -78.695412 -195.144562
-46.694260 -73.328445 -184.792007
-147.090424 -78.083908 -199.342010
-47.302940 -76.743546 -200.035873
-144.516006 -82.600693 -195.889755
-132.719711 -78.012955 -204.656052
-39.156357 -81.047241 -200.060028
10.726659 -79.061302 -213.321564
-15.185161 -78.547874 -199.499374
11.407623 -77.269684 -208.294662
92.954361 -73.281181 -209.860535
-38.228748 -74.504189 -201.490021
-9.984772 -78.529755 -208.952362
-11.426216 -76.072800 -208.547379
-38.367130 -76.486153 -207.162872
9.216380 -81.998833 -201.621643
-74.472008 -73.066490 -206.949463
14.581298 -79.518860 -212.570267
-36.661461 -78.220734 -205.280121
-144.677246 -81.881271 -206.296600
-147.977646 -80.646744 -209.210693
-87.708870 -78.223816 -209.843414
-32.459248 -75.220825 -206.317276
-25.728992 -79.653740 -214.185379
-23.645622 -78.282013 -214.178635
-91.158356 -72.540611 -217.289337
-84.935822 -79.813599 -216.472595
7.149986 -78.626762 -220.940872
-148.535385 -74.726479 -219.351273
-14.712766 -76.399712 -216.062347
6.470950 -78.108490 -216.958359
-142.921814 -76.100365 -217.182159
-20.625490 -78.398041 -220.039871
-1.725273 -83.657379 -222.235214
-5.877000 -78.585312 -218.867554
-154.006470 -79.161034 -225.355347
-141.607086 -76.598373 -229.064590
-4.700748 -74.850800 -218.709976
-152.030151 -79.426697 -227.315186
0.540850 -74.610336 -230.547684
16.086124 -79.709198 -234.222046
-0.036158 -81.486626 -232.654831
-0.864824 -74.387283 -239.343918
13.512511 -83.477737 -231.627899
-153.208817 -77.248917 -233.735809
-19.905949 -82.713844 -239.778976
-35.962799 -76.883522 -235.108826
4.470498 -75.733032 -231.877289
0.741606 -79.602226 -238.831421
0.315866 -78.898842 -234.634598
-59.278969 -79.174294 -244.418915
-150.723587 -79.757126 -242.394730
-152.551239 -80.619957 -250.732040
7.453728 -80.150581 -248.787018
19.640429 -78.706573 -248.754852
-61.391552 -74.635658 -247.991501
-148.818634 -76.881302 -252.634109
-150.162094 -78.451180 -254.632980
-147.361328 -85.737625 -254.755722
-146.989594 -78.389282 -261.224609
-141.631912 -75.908058 -257.845093
-11.676251 -79.207413 -255.330414
-139.254654 -81.034767 -265.094727
-6.459582 -80.541504 -265.056122
-147.862289 -78.657852 -276.680176
-147.658691 -77.790764 -280.445038
-156.788437 -81.024269 -281.529877
-7.972466 -77.111443 -283.617615
-139.782013 -73.365295 -288.051117
-30.674595 -74.774590 -287.929962
-36.878414 -76.818649 -287.945831
-19.427055 -77.941422 -287.905426
-10.039093 -75.596436 -289.318268
14.272696 -80.635361 -288.506714
-125.444221 -81.498360 -290.558868
-57.662220 -73.317810 -286.236664
-38.326126 -78.873802 -286.242188
-30.541842 -79.801559 -290.291138
-6.645690 -80.044472 -292.443665
2.364572 -76.324715 -290.943695
-145.187119 -81.011559 -294.727570
8.094064 -76.743492 -290.893768
-153.815659 -80.681213 -301.769989
-149.091248 -77.254875 -300.479095
-154.594025 -77.369225 -307.728424
-147.628464 -76.777321 -312.879242
-48.370197 -75.156334 -53.072975
-60.164555 -77.483276 -55.482765
-60.594250 -74.983383 -53.996342
-42.552105 -80.355484 -55.084690
-35.945415 -78.102188 -57.849152
-20.973082 -74.825974 -63.194210
-81.067642 -79.391457 -70.804741
78.994354 -75.881790 -74.428604
-87.640007 -79.303886 -83.248482
85.275833 -78.867950 -85.105515
86.505692 -75.412094 -82.179359
87.828468 -78.508270 -81.379295
-58.514526 -84.340744 -96.893776
85.404442 -75.974915 -90.229202
78.420387 -77.407158 -91.442337
86.655510 -73.064384 -88.050842
-68.041023 -83.610123 -97.881310
50.591805 -77.931847 -99.715263
49.580143 -81.469658 -104.179657
43.184948 -80.772873 -108.260704
35.814590 -80.968048 -108.873901
-92.894470 -77.586502 -112.703232
36.123108 -75.918251 -119.560089
-79.257332 -78.949524 -114.011772
44.851997 -78.846558 -123.103500
34.153320 -78.906471 -125.306305
32.713596 -74.844826 -120.833046
44.351997 -81.232109 -123.293015
39.629906 -79.819855 -120.347832
-54.103725 -78.314980 -137.487076
38.280933 -78.184990 -134.642151
36.341026 -74.702782 -140.215729
-45.896206 -76.188385 -144.845840
-44.135899 -78.584305 -145.060623
36.701160 -80.526894 -142.601257
110.477242 -78.996735 -140.686417
114.034370 -83.287102 -140.485870
27.387489 -77.769897 -139.421616
-37.847530 -75.634041 -148.596954
110.577858 -77.724915 -157.067230
-37.948635 -79.019478 -154.110764
-68.023109 -83.072517 -158.262451
112.999893 -72.989998 -166.377502
24.778908 -73.476540 -161.092560
-1.104956 -76.970139 -161.828491
111.628189 -78.914536 -154.560745
-64.500458 -75.608780 -166.202499
-31.850595 -77.045021 -158.184753
114.600044 -74.728561 -166.032120
29.870478 -78.170845 -160.328613
-64.724197 -73.823448 -168.791367
111.073105 -75.924797 -169.203369
-61.399147 -77.399452 -169.560150
-49.801952 -75.077843 -177.015503
108.077805 -75.274384 -171.865219
-59.659752 -78.099091 -165.028107
113.710503 -73.760994 -170.290359
-56.709274 -75.706940 -176.905197
-12.029111 -75.645714 -178.176041
-10.486115 -80.060478 -177.809143
103.675644 -79.820168 -171.840500
21.341843 -73.802620 -172.892105
28.785116 -77.319862 -169.126389
-57.481102 -75.794617 -179.163925
16.939650 -73.471619 -182.156067
-59.382576 -77.029434 -177.717361
-46.806278 -77.013855 -186.719055
13.176270 -81.373543 -185.512024
-61.504684 -76.826523 -179.453461
107.853462 -75.825546 -183.185028
22.463625 -75.717201 -180.676880
-31.555632 -72.726364 -189.433563
-44.598694 -78.948761 -192.713287
9.211403 -81.035927 -196.157822
-18.812477 -75.636475 -191.382385
-47.353996 -79.919479 -196.930771
104.128014 -76.850861 -182.554626
20.738026 -73.710304 -192.382492
-136.504028 -76.929443 -199.546310
-41.666069 -77.096519 -193.869110
96.464584 -74.680481 -205.052185
-147.401855 -86.457642 -202.369507
18.090981 -78.617668 -191.029312
-41.835686 -75.596596 -205.947815
-32.152493 -78.754494 -203.021683
-34.431198 -77.977379 -206.421371
-42.452126 -75.298355 -199.537186
99.580475 -73.752563 -200.691391
-17.381369 -81.855728 -201.285110
-147.731339 -77.411674 -202.473083
20.351889 -77.558815 -210.736465
-73.335533 -77.439507 -209.819351
-151.584152 -77.367035 -211.693375
97.661919 -69.808220 -210.947617
-30.958752 -74.403770 -205.613052
-28.171837 -76.211922 -211.070465
9.001821 -78.641922 -215.369324
-70.424515 -78.061035 -213.936523
-26.294107 -77.612480 -211.101273
-6.568240 -81.570198 -215.907654
-73.612595 -78.438377 -211.046738
-15.717854 -78.614204 -213.693665
8.284833 -73.829102 -214.688187
16.466103 -84.441849 -219.876709
-150.167770 -74.733093 -215.612366
-9.609489 -79.865135 -216.017548
-91.941399 -70.961197 -223.325134
-20.076084 -75.504021 -220.011810
93.920654 -77.465332 -212.773071
5.541936 -78.598045 -225.398499
15.366034 -74.460495 -215.270676
79.782562 -74.781181 -224.667755
-0.616143 -76.084976 -226.182022
91.629585 -79.870583 -217.662750
-13.907906 -78.017998 -224.093216
16.044094 -79.143867 -219.465271
-145.057434 -81.490723 -221.411957
-20.069439 -80.206192 -226.133530
1.014208 -79.299858 -224.799652
-157.426239 -80.810814 -232.533707
-135.057892 -77.117279 -230.410873
6.126068 -78.616570 -230.476700
-1.539439 -76.063072 -231.543243
-136.627426 -72.629524 -227.748123
-143.762634 -80.325127 -234.795074
-145.612732 -74.060799 -236.851547
-33.944458 -78.520020 -240.475540
-145.642883 -72.880569 -242.226639
24.667479 -77.651642 -242.355408
3.232328 -81.774704 -241.833603
-146.498093 -78.686203 -234.173492
-144.836182 -82.179153 -242.987808
-48.660042 -77.971863 -241.586472
-28.514864 -75.542656 -241.860107
4.294633 -79.045212 -249.615555
-36.486153 -78.807510 -243.475281
22.589870 -78.223503 -243.288788
-1.367612 -76.115799 -251.925049
-148.117447 -78.373863 -247.472656
-9.493301 -78.313744 -251.874588
-147.122131 -69.777092 -252.784744
-68.649765 -75.494148 -249.073257
-145.601944 -82.899216 -265.079620
-121.276489 -77.907753 -257.289948
-150.182968 -74.796249 -263.403870
-12.126355 -72.302727 -268.517670
-147.989822 -79.710083 -264.518921
-149.379959 -73.654663 -265.251892
-13.414420 -77.193283 -266.365417
-148.302643 -78.717781 -271.925751
-2.444193 -73.178612 -280.213074
-47.161629 -78.475960 -285.432159
-129.880798 -77.866112 -291.382202
-131.234955 -73.251015 -283.560608
-129.001862 -77.063110 -289.067566
-55.241791 -74.063133 -288.934143
-115.243050 -73.208054 -281.821808
14.563174 -75.325661 -293.810883
-59.990566 -73.586113 -284.816772
-141.803833 -75.576866 -291.220734
-63.017761 -76.224541 -291.070740
-142.525665 -83.236832 -291.325256
-118.805931 -71.947716 -292.938232
-47.257523 -76.299179 -293.362030
-31.874359 -76.599159 -290.381409
-136.523468 -76.913170 -287.519440
-10.215209 -76.996323 -288.138306
1.436142 -76.569092 -292.147339
5.575112 -76.532066 -296.029541
11.735950 -76.275597 -293.899750
-146.125580 -77.452911 -291.549072
-142.674103 -72.907928 -297.402222
-62.546219 -73.836182 -56.993877
90.710579 -72.660637 -74.689278
81.781769 -77.037956 -77.249191
-28.287344 -73.819122 -77.763176
86.289383 -76.891167 -80.124687
-33.682034 -76.459068 -86.653969
87.631462 -75.483475 -74.781548
96.410728 -75.662285 -82.536858
-64.572060 -73.272751 -95.563667
78.507973 -73.749802 -93.045265
79.137337 -77.956902 -97.292091
95.034248 -76.813492 -92.058884
57.728176 -74.836014 -97.813316
-72.855019 -82.471443 -99.328407
-71.018234 -71.045036 -101.282715
47.695313 -77.720238 -109.868256
-89.898880 -79.062553 -104.494461
40.335480 -78.852592 -114.035217
106.409500 -73.885170 -117.260315
116.275993 -76.579971 -133.330505
26.114408 -72.809906 -137.495316
111.271759 -78.579315 -132.390182
28.953369 -76.523369 -133.334305
111.504906 -76.308929 -126.937469
39.564194 -75.964050 -138.682907
-53.516899 -77.099686 -146.101578
31.596893 -70.912453 -140.882950
112.572678 -80.190933 -135.828659
-52.765736 -75.332260 -145.131088
35.561718 -76.871613 -148.809189
-56.992134 -76.466484 -139.040588
-52.432045 -81.691406 -146.696274
-44.677166 -72.898102 -149.191254
-65.358749 -77.144417 -152.770905
116.556129 -75.820656 -148.494476
-52.731865 -79.761246 -156.296417
22.206144 -74.860039 -156.856171
106.896194 -79.215752 -153.763565
-65.177330 -75.663338 -157.576065
-48.947685 -80.134308 -159.692261
7.515682 -73.882561 -156.512451
-63.638332 -74.859543 -165.269211
-60.576843 -76.408585 -160.241776
-1.250390 -72.895355 -159.204819
-40.122128 -75.221123 -171.259399
31.893129 -78.483833 -165.141205
-60.804482 -75.151276 -160.610428
-52.491806 -76.657104 -165.003326
18.248493 -78.611481 -161.656479
-31.648058 -76.167519 -170.621826
-33.013927 -78.865440 -166.178665
19.889853 -74.513275 -169.565887
-40.438622 -75.693062 -172.546127
-13.153810 -74.526268 -170.696335
-61.840664 -74.534966 -170.379868
-3.877863 -75.622536 -171.381042
-24.931566 -79.203949 -181.310013
25.347139 -75.300995 -177.538239
-36.640038 -72.739746 -173.169357
20.006561 -76.445267 -178.861160
-24.913939 -71.156219 -182.771164
-29.518499 -75.622993 -182.704803
-149.280579 -75.736893 -184.561600
-19.028725 -78.979744 -191.686813
-146.648468 -79.229858 -185.040787
-149.086990 -77.780251 -188.070053
-47.539291 -71.631187 -184.802551
99.475716 -75.655029 -195.726898
-144.613037 -81.688522 -194.603546
-149.103790 -77.294411 -196.139542
17.578878 -76.363152 -192.722214
-134.394897 -79.624290 -199.693451
18.773426 -72.375336 -198.442429
-137.051132 -75.889488 -198.068542
9.559178 -76.521698 -193.534592
-135.642792 -69.705040 -199.968216
8.554306 -78.403343 -207.518784
-150.306320 -76.935211 -208.805679
97.503098 -76.608978 -203.536697
-14.239248 -75.335793 -204.450287
-26.554375 -79.926636 -207.812775
-12.300739 -73.012985 -204.429871
-154.608658 -79.184448 -212.071365
-37.576527 -71.423805 -205.379059
-82.762283 -75.302841 -212.197540
-28.409494 -73.364761 -212.797638
18.391167 -78.838524 -208.928009
-149.839798 -76.141541 -210.953323
-89.466652 -75.668289 -212.275467
-33.304504 -72.953102 -218.462997
-30.014784 -74.162613 -214.804108
-16.141769 -72.707191 -212.013245
-27.564747 -78.059723 -211.162720
-82.294037 -74.111198 -215.288086
-85.441757 -78.081528 -216.799896
-25.668324 -77.201309 -216.455811
-7.336419 -75.516449 -222.011795
-144.614166 -76.660805 -218.748123
-0.744999 -78.508873 -221.192261
87.128242 -73.554680 -225.964310
-142.411957 -78.616058 -224.326462
-10.744983 -79.255211 -225.436768
-138.778854 -76.677002 -229.652359
-144.519714 -83.959442 -224.385925
-5.454346 -76.374573 -229.212418
16.245264 -78.067642 -218.691971
-140.751785 -74.386383 -226.767334
-15.600858 -75.815903 -224.938019
78.643875 -74.332062 -227.980118
78.927094 -69.699356 -231.844635
8.267466 -73.920036 -233.735199
-25.841314 -79.095940 -235.318146
-12.745213 -75.543793 -236.059616
3.993688 -75.758514 -247.423035
-50.242176 -74.140266 -239.161163
-22.394201 -71.374847 -245.423355
6.676767 -78.083992 -244.645721
-63.247112 -79.083710 -248.811127
-30.656763 -75.228287 -242.147980
-42.285091 -74.902573 -242.682739
-150.495834 -74.957909 -247.896530
-48.742863 -73.405266 -245.290741
-52.225452 -77.644669 -251.346359
-69.749611 -77.822990 -247.098282
-13.510415 -74.770744 -253.859573
-79.315926 -76.873848 -250.870911
-154.739380 -76.034096 -257.703644
-145.338577 -83.363556 -254.050095
-127.235466 -74.408539 -259.180084
-150.277466 -74.414581 -264.843811
21.771259 -76.668457 -259.415649
-15.983926 -77.478111 -266.649567
-147.383636 -79.315170 -270.242706
-152.344147 -83.051941 -281.365753
-142.869202 -80.752647 -285.808899
-59.838070 -73.960342 -287.595093
-41.465118 -76.834389 -282.915436
-27.919069 -72.365089 -282.676270
-13.970436 -76.336304 -281.087463
-67.476204 -76.452957 -283.836517
-79.224037 -72.410034 -283.441956
-3.988374 -79.889885 -286.288025
11.961329 -72.022949 -287.845154
-136.516266 -73.456879 -292.619781
-72.088875 -77.240242 -286.062195
-142.020432 -75.892403 -287.464722
-89.566788 -72.090523 -291.421356
-79.463562 -79.502762 -292.267120
-78.399353 -75.809273 -287.477051
-58.922054 -74.740204 -290.336365
-27.404156 -72.957649 -291.821320
-5.101529 -73.832153 -291.925751
-157.132980 -75.087563 -294.170868
-148.660828 -74.695992 -303.234741
-147.244583 -75.673721 -299.609680
-152.246994 -74.510902 -305.821014
-61.431286 -73.725105 -50.434612
-45.610424 -73.879570 -53.426304
-39.553532 -75.292366 -57.262615
-75.419281 -72.819290 -62.143520
-26.999199 -76.980644 -64.195572
-32.984734 -75.244400 -79.985893
75.433746 -77.997169 -79.573265
72.869003 -76.346596 -86.473518
79.653862 -78.002174 -84.822090
96.618599 -75.658287 -93.188362
70.944252 -75.413414 -88.276665
54.575691 -76.430641 -90.528160
47.796623 -77.871437 -100.408981
-67.993340 -73.829948 -98.777733
-72.012367 -69.137878 -102.878899
48.472404 -77.764511 -99.066246
-83.305031 -76.567299 -111.202759
-93.753555 -75.139397 -115.286514
49.916191 -74.834610 -106.816330
105.363213 -72.604507 -109.218941
32.263493 -76.221092 -119.092819
45.724342 -76.965317 -123.333450
42.645702 -75.160515 -123.873192
28.811567 -77.654991 -128.054749
112.856880 -74.845741 -118.197273
38.636250 -77.006210 -127.600723
30.974182 -76.324936 -129.314407
-49.802990 -73.227715 -140.635254
-75.671066 -75.409195 -145.159592
-56.394756 -73.055878 -144.552795
-72.504539 -75.177795 -146.842407
-44.514885 -75.124474 -142.032059
111.162842 -73.009529 -150.417755
-68.760742 -76.250328 -154.879211
25.338058 -76.332130 -145.805511
33.859921 -72.638359 -149.433685
112.898674 -77.242836 -157.557724
13.757595 -73.518776 -153.964981
32.381538 -75.494102 -153.402481
-66.540016 -74.305168 -162.193558
-41.593128 -77.063087 -166.742172
20.656988 -78.818253 -160.839752
-62.237686 -75.801918 -167.991013
-70.663132 -73.573402 -163.979782
108.908691 -76.373604 -170.481064
-4.684953 -73.643608 -167.176880
-60.858837 -78.635498 -173.487228
-22.423601 -76.276672 -167.035950
-54.980278 -73.002945 -169.691559
27.227360 -77.983925 -169.642624
113.270058 -75.024376 -172.889160
107.805557 -74.986298 -183.471497
111.502792 -75.321823 -188.051529
108.828285 -74.065819 -179.397949
-52.756634 -73.536751 -189.515930
-51.751720 -75.094452 -179.858292
27.037539 -73.758827 -178.125687
-48.152061 -74.795433 -187.438293
-21.297941 -71.287338 -186.707993
-47.577953 -74.115662 -188.064072
-150.778152 -76.651451 -189.131989
103.554161 -72.534225 -190.544296
-42.484234 -74.674614 -192.329239
-20.720591 -76.414665 -197.290222
-139.583069 -79.930321 -198.863617
-46.745869 -74.722725 -193.473572
103.191437 -77.597046 -193.935486
109.952858 -76.226013 -185.373993
-48.746353 -79.246376 -196.130402
-22.814255 -76.251839 -192.434891
-150.540985 -80.789177 -197.559586
-26.711142 -75.003578 -201.424484
-153.917389 -77.092262 -197.600311
-154.462433 -75.737839 -199.609848
-137.366776 -76.688454 -198.842239
-37.011959 -76.403450 -202.257828
101.812378 -78.435623 -197.736679
-39.977097 -75.778458 -200.970825
-143.633667 -75.977257 -205.881546
-36.095852 -72.621796 -204.162827
-18.825420 -78.666344 -208.545151
97.654160 -77.207802 -207.280899
94.356422 -74.226929 -212.631561
-30.899572 -73.364021 -221.756714
-87.420280 -75.046654 -212.534683
-78.833687 -75.111588 -213.625290
-19.695856 -73.475456 -218.561142
-148.436340 -80.535210 -207.477341
90.555946 -76.428764 -210.702637
91.094658 -78.839546 -218.170944
91.555557 -75.979874 -217.189209
-101.573944 -74.551132 -226.890366
-147.548294 -83.100449 -224.409912
-16.828053 -75.804832 -223.630142
79.609482 -71.891418 -223.609848
-147.688828 -74.514336 -226.835190
-30.111284 -76.677177 -220.948547
-126.004875 -71.238907 -231.924896
-14.496785 -72.760307 -223.631470
19.078785 -76.021736 -222.630356
22.121996 -73.053505 -232.671768
-154.655380 -79.803398 -232.740646
-124.163902 -78.601143 -232.504852
-7.217433 -70.570152 -234.335464
-1.292371 -78.704033 -235.760071
72.879196 -73.403679 -235.407684
70.810043 -69.115120 -234.846176
-2.706461 -80.765282 -239.148285
16.407093 -76.955399 -242.889435
-29.697638 -73.262558 -243.035629
-37.781536 -76.681488 -240.593735
-42.336597 -74.219933 -245.106415
-36.606644 -74.083717 -238.493301
-18.206760 -76.196861 -238.071335
-51.742943 -74.458122 -243.398361
2.942391 -72.489761 -245.588531
-65.793304 -73.894310 -248.241211
20.715336 -73.908745 -247.132156
-150.317810 -77.641457 -248.316650
-76.060013 -78.648987 -248.495514
13.376968 -76.255333 -252.457199
-160.877701 -71.551414 -247.035660
17.736673 -77.778801 -251.305115
-79.702133 -75.251083 -251.159897
-77.335495 -75.698242 -253.303329
22.888386 -75.233650 -254.525650
-94.697418 -77.530647 -255.485382
-126.556412 -73.775703 -255.242752
-132.492035 -74.036491 -256.490173
-131.829605 -81.934380 -263.326019
-146.367920 -74.038246 -262.606567
-144.293137 -75.260811 -260.181061
-136.486816 -75.669640 -263.561066
-157.428131 -73.729004 -258.473755
-123.288689 -73.602142 -263.316193
-134.095901 -78.256950 -259.657623
-165.081818 -69.915695 -260.052368
-160.174225 -77.989807 -262.110291
-154.194458 -73.126411 -262.287628
-148.964600 -75.049698 -262.971893
17.754507 -77.703873 -276.320587
-165.863892 -74.860596 -270.352478
-151.103287 -72.095863 -274.566132
-6.425516 -79.984001 -274.188599
-162.326904 -75.385269 -268.830475
9.904849 -76.168427 -280.239716
-149.262680 -72.522598 -282.338684
-159.836197 -74.415131 -286.720612
-151.922775 -74.539719 -280.657471
-169.772339 -72.202141 -281.207275
3.921842 -78.030769 -289.534515
7.871210 -78.509514 -285.736938
-96.754463 -75.704765 -287.731415
-146.184494 -75.566391 -287.034271
-147.753632 -74.639374 -285.337646
-111.203651 -76.552902 -291.296570
-144.077377 -72.680130 -288.476868
-150.198151 -69.550194 -288.211090
-66.680832 -74.079636 -288.923798
-164.139481 -74.868225 -286.602753
-119.768646 -73.747894 -291.857452
-45.009998 -71.490448 -291.094879
-157.233856 -76.971214 -286.040344
-137.242218 -71.476974 -293.494965
-19.793598 -73.461311 -293.859344
-125.543526 -77.756981 -288.995789
1.830520 -77.079979 -292.648438
11.468784 -74.074997 -291.142273
-130.324615 -72.628220 -295.142487
-145.686035 -75.250221 -292.068726
-161.392166 -74.433914 -315.083313
-70.288483 -71.908745 -55.977745
-22.738026 -68.856110 -57.689526
-21.480619 -71.836609 -63.024490
74.478973 -76.720085 -73.770958
90.186066 -73.135368 -81.023895
-43.602238 -73.215767 -75.510376
70.987579 -77.756744 -79.079193
86.035240 -73.430710 -83.539169
71.300026 -77.627510 -82.009422
73.082047 -74.502411 -79.980835
-46.660568 -78.070686 -91.156517
-92.303322 -75.508110 -87.660950
58.291832 -73.883224 -92.664536
49.765606 -74.902260 -100.535225
99.214645 -79.474426 -97.995506
-98.428917 -69.098000 -102.169540
82.597755 -79.658997 -97.107368
77.081528 -71.598579 -100.812592
96.958252 -69.540459 -98.604057
82.923790 -68.045250 -102.548492
90.519020 -72.183922 -101.900238
-81.975357 -75.633270 -100.040680
40.073257 -76.618416 -110.359421
106.122650 -76.057655 -114.025017
110.651848 -72.403419 -110.074249
47.157501 -77.531982 -115.574959
108.436249 -74.247215 -122.825798
113.665329 -71.325401 -131.708099
-54.297413 -74.831352 -130.420685
28.184757 -74.463707 -134.595505
39.486641 -72.402031 -130.397003
25.012629 -70.277527 -145.336868
110.284782 -75.656601 -138.639557
111.485855 -73.687752 -133.455841
-74.103539 -72.352715 -149.293076
-44.998676 -75.805244 -144.185104
-73.132057 -73.459488 -153.430588
23.019896 -75.839828 -148.388336
114.733635 -70.812080 -154.111847
-53.006115 -75.279312 -151.116653
-66.463730 -78.542908 -146.596909
-36.590794 -78.351585 -148.295547
36.970924 -70.301842 -153.855316
115.325424 -71.696434 -150.199326
112.688995 -74.918671 -160.074768
-67.561966 -70.791229 -154.763901
-67.696739 -75.593887 -162.845505
19.793436 -74.259415 -165.989380
-59.471798 -68.805229 -169.432388
-35.250053 -75.298035 -156.970490
8.976129 -70.337097 -165.322693
114.288139 -69.824478 -161.484589
5.312513 -75.523216 -167.044205
-33.222889 -74.771461 -164.035797
-0.031041 -75.168808 -166.001450
109.316299 -71.876434 -165.640793
-38.522751 -74.933983 -169.162933
23.484858 -74.578247 -168.847046
108.670143 -69.680504 -173.811569
-59.316792 -74.501709 -175.505661
-29.687855 -77.501289 -173.443069
110.820129 -68.805405 -173.053436
29.316500 -74.687782 -172.536713
113.038475 -74.064926 -174.204575
-35.246662 -73.683510 -179.106934
109.365654 -74.769135 -177.541153
-60.357620 -73.619995 -178.082764
-23.769611 -73.212845 -180.472336
-143.554993 -69.959076 -180.487808
-53.910042 -74.134918 -184.540176
-145.953888 -73.344933 -189.280930
-31.599459 -70.098099 -184.695007
21.418066 -76.768501 -182.300507
102.752083 -74.284142 -181.281006
-32.384846 -76.970879 -190.066467
13.612649 -75.698776 -187.693619
17.511530 -81.358200 -198.123581
-147.326111 -73.896065 -193.642914
104.514488 -73.386169 -195.084885
-16.677664 -71.689743 -193.296295
105.783089 -71.538773 -186.611481
18.932871 -71.453812 -194.139130
-132.482971 -73.119011 -198.436142
-139.565231 -73.467934 -199.710739
97.460449 -72.232285 -196.877121
-15.506216 -77.873466 -203.292114
-18.253313 -75.593407 -198.919418
13.292525 -75.376511 -204.064499
-152.276321 -71.827393 -205.356659
-143.551727 -72.956535 -203.880310
95.842018 -72.142113 -202.294037
-78.307533 -70.030533 -211.563385
-40.120483 -70.326012 -201.966766
11.638574 -69.473618 -208.097168
-26.798899 -77.590347 -207.847260
-78.890732 -75.052895 -211.750946
90.679314 -76.648880 -210.769073
-85.865074 -76.109146 -211.919128
-147.221100 -75.327698 -217.575333
-76.622612 -73.388535 -214.829849
-13.791988 -72.029266 -212.914520
-19.280092 -79.820251 -218.888184
21.679504 -68.639717 -211.774490
-5.349999 -76.078400 -215.703842
-89.307823 -72.663643 -220.130615
89.055664 -76.410408 -210.689468
-96.058556 -71.085052 -216.009781
-152.633713 -75.867882 -222.151367
-14.227739 -71.592186 -223.169449
16.216530 -74.467110 -221.489517
-97.961929 -71.033493 -229.469788
9.486199 -75.202843 -219.846954
-22.383045 -77.577408 -218.993530
89.086311 -74.620811 -222.745163
-146.843445 -77.471512 -219.299469
2.940239 -71.027069 -226.764359
-5.715454 -74.989944 -226.428329
18.306725 -72.654457 -221.179672
84.704674 -72.395508 -222.600372
-7.812131 -75.265869 -227.737701
-129.037033 -81.430748 -225.061890
-8.630934 -74.892212 -225.874542
15.082769 -75.203842 -232.247726
-126.739960 -77.119408 -229.335678
-149.181107 -75.083817 -226.254059
-141.700790 -72.846008 -230.927505
-133.999710 -75.416512 -234.945557
-14.879942 -74.391914 -223.665222
71.945854 -71.480209 -227.287079
-138.242493 -75.563110 -236.349304
72.475670 -80.204285 -228.924469
-18.620384 -73.136299 -227.446915
-138.965302 -75.671394 -227.934601
80.040863 -72.894623 -228.222443
9.817536 -77.708466 -234.024673
-144.879929 -75.797035 -233.454086
-147.669601 -72.713676 -239.051346
20.430889 -74.476059 -229.962006
-3.658002 -73.952072 -235.613602
-27.644110 -75.685257 -235.574951
-2.225451 -72.441078 -240.454636
-157.548233 -77.250534 -236.227463
12.281395 -77.017632 -243.007767
-165.914429 -75.292023 -238.531326
-10.900734 -74.444138 -241.044525
67.341652 -78.966461 -241.663544
-13.243731 -76.212517 -240.886063
-23.705286 -72.244423 -240.979279
-27.649839 -77.942970 -239.914261
-16.480154 -72.463364 -244.025040
-146.961533 -75.800224 -235.519333
6.780524 -74.302063 -245.657806
69.818291 -71.741325 -243.652420
14.266843 -75.271339 -246.647690
-160.829498 -71.748863 -238.950562
-47.744942 -77.596451 -243.764771
3.909018 -82.679688 -249.196243
16.600672 -74.576866 -246.083099
-56.475407 -73.022331 -251.854660
-5.556729 -70.324409 -246.641235
19.628578 -71.620323 -249.836685
-167.082718 -79.793633 -250.538788
-70.915115 -73.328773 -245.410248
-52.627132 -73.526543 -247.371460
-79.016716 -74.296013 -251.853912
-161.537506 -73.605858 -250.427444
-152.862137 -72.339676 -245.983917
-55.514122 -76.267296 -252.281662
-70.955009 -75.635513 -248.452774
-155.278168 -71.667824 -257.815826
-151.645584 -69.952759 -252.801804
-74.089905 -71.956116 -256.607544
-92.907875 -72.183128 -258.257751
-167.834320 -72.550529 -250.143997
-155.529831 -73.006363 -260.714813
-137.781067 -74.522537 -260.127350
-83.181480 -74.360352 -257.101044
-163.698257 -71.062523 -254.287262
-143.792282 -78.220695 -257.198486
-85.772537 -73.110435 -255.531479
-96.127579 -74.646217 -256.752960
-150.118744 -72.407288 -257.144012
-93.178307 -75.975639 -258.215546
-149.606903 -76.680008 -254.701065
-101.267349 -72.374626 -255.509613
-165.359253 -75.141403 -259.625549
-158.145401 -77.434921 -259.177338
-123.829742 -73.460190 -255.425690
-150.122040 -77.162155 -259.567566
-118.922310 -73.603661 -259.718689
-13.257531 -76.731926 -263.114868
-141.017334 -72.802086 -264.116455
-126.181503 -74.420403 -261.201416
-149.402237 -76.116600 -262.557434
22.490517 -77.154167 -269.051056
-147.824631 -79.074982 -282.320557
-167.899658 -73.853813 -278.104126
-6.361408 -77.512886 -277.119476
-145.510056 -77.119560 -284.078674
-7.210831 -73.047806 -280.481873
14.215749 -73.815514 -286.910034
-136.877487 -72.354454 -284.350677
-72.986389 -71.376343 -285.202209
-31.802990 -73.892822 -284.021698
-113.523193 -77.276657 -287.098145
-91.892273 -74.750801 -294.730865
-88.750923 -75.457108 -288.453186
-49.421803 -72.890427 -293.850220
-118.470459 -75.692032 -289.543732
-111.035927 -74.828285 -291.454865
-37.192314 -76.047401 -288.867950
-112.971916 -69.957039 -293.549622
-125.539093 -77.658852 -294.630157
-138.799210 -76.365196 -291.752777
10.461783 -74.960808 -292.351868
15.118911 -75.617058 -293.114227
-157.535461 -74.842850 -294.145081
-155.887589 -72.845718 -301.201691
-141.122162 -75.772125 -305.737488
-150.263016 -72.962204 -310.837799
-147.955597 -75.431000 -313.702667
30.322973 -73.068054 -15.846922
22.833275 -72.194908 -16.590469
17.072435 -73.263786 -23.626266
33.974438 -69.215904 -41.660908
-58.299133 -69.613297 -44.461014
-69.158882 -73.818382 -51.365143
-39.127426 -70.069633 -53.290276
-81.065262 -74.577408 -55.948872
86.416359 -77.754921 -73.246017
-20.576284 -75.712509 -70.724998
86.632576 -77.190292 -72.036278
91.850227 -71.591934 -83.316048
-90.412613 -72.920685 -82.696938
75.006401 -77.300377 -82.619286
-42.520817 -76.796799 -87.182220
103.587975 -73.436409 -80.493073
-53.387218 -71.435738 -89.794479
51.627293 -71.760315 -88.783928
77.252090 -74.232056 -90.133484
60.111050 -74.411774 -95.516914
50.902912 -73.023575 -95.021255
71.386490 -76.240608 -96.004120
45.798077 -72.456833 -100.036324
101.309502 -69.854362 -98.783920
108.096596 -74.913872 -103.388206
84.903534 -70.923798 -101.568207
88.592644 -76.135674 -102.158577
100.745308 -74.444527 -96.625046
112.077263 -77.623550 -101.255936
39.255032 -73.676468 -102.120323
111.935806 -72.887482 -116.547958
114.847542 -74.589226 -121.523010
30.752451 -75.768593 -117.353928
44.798199 -71.177841 -120.214653
113.719345 -74.123627 -124.624298
35.830074 -74.397728 -124.736099
111.833839 -74.779732 -127.086830
107.353462 -75.578270 -120.369446
28.569630 -72.520401 -144.244644
-45.222118 -73.518509 -134.069183
-51.098137 -66.668961 -138.971542
107.821548 -71.678032 -134.669464
-69.322990 -76.535072 -141.149261
-68.679008 -78.475456 -142.832092
-58.666290 -77.085899 -141.805603
38.076103 -74.421562 -141.795105
112.635139 -68.987419 -146.138962
-66.511742 -73.498566 -146.365036
-46.407372 -72.273003 -143.019699
34.908928 -78.229073 -148.097687
-66.915321 -77.268013 -148.943176
115.917503 -72.439842 -145.612930
110.250992 -71.506615 -157.532196
114.568275 -72.457710 -153.381409
-37.880928 -77.462593 -153.696609
-63.003025 -76.408134 -162.382828
-75.413513 -69.104012 -156.146622
32.306946 -73.653137 -148.940170
-0.701807 -75.231224 -166.620316
107.867271 -70.848267 -156.727203
113.867020 -77.354553 -156.177231
114.689156 -71.106552 -156.997528
-62.717922 -70.868675 -163.703415
-45.701134 -75.340897 -162.783768
1.256369 -73.459251 -166.258377
-25.478411 -73.720070 -177.166977
106.581886 -73.631607 -165.413467
-38.267040 -76.907761 -162.224136
108.524559 -74.149323 -166.291428
-41.364494 -72.676292 -175.900192
110.685745 -70.412216 -166.335297
-149.762924 -75.322525 -180.927994
-28.711721 -74.086136 -177.345337
-18.714621 -73.669182 -181.913742
24.837023 -72.784889 -177.206635
17.433954 -73.791344 -179.678131
23.645172 -69.083435 -185.170135
110.358994 -72.012421 -181.822952
-148.371918 -74.801628 -185.697388
-21.979733 -72.742706 -191.704590
104.146904 -72.371681 -176.176239
104.172234 -74.833870 -191.170029
103.154259 -76.250137 -182.322327
99.650681 -71.654213 -196.409973
-152.554413 -79.510788 -195.268082
102.879082 -72.874748 -203.401657
-28.661106 -73.174644 -194.529465
101.742157 -71.207695 -196.477737
-122.788223 -70.418816 -196.535095
-26.736233 -73.945404 -193.812317
-138.069382 -72.040581 -197.695633
99.003937 -76.153374 -198.231628
9.062050 -71.286392 -198.231689
22.942484 -75.075844 -194.101883
-147.607742 -71.852890 -199.992905
-138.916092 -69.312103 -198.679657
-9.536808 -73.069870 -204.227402
-122.517105 -71.167976 -200.428497
-138.211151 -74.951317 -203.415588
13.520039 -72.247040 -197.510788
-17.792290 -71.447304 -201.342590
18.616812 -74.956131 -203.838089
11.274569 -68.387856 -205.438248
88.450790 -77.978012 -207.069641
-16.142845 -72.536369 -209.207932
91.241264 -73.148834 -208.970551
96.051224 -69.872498 -209.014084
-151.689880 -74.994568 -214.651855
96.673920 -76.273575 -208.239487
5.840799 -75.495277 -208.602493
4.283075 -74.609955 -213.479233
-34.343658 -72.820396 -211.304901
-90.842133 -69.922615 -218.649918
-30.904539 -71.151512 -218.299927
83.025772 -72.113342 -215.744598
89.704338 -74.827042 -220.774078
-29.534899 -72.962013 -212.764679
-83.960533 -71.300713 -212.515656
-0.923968 -73.999443 -219.100464
90.710976 -76.531662 -216.771393
-152.353348 -73.513802 -223.530380
-165.128754 -72.706062 -214.548157
-162.297882 -72.566879 -223.106262
-25.944746 -72.884109 -225.290588
-150.401199 -73.651558 -226.039474
-11.839857 -75.418320 -224.809814
10.917882 -69.028244 -218.558167
-163.779465 -70.184776 -222.610184
-163.143326 -73.541275 -225.413101
79.625145 -74.675682 -228.215897
2.538130 -69.393547 -229.027695
-152.827606 -73.521896 -222.726746
-144.286957 -72.210220 -224.225433
-19.230938 -68.661064 -223.306168
4.683813 -70.885788 -224.568390
80.129684 -73.054985 -223.603806
-157.990295 -74.207512 -230.619690
-146.918289 -74.662064 -226.975296
-120.128326 -76.062599 -228.322510
80.945419 -72.732590 -222.170120
-114.128571 -73.470711 -223.580536
-150.606262 -70.262772 -228.810059
-150.606796 -71.991409 -230.023651
-146.050613 -72.906250 -230.863876
-157.319794 -72.327057 -223.663391
-166.720551 -73.729866 -226.677002
-136.536652 -71.853676 -235.201385
-130.304199 -73.948570 -229.011047
-153.715912 -69.457672 -233.707092
-145.407303 -70.716934 -235.682220
-151.659851 -68.866150 -231.651337
71.534233 -77.255920 -229.311218
68.828606 -72.967537 -238.629135
-159.334976 -68.705589 -233.148224
73.500755 -73.074440 -234.884903
-20.090334 -75.413086 -236.048370
7.903296 -72.349388 -238.128189
2.987708 -73.610771 -236.210159
-152.667480 -73.477631 -246.680313
11.957254 -76.639130 -238.960373
65.014580 -75.669792 -234.661346
14.594577 -73.017929 -233.846512
4.222096 -74.034332 -238.350906
-4.894066 -71.918785 -243.347290
-23.833996 -74.366005 -240.040253
4.036366 -71.254768 -240.488693
3.277518 -74.002899 -243.996094
59.876663 -69.501724 -243.671051
-64.585228 -71.921478 -241.225037
19.394064 -71.949234 -247.594254
-58.773861 -75.308296 -246.785324
-5.477108 -76.249680 -246.438309
-60.601227 -73.938263 -250.115143
-89.001122 -76.535683 -249.627274
-82.564613 -72.311646 -250.608246
-10.629236 -73.365959 -248.435211
-124.835754 -70.902321 -255.895615
-15.777874 -78.758179 -253.746735
-114.873817 -69.052307 -255.884918
-115.820480 -75.386406 -252.354233
-97.816010 -76.126373 -258.185211
-139.019180 -69.272278 -267.444763
-146.230591 -73.459190 -268.594543
-169.782150 -73.017769 -266.851593
17.352324 -71.000366 -276.871887
-54.235203 -74.687378 -283.961884
-68.825119 -73.507339 -285.262726
-43.715866 -80.349541 -286.133148
-32.582561 -74.649529 -283.318176
-99.579918 -75.928230 -286.572327
-33.362415 -72.530647 -284.407227
-3.234614 -68.698822 -290.731201
-170.231888 -72.445396 -292.276520
-17.077389 -78.451645 -288.510162
6.500376 -77.277420 -287.127563
13.217735 -71.279846 -288.748474
-58.598946 -74.098549 -291.449982
-30.922140 -75.535324 -291.927948
17.471552 -69.737640 -289.176178
-70.871437 -70.533707 -289.510132
-40.286240 -69.026276 -288.353790
-18.136168 -70.199562 -286.017395
18.887510 -72.205627 -291.407990
-7.131279 -69.906601 -289.807709
6.601614 -70.945839 -294.366180
12.236026 -76.024620 -293.571167
-135.795715 -70.370811 -297.326965
-146.998489 -73.738403 -303.299713
-143.107697 -72.016914 -311.211914
40.939457 -72.974876 -15.203606
28.441862 -69.730309 -11.197698
36.920956 -71.738716 -16.727482
21.720701 -77.063675 -22.472425
43.021637 -72.990585 -18.373558
23.692513 -74.133926 -26.171715
26.635023 -73.096939 -29.724722
26.487724 -74.944443 -35.348045
44.034008 -75.431847 -30.314743
27.332129 -72.094070 -30.793934
44.797672 -71.365120 -33.161690
31.389299 -74.075935 -37.876091
38.341454 -68.233131 -40.702023
30.260874 -71.675049 -42.231735
38.373260 -70.226112 -38.764606
36.685867 -71.549606 -43.465836
-35.600079 -67.733643 -42.685543
-28.190041 -70.587830 -55.497681
-85.534035 -68.805740 -55.400696
-87.546234 -70.265343 -62.337509
82.728889 -72.538879 -70.407257
84.443077 -73.848633 -70.540695
-13.389410 -73.421227 -70.435379
-91.308258 -74.286308 -69.788574
-24.967583 -75.491356 -75.092323
-46.042145 -73.633598 -82.294487
67.121231 -66.120949 -86.414848
56.247047 -70.927544 -87.287193
101.706451 -66.205673 -94.588661
73.226906 -72.181992 -95.344872
-65.713158 -76.420387 -93.154739
-64.673866 -72.767052 -97.125450
50.776421 -72.272453 -97.996986
78.209961 -73.621719 -101.488457
55.522297 -76.465019 -101.994179
98.999939 -70.073845 -101.909874
-94.827362 -73.545761 -106.920197
37.757042 -72.600334 -108.891197
105.562775 -73.333626 -108.686195
45.584061 -71.270279 -110.576454
100.861320 -70.708664 -108.682587
-86.319702 -74.157448 -115.322212
31.956587 -69.630196 -108.443016
108.909019 -73.602119 -115.641190
106.573387 -69.705437 -115.852768
105.718094 -77.565079 -111.794479
111.216576 -70.669121 -115.514587
40.587818 -73.557358 -115.258553
30.896963 -72.819145 -122.478348
45.291729 -73.344078 -116.850838
109.986794 -71.777252 -121.851395
39.685246 -75.203537 -131.466599
109.261627 -74.737251 -124.225060
115.874481 -74.724602 -130.651627
34.507832 -70.134735 -125.939514
-73.038193 -73.614113 -133.393387
116.609344 -68.836578 -134.644440
-56.226326 -78.473083 -134.247482
38.616432 -70.721130 -136.967346
-67.310768 -76.807022 -135.961334
28.671139 -76.336411 -132.854080
-79.978127 -70.981995 -137.341782
-45.414078 -75.895927 -139.692505
-75.669746 -73.246620 -134.319778
113.582703 -66.222832 -139.323776
111.828819 -73.609924 -146.885895
118.633080 -75.636551 -143.945175
-76.791168 -73.699722 -140.322678
11.614888 -72.068855 -156.073883
-56.824821 -75.066429 -152.961853
-47.166649 -70.720398 -153.067413
108.501205 -71.486229 -156.311111
-44.502769 -72.002197 -151.794815
16.945930 -69.860695 -155.998154
22.289917 -72.503357 -160.854538
114.023232 -77.929871 -164.912659
30.354832 -73.689148 -158.959366
-2.450952 -74.625175 -164.280548
29.425049 -69.715027 -165.738846
-71.322151 -71.700607 -164.255783
-65.619530 -70.817329 -157.394058
-68.513710 -73.668381 -167.308640
113.740112 -65.187027 -158.480103
-43.457832 -74.628822 -161.577316
22.965755 -74.453667 -167.536652
-61.136795 -73.653305 -168.753464
-57.916248 -72.990814 -171.139755
-40.418224 -75.160416 -157.396179
-30.739698 -69.200432 -168.239044
116.659492 -73.223953 -167.744186
-41.608166 -70.152992 -176.799789
16.861824 -73.367851 -176.289749
106.843918 -72.102760 -179.828125
-146.931488 -72.907814 -176.656052
-140.744370 -75.543198 -172.318558
-152.185516 -73.141571 -173.442825
-140.820053 -73.710152 -184.612091
-28.460709 -76.299927 -184.157303
-26.108145 -68.948288 -186.602386
24.178160 -73.492897 -193.527695
-141.735031 -71.772980 -187.806198
-149.779541 -71.941551 -187.443893
-20.122190 -70.670906 -185.382355
9.689097 -73.051384 -181.624496
-143.858948 -74.382462 -195.276337
-30.250284 -75.595535 -189.630905
101.638893 -72.296432 -190.539291
107.254288 -77.055359 -189.244293
27.582052 -72.057045 -193.029297
-18.858105 -75.218033 -186.467438
-28.524040 -70.806007 -191.693863
-153.450531 -73.065445 -193.003738
-131.052765 -72.091858 -198.884247
-125.158745 -77.430481 -194.606995
-120.831528 -72.126198 -202.426178
-24.642712 -70.673531 -198.168701
8.010385 -73.437096 -190.518356
91.972687 -71.967422 -203.434799
-151.222275 -72.515839 -192.473602
-151.053268 -73.800308 -196.398117
-148.736404 -70.804642 -198.703079
-152.484848 -74.459305 -198.535263
-28.628510 -71.768143 -200.400620
-13.333118 -75.772110 -200.509216
-146.149017 -73.948456 -198.877365
-12.888646 -74.468925 -200.021606
-162.335190 -76.930824 -198.142502
-130.659607 -74.244484 -194.528442
19.020901 -72.024033 -205.073196
-165.036575 -70.097343 -200.218582
-147.980133 -71.606613 -207.332413
13.584167 -74.324951 -199.731812
-153.793411 -74.101570 -204.136795
-24.215153 -73.247765 -202.003738
103.656464 -74.657661 -202.231735
-157.589798 -66.907822 -212.867218
-161.536545 -73.435852 -208.885223
-74.944611 -72.581680 -212.637024
88.623299 -74.379890 -210.283356
-3.433019 -72.061165 -217.082306
-149.804977 -74.047707 -210.261688
-91.031288 -71.433434 -213.472672
-10.060823 -73.083961 -209.178711
18.132874 -71.181053 -225.132599
-146.477005 -72.832146 -218.561722
-4.263588 -71.624382 -219.375229
-22.093115 -72.472031 -220.842758
-16.037651 -73.735649 -213.553833
90.943489 -69.170273 -214.647293
-23.366234 -71.566078 -216.871414
-27.179100 -74.490021 -214.623428
-105.774658 -68.938881 -223.630356
-16.654751 -70.273506 -225.456085
89.316963 -71.864136 -220.341324
82.612267 -69.741570 -218.672653
7.615625 -74.394661 -225.728287
-9.907582 -70.486076 -227.854675
80.638626 -75.652199 -223.811478
-127.248962 -76.091232 -227.538239
-23.733568 -71.228271 -219.928238
-97.611916 -73.621262 -224.108887
-107.048264 -72.105789 -228.173386
-131.655304 -73.875542 -225.267654
80.587837 -74.783089 -221.874329
-120.987526 -71.634804 -225.945145
4.774778 -74.508087 -231.738205
80.326477 -68.181602 -227.723068
-13.721818 -75.850250 -225.180374
-10.198340 -74.861931 -231.437210
-5.357011 -72.095100 -231.750259
7.651288 -69.443207 -226.120392
79.815071 -73.666054 -225.413086
7.998463 -72.311752 -230.201019
-1.178343 -70.984467 -226.670959
-8.164464 -74.318176 -232.766174
-8.770820 -72.202835 -231.769104
19.646833 -76.345490 -227.870316
-12.976518 -73.667053 -231.666168
70.928879 -68.878624 -236.559189
-7.216483 -73.212456 -237.803970
19.173656 -74.494789 -234.172089
-165.578659 -72.422417 -240.529404
-3.366387 -71.560280 -238.549545
-7.642207 -69.319794 -246.974991
-169.559311 -74.743248 -249.397171
-14.272707 -70.805862 -248.469955
15.393995 -71.300636 -248.617722
-145.044113 -73.733459 -250.716629
-67.904053 -72.612709 -249.562973
-59.201939 -72.793587 -244.461411
53.946064 -74.005409 -246.370239
-76.141800 -68.098503 -247.866730
18.338259 -71.977959 -245.987549
-75.775017 -70.575317 -251.620071
-14.411719 -72.816643 -255.302109
-145.313278 -69.957932 -253.482147
44.956669 -72.831772 -247.612823
-83.650208 -68.623741 -248.231827
-104.429153 -69.101257 -256.956238
-96.415848 -70.200371 -252.138794
-117.921997 -71.030136 -255.377319
-104.194633 -75.192673 -255.372147
-107.797844 -74.374191 -260.784180
22.747904 -72.130196 -258.504913
-124.290848 -75.317726 -263.040558
-6.963482 -75.252914 -274.167175
-142.124252 -71.699333 -283.056274
-170.767609 -71.781929 -281.932251
-121.952232 -77.799713 -288.071198
-111.078522 -71.242790 -286.177399
-75.875221 -70.027702 -286.689270
-52.558346 -73.429642 -286.891937
-43.901447 -70.835602 -288.412903
-14.713868 -73.273804 -286.714355
-12.156509 -71.597092 -287.963379
-37.790569 -72.676704 -288.894135
-32.320206 -71.885979 -291.555542
-14.195482 -68.618156 -293.059723
-68.207298 -73.102600 -290.482452
-55.937149 -70.942574 -289.019958
-16.413157 -72.162651 -294.809998
-13.067396 -73.907433 -293.077637
-2.974844 -68.909584 -291.507813
0.129743 -68.526711 -288.392792
-91.224648 -72.972725 -293.779907
-141.284271 -74.701309 -289.100006
-114.027161 -71.600960 -294.485901
-149.147263 -72.274323 -299.377106
-153.544281 -69.595284 -302.814819
-143.712982 -77.338394 -302.550110
49.550468 -72.977341 -18.247843
20.713930 -69.708397 -19.458424
49.423534 -70.080727 -23.174046
43.664673 -67.879173 -31.369413
86.825386 -69.952438 -69.350525
96.089455 -73.009621 -76.114838
105.892220 -74.181496 -83.780647
97.357231 -68.454056 -79.636368
56.011864 -74.285248 -90.459679
47.277008 -71.145241 -94.091599
60.646839 -69.672493 -87.676888
-68.257904 -68.026291 -90.478821
69.601181 -72.741661 -84.868706
104.708603 -70.526894 -99.826302
74.617920 -71.435677 -102.325150
94.063255 -70.656914 -100.967476
-82.267952 -70.001534 -90.897102
43.695011 -71.663353 -101.313660
-82.319275 -70.035866 -103.584991
50.453957 -75.636391 -113.155006
39.865604 -75.811760 -107.332184
109.209335 -75.333618 -103.764595
41.519676 -70.507301 -109.146500
37.688473 -66.181839 -117.435356
43.749035 -70.073280 -109.982285
109.236145 -69.819481 -115.794403
-78.522377 -68.255318 -118.085991
111.810791 -74.819824 -127.266968
35.921112 -67.431480 -121.255043
41.775715 -73.893669 -120.116760
39.445927 -69.627136 -123.091751
-60.880104 -77.197060 -131.405197
32.936863 -74.181213 -119.024994
-78.550949 -72.163818 -138.010208
-54.866711 -75.199173 -130.043564
-75.764091 -72.003929 -137.015228
29.046877 -73.648529 -126.343689
-54.868130 -73.505165 -138.763214
34.771675 -69.482895 -134.894531
-69.921310 -71.562134 -138.576355
-58.784832 -73.802208 -139.433746
26.033821 -69.180763 -138.148849
111.790077 -74.427109 -141.671738
114.474617 -68.311836 -136.355392
28.955740 -69.906448 -138.120102
-38.808517 -69.703453 -140.890778
111.171150 -70.221481 -154.957108
-69.096504 -71.284187 -141.510590
-59.324211 -74.703957 -139.625214
32.873989 -73.848137 -152.925797
-73.008743 -72.318756 -147.701157
-75.155357 -71.173080 -153.473297
118.850578 -69.570518 -149.425720
-66.911957 -73.161446 -157.087708
-36.379280 -74.580070 -153.238663
27.976858 -74.080376 -150.854263
-76.399239 -74.666580 -150.449936
16.117874 -71.083725 -151.717590
28.331354 -70.055122 -158.389587
29.018841 -73.998283 -147.488892
11.228207 -73.600243 -158.178848
-48.989250 -71.091507 -154.108841
25.611788 -67.828163 -149.747208
-44.471565 -71.209709 -151.414856
13.457370 -70.623451 -154.734680
24.763840 -73.012955 -150.252350
-71.683128 -69.221443 -155.276764
-43.706562 -68.442802 -147.696228
-68.578590 -73.142914 -151.942352
10.019763 -71.647392 -156.408173
23.881399 -68.980583 -150.518631
2.067137 -73.826797 -161.549072
21.933153 -74.674759 -156.981506
34.538467 -70.963905 -166.371231
-48.334614 -72.378693 -158.657394
-32.052071 -73.809654 -161.759140
-39.438709 -68.608719 -160.678299
31.200327 -70.202919 -162.006088
-41.725212 -72.420425 -171.192123
-41.320950 -72.858543 -159.945511
19.308344 -70.688713 -167.696838
-37.516273 -73.081909 -172.690842
28.052162 -71.424797 -170.153702
112.425766 -68.720551 -160.789169
-37.723465 -69.385788 -173.595459
107.501984 -71.442406 -171.056824
-37.000828 -67.436485 -174.986588
-34.700150 -75.249107 -179.853088
18.434202 -74.299545 -177.553406
103.168076 -73.015900 -182.790451
-30.134987 -69.347923 -183.466553
-29.302917 -72.559891 -172.397873
-28.592382 -70.542656 -186.322937
-151.431870 -71.478172 -189.590393
16.079222 -67.239204 -184.362381
105.894592 -69.726524 -189.091248
-152.067902 -72.356178 -195.392914
-27.767048 -69.447731 -194.046295
-116.939194 -68.808624 -195.466080
