# This PCD file was generated using the MATLAB® pcwrite function
# from Computer Vision Toolbox®.
# .PCD v.7 - Point Cloud Data file format
VERSION .7
FIELDS x y z
SIZE 4 4 4
TYPE F F F
COUNT 1 1 1
WIDTH 1413
HEIGHT 1
VIEWPOINT 0 0 0 1 0 0 0
POINTS 1413
DATA ascii
-151.984421 -89.640350 -192.463089
-138.709122 -84.125481 -200.176895
-32.655987 -88.607819 -200.055344
-141.592499 -87.404533 -202.287491
-134.765701 -85.882675 -195.890778
-57.029564 -86.169167 -197.173782
-153.241974 -87.830383 -201.983658
-59.884827 -80.215263 -203.767349
-155.737137 -82.377647 -206.748016
-67.683357 -77.217934 -210.354935
15.772470 -84.423424 -233.842499
16.643658 -85.990097 -239.956116
-154.072510 -76.535545 -235.152817
18.611412 -82.375092 -248.446152
16.632860 -82.550156 -246.586884
11.955966 -87.842720 -251.577988
11.935932 -81.345016 -253.148575
-157.885880 -94.527092 -258.915375
-138.380127 -77.652031 -263.912018
5.754374 -85.432327 -257.048248
-148.137939 -78.641548 -272.020599
-148.963852 -90.012939 -279.508240
3.327776 -86.440025 -278.883392
-143.412125 -80.871468 -272.717987
-135.933578 -82.853081 -286.139038
-145.235550 -77.215179 -289.877136
-147.903305 -89.052330 -284.015625
-159.950516 -72.790207 -291.025146
-139.597366 -85.053154 -293.574188
-157.598190 -83.820473 -291.852905
-54.527290 -85.619324 -71.593361
-59.021931 -83.282104 -74.222214
-39.350708 -86.103378 -69.792557
-82.719650 -75.384712 -80.612450
-36.651962 -83.648750 -88.290359
-43.941086 -85.778122 -83.495247
-80.015038 -84.275208 -102.054611
-73.524681 -80.456909 -97.590530
36.118443 -76.884819 -130.523926
34.860500 -84.035988 -141.548920
-14.050211 -76.914291 -185.518356
-25.308710 -82.207443 -179.404755
-31.044838 -80.108566 -182.847885
-37.928997 -78.520409 -191.913544
-56.075672 -80.220039 -185.547684
-32.505981 -83.797577 -197.341858
-145.723251 -85.347038 -192.430389
-146.953430 -83.567566 -193.742737
-150.746384 -85.439957 -198.088242
-148.156326 -76.888985 -198.795547
-63.213535 -83.273407 -208.009644
-59.499737 -76.926109 -201.143738
-152.400681 -85.743431 -204.898422
-71.253273 -77.390808 -212.623276
-79.134056 -86.486549 -212.459259
-78.957153 -78.547073 -210.308838
-144.891235 -81.441315 -225.488586
-140.922592 -84.001808 -228.989502
-145.514282 -84.884407 -248.257874
17.180119 -81.209412 -242.639465
12.886738 -78.018684 -249.195679
-135.395294 -88.882317 -254.200684
14.505301 -85.785561 -253.316818
9.294712 -79.795914 -263.434540
-148.393082 -85.066292 -263.730072
-151.703522 -85.068726 -275.365845
0.829165 -85.208359 -275.782532
10.203606 -76.546608 -277.401123
-155.883743 -89.120369 -285.395660
-142.294891 -84.227654 -288.840393
-148.871735 -84.848518 -300.013977
-44.535912 -78.911201 -68.461075
-73.083572 -81.666969 -69.956245
-45.368256 -83.481979 -67.401573
-33.890957 -86.460205 -73.754997
-79.154648 -82.778168 -78.189270
-30.351555 -76.997795 -77.724709
-48.279346 -76.367165 -88.835396
-58.918365 -72.911446 -96.021843
-61.235542 -92.301735 -95.204628
-69.902199 -72.688553 -100.837753
-89.867241 -73.157547 -102.109756
43.473763 -81.908600 -124.211494
39.721191 -87.269714 -131.239777
-48.693993 -78.980270 -166.967194
-36.705032 -83.540672 -160.660263
-12.128090 -80.154793 -164.616302
-63.536209 -72.718407 -172.676071
-54.967194 -78.340805 -172.661942
-55.156178 -75.980278 -169.919128
-33.349365 -81.239037 -171.821030
-48.741459 -80.350479 -181.985992
-31.386156 -81.267960 -188.255859
-145.630569 -83.347862 -185.663361
-51.620209 -80.837440 -185.552795
-45.444439 -80.107841 -195.240555
-33.230194 -82.590607 -191.167862
-40.954548 -79.092003 -193.448227
-31.913961 -80.957664 -191.412292
-33.234505 -75.086845 -187.372070
-42.865162 -78.420143 -192.997650
-141.211517 -86.288040 -194.897888
-38.735992 -82.183182 -189.620651
-32.631542 -82.363319 -200.753738
-42.154091 -78.832138 -196.414963
-44.396168 -81.336174 -200.371552
-134.080292 -79.040695 -199.223282
-133.046417 -79.210884 -197.523956
-47.308212 -84.734108 -205.364487
-65.210754 -79.772552 -199.563477
-37.192352 -86.394180 -198.985245
-141.708878 -83.928787 -197.880478
-71.501007 -83.061340 -204.798187
-33.754971 -75.728790 -217.180969
12.645024 -78.842590 -201.706726
-75.865273 -81.160255 -212.993576
-27.565477 -81.875603 -208.364334
13.095642 -82.816765 -221.004395
-144.928604 -83.660095 -215.979355
14.184028 -82.847244 -223.794922
8.000004 -86.779564 -219.381683
17.681620 -75.956909 -224.308548
-133.403641 -76.482933 -226.282074
-150.495056 -81.514214 -230.424927
2.347433 -82.510399 -235.869431
11.101706 -77.755791 -236.176208
18.206602 -84.422585 -230.789856
-150.521332 -83.245651 -238.403015
-144.022263 -80.115616 -234.136490
12.584912 -78.837425 -235.691788
-40.029785 -79.554085 -246.224945
18.492804 -85.070786 -240.421555
-42.303482 -78.156380 -244.193604
-148.109253 -90.736313 -254.967590
21.844725 -80.289078 -250.357361
-147.014114 -84.874344 -258.893707
-151.797348 -80.020355 -254.617859
11.427556 -84.141243 -257.188293
-7.300318 -76.868637 -252.672256
-4.745868 -83.256088 -264.209808
-148.915421 -82.758263 -257.455292
-152.915619 -80.221123 -258.014282
-141.718506 -83.634491 -263.879486
-148.512512 -85.795998 -260.130890
-150.306335 -80.449966 -265.683258
-10.860538 -83.892776 -266.070587
-2.238833 -82.648140 -262.367340
7.072355 -79.812431 -269.720734
6.219372 -75.802315 -282.311920
1.559136 -79.459251 -273.998932
-136.170685 -77.168549 -287.789032
-140.702377 -88.166489 -296.466339
-58.247589 -78.908813 -68.978928
-39.911785 -77.622566 -63.419971
-52.771839 -88.474182 -67.601715
-48.201889 -77.015961 -60.874416
-64.318420 -83.904251 -67.177895
-82.814865 -83.352348 -73.269699
-29.304611 -76.718246 -77.073067
-37.165382 -79.388397 -85.056038
-43.875023 -80.393158 -88.903664
-86.032051 -76.582504 -86.386421
-74.106895 -82.185562 -105.573105
43.059776 -78.089859 -104.651558
-77.241493 -78.656395 -108.028961
42.667423 -83.047684 -117.395027
42.893021 -83.136894 -128.125580
33.460121 -76.384933 -122.538261
34.103016 -81.666534 -128.734650
36.569584 -80.343468 -140.408173
29.741726 -77.009369 -146.864075
-46.033188 -74.212563 -144.829422
30.002626 -84.983513 -152.120331
24.477612 -71.085579 -160.015411
-49.246090 -83.554100 -155.330246
27.961107 -82.088165 -151.889359
-43.026459 -77.776108 -166.957184
31.332109 -84.794090 -167.806458
-57.954437 -81.499687 -170.051987
-7.293803 -79.909874 -168.953339
-29.450153 -85.115845 -172.368713
-15.666016 -84.879227 -178.298431
-54.306198 -79.779465 -170.902298
21.052755 -81.148209 -173.951553
-8.861751 -83.908195 -179.531647
-17.598768 -76.008476 -180.521713
-52.015835 -85.798759 -186.243286
-28.846680 -84.864586 -184.153259
24.175560 -81.880363 -189.333328
-151.689682 -80.147758 -178.343048
-29.585609 -75.210335 -187.671783
-48.754604 -80.312057 -189.121719
-148.337585 -83.406792 -200.692093
-135.727448 -79.712959 -191.945969
-21.094934 -81.699120 -189.076752
-21.284573 -76.990463 -197.215179
-42.692524 -78.130363 -199.732178
-20.323925 -79.723465 -198.882004
-46.425442 -77.506287 -203.053757
-45.993038 -82.557152 -199.364960
-57.525723 -79.019531 -200.548416
-13.750262 -73.482155 -206.004440
-147.078964 -85.071335 -208.037216
-55.282902 -79.290657 -206.267242
-52.621883 -83.001678 -198.170105
-31.077936 -80.004265 -199.981537
-21.575167 -80.025764 -210.673538
-31.949125 -74.343307 -205.167053
-79.216515 -79.439659 -207.887787
-146.600586 -83.743881 -212.642776
-28.364494 -79.154839 -202.488861
11.648215 -81.653214 -215.588699
-60.571941 -75.894966 -215.178665
-72.308121 -85.354523 -213.874725
-24.908810 -77.615761 -213.228928
-8.856821 -76.179504 -214.059357
-24.572010 -76.873055 -223.874710
12.306018 -82.498558 -223.787750
-155.351212 -84.225052 -218.077682
-4.155202 -82.232277 -223.211945
-148.023270 -84.718094 -221.772415
4.279109 -84.381653 -226.871384
5.918417 -88.522110 -229.259659
0.232679 -75.136436 -218.868073
18.886135 -79.298302 -223.880493
-137.999649 -81.347160 -227.514465
11.474771 -74.527313 -230.027481
-155.071136 -75.471283 -229.503647
-150.940643 -84.318718 -232.476044
-6.700203 -85.293373 -221.237213
15.056498 -76.703888 -238.163574
-31.332472 -80.087814 -235.823135
-143.679169 -77.108543 -242.013550
-39.340393 -79.352577 -239.711304
-41.472939 -84.184135 -243.987747
-25.189346 -76.604195 -240.080139
16.309401 -76.647385 -245.163361
-53.267357 -84.770386 -243.930832
11.958807 -85.359322 -242.424728
7.969001 -77.756096 -236.290482
11.102757 -71.585014 -251.122757
-44.916508 -86.573479 -256.144440
23.684135 -82.517097 -246.667679
-144.196991 -82.264992 -251.444489
23.020061 -81.803940 -248.297638
1.174106 -80.186806 -250.523361
10.802547 -81.648880 -248.590363
-149.807953 -79.912315 -253.722488
-153.040939 -87.220024 -263.852203
-137.595245 -84.622581 -260.017120
-157.357574 -78.012314 -267.355621
22.280550 -78.537605 -261.529572
-146.652725 -84.985847 -272.374634
-0.182931 -78.929344 -269.658936
-154.554031 -81.521126 -275.626190
-152.343536 -81.263947 -268.535034
-154.267288 -82.236221 -281.050140
-157.048553 -82.618607 -286.811371
-137.484192 -75.184822 -288.528198
-148.869659 -81.167130 -285.126129
-147.324844 -91.361145 -291.039612
-145.486404 -80.731522 -295.833069
-150.177399 -82.825813 -292.034668
-146.531494 -80.738907 -300.030548
-153.056824 -79.506226 -304.023285
-142.835236 -73.740303 -297.799164
-146.749161 -76.371620 -304.249664
-53.367569 -73.354675 -58.094059
-64.782524 -75.807884 -67.890839
-50.966785 -78.624397 -63.099735
-30.548313 -79.640594 -72.669891
-52.909142 -82.636902 -91.857819
-89.233063 -80.388489 -101.935020
44.820179 -81.130569 -103.545479
-77.052414 -84.706841 -99.605064
40.939587 -78.588356 -111.385155
34.505772 -77.961937 -116.792351
43.315102 -75.904945 -125.207367
34.411476 -74.029198 -134.714523
23.320551 -79.046196 -136.385529
33.813656 -81.046722 -132.620667
28.171162 -74.367676 -148.024628
-42.647621 -76.491646 -147.415192
31.632355 -88.204285 -139.990967
-65.213531 -76.785881 -156.354691
-41.457634 -81.926575 -155.180420
-68.280304 -82.913025 -170.186752
-36.871464 -75.563736 -157.178986
23.389458 -73.275650 -163.929016
-38.181664 -76.510567 -161.162094
-8.155806 -74.219612 -174.753845
30.086508 -80.547089 -158.369095
-11.782393 -81.737549 -174.540009
-62.065517 -76.898155 -164.786057
-38.815468 -81.612297 -166.622086
-26.316866 -76.129112 -167.500351
26.386429 -86.370850 -174.108490
-49.864590 -73.260513 -180.613098
-34.609978 -78.359177 -181.354996
31.179295 -82.621559 -184.372086
-52.339592 -81.909386 -189.160553
-23.613678 -83.170403 -184.692093
-56.596661 -77.970551 -179.092865
-38.388649 -81.430298 -190.865417
-27.868673 -73.926483 -187.146866
-43.714043 -82.275024 -202.508179
-23.193615 -86.409317 -193.337311
-135.475220 -87.503944 -200.973099
16.125633 -76.427284 -196.188736
-140.558121 -78.167641 -199.532333
-18.832716 -80.137680 -200.372192
-22.196770 -80.836571 -197.898270
-34.702690 -73.302391 -193.134766
9.497089 -74.190025 -194.405487
-15.907274 -80.433182 -192.544800
-62.635426 -74.694000 -207.393158
-34.150112 -79.430092 -204.726593
-68.024078 -72.965012 -211.880981
-70.899284 -77.770897 -204.790192
16.501770 -83.234367 -209.898132
-85.934059 -83.975845 -214.501968
-25.569809 -78.382484 -221.684296
-78.487823 -77.559799 -216.747833
-143.929810 -74.840103 -213.244156
-9.840551 -79.465439 -209.514587
-11.930120 -71.872368 -221.432159
10.162921 -77.209106 -223.409866
13.606819 -78.221664 -215.535431
-5.021580 -75.391197 -235.095535
-137.922989 -87.170959 -227.545914
-147.756943 -82.716682 -228.323730
-149.254852 -81.181442 -231.493881
8.155542 -75.333260 -231.576965
4.094009 -74.498688 -233.865494
-23.343390 -77.164963 -241.510742
-146.795624 -78.860558 -230.721191
11.783374 -81.226891 -248.349869
-33.823517 -77.325462 -240.875137
16.558435 -75.621468 -241.861633
-57.122334 -77.746216 -241.843033
-56.124546 -72.171227 -246.242508
-144.225281 -83.894112 -246.404495
-58.697186 -76.198120 -244.943329
1.647114 -77.530327 -245.927200
-9.189159 -84.069824 -257.925079
-139.706055 -83.347580 -261.059601
-136.304474 -79.590729 -260.166840
-140.309708 -79.250252 -261.493500
18.173914 -79.887093 -257.140503
-144.263748 -78.168205 -271.906891
17.565779 -82.034256 -265.674286
-153.677826 -84.186462 -274.948425
3.507003 -74.819450 -285.734344
-150.497192 -82.842880 -283.535187
3.528921 -77.263443 -283.361969
-149.810410 -82.281601 -281.849396
-141.622482 -76.511414 -283.892029
-140.603363 -79.764153 -285.289429
-154.578400 -88.974831 -289.739594
-18.774212 -78.770859 -297.000122
-152.026016 -83.918114 -287.505127
-147.457733 -77.092804 -295.510590
-146.591644 -76.158875 -309.421051
-59.617687 -78.358925 -53.972179
-39.633640 -80.938393 -61.730000
-77.424515 -78.857109 -63.697365
-29.385571 -72.509308 -71.175743
-25.022449 -81.454391 -76.619186
-84.877815 -77.034187 -81.098557
89.256660 -80.622391 -87.683846
-37.203590 -71.456474 -87.113182
82.773483 -77.027306 -90.980087
81.305878 -77.568245 -80.335449
90.868446 -69.920006 -91.493584
77.387177 -75.890747 -90.421837
94.254776 -75.064003 -95.415680
-99.234123 -72.811577 -94.710701
52.296276 -74.193253 -110.549149
-84.990112 -80.060959 -111.308388
44.753822 -77.081894 -108.600197
47.707958 -77.344307 -119.274704
44.130989 -81.917297 -119.804016
32.909996 -77.475357 -133.214493
23.402521 -81.960426 -142.470016
19.801510 -68.502670 -145.706741
33.723251 -79.299095 -141.435501
-51.054646 -80.788681 -154.417862
-45.003429 -84.632584 -143.612976
-37.558380 -79.473351 -161.049469
27.454130 -76.939285 -144.979355
25.291807 -71.065437 -167.919113
-30.258940 -77.655075 -168.597305
-30.102915 -80.288239 -155.816711
-42.056332 -75.491722 -153.946518
0.357862 -77.154030 -162.214462
29.480566 -76.464157 -153.990128
29.040174 -80.909958 -160.819427
18.669907 -80.231789 -167.448715
-7.432824 -81.758911 -167.927856
2.313354 -79.226166 -171.852722
-56.898647 -77.394684 -170.607452
-65.000031 -77.942238 -173.188309
-36.037827 -66.358871 -167.662552
-37.378830 -83.099693 -173.524460
18.694189 -83.443520 -169.048676
-17.380941 -79.661385 -179.929443
-34.414040 -87.606178 -177.979797
-67.718712 -91.023659 -176.455124
103.616112 -78.750992 -180.787735
20.544104 -73.695984 -173.940552
-28.406118 -78.154282 -178.366074
-49.592590 -76.763412 -175.312546
-16.974007 -75.940773 -177.971207
103.485016 -77.956970 -177.161575
-48.544033 -76.623116 -184.715332
14.397068 -78.738327 -188.008011
27.309690 -72.295715 -184.118652
-54.977821 -81.867523 -182.645996
-19.770853 -75.114441 -180.224899
-55.273632 -81.163460 -177.681442
-32.066334 -76.817993 -182.463913
-26.525099 -81.182114 -185.144333
16.559507 -79.511375 -187.024811
-50.666698 -80.205589 -187.735275
102.623253 -75.332932 -185.779663
-47.462799 -69.225166 -190.309204
10.089076 -76.341003 -199.927292
22.039026 -80.032219 -200.334091
-42.804966 -72.673141 -187.820465
-21.347570 -71.333305 -193.165237
106.970909 -79.476379 -198.882828
104.193535 -79.618500 -200.893814
-45.024811 -77.096207 -184.923004
-146.344406 -82.605820 -199.185547
-40.210938 -80.315208 -198.186279
-149.065918 -74.538963 -199.555679
-136.624832 -74.548195 -201.502960
-40.011246 -75.169807 -197.102310
14.138323 -78.284042 -208.587173
-10.045021 -80.466728 -206.666565
11.232416 -73.183380 -203.030533
99.904694 -76.663223 -203.058578
-36.990273 -79.216522 -204.605988
-0.680489 -73.509071 -206.677719
-16.179564 -77.317177 -205.126068
-44.509632 -78.014313 -203.418030
10.789287 -73.205063 -207.339493
-75.298958 -80.516541 -213.108322
18.535269 -78.824341 -216.343491
-28.646511 -83.764626 -204.883713
-142.246445 -75.386589 -206.956161
-143.188385 -78.557861 -220.647141
-86.380379 -78.208313 -216.371582
-39.721226 -69.625404 -208.495987
-22.404566 -76.382584 -211.181259
-26.806742 -78.348495 -212.485001
-90.131577 -76.694527 -216.463562
-88.490112 -81.519791 -210.630600
12.157355 -79.669533 -225.899673
-152.337616 -73.780945 -210.520065
-14.763503 -77.920403 -214.974960
7.364748 -76.536987 -217.142456
-138.334442 -76.560532 -217.086243
-18.523262 -86.675194 -218.498535
-1.070687 -76.206787 -226.618958
0.672199 -82.100876 -226.889297
-154.605728 -74.555420 -222.065109
-133.619690 -77.535446 -226.105865
-10.830938 -83.931778 -227.427551
-151.224350 -80.762833 -229.928238
0.974039 -72.632690 -235.968765
21.758995 -78.771233 -236.829147
4.954213 -69.976433 -231.272568
9.634013 -69.529709 -246.471222
10.565931 -87.287407 -230.299210
-156.136765 -76.840523 -236.101822
-20.236813 -77.381226 -243.866394
-36.341095 -77.103821 -241.508789
6.132060 -75.984138 -230.454666
-0.435428 -75.476753 -237.038895
0.149254 -81.890198 -242.917557
-58.566177 -75.958931 -248.309692
-152.098740 -79.425842 -243.963287
-150.996170 -76.474190 -252.187393
8.916164 -75.085114 -244.410187
20.097742 -75.722031 -246.139603
-58.006371 -75.992424 -253.979248
-141.349182 -80.588158 -258.566711
-157.002014 -80.755676 -251.468506
-149.929474 -80.371040 -258.640472
-140.046143 -74.603874 -253.228683
-135.807755 -83.515739 -257.108185
-12.862211 -73.754105 -247.486435
-146.231827 -74.748222 -264.743439
-13.964200 -72.104584 -261.618195
-144.370285 -81.913689 -276.469971
-144.960022 -80.735863 -285.592560
-154.193619 -76.540657 -284.511871
-6.127268 -78.808784 -282.436279
-145.898361 -83.534454 -286.795074
-32.338097 -77.978317 -292.393372
-35.404209 -77.080856 -289.631409
-14.618872 -79.102158 -287.561493
-8.570477 -75.887062 -292.677032
15.785379 -81.390503 -288.603882
-125.319832 -75.943336 -292.982422
-53.558872 -78.332962 -291.023651
-40.364937 -80.327637 -288.558685
-32.087936 -86.996849 -291.516754
-8.800488 -74.326706 -289.749817
-0.577386 -79.270905 -294.017944
-145.501770 -83.487747 -287.700745
4.531576 -77.573471 -292.629944
-154.479736 -78.360626 -300.619324
-151.236969 -78.439423 -303.736176
-146.485321 -77.535591 -312.107880
-144.588699 -73.319328 -315.442139
-47.689018 -71.373009 -59.625317
-59.710636 -82.317299 -59.233410
-61.448196 -74.702850 -59.431892
-47.695892 -79.965851 -56.461136
-35.237022 -75.150131 -58.778358
-23.500051 -73.831947 -70.637955
-84.414413 -74.588913 -65.378075
80.378090 -76.901253 -75.873039
-87.849350 -73.090797 -77.584114
79.970238 -79.456352 -80.824722
83.586487 -77.973114 -87.170746
93.846962 -77.554298 -84.503693
-58.967804 -82.782516 -104.434967
83.808495 -77.301582 -91.316986
84.727028 -72.077965 -94.651596
83.240349 -77.978813 -86.679764
-60.758442 -80.268005 -96.587349
55.192558 -82.776657 -96.583359
45.204800 -83.271629 -103.902313
48.150627 -75.125694 -101.884926
36.999809 -73.662483 -112.152336
-94.890610 -71.688286 -109.550941
35.206680 -74.934433 -118.670586
-81.848923 -77.172546 -109.426529
51.166981 -71.359337 -117.011963
41.688889 -75.152359 -117.530487
25.774305 -82.712013 -123.171326
41.322662 -76.404358 -120.572731
40.675751 -80.256531 -125.612534
-50.655220 -71.267204 -132.993317
37.438614 -71.464851 -135.674728
28.033363 -85.552620 -142.139557
-46.559982 -73.056808 -139.111908
-50.433121 -76.630768 -142.839859
39.513405 -78.326820 -141.516617
115.607552 -76.195427 -146.903717
110.353165 -78.027977 -137.836777
28.550032 -70.120338 -147.386780
-36.541813 -78.471886 -141.955261
108.632561 -77.725212 -157.152405
-45.330238 -80.286232 -155.377899
-63.457424 -79.233650 -163.644119
111.890862 -69.679077 -158.245819
25.403011 -77.585274 -163.824265
0.728039 -85.033386 -165.066849
111.046051 -81.724899 -157.629288
-64.250420 -71.876846 -164.079254
-36.194717 -77.481209 -158.992050
111.088112 -77.623535 -160.620697
23.297485 -76.702660 -164.911682
-66.766556 -79.762756 -169.922867
113.034882 -79.962151 -162.732635
-62.331406 -76.318794 -167.528610
-47.952057 -72.824860 -175.880814
109.299713 -77.016586 -179.403641
-58.715027 -80.416626 -165.299164
104.901115 -72.607338 -171.788483
-60.905457 -75.806099 -174.270813
-12.025620 -72.905373 -180.510086
-11.953533 -82.970840 -181.293030
111.163879 -78.378235 -172.883148
17.092249 -77.143913 -171.297607
26.602619 -75.813171 -171.134613
-63.048046 -73.989288 -173.401520
16.172409 -82.503685 -183.140427
-52.276409 -76.956619 -179.546127
-53.882122 -79.370216 -185.272003
10.661987 -73.112114 -184.590363
-55.841423 -78.720284 -182.522247
105.550156 -74.328125 -181.239395
23.997169 -76.215462 -183.123474
-34.592850 -73.564369 -184.026001
-42.816303 -77.824516 -193.079681
16.690569 -84.431656 -195.046707
-19.561598 -82.872742 -192.051392
-54.256886 -72.364388 -188.784256
103.587128 -77.660393 -186.059708
16.597963 -76.327003 -192.475632
-141.398895 -75.031532 -197.534576
-40.372791 -76.328781 -190.264038
100.081772 -74.542816 -202.954498
-149.728088 -79.397781 -197.575623
22.657923 -81.006859 -191.697006
-45.927624 -77.085358 -196.815125
-34.820042 -78.674042 -204.475250
-42.119015 -73.299446 -204.024704
-49.098522 -73.980965 -200.106247
96.347610 -87.011879 -197.123749
-16.040552 -77.140327 -200.924561
-146.704773 -79.576401 -204.084900
20.630125 -76.535622 -206.290955
-75.835938 -77.669586 -208.807663
-147.114441 -81.736092 -209.345520
100.083794 -79.343018 -206.721085
-29.645626 -79.271858 -199.470413
-29.492281 -78.750320 -213.717621
3.672068 -72.831329 -205.395737
-72.798943 -77.836998 -216.357025
-33.155609 -83.044975 -213.781250
-9.123615 -82.442093 -216.680298
-72.679321 -78.587242 -214.036987
-15.683476 -79.825333 -211.189072
8.534892 -77.539200 -217.743011
13.893013 -77.953064 -214.090607
-154.288635 -80.696533 -221.334915
-1.889843 -74.296143 -211.747589
-96.039734 -80.719284 -216.185745
-19.243788 -77.782974 -227.189026
91.142097 -76.694885 -212.098663
2.385243 -78.318298 -224.901840
11.112792 -80.620750 -223.093369
79.179588 -71.808838 -226.968964
4.046832 -68.720482 -230.796463
85.824402 -76.010025 -221.074387
-15.563376 -77.962593 -215.588303
11.319091 -73.725403 -221.569763
-140.116638 -72.927734 -222.608734
-21.149477 -81.156700 -225.193512
0.542515 -78.729187 -231.570618
-153.242798 -76.477928 -229.329117
-134.212524 -77.505905 -226.501831
11.570889 -80.571609 -229.634262
-0.930257 -81.185608 -235.210342
-135.783295 -77.658035 -233.630447
-147.576614 -77.901947 -231.938736
-143.513626 -72.581039 -232.286835
-36.856182 -73.323044 -236.487167
-144.256439 -75.304428 -246.369690
17.734066 -78.960052 -242.213287
6.177701 -78.053413 -246.312317
-148.684372 -75.070480 -231.784836
-144.554932 -80.060745 -241.680862
-49.033085 -79.490501 -239.550476
-30.277002 -84.204941 -251.981827
4.152309 -87.704468 -253.922958
-43.684536 -80.220329 -239.112106
22.301657 -75.084061 -250.122604
-11.179740 -72.932518 -250.593430
-143.735306 -80.538094 -252.935760
-4.539031 -85.578568 -250.552017
-149.697067 -75.262749 -246.243225
-64.506218 -73.167831 -250.323761
-150.069031 -82.947342 -258.886658
-126.697189 -81.265617 -259.679199
-150.891418 -66.220619 -260.048798
-15.916652 -82.239723 -266.300873
-142.907425 -76.850342 -267.935516
-145.130753 -75.852661 -267.754395
-10.718028 -78.836128 -264.941315
-150.164795 -77.680367 -270.721375
-6.563151 -79.625710 -281.057556
-48.923336 -76.993912 -290.271088
-132.673599 -78.295288 -282.909363
-132.452667 -76.935913 -280.535767
-120.654701 -74.420853 -288.802429
-53.271641 -79.326492 -285.515747
-117.589333 -78.456535 -290.109619
16.596500 -77.378059 -289.358307
-57.681248 -78.077126 -287.866180
-139.394241 -81.702637 -289.600494
-60.030941 -71.696877 -294.714355
-144.699814 -74.653915 -286.686340
-123.038094 -76.556679 -289.430969
-48.247478 -73.977539 -287.703217
-35.814632 -76.733467 -289.044403
-125.579796 -83.382217 -292.585602
-11.906006 -81.703575 -285.880432
0.474392 -75.184372 -294.266663
9.284330 -72.915466 -289.799530
15.901521 -80.415001 -291.857269
-147.719406 -68.822510 -295.085571
-149.152588 -81.504501 -297.521545
-71.264557 -74.534683 -59.269512
86.392998 -79.070778 -74.040756
80.075821 -75.357178 -70.828773
-26.039150 -76.215858 -77.948433
88.558640 -76.545586 -76.293472
-39.697449 -84.239311 -80.252419
83.866051 -76.465134 -73.552559
91.857300 -79.574493 -82.488075
-62.690895 -74.910034 -92.434181
78.874016 -75.642334 -92.291801
79.862953 -73.150330 -101.261986
92.162796 -77.592392 -97.980766
50.832050 -72.770256 -95.931229
-75.809181 -77.324135 -93.916626
-76.608444 -67.531464 -102.183731
52.323193 -71.151764 -105.049606
-90.228462 -71.951874 -106.433701
43.125694 -74.377167 -116.568619
110.364609 -77.542206 -118.210579
112.263077 -75.250046 -130.716873
30.151306 -75.989502 -137.908005
113.155327 -75.993423 -127.693275
23.713762 -74.767731 -132.884384
116.295166 -76.326607 -131.563400
39.177307 -75.965454 -137.898453
-50.000599 -82.232086 -149.438416
26.100689 -71.892944 -141.411407
108.637711 -78.119164 -136.917786
-51.444466 -76.533028 -141.394424
41.550098 -71.657990 -147.431595
-63.818443 -74.434456 -143.529785
-57.321796 -84.299934 -149.580704
-43.664772 -78.614418 -142.850708
-70.489815 -80.151176 -162.599442
116.802246 -72.838280 -148.707718
-42.498680 -75.607002 -156.466812
21.036371 -74.592606 -153.294571
110.470558 -81.139175 -146.399277
-59.988907 -77.239670 -158.026215
-47.623543 -71.445000 -153.360611
3.678939 -77.298187 -155.790756
-68.510170 -71.807945 -152.331070
-59.978664 -73.699860 -162.535355
-0.512386 -80.933136 -165.933685
-41.109905 -76.483093 -162.092087
33.997467 -77.283997 -158.224518
-58.972816 -72.190094 -164.325150
-59.258667 -76.176933 -166.251221
19.275753 -78.690872 -159.950653
-29.324007 -74.630440 -171.280823
-29.166843 -82.508324 -169.718460
18.618523 -67.233643 -168.562866
-47.310875 -77.854507 -173.086594
-10.411115 -77.359642 -175.377014
-52.643620 -70.213089 -175.872314
-2.687576 -82.899452 -168.903275
-26.608015 -83.550133 -186.495987
26.536776 -73.162582 -178.566299
-34.385975 -73.998863 -172.643127
18.536758 -75.789459 -181.370483
-25.186695 -76.594658 -183.710297
-31.682650 -79.748413 -183.229385
-148.132599 -75.405991 -184.117645
-20.665972 -76.783096 -182.249176
-140.155106 -73.611549 -187.592499
-149.608566 -74.500778 -186.406326
-44.882526 -76.694305 -190.483032
101.081947 -79.352066 -198.347931
-146.553146 -76.916306 -192.349777
-152.053223 -72.089310 -195.932358
23.667521 -77.951309 -195.896729
-126.774605 -69.138374 -199.266647
21.692251 -76.418808 -203.557526
-135.451035 -71.543739 -201.968369
17.861944 -72.121086 -194.653564
-137.033630 -75.872185 -201.915878
6.333431 -73.355484 -206.713394
-148.044739 -76.319534 -210.912003
91.405838 -75.224846 -206.022781
-15.919149 -78.702400 -198.776398
-28.446976 -79.057831 -204.309799
-12.186125 -77.504631 -204.253586
-152.768066 -71.540459 -211.227036
-31.892546 -74.974220 -208.400253
-80.332840 -79.701431 -217.146774
-29.423502 -74.928429 -208.261124
16.847008 -78.661926 -210.556046
-149.194138 -77.397705 -209.699875
-95.938950 -79.578644 -220.931351
-28.059420 -81.226234 -206.252869
-23.276863 -79.921738 -217.463272
-13.755928 -74.713715 -211.487656
-26.419231 -75.128044 -212.737823
-74.730194 -65.917343 -215.372940
-86.366966 -80.135895 -215.305557
-29.934532 -76.400887 -214.298340
0.993513 -70.360748 -218.855377
-150.238647 -75.244324 -220.269440
-10.033150 -79.788734 -218.183578
81.929512 -73.223869 -223.018661
-139.835388 -82.648804 -227.272247
-7.780213 -80.226471 -222.441772
-138.215897 -76.476845 -228.539734
-145.418442 -77.949913 -229.233154
-0.676010 -75.186539 -227.144791
17.142166 -68.499512 -220.319763
-133.308868 -73.299301 -228.041443
-20.488880 -75.880531 -236.041473
73.422745 -81.365402 -227.924896
77.463875 -76.921387 -223.874603
17.189569 -76.153046 -229.930038
-29.153969 -75.343330 -240.257217
-14.757520 -70.104942 -245.552231
-0.195658 -72.911606 -250.501892
-48.722256 -75.373093 -235.929840
-26.114149 -78.701706 -242.579742
7.100837 -78.935555 -242.513229
-63.910721 -70.776306 -250.192520
-33.901733 -78.571861 -249.687927
-49.842754 -72.350494 -245.118515
-150.000473 -71.168472 -246.221222
-49.272121 -71.357712 -250.456314
-54.265335 -81.468185 -248.433090
-70.290985 -78.204681 -245.541428
-8.857819 -76.124702 -243.392761
-73.566841 -73.618919 -246.665390
-152.232285 -78.653831 -258.795868
-137.792328 -77.875381 -255.645004
-126.017479 -82.097397 -257.201111
-157.034973 -73.077660 -263.646698
20.023554 -81.540878 -263.991272
-19.908115 -70.991356 -271.856964
-156.531876 -72.579765 -273.115967
-147.212189 -78.288208 -278.816528
-139.114975 -84.050125 -288.530975
-62.300930 -80.182259 -285.353577
-41.149300 -77.269768 -282.420715
-29.994543 -74.031082 -283.015411
-10.354043 -82.800186 -285.700348
-60.164780 -69.418137 -289.336273
-71.565033 -80.034149 -288.824860
-1.299541 -78.566422 -285.259064
2.251538 -71.185234 -282.192932
-141.601334 -79.329315 -290.294952
-76.211739 -73.668777 -289.405975
-139.923477 -70.326447 -290.007446
-91.275131 -74.181435 -282.261444
-77.978386 -78.365913 -286.126160
-86.058990 -69.672195 -283.595459
-61.131931 -74.015343 -285.418671
-26.570942 -73.987518 -287.120392
-3.934533 -79.438164 -289.226105
-160.692200 -76.320908 -297.362946
-149.369431 -74.330734 -297.986542
-143.997452 -79.094254 -298.973999
-149.635788 -72.339958 -302.660034
-54.325172 -71.865562 -53.574425
-47.060120 -71.967346 -53.110882
-41.443539 -68.896545 -50.582367
-76.479355 -79.634262 -58.108612
-27.021517 -80.356285 -66.544579
-29.239565 -78.198257 -78.677864
71.635056 -75.346802 -83.544701
78.416092 -71.537018 -78.934242
78.837463 -67.083420 -75.558975
101.006714 -73.865952 -91.600136
80.887848 -79.842728 -93.740517
56.469299 -72.758316 -84.232635
46.218697 -80.668701 -98.558136
-67.714951 -78.337433 -96.066971
-64.336700 -68.630829 -101.775757
43.329010 -73.413956 -102.015732
-84.503166 -81.580116 -106.009529
-93.298592 -70.316658 -112.489059
52.177807 -76.761192 -107.798218
106.939049 -75.314209 -111.528816
41.090237 -74.526344 -121.057083
48.144157 -77.198288 -123.157310
45.034702 -77.397064 -129.611557
27.118134 -71.347954 -127.655708
113.746620 -70.183945 -124.209579
39.996426 -79.978279 -128.867676
29.317432 -71.718117 -133.245773
-47.168411 -76.361198 -143.959717
-68.188614 -75.890488 -146.108994
-56.765335 -75.126984 -145.559708
-70.230392 -73.083412 -142.402237
-42.526398 -75.611900 -149.643143
108.159996 -69.325935 -150.303589
-71.160767 -80.013901 -158.133011
24.057161 -71.638504 -152.410706
33.231258 -80.313957 -154.754456
111.806358 -74.268936 -158.043045
6.440088 -70.339966 -157.417999
33.994202 -69.602104 -158.715118
-66.352242 -75.507156 -161.279617
-45.635387 -79.710800 -171.452835
14.988139 -72.723175 -165.145660
-68.895203 -70.675812 -166.403076
-66.799652 -71.425781 -163.308624
107.475090 -76.390091 -167.026367
-0.054735 -72.553940 -173.381348
-62.665127 -76.589638 -176.182861
-29.340969 -74.063423 -174.486969
-55.775898 -75.160439 -172.584885
30.309298 -83.051445 -173.654892
109.247726 -72.992271 -176.038651
99.710762 -75.041695 -182.943344
107.547836 -77.205132 -193.074097
107.610176 -81.737946 -182.197739
-56.391365 -77.758736 -193.851959
-53.953339 -73.092003 -179.615005
27.572119 -75.902756 -184.229599
-51.127831 -72.361191 -188.647354
-15.733555 -70.762917 -189.132019
-49.601719 -75.038780 -185.826447
-155.215408 -80.286522 -195.386444
107.058136 -78.427086 -197.693161
-43.840908 -76.317841 -194.431488
-18.790102 -79.756401 -196.755508
-139.577698 -74.226707 -197.726517
-47.955658 -78.923805 -195.309952
103.944672 -66.711266 -191.294830
109.710739 -79.461349 -184.065735
-46.836525 -70.139259 -196.318741
-24.122335 -77.835960 -197.100021
-148.374710 -78.099213 -199.210556
-25.975681 -79.884636 -190.868378
-157.831985 -72.462166 -196.609192
-155.153931 -79.158714 -197.948257
-145.293716 -76.611221 -203.350479
-36.872299 -74.099236 -198.012436
100.622711 -74.405167 -201.094818
-36.713226 -71.628571 -197.964890
-138.462723 -78.814880 -204.376266
-41.704548 -78.225792 -205.055862
-14.402035 -76.827133 -208.515457
95.435524 -70.937119 -202.726730
92.776573 -74.229912 -216.784470
-30.120893 -70.885223 -222.784119
-88.599632 -68.182266 -207.035416
-69.568359 -74.245354 -214.092896
-11.594557 -78.588112 -219.255005
-148.803436 -74.753021 -212.961548
88.091187 -68.532127 -212.027725
91.838371 -78.071075 -218.060242
96.567955 -78.352272 -214.548569
-101.086159 -70.374962 -214.097412
-153.700851 -76.114975 -229.132599
-27.553059 -75.961296 -219.765610
82.295128 -73.988358 -224.038254
-148.929688 -80.661263 -231.494217
-26.108440 -73.701202 -219.281525
-125.662323 -80.362541 -230.329895
-13.266754 -79.847885 -223.654541
18.308517 -73.894875 -219.884018
14.261679 -79.459259 -232.244797
-147.799393 -80.538628 -231.968414
-127.503853 -78.648987 -236.436630
-2.714258 -77.453857 -239.204788
1.786748 -75.660721 -237.324753
73.269081 -73.951515 -232.431717
74.992500 -77.964088 -236.319794
3.981076 -72.183006 -239.289871
19.128620 -79.155495 -241.819794
-25.282104 -70.867279 -239.448318
-35.552807 -72.227592 -239.757538
-47.838646 -72.209785 -236.760590
-30.664852 -76.262177 -240.181793
-18.675016 -77.657143 -239.001648
-50.726486 -75.826134 -243.544205
3.353238 -71.499344 -246.330093
-63.901306 -69.895569 -248.843338
18.400852 -77.135422 -243.157181
-145.032013 -75.445679 -242.492569
-74.040657 -78.338203 -251.356094
12.596000 -73.012291 -249.630707
-155.826797 -67.828674 -253.205994
17.159510 -76.611771 -249.032120
-79.542824 -77.320450 -249.818970
-73.413811 -75.641953 -251.714249
23.215622 -73.394859 -254.285645
-90.687393 -73.114876 -252.978058
-130.739731 -74.852951 -253.467300
-137.932983 -64.444763 -261.192322
-134.266663 -80.412727 -256.120392
-139.837830 -75.780800 -252.237381
-140.068848 -72.779564 -262.451233
-135.362015 -72.573082 -267.010834
-155.872009 -83.568420 -260.690247
-123.630386 -66.128166 -264.509491
-125.498894 -81.613098 -259.508453
-162.987320 -70.277016 -257.152130
-163.907944 -76.709839 -262.187653
-158.048004 -72.720245 -266.724365
-141.538528 -75.851906 -271.792908
19.689697 -77.743553 -282.310852
-161.864243 -73.331543 -268.553528
-155.966248 -72.780670 -269.836884
-8.287874 -81.447998 -274.855194
-163.922256 -73.909172 -280.464569
13.488293 -77.210052 -279.564667
-156.937347 -72.184967 -279.155914
-161.231384 -78.133453 -278.910065
-154.211075 -79.106186 -285.536469
-165.669434 -73.982124 -281.975464
-1.271128 -77.213097 -292.423370
3.146594 -75.960060 -287.678253
-96.539902 -75.327866 -285.765289
-159.148529 -65.781052 -290.887878
-144.880508 -74.850769 -284.713776
-107.746635 -74.821922 -293.411926
-154.191513 -78.867798 -292.323059
-149.917023 -77.206596 -289.901886
-69.242622 -72.374626 -289.167328
-163.929245 -74.179298 -289.048920
-126.373428 -80.301613 -293.568970
-45.632679 -82.712311 -289.157196
-153.066986 -74.261139 -286.946747
-134.401947 -71.351959 -296.342377
-7.455424 -73.159111 -293.703979
-122.976059 -67.148880 -297.666534
1.473338 -77.725716 -285.518402
16.848797 -67.926384 -293.187531
-141.407410 -70.002762 -295.941467
-144.355362 -81.515442 -295.050201
-157.884567 -77.899696 -316.770996
-74.089661 -67.977776 -50.117638
-18.609180 -74.017479 -59.610424
-24.963142 -67.028008 -64.292786
79.276253 -73.879585 -77.590988
91.902267 -79.421379 -75.655090
-34.772198 -72.081970 -73.379036
73.016762 -75.016670 -77.975922
86.366966 -80.633667 -84.348770
67.834320 -76.594627 -82.702133
68.575218 -73.651093 -91.252419
-52.475243 -82.673050 -83.957397
-90.763100 -72.730385 -86.081123
57.638752 -67.662369 -91.744965
48.638985 -73.596306 -100.794304
96.267258 -72.769775 -92.992149
-96.875366 -70.970245 -101.381042
88.230865 -72.652542 -91.195900
81.459831 -77.684685 -96.921135
92.484543 -74.068459 -100.777252
85.312683 -73.406197 -101.993523
84.261787 -74.292419 -93.916664
-80.502831 -68.678062 -99.711693
38.017525 -78.154312 -116.170547
111.782600 -78.229622 -110.936523
115.408325 -72.836227 -115.711472
43.706047 -78.235054 -113.201706
111.969719 -74.440239 -127.955910
117.241295 -71.402824 -135.175232
-50.992092 -80.568626 -136.373016
33.149658 -74.041191 -140.288528
37.063328 -74.188492 -133.972198
20.660334 -74.552048 -145.700882
108.506691 -71.386078 -144.363174
114.347847 -75.204796 -136.380188
-72.696571 -71.342720 -154.417450
-48.491341 -65.663017 -140.504715
-66.772812 -77.892372 -145.958572
19.180920 -73.024849 -151.437805
112.982651 -75.925873 -154.982697
-53.895500 -74.455879 -154.616852
-64.221626 -71.070389 -149.518295
-42.046101 -82.132240 -152.171829
31.314680 -76.199646 -150.914520
112.814888 -77.422310 -143.591003
111.846581 -80.588127 -160.493942
-74.219215 -78.179939 -158.923538
-62.667606 -72.658348 -161.673752
22.651203 -77.520378 -161.593002
-57.619049 -81.090576 -168.319687
-27.583820 -77.706741 -164.789627
8.980777 -74.531265 -162.126801
108.387733 -75.241379 -164.857010
8.590260 -69.899223 -162.797806
-30.722147 -76.258522 -163.432373
5.163238 -78.732063 -169.890182
108.207069 -77.550720 -170.272903
-37.787533 -74.412392 -165.344269
27.228424 -72.382530 -170.085068
115.911736 -78.190331 -171.904007
-58.908562 -73.574852 -176.604248
-27.837761 -71.725594 -173.547455
105.050117 -74.080475 -172.206192
28.406788 -76.755524 -176.078140
108.348999 -75.687050 -176.248169
-39.544445 -70.799156 -176.393555
110.311966 -73.904167 -178.796341
-65.960869 -76.435455 -180.548920
-22.676397 -76.721184 -173.927200
-148.152542 -77.845001 -187.578491
-52.656773 -73.643814 -180.045334
-149.349930 -73.631538 -190.750687
-31.699785 -75.389549 -191.249130
28.007284 -74.122795 -186.073532
105.874435 -72.010040 -187.638199
-30.312012 -81.988083 -187.619202
16.409742 -68.887039 -190.520752
22.052521 -79.457863 -191.956116
-147.063324 -75.278160 -193.311615
104.460464 -77.002045 -193.524841
-14.746163 -68.394157 -197.382751
107.398819 -77.164574 -190.561020
10.071934 -70.281654 -183.810974
-127.766441 -73.697220 -200.817978
-136.918121 -75.321373 -202.565277
92.086510 -76.208916 -204.362976
-8.120028 -76.515335 -201.806580
-15.833605 -75.672203 -203.882401
4.368206 -68.909866 -207.000183
-153.317612 -68.709648 -201.725677
-149.499496 -73.755142 -211.343735
97.501152 -73.231972 -195.696243
-79.719147 -73.667519 -211.726196
-34.820099 -68.349052 -200.359390
19.807930 -72.509979 -212.668945
-31.318737 -74.212395 -211.474228
-72.559700 -75.435890 -205.219727
88.312439 -74.822845 -211.992599
-84.723511 -77.791626 -211.988541
-147.188004 -68.679558 -215.520691
-79.548042 -72.404938 -211.501038
-18.278402 -72.857239 -218.406281
-19.684631 -66.129646 -212.765778
19.104427 -75.463112 -213.489410
-8.881948 -76.740578 -216.875183
-84.017868 -73.175568 -213.227692
90.344635 -78.850037 -211.408264
-96.355362 -74.106255 -219.524399
-149.506134 -73.632202 -222.328369
-22.895718 -71.629768 -227.068069
17.644314 -70.670593 -219.629837
-103.386566 -67.054352 -228.126434
8.650256 -75.660423 -227.467743
-20.357399 -71.880669 -220.750305
86.568161 -75.248840 -224.833633
-146.554230 -71.057739 -215.878708
-1.420698 -77.681450 -224.955231
-9.080913 -71.426155 -222.500229
14.078225 -72.148338 -222.011673
86.655235 -75.144409 -218.005661
-16.097818 -74.322685 -223.706467
-127.432152 -76.690140 -228.200775
-18.109169 -78.718391 -223.290833
16.845804 -71.909119 -230.801392
-121.691452 -75.478844 -230.602661
-149.388519 -68.125404 -227.106552
-143.909088 -69.882866 -226.801788
-130.688553 -76.487343 -233.004623
-16.487818 -71.061981 -228.870438
67.714981 -71.468414 -234.142136
-140.572220 -80.700264 -234.418610
74.470886 -70.018311 -226.119217
-19.681824 -77.279221 -232.067490
-140.765259 -82.083649 -230.483490
72.668823 -74.176880 -228.518265
12.502495 -76.840004 -233.716141
-146.088318 -73.358101 -238.105865
-154.915268 -71.962311 -228.549942
12.581015 -73.780975 -230.904358
-3.308809 -75.992950 -232.631470
-21.309452 -81.226158 -236.943588
0.104336 -72.867645 -243.355286
-161.811295 -69.545868 -232.659744
7.620955 -74.575813 -239.188705
-160.650131 -68.025337 -238.081268
-16.355974 -74.340546 -235.494141
66.102303 -77.701881 -242.852707
-13.198728 -73.809929 -239.812073
-27.544359 -72.957840 -240.277298
-25.497219 -72.317490 -242.706406
-14.066753 -73.641144 -241.363297
-142.604172 -77.991127 -237.068024
5.749974 -79.500183 -243.030518
60.027016 -77.454651 -240.102798
15.782052 -74.005417 -243.830185
-163.793167 -70.957039 -238.714737
-53.733513 -72.640450 -243.599976
8.762482 -71.731514 -251.039093
18.962994 -77.047737 -248.891373
-54.853447 -78.958778 -239.555832
-1.405193 -74.127106 -240.705811
24.837513 -73.600670 -241.529114
-164.361618 -71.799927 -247.276672
-77.943932 -74.687202 -242.078308
-56.480309 -76.387070 -248.972488
-82.932983 -80.642494 -248.333435
-157.722687 -75.452057 -251.062668
-150.914169 -74.583839 -248.089722
-54.612701 -70.584618 -256.229156
-69.611404 -75.019981 -255.513000
-149.063538 -71.602715 -256.915039
-146.943954 -71.101662 -253.764221
-71.144089 -76.511589 -251.936554
-94.422562 -71.155197 -248.754135
-163.957428 -78.099648 -246.021744
-150.620255 -78.281136 -256.857971
-138.214996 -72.698723 -255.690186
-90.017311 -78.883469 -255.517654
-164.832687 -76.651199 -251.830505
-137.973404 -80.043564 -256.080353
-84.750931 -74.572021 -250.794647
-94.295029 -69.702980 -258.670837
-142.419113 -71.647179 -254.536179
-97.911415 -64.903084 -259.388519
-154.203201 -74.639297 -247.755753
-95.585823 -70.088081 -263.668884
-171.380798 -76.858131 -258.668732
-156.451553 -71.237320 -258.230408
-125.494026 -68.485893 -259.672028
-154.735703 -73.545753 -257.550446
-111.820374 -66.129845 -263.994446
-9.763961 -76.331352 -258.711609
-144.971741 -77.060379 -261.884552
-123.033890 -72.045097 -260.178192
-155.407410 -73.519867 -267.998108
21.648468 -69.091644 -268.207153
-146.492172 -76.657959 -282.012024
-164.618011 -75.862244 -279.857269
-10.246898 -69.712860 -274.262085
-145.350662 -73.894859 -279.682587
-9.922234 -75.196289 -287.067596
13.144663 -75.324387 -287.615723
-134.789352 -83.092888 -288.346008
-76.063896 -79.523949 -284.918671
-38.040497 -71.296509 -287.137695
-114.694984 -73.849327 -286.591431
-89.827911 -73.659576 -291.344879
-89.364685 -69.914375 -290.184479
-49.504005 -75.838326 -285.678497
-114.518005 -78.948112 -285.173340
-109.065712 -75.735268 -286.787567
-28.912983 -74.503319 -284.424347
-115.910347 -71.869637 -295.799561
-122.678032 -75.144249 -293.613159
-140.583786 -72.508789 -288.865967
4.278030 -69.696213 -288.990417
12.401328 -74.000313 -295.562927
-155.102386 -76.316711 -299.237244
-151.963181 -75.831139 -301.335022
-134.798248 -69.469498 -310.108978
-151.811661 -72.846458 -315.211273
-148.385727 -76.076302 -314.636597
27.570450 -72.273979 -16.863884
23.162748 -65.573662 -10.818524
13.178788 -64.625137 -21.294886
30.256712 -69.264938 -43.617382
-59.637398 -76.692368 -49.456741
-61.721859 -71.490524 -46.453773
-41.570095 -72.789787 -57.518753
-76.606049 -76.938484 -54.645039
83.757652 -72.979340 -73.871002
-19.661682 -76.219391 -64.683067
90.170387 -72.148445 -70.006920
101.202850 -77.934494 -74.593300
-90.475189 -71.930672 -76.974022
66.819199 -66.868347 -87.137909
-40.389660 -72.082840 -88.814217
97.534309 -69.085327 -82.795120
-52.727158 -71.901886 -84.356873
53.105694 -73.319069 -86.944771
68.437828 -74.055931 -96.690750
58.820278 -73.240318 -93.283821
60.019665 -79.247986 -97.262978
75.079269 -72.539017 -96.174179
45.321144 -72.314476 -100.210289
105.727203 -79.330322 -99.211365
107.310257 -74.776512 -106.142792
83.094933 -67.834419 -102.872139
82.945251 -76.005753 -99.597183
105.310043 -71.390976 -94.830170
112.721352 -77.344498 -101.883263
38.461033 -74.017426 -101.379288
117.425873 -70.649345 -121.418312
107.417274 -79.201797 -121.386314
27.140652 -73.420212 -131.720840
43.874722 -76.750122 -124.693779
118.916679 -70.469009 -123.709282
36.670776 -74.232590 -135.170120
106.900688 -76.042778 -127.975037
111.966576 -68.540649 -121.046051
26.405214 -69.470505 -138.173752
-46.538780 -74.715950 -132.210144
-52.077480 -69.019073 -133.301010
105.529518 -78.008499 -136.726288
-69.304413 -76.673645 -138.764359
-75.927208 -76.658806 -137.404694
-54.738941 -73.842339 -139.788788
37.460606 -70.620834 -138.021301
112.503571 -82.596611 -144.940231
-66.380112 -74.122826 -153.550125
-49.176582 -70.402618 -148.728836
30.781616 -70.578880 -153.285431
-71.101547 -73.058418 -141.816696
114.233574 -72.740868 -147.092621
110.251869 -75.517822 -154.546555
113.890724 -75.667267 -150.061920
-34.925606 -69.457588 -156.918182
-61.734993 -76.779037 -166.562973
-72.890640 -74.656616 -155.286179
36.001835 -75.210922 -149.578369
-5.138454 -79.902702 -163.814499
111.124641 -73.002388 -157.926926
118.270485 -72.189659 -152.981140
115.826485 -77.095139 -150.772186
-66.881088 -66.435486 -161.861343
-48.150040 -71.501961 -164.410690
-1.335695 -70.503159 -168.341019
-27.840050 -69.501297 -174.108505
105.224228 -73.497841 -162.810287
-37.738968 -77.081223 -158.979996
110.966286 -74.735497 -172.634720
-45.300388 -72.236618 -167.776764
113.184479 -72.835747 -170.865952
-148.443680 -73.482216 -179.878708
-27.584721 -70.044289 -172.528427
-15.719620 -75.007294 -181.019531
25.174755 -77.589630 -175.807541
19.318869 -71.626732 -184.540680
21.336266 -79.352249 -181.093170
101.501656 -77.420601 -182.820084
-148.194809 -75.887947 -187.812897
-18.162481 -83.480171 -185.833984
110.244255 -72.073174 -176.630234
95.788139 -73.606895 -189.705017
105.163239 -76.946930 -180.408356
98.777580 -73.364784 -197.239044
-151.687271 -73.421211 -204.174423
99.886650 -76.614555 -199.004364
-31.844278 -72.127571 -196.801407
97.329323 -66.063263 -197.860306
-121.397987 -69.042915 -206.948425
-19.593021 -79.469048 -187.040436
-140.140930 -77.049927 -199.826660
95.092918 -70.416618 -203.330521
11.855289 -81.951180 -197.780731
29.461605 -82.317291 -196.464630
-146.004929 -72.615601 -199.687683
-145.246338 -74.484795 -192.104950
-7.020976 -76.376915 -203.163040
-122.064140 -87.202843 -200.306732
-135.742172 -74.681328 -202.540070
6.344897 -69.072357 -206.404694
-14.037299 -80.064903 -201.473770
17.042002 -77.348167 -203.065506
12.857950 -69.635986 -216.073410
90.320999 -74.089935 -206.673615
-18.314402 -69.093475 -212.209412
89.647003 -72.827637 -208.554352
97.512024 -68.840996 -207.879883
-146.857620 -71.185013 -214.863419
91.497803 -75.451248 -208.439743
12.700973 -68.182785 -210.530701
10.822726 -74.239258 -209.649841
-36.285931 -71.789047 -209.357147
-85.935844 -69.890038 -219.337387
-30.664009 -74.453758 -207.451172
90.469444 -81.618416 -217.991669
88.997643 -75.565277 -216.078247
-23.935026 -70.791718 -205.199356
-84.792931 -67.266190 -215.429260
1.209332 -75.397018 -218.890289
85.694237 -71.455437 -211.228424
-150.513596 -74.496788 -225.615250
-162.802460 -78.562317 -209.710922
-159.011261 -73.636383 -222.710831
-17.754148 -70.703308 -230.951248
-151.211166 -69.266891 -232.641861
-8.156930 -71.751236 -223.700531
9.492099 -72.532509 -220.030670
-162.932968 -75.197716 -225.359528
-165.590332 -73.266609 -227.463806
71.750061 -72.086754 -229.646179
4.538046 -69.112701 -225.075073
-154.869904 -73.567673 -232.409775
-140.394257 -74.556236 -229.963303
-21.486534 -75.612633 -223.408478
1.057735 -76.153336 -232.848404
79.066307 -80.538506 -218.568024
-159.922989 -72.188637 -225.995895
-139.908081 -73.113663 -229.742599
-126.383492 -72.289673 -229.319534
84.878685 -71.247215 -227.586929
-115.834106 -71.426117 -221.250427
-152.212509 -69.961037 -234.975052
-148.938034 -72.656738 -229.359009
-143.729202 -76.547890 -232.393692
-153.094971 -74.623863 -230.975266
-159.638702 -70.746841 -228.677689
-134.138550 -81.566055 -236.215027
-134.703247 -72.889168 -236.107315
-151.747330 -74.610931 -230.105087
-140.180649 -61.739719 -231.813568
-152.874542 -70.322685 -240.982895
72.308426 -69.633934 -233.013977
70.366211 -73.604256 -232.612427
-160.773285 -71.465668 -230.786575
68.156815 -72.685989 -225.992752
-17.828562 -67.010025 -236.301163
12.036595 -75.962921 -233.710617
5.282544 -68.602081 -241.474899
-147.748154 -71.953194 -246.453125
13.508211 -70.262787 -236.568405
68.776512 -66.081596 -237.083252
18.330154 -78.513809 -238.651520
6.290726 -68.393852 -236.867569
-6.972848 -70.111389 -241.828674
-23.757200 -71.629028 -239.503906
2.890661 -71.672668 -243.461304
8.754765 -72.535286 -246.352859
57.358978 -76.166222 -240.307907
-51.317047 -76.863434 -245.195450
18.705980 -73.122360 -250.274582
-62.355595 -72.020134 -246.206467
-5.862848 -67.530571 -244.539780
-68.506927 -67.631889 -243.369934
-94.683220 -74.862137 -248.129852
-89.904282 -64.826225 -251.769409
-6.619996 -72.600632 -250.122620
