# This PCD file was generated using the MATLAB® pcwrite function
# from Computer Vision Toolbox®.
# .PCD v.7 - Point Cloud Data file format
VERSION .7
FIELDS x y z
SIZE 4 4 4
TYPE F F F
COUNT 1 1 1
WIDTH 1448
HEIGHT 1
VIEWPOINT 0 0 0 1 0 0 0
POINTS 1448
DATA ascii
-67.128372 -61.264099 -111.729744
-84.777695 -63.509102 -110.725410
-77.432327 -61.416100 -116.693283
-73.196777 -63.962643 -119.741821
-66.551964 -64.224426 -120.832184
-84.619797 -62.887798 -124.898911
35.885559 -61.320374 -127.638283
-49.921711 -67.678329 -129.951111
31.927589 -63.093712 -131.826706
32.013786 -63.735840 -134.040970
33.583679 -60.498280 -135.387436
-51.833874 -61.749138 -137.394363
20.220253 -61.795052 -144.675201
27.782999 -64.210571 -144.244720
-144.321732 -63.550648 -177.803070
-149.218628 -61.680786 -175.084366
-151.040619 -61.989243 -178.946213
-147.616379 -63.538525 -185.722260
-144.527985 -62.987564 -185.908768
-144.929291 -64.044594 -193.992126
-146.138794 -66.466278 -193.507263
-147.796204 -61.855476 -200.633942
-124.476242 -62.211269 -204.284485
-133.118179 -61.507099 -201.239258
-144.897324 -64.551514 -208.552460
-146.676392 -63.543530 -224.340317
-152.510864 -59.927948 -225.613007
-145.828262 -59.199814 -230.042252
-153.435837 -61.156837 -223.378860
-150.142944 -61.677410 -233.389343
-148.331909 -60.685726 -229.149292
-144.624817 -65.767021 -229.809479
-143.030533 -62.241741 -233.222748
-149.332687 -62.764870 -234.699265
-153.027802 -65.495522 -235.110962
8.609824 -63.362843 -238.693329
-11.229808 -66.096687 -242.008453
-148.008301 -62.362198 -236.730392
-150.122726 -63.081367 -237.605209
-151.839813 -61.216286 -236.451004
10.013741 -62.936855 -245.077652
-152.585678 -61.591190 -240.818771
-146.986786 -61.561043 -253.458969
-2.114682 -60.796852 -250.968658
-149.795349 -61.868286 -252.174103
-147.802048 -63.293774 -252.116150
-147.041611 -61.789570 -254.362778
-141.516983 -62.395729 -258.185577
25.586319 -61.391968 -257.312775
-149.026489 -63.252014 -265.717377
24.827190 -62.209793 -269.866669
14.363097 -67.034874 -288.245056
3.437469 -62.649597 -289.731476
10.676072 -62.901676 -291.613495
31.745832 -61.692997 -20.595825
-43.521465 -61.551350 -46.297874
-92.176704 -60.340969 -51.338886
-93.648216 -61.291237 -61.560509
-17.398335 -62.517910 -66.860855
100.680244 -61.702415 -65.364243
101.604347 -65.311127 -70.692528
104.851006 -59.252350 -75.277664
102.906609 -64.126160 -80.749077
-45.431309 -61.551754 -80.822182
-49.742947 -65.348671 -82.030411
-60.129463 -61.766273 -83.670296
59.734360 -60.675583 -87.146637
56.024475 -57.616982 -90.309776
55.918194 -59.606457 -88.904747
-66.042686 -64.636040 -97.501373
-98.537781 -60.539391 -107.518692
81.410011 -64.098625 -109.427650
-78.354996 -65.470764 -113.048767
-67.295601 -59.023197 -112.286011
-81.793350 -60.459389 -110.185211
-84.046165 -62.339455 -114.088074
-79.680717 -62.816605 -117.461014
-69.438309 -63.080891 -114.373756
-66.117195 -62.118206 -117.786331
-80.173553 -61.052509 -116.905853
-78.892929 -61.204113 -116.371017
-66.567886 -61.619572 -120.729752
-84.094246 -63.368465 -121.299019
-72.162216 -61.755222 -121.144493
-78.035347 -65.319702 -129.652771
-75.606071 -64.613808 -129.906754
30.967752 -58.382240 -127.963356
-54.237915 -62.317188 -131.405685
25.533258 -62.257530 -133.489639
22.786959 -60.526985 -135.503586
-146.072922 -60.527893 -192.151459
-138.621353 -63.996502 -200.931229
-155.045380 -62.247406 -200.501358
-147.871567 -61.988468 -200.927261
-154.465561 -64.095001 -201.995819
-148.996521 -60.461231 -203.144440
-142.958740 -60.207573 -201.386673
-148.798508 -62.981022 -205.141525
-149.451859 -60.859222 -222.211838
-150.507370 -60.018406 -224.351532
-143.693741 -59.483795 -223.045654
-145.113388 -61.168404 -223.689163
-148.112823 -60.728977 -227.093246
-143.738846 -60.271454 -225.520828
-140.726685 -61.495090 -228.028656
-141.864868 -59.388233 -227.091629
-141.340210 -63.248966 -230.754318
-140.547104 -60.869801 -231.909592
-147.944305 -61.056164 -235.226334
-148.421341 -62.274494 -233.761765
1.724954 -65.145332 -238.099213
17.771589 -59.086182 -240.073105
18.751110 -61.994823 -240.669708
22.967009 -62.918179 -253.011261
27.050312 -57.843029 -259.947998
4.195511 -62.424202 -264.730530
25.021297 -63.809200 -278.585388
1.440554 -63.317810 -280.930695
6.047908 -58.595158 -289.881287
11.199617 -63.103619 -289.591339
31.863409 -58.933151 -37.410027
-27.566010 -62.858982 -49.372921
-19.736980 -62.446548 -50.153835
-8.989470 -57.173805 -53.133495
-10.340766 -63.256313 -57.329727
87.840919 -61.920025 -59.102043
93.669922 -63.626564 -62.160614
-101.513466 -59.575230 -70.524849
104.197418 -62.854950 -72.465202
-60.432983 -60.101437 -80.621902
56.315536 -57.180874 -83.606903
66.879700 -62.935825 -92.904396
-64.384392 -64.262215 -89.528252
53.372536 -63.221840 -92.854660
60.732574 -62.245132 -91.359291
104.949516 -62.891075 -97.788864
-62.779942 -62.531849 -96.418976
-67.546638 -58.213169 -101.101212
75.357605 -60.126057 -107.036400
80.957161 -57.849667 -106.508240
-78.682877 -61.992859 -107.109383
-64.596619 -61.393379 -112.921730
73.609230 -57.654392 -103.976501
-81.463860 -58.854446 -113.929581
40.162460 -60.073795 -117.827530
-80.989944 -61.010464 -120.840714
42.748421 -61.562496 -119.527832
-88.431290 -62.884258 -116.110146
-96.534294 -61.760483 -124.776657
-65.455437 -64.342804 -122.360435
36.421921 -59.677635 -126.764954
-64.842331 -63.630455 -127.331299
-61.084427 -62.109364 -134.478241
-56.578659 -64.224731 -138.725906
-146.376266 -60.283150 -196.280151
-141.991150 -59.568306 -198.289948
-148.849792 -58.592541 -193.491318
-149.464081 -59.511539 -192.584930
-153.729233 -63.419323 -197.001953
-148.417709 -62.401695 -198.831818
-139.842026 -58.887180 -197.677109
-140.079407 -60.788639 -199.850220
-145.469284 -60.972427 -200.422287
-146.338226 -61.212978 -202.877136
-153.069534 -60.711498 -204.300018
-145.675201 -60.031818 -205.653442
-148.358673 -62.197105 -207.965881
-146.767090 -57.756878 -206.459351
-150.625366 -60.920605 -204.686020
-147.212463 -58.991901 -225.097229
-7.273290 -62.517376 -237.216873
5.474607 -63.142448 -240.285675
13.059507 -60.667126 -243.759369
5.985885 -62.782536 -245.706070
-3.699044 -61.054825 -244.290558
20.655096 -62.894020 -250.693237
1.565539 -63.287502 -259.107697
28.538153 -59.820549 -260.747009
7.525852 -62.014324 -269.546265
26.889175 -59.534195 -265.858398
17.183874 -60.041042 -282.045410
32.413086 -62.755703 -12.397894
-67.668373 -60.802513 -44.423412
-36.440701 -62.288353 -46.555042
-11.549500 -58.481266 -53.780964
70.080231 -64.112480 -64.637718
-27.460600 -63.588753 -72.074211
-31.642826 -56.567661 -70.109764
-35.122837 -58.469761 -72.041519
-31.208469 -60.564606 -77.646217
-41.128845 -59.504860 -79.493126
63.609661 -60.232296 -81.883156
105.084404 -55.560593 -86.129128
65.560364 -59.614704 -90.064728
66.014648 -59.140846 -88.663826
102.917252 -61.991058 -90.219955
66.230331 -64.405869 -91.077721
-73.722038 -58.736420 -100.908257
101.400887 -62.412968 -101.705215
99.578201 -62.407490 -104.287186
-63.673798 -60.549183 -103.227394
-75.650925 -59.308678 -108.858170
53.624413 -59.088215 -108.082924
79.327110 -62.173069 -107.876617
-72.652351 -60.180370 -108.792030
93.593567 -59.108791 -109.288429
57.453316 -58.858139 -101.989624
-71.279045 -58.439140 -109.616623
46.426815 -58.637127 -109.504326
-66.630524 -54.683376 -106.545418
-59.949905 -61.772377 -110.029976
44.736900 -57.778923 -109.965889
-59.657955 -60.318489 -114.063927
-79.916939 -60.876713 -112.542137
-56.229183 -64.285225 -119.924065
-77.276611 -63.006142 -114.415642
-82.093201 -59.831753 -119.593498
36.245987 -60.597595 -123.619728
-94.387642 -63.807957 -122.584755
-53.459381 -61.457577 -131.074509
37.299442 -59.161674 -130.731598
-59.996212 -59.157040 -134.239944
21.479536 -60.921425 -137.261047
28.720980 -57.698627 -135.323196
29.590694 -61.130318 -137.960556
0.432393 -60.344421 -243.702072
11.230660 -63.135715 -241.684296
-1.613945 -59.291168 -244.907623
2.511814 -59.298306 -244.516571
1.531995 -61.674538 -287.179291
28.446346 -58.235424 -13.242042
23.112490 -66.175705 -17.231524
39.032490 -60.966938 -16.880129
21.601229 -59.145649 -20.505398
42.841187 -61.594585 -26.988466
39.766434 -53.789402 -41.405739
-47.646137 -57.971542 -43.787029
-9.492806 -64.016632 -61.082035
66.697952 -59.077454 -66.884239
63.912544 -60.761444 -84.205956
-97.996582 -58.357845 -86.718643
65.270638 -57.491325 -100.805016
86.865570 -59.222305 -101.360115
64.643608 -59.388126 -98.680199
-74.630226 -57.089622 -102.254982
86.148994 -54.981537 -108.303818
80.959000 -58.489017 -108.062210
85.162552 -62.234409 -108.962486
-69.169815 -60.222561 -114.809143
47.915451 -61.267448 -114.150055
-80.834869 -60.808571 -122.631599
-56.730999 -61.177841 -121.503868
-83.694145 -60.678349 -114.102066
-67.562653 -58.425945 -118.435860
-89.502098 -58.294788 -120.740166
42.139400 -60.290771 -119.998199
-58.956303 -58.609459 -123.663315
-62.809494 -59.068993 -130.356628
31.045891 -60.044395 -135.658249
-0.236857 -59.045727 -242.330521
23.794958 -62.970848 -245.205490
7.365600 -53.917564 -250.083115
18.807901 -56.469299 -249.055649
23.850681 -60.631874 -272.508453
-17.299242 -54.395611 -268.030212
-9.043469 -59.898354 -279.882080
21.643339 -60.738422 -279.729401
12.133669 -59.174873 -288.859253
11.732429 -57.814133 -291.644043
48.401382 -64.181374 -19.583805
45.097660 -55.852703 -20.120834
-54.318977 -58.660362 -42.001705
-82.932396 -58.453987 -48.715168
-84.120445 -62.055595 -49.714935
-28.972759 -60.416023 -48.183365
-16.589039 -56.209946 -51.596058
87.391548 -61.190002 -61.850510
73.291412 -58.453564 -57.226711
-12.907686 -59.374569 -65.860313
-18.877224 -56.187016 -60.296539
100.414085 -59.840454 -70.021439
66.589050 -55.812305 -67.724518
-67.553589 -58.678181 -72.227371
65.295059 -54.658031 -74.290016
63.357304 -62.135429 -84.642960
-60.509392 -57.113377 -85.364555
60.919594 -56.103767 -82.553665
78.751465 -55.840744 -87.315720
56.771797 -54.289066 -89.361443
105.654579 -60.796005 -95.431107
82.159660 -57.296070 -96.213028
-100.287277 -60.198456 -98.054207
105.078125 -56.240845 -101.780731
-75.405487 -59.577873 -103.344681
75.136673 -56.628979 -102.950516
72.571167 -58.877319 -107.475670
75.106262 -57.881458 -105.534645
64.976997 -58.772831 -103.326965
80.675774 -56.884617 -103.904160
58.917694 -59.694008 -105.493477
88.671921 -60.995922 -109.751328
-73.398453 -60.357716 -118.428619
-61.392857 -58.418633 -112.790207
-88.198624 -61.098682 -117.976776
-95.793694 -59.531284 -116.571983
-67.464325 -60.150162 -122.402527
-60.424835 -58.102360 -116.998070
-55.432785 -56.321407 -125.302315
-66.966591 -59.496578 -125.493118
-61.902233 -57.640057 -124.339912
36.831020 -59.824856 -121.079842
-65.488998 -57.573284 -123.758400
-67.071983 -57.625092 -125.206001
-56.625053 -57.384861 -134.371994
29.079910 -57.979660 -131.081757
20.870687 -62.782352 -243.758575
3.344505 -56.862572 -242.074158
11.553304 -58.510395 -243.725616
4.004916 -63.029434 -260.865875
-18.307192 -56.124104 -261.107635
-13.846631 -57.771793 -262.040375
-17.500843 -59.045143 -261.195953
-17.273111 -56.258770 -263.117065
-17.343086 -57.862629 -260.509491
-18.179190 -60.571053 -261.758179
-20.834021 -57.895267 -262.827393
12.703868 -58.228252 -267.621094
-17.421534 -59.089066 -270.969666
-15.301320 -60.204067 -271.861145
-8.579999 -56.827595 -280.279785
18.727228 -58.797897 -283.812439
37.571941 -64.362755 -12.906404
41.223743 -63.436588 -14.270797
44.954548 -59.717213 -16.232878
21.836502 -52.009819 -16.305979
48.363243 -51.814236 -20.002275
47.612183 -59.563412 -31.295898
49.488438 -62.098091 -32.118217
34.471416 -65.006691 -35.607281
45.903316 -59.477470 -39.872604
29.578289 -60.141396 -40.492622
43.376595 -59.071548 -38.823174
-88.868004 -53.592880 -51.595486
84.665596 -53.830986 -59.448574
93.067413 -58.455956 -58.739647
73.422760 -57.729488 -61.353107
97.698105 -58.300167 -62.926029
98.179558 -57.041412 -64.209953
65.392975 -56.522167 -67.520180
-64.336899 -56.310287 -66.488831
102.460251 -57.779667 -68.497154
-99.927460 -56.407558 -74.999535
106.352119 -57.196465 -73.562996
-46.769321 -61.021069 -79.369202
104.994827 -59.232449 -79.487427
-50.978096 -56.095585 -80.855690
62.284275 -59.514114 -77.035675
61.749542 -55.272713 -83.716454
85.220963 -58.338444 -88.429474
-67.056396 -62.011322 -94.338959
90.134720 -53.554649 -93.135727
66.932480 -57.948452 -96.935455
65.717560 -56.229374 -98.182526
81.742332 -56.805611 -98.125618
76.232071 -59.274906 -100.123505
93.244026 -57.713890 -100.691284
70.267212 -58.015446 -100.988007
57.686771 -57.233101 -104.188446
-63.804035 -59.259914 -105.899918
-67.563293 -58.158939 -105.713989
86.380707 -56.134823 -106.367004
49.491714 -57.377460 -104.810150
96.797180 -57.047443 -109.335579
88.869057 -55.107513 -108.634079
-60.374298 -56.599094 -109.335579
-64.012642 -54.885677 -104.419563
-72.871002 -58.748547 -111.417351
43.220779 -58.829559 -112.783363
-79.344826 -56.074017 -116.149368
43.447952 -56.445602 -120.470795
-57.608765 -59.639744 -120.760376
39.075615 -55.749226 -115.284180
35.266232 -56.201889 -124.922653
40.036728 -56.703396 -123.588943
-63.537273 -55.010139 -127.653946
31.924055 -56.728531 -129.205048
33.116116 -58.749104 -132.099304
-5.226398 -62.557816 -236.614105
5.124663 -55.909336 -239.947830
8.223201 -57.689938 -242.188507
13.256638 -56.332256 -243.277481
7.365454 -55.246719 -248.673630
22.522110 -59.112938 -250.252686
-14.108099 -54.323162 -252.221649
-19.868067 -54.998409 -251.644943
-17.931145 -56.310097 -255.948288
22.601341 -59.857178 -254.377014
-20.641659 -54.725845 -260.296692
-18.422892 -56.211308 -262.274963
-14.310094 -60.183617 -268.297089
-19.050186 -56.162289 -264.087494
-16.649500 -55.257000 -264.280762
-14.182813 -55.833359 -265.867462
-14.059955 -55.499630 -270.683563
-14.505835 -60.210098 -271.522339
-16.665058 -56.514759 -271.787872
-12.396894 -54.870441 -278.017212
9.883812 -59.332996 -278.569092
-10.929523 -56.633358 -280.894104
-11.134867 -56.167511 -278.444733
-12.811762 -54.635311 -279.354858
-8.236796 -55.651058 -280.328827
-8.759209 -56.657494 -280.240021
-9.511770 -56.391918 -281.947052
11.193479 -55.639355 -280.918640
12.893166 -55.537479 -286.983673
-5.424369 -55.803654 -283.931091
-3.164081 -58.122841 -286.582245
0.595578 -58.372772 -292.676208
32.801807 -64.358940 -13.273981
32.608829 -63.980202 -15.265582
38.577358 -49.710865 -19.060440
26.495731 -52.049412 -22.637892
-75.723946 -60.840527 -46.636593
81.466942 -55.036743 -58.300110
-10.966697 -52.793804 -57.923782
-26.379822 -57.273064 -63.115391
64.009254 -53.355515 -61.408730
-67.694153 -55.605011 -66.609825
-102.272331 -54.544952 -81.854889
105.265564 -52.732162 -75.319580
-51.563049 -60.980579 -79.489136
-37.758762 -58.233807 -80.650467
74.554222 -55.027622 -85.777771
-62.317776 -62.030937 -85.273033
85.807930 -53.101376 -84.762779
-62.796146 -55.291687 -87.044243
90.132858 -55.752026 -90.005997
-67.758087 -54.257751 -91.312889
64.331528 -55.919151 -87.337265
62.926254 -56.151886 -94.189331
-99.011955 -56.488998 -89.898346
64.767288 -53.899223 -93.075150
72.790337 -54.820148 -97.213219
103.808243 -55.882637 -95.651001
81.164467 -55.154785 -98.765686
101.799088 -59.336895 -103.462753
92.761581 -53.931110 -106.090462
61.922764 -57.594784 -108.579781
93.801170 -57.416729 -110.564018
96.470116 -56.389931 -108.608070
54.647163 -57.267071 -110.214767
-98.613594 -62.013176 -116.175995
-80.125801 -56.213734 -116.671524
-66.477470 -56.285229 -118.334023
-72.592476 -54.191467 -116.893471
-63.224602 -56.361664 -123.693443
40.005661 -54.780453 -119.584351
37.416988 -55.290272 -126.777351
41.049683 -56.650074 -123.719231
-64.521523 -52.452377 -124.580261
-59.287128 -55.048122 -127.039024
1.478016 -56.730030 -238.408203
4.487771 -57.263931 -236.932404
5.792135 -56.464306 -238.366196
-1.480010 -54.874912 -241.513382
12.981317 -58.512978 -242.203674
9.987829 -55.603004 -248.291946
-18.414568 -57.552124 -247.776337
21.159641 -56.324898 -247.491013
-18.023098 -54.303089 -253.670029
14.479193 -52.532330 -252.184296
22.275322 -53.239758 -254.029205
-15.380124 -57.261486 -258.117065
26.090666 -55.669441 -262.419830
-14.018046 -58.922844 -260.965942
-14.346594 -58.030682 -269.242676
-5.729643 -57.563217 -278.917114
24.399727 -54.490700 -271.878723
15.833692 -57.482635 -281.225525
-5.397260 -55.883091 -288.669769
-9.398808 -57.294224 -280.777618
13.119700 -55.823814 -291.127533
13.532944 -54.749428 -295.452911
6.176134 -57.121025 -293.357147
28.944946 -58.753643 -24.012503
17.422462 -62.460934 -27.482981
25.642477 -60.402336 -30.850121
26.602747 -56.959232 -32.345531
21.535952 -62.383884 -35.065804
38.826664 -56.236870 -35.913769
25.135845 -51.700329 -39.880848
-61.005760 -56.598511 -40.136066
-72.187729 -57.064396 -40.802265
-51.456638 -57.862888 -43.421730
-88.434120 -48.496269 -48.012913
70.306847 -55.107471 -60.473347
94.392586 -50.520485 -62.071938
-63.395557 -55.382282 -71.020119
-40.874084 -59.555317 -80.103729
63.722916 -53.346478 -80.292030
67.639015 -54.437321 -86.527824
65.373833 -55.404091 -91.164932
69.033043 -55.014267 -93.057846
96.272850 -54.446644 -87.732819
95.208237 -54.249706 -93.910576
96.289993 -54.681511 -98.293739
72.503754 -57.049671 -99.033157
98.025879 -55.429020 -104.947281
66.378166 -54.021770 -103.912483
52.848843 -54.639793 -104.329597
-60.803978 -54.336407 -104.871925
-72.075935 -54.882881 -107.743401
-74.175926 -56.655865 -109.134850
46.872250 -55.013466 -109.526024
-62.836952 -54.145191 -106.261841
48.649647 -56.424435 -118.433853
45.892307 -53.947708 -113.565582
-60.046471 -56.723000 -114.144028
-65.942329 -54.542706 -114.202950
41.303749 -54.561657 -116.845177
-15.827833 -57.975910 -239.607834
-1.917331 -55.709332 -239.861633
-7.132083 -53.828117 -241.308075
6.033692 -53.812817 -238.862869
-12.056993 -55.410122 -240.960831
4.530671 -57.109386 -241.703201
18.460964 -51.933247 -239.935959
18.096500 -56.176918 -240.083374
-18.697521 -56.991280 -241.764420
22.959284 -53.799179 -245.944885
-19.645918 -52.737656 -247.819061
-18.380470 -57.132416 -253.580032
28.076836 -53.317101 -249.585037
24.292171 -55.787918 -259.582642
10.584823 -59.776188 -259.997375
26.722841 -56.131187 -256.885254
-14.606499 -52.527344 -260.953644
-14.433786 -57.403427 -260.798187
-15.152241 -50.422089 -266.900024
23.726173 -56.306309 -266.484558
-12.683416 -54.332806 -271.243805
12.311140 -54.574745 -271.849548
21.306677 -54.636234 -278.697083
16.357897 -54.378548 -276.710083
-10.890159 -54.923080 -280.608643
-10.192655 -54.537052 -284.296844
-7.495029 -56.911804 -287.914093
-5.780748 -54.804039 -288.992371
1.664196 -57.035755 -290.668549
0.768114 -55.380138 -292.568726
9.486080 -52.300041 -293.695099
22.019711 -53.893734 -33.951744
32.050339 -67.057297 -36.246643
33.056118 -62.180542 -41.610119
-57.701790 -56.139553 -42.073898
-41.506248 -57.277149 -47.032154
-21.165956 -58.109768 -50.111958
-9.710146 -55.011402 -53.332153
-94.732155 -56.220207 -60.013519
-9.685538 -58.603271 -60.547035
-60.338692 -57.091892 -63.939850
99.116211 -55.579216 -63.505131
-100.863457 -54.050278 -68.630112
-62.893414 -50.328079 -68.474686
62.423969 -55.693813 -72.814346
62.771709 -51.222527 -78.634109
88.174835 -52.656124 -76.344849
-42.622547 -56.063587 -80.450111
72.581604 -54.154243 -78.924927
106.191582 -55.857719 -84.289162
64.722725 -55.787262 -86.438683
94.338341 -55.409779 -83.930016
-56.921886 -56.350220 -84.156128
103.830284 -56.137062 -92.608437
84.721428 -57.114227 -95.406441
78.122971 -52.510082 -90.899078
95.389160 -56.528130 -93.661583
96.681496 -53.299541 -97.065910
76.653526 -54.298233 -99.588264
87.699905 -53.436073 -97.890137
62.654209 -54.702690 -97.964096
-100.128510 -56.198128 -104.625023
60.396313 -53.714153 -104.324554
-68.980927 -53.995342 -109.455956
53.479492 -52.132492 -107.959641
-69.656227 -55.072914 -112.560623
-60.462902 -55.723827 -110.525146
56.168266 -54.338665 -108.126900
53.627823 -52.348473 -104.506760
42.567776 -54.499447 -112.724289
-77.880943 -53.776920 -113.367889
-68.362389 -51.760498 -105.596519
-68.059288 -55.386887 -114.883461
-84.331757 -55.054230 -119.518555
-71.424026 -55.533615 -116.738655
-57.585289 -54.328381 -125.244835
17.717497 -55.942329 -236.479431
-6.309031 -53.068684 -238.611954
8.350295 -52.877228 -241.234970
19.021120 -55.337109 -239.139236
-15.773533 -51.878769 -242.354019
-2.087888 -52.021454 -240.930679
-12.282963 -54.561604 -242.404175
20.509865 -55.572094 -239.145920
21.265789 -54.322300 -239.578583
23.937220 -53.630283 -248.342316
-13.008215 -52.583206 -251.538330
23.925304 -52.503117 -259.551392
27.021826 -53.352360 -262.854828
-12.892771 -56.146786 -265.875183
28.059710 -55.336662 -266.990326
25.274996 -53.211037 -270.489349
24.222731 -57.372982 -270.522552
21.169888 -52.373055 -273.761230
22.284477 -53.794022 -279.004028
-5.337176 -53.792133 -279.518158
-6.483709 -52.980846 -281.686737
16.246492 -55.759296 -280.409851
25.547182 -56.586166 -281.123016
-6.150480 -56.323399 -277.103241
20.074425 -53.455830 -285.659698
-2.990026 -52.632767 -287.247345
18.484144 -55.935295 -281.286926
4.054976 -52.221996 -292.533722
11.138116 -55.329037 -289.156616
1.271275 -53.017540 -292.874237
2.368885 -51.963451 -295.448547
5.793551 -58.157665 -294.961426
32.946217 -52.678936 -12.120188
23.630447 -53.254810 -16.572123
42.264057 -50.167118 -19.916821
21.022440 -51.824348 -21.957233
20.060347 -52.576744 -26.440269
26.928133 -50.989201 -33.514301
48.938633 -60.980167 -35.856644
31.483038 -50.444336 -34.241203
25.643322 -55.558197 -38.568298
40.242764 -52.876816 -40.142193
33.420650 -53.072746 -38.284309
-75.493134 -54.868553 -42.049252
-36.152287 -54.130920 -48.439350
76.978432 -52.997471 -59.533241
-63.614784 -51.775757 -60.308067
-30.432194 -55.972309 -62.600365
-36.667412 -48.588707 -65.782379
-36.726112 -52.674572 -77.368217
82.728065 -53.964001 -80.808472
74.633759 -53.696899 -77.357056
65.321625 -51.578972 -80.035995
-51.867844 -58.054146 -83.061661
-56.948807 -52.956966 -87.749252
-70.577164 -57.036907 -96.401070
71.280884 -51.660599 -98.479836
89.039093 -53.234882 -94.361900
89.001579 -52.947784 -96.805542
80.777908 -47.743851 -94.900421
100.734093 -54.444046 -97.468330
74.206802 -51.747658 -98.564056
90.897156 -49.725704 -97.031029
77.716148 -52.769501 -98.563011
65.834572 -55.665009 -100.419678
67.942017 -55.181881 -100.559029
62.023891 -55.289383 -100.548515
-75.876404 -53.108749 -105.243599
-66.846992 -52.843288 -105.224518
-95.647575 -48.797253 -109.880249
-61.777599 -50.739147 -109.814552
-79.846329 -56.648396 -114.421829
-65.955643 -52.312263 -115.333755
-67.823959 -53.856476 -118.121788
-89.999107 -55.174484 -122.459190
-7.296701 -54.577744 -235.343445
-2.131513 -52.539276 -236.272079
13.587600 -53.053864 -236.049164
-8.495844 -52.029797 -237.366714
-15.564983 -56.865025 -238.002365
3.964049 -55.668255 -238.611633
-0.098225 -54.376625 -240.575684
-3.886298 -51.972260 -237.715393
11.458219 -52.582920 -240.495865
-17.304012 -52.714863 -242.824081
26.337297 -55.050995 -243.839584
29.027493 -54.958050 -250.958282
27.345995 -51.364830 -251.164078
-14.513997 -54.281887 -251.833557
-14.432550 -52.938084 -253.848068
-12.635453 -49.689953 -253.781219
-15.097990 -53.269062 -257.070313
-12.404145 -50.232201 -257.160645
-15.492994 -53.933006 -258.803345
-13.487755 -53.019562 -258.242889
25.046362 -52.494942 -259.306793
27.469837 -53.180222 -257.489349
25.103767 -54.410789 -259.842255
29.180634 -53.050549 -262.613068
28.845320 -51.883682 -264.374664
20.499039 -52.568813 -269.290924
-5.715332 -55.456074 -269.905609
22.658081 -55.319748 -270.105988
27.544199 -52.941895 -265.156769
25.031668 -55.415138 -271.039948
-5.435486 -52.079178 -279.799622
-10.747866 -53.277138 -271.637115
20.618479 -54.077271 -274.876648
23.067614 -54.319042 -278.014313
21.555950 -54.403503 -275.293793
20.987757 -51.247414 -275.732391
22.745691 -55.008839 -277.861938
21.186573 -53.125263 -280.984436
17.129093 -52.147552 -276.590393
23.641045 -52.153492 -279.399078
-6.159408 -53.194553 -278.271515
-7.386316 -51.171371 -279.008240
-5.522958 -51.294491 -278.240295
22.794420 -53.552002 -278.339691
18.018709 -52.594040 -283.687195
-4.977618 -55.516884 -285.929749
16.825796 -52.469234 -286.645538
20.523512 -53.110256 -291.129547
1.748909 -51.920631 -286.944489
10.132789 -52.194416 -293.857330
-0.015135 -53.921993 -289.951263
36.498802 -52.083862 -11.322278
34.573036 -49.614231 -13.486974
30.701685 -51.804005 -12.640236
42.255898 -50.200867 -13.624606
29.609303 -51.169258 -19.728771
42.928288 -52.512264 -22.487516
19.449030 -49.421227 -21.472635
43.048233 -52.528301 -26.385580
48.323814 -53.913765 -26.852924
20.643192 -50.687241 -31.470444
23.543694 -49.224674 -29.003355
26.534538 -53.654491 -30.505539
19.495157 -51.052727 -30.265535
23.919939 -53.649544 -36.421612
21.321537 -49.864471 -27.323784
41.856869 -50.533524 -32.481617
22.213881 -53.998001 -31.981588
36.426910 -51.058910 -37.452568
46.159443 -51.647419 -37.278305
25.622458 -51.799278 -37.282681
33.756508 -51.970821 -42.436920
31.338371 -52.908249 -42.919846
32.808727 -53.444675 -42.020020
35.289410 -52.487995 -41.077438
-67.379494 -51.277691 -42.637592
-86.493401 -53.371170 -47.418968
-24.679449 -53.571812 -50.545704
-21.033514 -52.496483 -50.237789
-11.344055 -54.394997 -51.996571
-91.831779 -50.355576 -51.670582
-6.724874 -55.023285 -61.563267
94.223907 -46.846344 -61.166718
91.745407 -52.538166 -57.646343
68.944260 -50.773876 -58.646355
96.704666 -50.208233 -60.055370
-66.701065 -55.743942 -72.680733
66.315765 -55.827000 -69.237976
67.587715 -53.006878 -72.542152
76.530434 -53.156048 -72.204926
86.144135 -49.821743 -72.821594
97.618103 -53.096260 -82.796616
97.980743 -50.930069 -76.597069
60.694016 -52.999454 -75.660072
-53.326401 -52.232029 -83.598320
102.145767 -52.297695 -80.800926
104.999779 -53.333038 -86.035255
65.525307 -49.613323 -91.724319
104.097961 -54.419987 -87.759094
101.861389 -49.937683 -99.439323
95.866821 -56.957588 -96.982246
-62.385998 -52.500187 -103.736641
-70.235832 -51.796154 -111.781349
-62.712322 -51.640194 -113.959129
-97.735466 -56.094143 -117.471016
-93.618744 -55.143452 -121.002472
0.241076 -53.870033 -234.048615
0.064857 -51.119064 -237.031555
7.062129 -49.519844 -237.203720
9.944325 -50.481373 -239.453156
17.717821 -54.182549 -238.588852
2.893739 -52.302185 -239.388916
3.330466 -51.559669 -240.443390
-4.866635 -51.992981 -241.056625
4.953516 -49.510414 -242.160797
3.118941 -54.646935 -245.497696
14.732288 -49.381226 -244.018234
19.334911 -52.698692 -243.517685
20.477509 -52.974430 -243.370392
-11.680437 -50.523975 -247.175095
-9.494056 -55.900734 -248.361969
13.164155 -52.475288 -244.640366
22.489737 -56.328960 -247.271423
-8.429134 -49.307613 -250.914734
-14.164990 -53.441189 -248.746216
-12.898983 -53.305370 -251.191467
-11.371173 -50.694462 -250.609329
-12.246278 -52.281830 -250.529434
-12.435486 -53.179867 -251.938614
26.203636 -53.628357 -250.822266
-11.656518 -51.578323 -251.035233
29.877398 -53.908714 -250.283173
-14.601883 -53.880901 -252.926819
-15.166590 -53.914055 -254.313644
-14.702063 -49.386654 -254.972153
-11.341284 -53.660522 -254.377731
-13.142220 -50.901489 -253.273758
-14.163014 -48.257198 -253.834198
12.901850 -51.075275 -254.724274
15.354559 -50.412636 -259.340881
-14.867990 -50.382469 -256.593414
15.748181 -50.961594 -265.217438
29.407949 -52.347878 -258.604279
27.403572 -51.484612 -264.277985
17.096878 -49.488155 -258.733246
28.730238 -54.522194 -265.384155
-11.250628 -51.841164 -262.033508
6.451634 -49.672707 -261.771301
-12.512401 -53.672417 -257.497772
31.055023 -54.756470 -268.963959
-6.312413 -51.742264 -263.818817
28.165596 -52.926018 -271.071259
-1.030032 -51.255646 -264.409821
15.882018 -50.914967 -274.723633
25.772987 -51.689495 -275.376862
14.952518 -50.550186 -271.397888
25.370176 -50.742725 -270.630157
-7.236298 -52.495098 -272.421570
-1.934119 -50.591991 -274.775757
24.077181 -49.803715 -281.661377
15.414283 -52.974449 -281.169128
17.667887 -50.922588 -284.844757
23.336506 -49.956970 -287.827545
6.946249 -51.096794 -286.740051
11.414932 -51.048218 -290.692871
3.602109 -51.570557 -292.446289
18.763622 -53.803532 -290.805908
10.475204 -50.191391 -293.210266
9.214301 -55.486233 -294.329071
2.258082 -51.974186 -293.107941
6.249082 -50.460686 -296.401459
42.578846 -52.182785 -14.195322
39.824337 -48.928303 -15.891261
30.193090 -49.995598 -16.656567
35.886967 -50.114101 -16.863188
23.802750 -49.118065 -14.320106
21.167425 -50.545376 -20.041634
52.855942 -49.438293 -22.460754
43.216053 -50.905338 -20.653198
48.262321 -49.295479 -26.195841
46.490261 -48.887669 -26.964800
39.428696 -52.301041 -29.183828
44.926872 -48.607834 -24.840927
46.989014 -49.330486 -32.214214
48.949329 -50.851048 -33.829933
43.284630 -50.986465 -34.177433
31.900213 -49.794693 -36.193798
36.268120 -54.291019 -33.116470
27.612722 -54.669956 -38.870270
42.541912 -51.263268 -40.220043
47.439003 -52.838520 -37.396217
34.444473 -50.083324 -39.328411
35.353611 -52.471092 -39.336761
-94.890572 -58.100819 -56.131073
-66.057381 -52.624187 -62.256527
-102.090439 -50.889584 -61.948658
-28.812815 -54.671570 -61.907711
-58.762650 -53.540962 -64.191940
98.105225 -55.510544 -59.792236
68.932518 -52.088593 -68.615395
77.666916 -50.146645 -68.619171
105.122849 -53.690773 -73.776810
87.537163 -51.416523 -71.889595
63.424427 -47.132572 -74.797363
66.899826 -52.620785 -66.587845
102.264862 -54.460278 -78.818359
-38.592731 -50.980434 -78.163559
61.024891 -50.866459 -81.224495
99.681786 -50.811958 -88.381332
101.169083 -49.987633 -86.159790
100.237740 -52.704285 -91.220688
63.372322 -49.478104 -93.051506
64.113358 -48.752640 -88.369156
102.054749 -52.934227 -93.912369
63.313828 -51.664837 -100.882210
-101.371147 -50.943924 -105.052361
-75.074356 -51.596489 -106.864807
-67.814056 -49.886528 -109.949173
-63.785789 -52.236679 -107.068665
-92.641022 -58.773632 -122.904564
2.727972 -51.432369 -235.211823
12.213623 -49.838623 -235.313660
11.126935 -51.096043 -237.091904
7.504283 -52.765823 -237.857422
2.069363 -52.418625 -238.124207
-9.954269 -52.463764 -240.007813
8.669959 -50.955471 -243.353897
14.929827 -52.393360 -238.842300
2.021052 -54.047554 -240.500351
14.695449 -50.297695 -241.415344
2.273309 -48.821301 -245.171570
-2.650511 -47.929947 -244.621902
0.250054 -51.385113 -241.067032
17.476004 -49.890026 -243.908981
18.179235 -50.925571 -244.141769
18.870165 -52.116673 -243.280502
17.736362 -49.955898 -242.650238
8.175987 -51.171494 -243.905258
6.008246 -49.578457 -243.993683
23.358181 -50.145817 -241.269348
-13.244165 -55.759487 -244.101181
12.904055 -51.057999 -246.604080
30.028193 -50.293575 -246.206879
-11.166465 -51.394451 -245.570404
-12.225523 -51.315460 -246.626495
-12.450619 -46.961849 -249.532364
-9.759604 -51.922100 -248.302292
21.754179 -50.317852 -249.927780
-9.117300 -49.675888 -250.219376
-8.687756 -51.057690 -248.435745
-11.146409 -50.678978 -249.491425
-10.038561 -50.266468 -248.700516
-4.863391 -51.103058 -244.924500
7.368824 -51.869972 -250.779221
-13.454684 -51.117390 -251.037216
-9.061515 -50.352940 -250.520615
-13.185144 -52.204735 -250.217911
13.057803 -50.584373 -248.092072
27.965767 -51.795586 -249.800217
-15.137454 -50.771988 -254.877472
30.680454 -48.920723 -250.413071
-8.107065 -49.328865 -256.233307
1.401985 -48.282047 -259.452667
26.849020 -49.398876 -254.579880
-11.964354 -52.489677 -254.269913
0.249817 -49.104507 -250.223785
30.325676 -50.696465 -255.447906
28.157330 -52.925812 -263.717163
22.118814 -51.311718 -257.684998
-9.985420 -49.759819 -262.520111
22.689798 -49.721882 -268.236115
-0.518379 -50.395454 -274.831085
-1.097391 -52.144623 -281.833496
23.120213 -53.167236 -272.535858
25.230158 -52.151501 -278.637482
10.141522 -52.069969 -285.997192
17.787539 -50.650158 -283.977875
19.424009 -50.115112 -290.532440
16.707069 -53.001354 -289.686401
13.640056 -52.662994 -295.307434
11.945136 -50.075958 -294.441620
4.817482 -49.521912 -296.627991
-81.595474 -54.832661 -46.113144
-36.454586 -52.429733 -51.565567
71.148674 -51.456619 -57.643322
-58.917217 -51.072647 -57.193226
-8.257769 -51.278130 -59.034855
-19.783297 -53.711300 -58.647289
86.950798 -51.752445 -59.412388
-59.681301 -46.591404 -60.284161
87.312561 -46.031113 -67.198799
102.338226 -53.120163 -68.799217
63.760830 -49.320724 -74.031151
-45.152874 -54.412155 -76.654106
-103.008736 -50.187534 -87.276398
62.036533 -48.964752 -88.981606
-74.516319 -49.495159 -98.073563
-97.668221 -54.841900 -110.709702
70.643990 -49.955265 -109.456558
75.714111 -50.014187 -110.828842
-99.228073 -51.246712 -116.111847
14.246676 -49.396885 -237.373672
17.059870 -50.830719 -235.812592
21.002928 -46.415817 -239.937439
0.878223 -54.921730 -242.680832
14.485676 -48.803848 -238.219543
19.888149 -48.174225 -241.154678
-1.455626 -50.485043 -243.014374
17.282425 -50.574005 -243.053543
24.617371 -51.626377 -242.020279
-8.638574 -50.440071 -247.111771
-11.331269 -49.216732 -243.177216
-11.897069 -49.971310 -247.177078
2.632631 -48.813892 -245.704910
8.385285 -49.155876 -246.169250
-11.690023 -49.765862 -245.395813
-9.164501 -51.196449 -249.111725
-5.246610 -51.749321 -252.630920
-12.105687 -50.869637 -249.571381
-11.864491 -48.306244 -250.120850
1.627056 -50.395214 -257.650543
-8.473928 -48.954391 -255.291275
25.609203 -49.276886 -252.678131
12.215687 -49.978718 -256.075958
19.689053 -49.751949 -252.012268
8.885548 -50.477036 -259.362274
22.641663 -50.885002 -264.739685
-3.785553 -49.874741 -261.523499
3.362914 -49.838890 -263.361115
-1.862133 -51.187283 -271.536163
11.686808 -51.557392 -272.636139
7.708050 -47.021641 -273.354919
14.748480 -48.351460 -277.487701
-56.780594 -52.357498 -45.130630
-43.627369 -57.622536 -46.378483
76.887680 -48.605606 -55.998585
-63.620407 -54.901588 -62.838692
78.353867 -51.434177 -58.976601
80.304832 -51.553448 -57.042854
-65.937599 -47.033066 -57.887524
70.077866 -47.669647 -64.235725
103.313202 -51.946518 -71.969612
100.893425 -49.133957 -73.544151
65.254959 -50.869705 -79.725220
-43.282066 -45.794666 -81.950050
62.447796 -50.716084 -81.640480
-56.874397 -45.560352 -87.742165
62.469585 -47.041172 -86.734924
63.532700 -49.351933 -80.110214
63.433697 -49.015839 -94.290207
66.113411 -50.316914 -89.441994
64.330811 -47.830025 -90.871811
66.389030 -48.202881 -86.798035
60.229313 -47.705475 -90.740692
-99.900093 -52.698719 -101.022575
63.097172 -48.935955 -96.477654
71.227310 -51.626427 -105.225334
62.997528 -48.562191 -103.931068
75.602226 -48.082352 -110.093910
84.557060 -50.039806 -107.326653
-83.976974 -52.081612 -118.266197
-89.100487 -50.560940 -119.795288
-5.014270 -48.373753 -243.651031
1.304306 -48.324017 -257.457520
-3.299037 -47.784996 -253.941040
-80.943794 -50.688335 -45.923069
-61.118820 -45.490364 -46.889442
-56.322460 -44.645264 -47.575459
-62.975735 -49.570049 -53.084797
-63.825668 -50.833862 -56.302780
90.261429 -51.673115 -57.018970
82.842484 -51.279770 -63.071808
70.438187 -46.599648 -58.593987
-63.084869 -48.934570 -64.893585
64.150024 -50.387512 -70.616379
84.530312 -44.234257 -64.082886
67.820671 -49.620270 -67.711311
67.444405 -49.915619 -70.173836
67.470093 -48.939091 -65.924889
98.305626 -47.367683 -68.468346
65.806725 -46.748093 -75.465385
-40.444290 -49.430882 -71.696869
59.949474 -46.615246 -80.549332
63.114620 -50.232571 -76.783493
63.762997 -45.843346 -85.167946
61.320442 -48.181213 -81.315445
64.216599 -50.558384 -92.824837
65.536293 -47.836510 -93.230598
65.534576 -48.123085 -90.652107
64.075592 -45.905087 -85.122345
65.208916 -46.930088 -89.511490
67.280617 -47.185764 -89.783920
66.464867 -44.669655 -90.805717
66.610397 -47.466625 -89.110207
66.634308 -49.015862 -90.278458
-66.905312 -48.847527 -93.347015
61.156975 -47.457680 -90.330048
66.193588 -48.374451 -92.576035
62.039791 -49.616966 -97.094788
68.324806 -48.377316 -96.745605
62.519852 -48.914841 -97.603958
69.269493 -47.424290 -102.029518
69.381821 -47.925617 -99.570457
68.141670 -46.674381 -99.806030
68.584854 -48.233940 -101.543388
66.285698 -50.592758 -101.628853
61.656296 -49.760666 -99.394402
68.300468 -46.555000 -99.272629
67.826668 -47.244217 -104.728706
76.208336 -50.244289 -107.787788
66.104057 -46.694168 -106.372620
75.546715 -48.570374 -109.416718
73.583961 -44.528130 -106.286316
-80.113899 -46.655041 -106.928368
89.915451 -51.007092 -107.692436
70.251854 -47.794380 -109.479965
75.249962 -49.471634 -110.309303
83.410927 -46.987164 -111.475357
81.616821 -49.889412 -109.040627
87.664139 -49.253922 -111.633797
-45.282330 -46.443302 -51.060055
-60.111691 -49.003059 -51.459393
-26.180828 -50.845638 -53.032383
-21.339485 -46.328480 -53.785923
-12.536598 -49.058037 -49.160152
84.572586 -46.879253 -61.968513
73.602913 -49.088837 -61.149376
74.190826 -47.086601 -59.155766
64.912842 -50.073116 -63.663918
72.147179 -50.048046 -61.097328
101.824417 -47.515182 -64.891472
74.175728 -45.627193 -62.502838
85.697990 -45.574619 -60.157890
68.288490 -49.115471 -63.592403
62.628922 -47.567986 -65.617928
68.593094 -47.662792 -66.292831
68.738083 -47.814301 -63.589874
69.157318 -47.198647 -64.661583
68.612221 -47.793243 -69.069649
66.279015 -46.081154 -69.609886
62.011009 -46.511356 -74.547630
67.891479 -46.670502 -69.183044
60.493351 -48.279861 -72.986816
72.261383 -47.360771 -72.794273
64.902039 -47.690918 -76.349922
104.396599 -44.410152 -79.815361
-43.613506 -44.701202 -78.154190
104.119064 -44.864113 -83.301254
78.208038 -47.373116 -82.061966
68.557762 -45.011520 -83.716187
65.068344 -48.878307 -87.410866
66.389511 -47.967342 -88.428703
64.313675 -48.606281 -89.366425
-99.757423 -51.907360 -95.466736
105.017120 -46.399845 -89.263519
76.267220 -47.934494 -89.201065
59.896248 -45.272720 -93.803970
64.659348 -47.713100 -98.713440
100.077171 -46.741581 -102.673065
82.089920 -46.058830 -97.693794
64.023857 -47.264328 -95.226662
-75.031624 -47.878780 -104.291939
74.755043 -45.918381 -99.144211
66.565437 -45.108574 -104.338585
82.100952 -46.798618 -107.000465
98.375648 -48.664906 -106.298729
66.195656 -49.470203 -105.312813
80.397980 -48.022427 -109.354591
94.865974 -47.863148 -107.639229
88.140076 -49.480732 -110.090332
73.255943 -48.407730 -110.326263
84.678154 -47.858299 -110.341148
-85.403114 -46.744404 -111.933144
90.893913 -48.027420 -110.061676
-95.655380 -45.816605 -110.708336
-89.703217 -48.792152 -118.831909
-61.592579 -42.413387 -48.083473
-58.425133 -49.451714 -58.516747
-61.107971 -46.616196 -54.439716
-59.460495 -47.155724 -54.663383
81.877563 -49.108238 -55.411137
-98.132149 -50.247314 -55.472641
76.580994 -47.848469 -58.216537
89.678085 -46.542408 -57.425117
71.353584 -45.685497 -55.428181
89.834007 -46.584381 -57.286991
96.502892 -45.862808 -58.594841
86.936295 -46.624935 -58.997955
85.703926 -43.957993 -61.169178
77.720985 -45.512691 -60.039238
79.912651 -46.015903 -61.080109
-23.336929 -51.716553 -61.541050
71.368637 -45.025719 -63.719662
72.891174 -44.912430 -61.833000
72.923111 -44.814457 -61.149448
71.878670 -47.437469 -61.949619
66.753754 -48.234032 -61.442478
99.119904 -44.935123 -64.319206
92.450134 -46.189701 -62.647480
101.635414 -47.403061 -67.858742
95.245209 -45.069389 -64.614120
99.597916 -45.968597 -70.273819
66.616753 -46.319927 -70.512482
66.978622 -46.704990 -68.622398
64.455635 -45.264664 -70.651924
72.309792 -46.844841 -72.733421
104.951004 -47.063282 -68.653358
66.702827 -46.097946 -74.804428
-99.716362 -45.240368 -78.660492
84.996025 -46.020542 -80.756821
79.099571 -46.451096 -82.996773
-46.267967 -48.665424 -81.030136
67.598015 -44.349598 -90.241348
-56.506985 -48.035427 -87.853745
72.499016 -46.516190 -97.852173
104.276154 -46.973408 -87.328369
83.957756 -45.695515 -95.591812
106.995262 -45.675968 -100.021873
75.373016 -45.600746 -91.728958
93.795456 -47.088982 -106.866028
70.293671 -47.454285 -102.477318
86.878838 -43.874374 -107.807137
89.246300 -46.149223 -106.493088
96.314201 -45.833324 -109.759476
77.526245 -46.055157 -108.748810
79.557266 -46.366047 -110.054901
90.103195 -47.860367 -113.406662
73.080154 -45.959824 -111.403183
76.268082 -47.798203 -112.116867
86.085434 -45.095543 -112.097992
-61.662762 -45.859138 -46.197273
-58.092701 -42.422726 -48.951378
-41.341438 -50.126060 -49.539997
76.902527 -46.326157 -56.040489
81.158714 -46.535927 -56.777580
-11.097745 -47.308437 -54.480709
76.222473 -44.220470 -54.738171
72.044319 -44.687893 -57.141251
83.094376 -44.066528 -57.374294
87.857567 -44.084888 -59.952438
91.796181 -43.317268 -55.894798
86.020279 -46.137211 -57.003471
86.962738 -46.412014 -55.989487
-13.619136 -47.449337 -56.968742
-20.369802 -48.106529 -60.313343
94.336845 -46.891376 -59.626747
83.243126 -45.399582 -62.996861
95.869820 -46.954987 -64.170021
73.457062 -46.660149 -60.924385
105.227394 -45.165279 -62.919918
100.853218 -45.823624 -64.182655
81.404884 -45.771835 -63.691589
-99.332489 -50.384422 -66.432632
81.068993 -45.235668 -64.701599
73.331398 -42.647274 -66.800415
-38.673580 -43.299683 -74.630646
78.955574 -41.474949 -82.364845
102.621681 -42.206387 -79.074753
103.633629 -48.040611 -76.537865
-52.533203 -47.516953 -83.417900
73.839836 -45.375298 -85.371574
74.120880 -44.998627 -78.894012
92.508392 -46.208588 -76.190063
90.121735 -43.875175 -79.296448
101.574776 -44.518730 -84.800789
104.589111 -43.636002 -83.201797
103.108032 -46.078564 -91.898285
85.965332 -42.438293 -94.601608
102.497231 -46.572556 -94.746368
91.814827 -45.317822 -90.993652
-97.859016 -43.245308 -97.709541
78.366150 -46.381840 -105.571960
93.084839 -46.590458 -97.253670
99.478783 -44.922531 -94.963951
98.083694 -44.900940 -100.548653
90.150520 -45.372501 -105.184166
91.793320 -44.879608 -108.283310
101.194153 -46.855358 -105.427071
98.661201 -44.481880 -103.936981
83.460884 -44.562702 -106.044449
-96.747261 -46.586044 -112.335861
97.252449 -46.520229 -109.642204
83.742462 -47.781754 -110.979713
90.692375 -44.500885 -111.547455
84.609413 -46.619595 -113.508156
-97.534554 -47.354191 -115.470810
-59.536343 -45.475651 -52.406364
-58.365582 -46.375439 -46.475643
-53.800743 -49.352364 -47.315197
-87.895561 -46.989719 -50.330048
-33.206818 -45.832119 -52.595459
82.862488 -45.545673 -54.370197
93.864502 -44.763702 -56.251205
85.390022 -45.734386 -57.722401
91.843369 -45.308842 -56.413319
99.453506 -44.348927 -57.883152
78.742752 -43.658707 -59.643196
-32.664803 -47.766727 -61.029102
91.114639 -46.462536 -60.466343
94.477219 -44.084118 -62.646091
95.030457 -44.988945 -61.211777
101.544388 -45.222809 -65.115715
-99.729279 -50.090469 -63.911320
102.423988 -45.306351 -67.125046
74.429642 -44.776852 -66.754234
100.259636 -42.164310 -73.187958
100.790939 -45.879593 -62.453293
88.224709 -45.800072 -62.757011
-39.164177 -46.589081 -76.872063
-100.254570 -49.676910 -74.498268
87.339790 -42.742355 -65.011459
102.900902 -41.367607 -74.605171
90.048065 -44.890503 -80.519257
103.961075 -45.089397 -81.429909
103.698219 -44.423527 -77.903130
100.126610 -40.380413 -81.434662
96.169525 -43.263737 -80.879402
104.529686 -45.270470 -83.660896
104.547920 -45.740982 -82.487175
104.435471 -44.287109 -81.539925
103.590561 -41.251308 -83.816780
105.008270 -43.504162 -82.153397
104.077530 -43.426529 -82.244957
105.502922 -42.078613 -82.401405
101.170197 -46.810005 -85.784653
102.304207 -42.977039 -83.604538
105.298615 -42.303005 -85.198929
90.506889 -43.671116 -82.581871
101.971962 -43.045536 -84.538383
103.139786 -45.202316 -85.418831
102.514214 -44.667965 -88.655128
105.624489 -45.661171 -87.667770
106.475891 -45.925694 -87.240952
102.659904 -42.915756 -91.045914
-98.589211 -46.674572 -93.695389
-60.140148 -46.428932 -89.755760
102.807297 -41.948631 -89.941971
91.927750 -42.494858 -91.476875
87.910889 -44.156353 -88.538864
90.886063 -43.720242 -93.544128
99.223656 -45.194893 -93.256157
101.483963 -41.586506 -94.693268
-71.781059 -42.103722 -99.676582
96.871025 -43.468750 -106.935173
102.563614 -44.291271 -95.708435
103.119034 -44.870087 -102.097969
-99.340897 -46.460606 -107.453621
97.255959 -41.592522 -100.034492
92.406815 -45.882343 -109.350838
98.662346 -42.076637 -106.768143
102.022163 -43.680645 -104.642982
92.215462 -44.479828 -112.860825
91.724106 -43.581593 -113.785431
-88.287933 -40.636959 -112.065369
-58.775494 -45.032188 -49.589745
82.418755 -42.637260 -56.468197
-11.761292 -42.836380 -57.883568
-25.478760 -42.995270 -61.108311
101.009621 -43.400394 -59.813343
94.346260 -42.131416 -62.835938
85.751099 -43.701447 -63.522503
98.959084 -42.651417 -64.538284
103.759514 -41.941372 -64.129456
-100.265038 -44.440041 -63.228519
103.344147 -46.344250 -72.493362
105.403717 -41.888428 -71.674057
81.836266 -44.937977 -63.800671
105.580635 -46.538662 -71.605225
83.903717 -42.921116 -64.833748
105.786087 -42.893017 -77.801430
101.992905 -40.279121 -72.436081
-52.884716 -44.559921 -80.726379
103.509705 -43.868996 -78.637390
102.459396 -42.424358 -78.824905
102.311798 -45.998787 -83.713028
104.063927 -42.623085 -81.919800
104.305618 -44.804169 -84.638252
106.481201 -46.511452 -79.279434
105.458908 -46.095539 -85.265686
103.412544 -42.895538 -83.286613
104.072517 -45.980000 -84.844498
106.615936 -43.009220 -76.484291
103.214020 -41.642948 -83.669846
108.802605 -45.282005 -84.121483
106.109123 -46.589699 -83.422165
-101.509781 -42.581028 -85.554680
95.955399 -42.777786 -81.848923
106.373604 -42.669727 -89.447754
93.746262 -42.495255 -93.930481
106.861496 -43.644493 -95.458427
-85.806084 -43.130466 -110.426071
-62.470272 -45.214867 -46.160877
-39.288174 -43.274399 -52.311329
-12.884942 -42.712307 -57.102459
-7.843156 -43.970165 -59.245750
-39.071247 -42.116753 -65.140388
-37.572544 -43.021622 -70.949913
97.246178 -40.457439 -66.033455
93.760544 -45.264458 -71.082962
-54.240147 -45.290489 -78.384071
-43.522270 -43.578278 -73.688553
96.669716 -41.902386 -71.476982
-55.210629 -44.607285 -79.956558
103.151657 -39.392021 -81.646881
-76.889214 -44.980801 -107.762772
-76.015137 -47.570984 -45.288692
-49.501587 -42.794846 -51.878891
-12.229020 -40.157112 -58.122150
-16.398659 -38.737373 -56.022701
-31.598085 -42.220734 -56.258053
-24.962242 -43.325165 -57.223122
-28.877934 -38.621067 -57.402115
-97.466805 -43.077034 -57.394535
-54.336868 -42.706142 -74.856560
-49.525303 -44.110573 -80.187065
-79.624344 -42.520065 -103.520493
-81.076317 -44.021358 -108.149529
-94.308235 -40.737270 -111.767731
-94.894806 -47.007496 -117.852249
-68.329384 -45.840157 -44.023819
-39.786312 -37.564117 -57.770721
-30.065771 -40.757996 -59.513248
-29.567463 -39.099602 -59.580921
-17.254677 -43.126148 -61.084530
-25.432732 -42.702175 -59.316441
-38.522228 -43.591820 -61.379166
-101.985809 -40.856850 -82.687370
-98.207748 -43.404919 -97.888344
-98.056282 -38.657578 -101.189476
-95.225418 -37.357159 -96.808617
-82.847641 -42.616600 -45.132362
-62.063259 -41.824966 -49.315315
-44.410358 -37.990273 -53.867203
-42.184723 -37.962116 -55.596016
-24.478477 -37.921593 -58.407589
-15.509476 -38.304756 -55.878826
-14.971605 -43.005306 -58.840366
-25.855339 -37.459446 -59.785915
-18.217007 -38.029419 -61.282291
-42.423420 -38.184772 -65.542274
-38.112358 -39.014236 -65.526566
-56.386578 -39.035004 -70.672783
-48.073277 -42.517941 -75.252899
-42.237404 -40.084797 -71.549515
-46.390358 -36.727623 -72.493210
-57.613609 -43.688866 -88.211487
-66.099968 -42.498123 -94.946320
-71.856033 -43.727951 -98.636047
-52.808296 -39.322384 -66.711197
-46.689304 -38.552200 -66.635979
-102.027481 -44.545731 -66.751343
-101.922310 -41.886124 -74.632339
-94.347321 -43.249695 -110.597397
-76.569649 -36.599377 -45.682793
-70.054565 -42.086517 -47.702450
-60.276558 -43.061718 -52.258690
-52.883244 -37.966366 -56.531654
-46.073593 -36.012455 -59.982338
-47.522873 -35.985527 -61.833946
-50.572941 -37.571667 -64.210556
-97.169403 -35.488251 -67.876137
-58.015060 -40.775814 -75.861710
-100.748894 -36.944336 -82.345512
-98.284897 -37.699162 -81.621208
-100.501083 -34.237545 -84.900040
-97.138924 -38.767838 -103.500633
-75.741096 -40.731499 -102.920692
-86.847984 -37.265812 -111.942986
-66.701927 -35.208641 -53.154015
-86.408638 -39.935768 -51.505535
-56.016666 -39.023937 -54.144775
-97.477180 -43.001698 -56.599327
-54.160519 -35.702599 -59.916920
-52.419117 -38.015644 -61.196728
-57.046776 -35.864178 -63.397217
-59.545914 -35.858326 -75.111816
