# This PCD file was generated using the MATLAB® pcwrite function
# from Computer Vision Toolbox®.
# .PCD v.7 - Point Cloud Data file format
VERSION .7
FIELDS x y z
SIZE 4 4 4
TYPE F F F
COUNT 1 1 1
WIDTH 1434
HEIGHT 1
VIEWPOINT 0 0 0 1 0 0 0
POINTS 1434
DATA ascii
-77.819862 -65.813667 -106.800957
106.351540 -66.849152 -106.970917
-53.554840 -67.988823 -126.865288
-71.544266 -70.486191 -140.249435
-60.496201 -69.799431 -137.065643
-100.489708 -69.811844 -147.480270
23.307756 -64.250031 -180.515121
25.503660 -66.755714 -184.784790
17.687531 -67.358139 -188.006714
20.142801 -63.728451 -187.037048
-126.333054 -65.947540 -195.661133
-152.156525 -64.629456 -192.257370
-163.783646 -70.458412 -197.697861
-16.373611 -68.617859 -198.371307
-164.159088 -66.064835 -196.731339
-16.643005 -67.189957 -200.946442
17.086248 -67.701744 -192.768600
-172.650024 -65.248245 -201.312332
-114.803741 -68.630394 -205.046082
-130.492371 -64.590393 -202.703644
-13.693839 -69.503960 -201.784576
-164.747101 -64.902786 -210.647278
-6.955366 -63.191994 -222.599442
-114.213615 -64.837997 -230.373001
3.741501 -65.082077 -232.369370
14.743395 -66.989479 -239.541519
6.032834 -65.632759 -236.807083
54.389614 -66.518929 -240.805313
-118.864372 -66.086067 -258.137451
33.429779 -64.867622 -262.929047
-137.887253 -69.743553 -257.184387
-119.029381 -68.462486 -261.663574
-101.951752 -64.810387 -263.447784
-118.614319 -66.847115 -261.349121
-9.538934 -68.051346 -286.455261
-149.719299 -67.226204 -296.585968
-147.094955 -68.070099 -305.157013
25.822050 -62.096306 -21.215376
-38.393471 -60.782688 -47.348381
80.711967 -69.006721 -65.199455
-35.382732 -63.335464 -78.269997
-45.791595 -66.016663 -86.240402
-49.268959 -66.574638 -87.694679
67.013359 -65.046051 -98.017052
55.007160 -64.795761 -95.851295
54.393318 -63.650970 -100.410797
101.227119 -68.782898 -97.603180
71.710022 -61.754353 -102.498375
46.425610 -63.665401 -104.360641
90.565956 -70.616051 -106.174057
-58.434242 -67.010208 -111.435715
-73.930107 -69.457458 -124.152054
-91.298340 -67.522766 -128.077881
-52.981800 -61.125214 -136.904968
-79.046684 -67.285889 -137.239609
-77.134529 -63.258293 -140.632111
20.789257 -62.454456 -132.968216
-50.137589 -62.843925 -145.636017
12.828359 -66.336029 -149.427429
-141.867249 -69.612366 -171.380585
-107.254227 -66.236786 -185.892349
-105.329002 -63.382980 -186.869568
-150.057632 -68.822891 -191.689529
-111.746140 -65.371643 -197.621231
-155.415131 -68.084579 -200.080765
-143.442749 -63.745998 -224.623230
-102.579468 -62.231606 -228.849518
-124.254906 -67.398720 -227.728912
-117.513992 -68.751381 -231.289001
-3.695739 -66.485840 -231.320251
-130.562515 -69.174103 -234.671082
59.914795 -66.220016 -240.277130
55.454708 -64.730644 -245.844498
48.313385 -67.029678 -251.932922
39.428864 -64.126579 -260.794006
31.584423 -62.995628 -255.467239
-133.255005 -63.784203 -258.977814
-128.025696 -65.586815 -256.720398
-128.255981 -63.890697 -259.136719
-141.744156 -65.377480 -264.335480
-122.682640 -66.006157 -257.005188
-124.217438 -63.886299 -261.473022
-116.892036 -62.372307 -265.440247
25.906147 -63.602955 -259.442017
-2.546570 -63.455128 -271.114807
-126.526047 -65.760643 -286.467682
-137.191681 -65.991791 -293.746429
-158.739868 -63.751190 -297.029297
-128.714752 -65.322113 -289.169769
-115.213066 -66.488213 -288.901550
-129.050644 -67.941628 -289.274719
48.584538 -63.272968 -23.655596
-37.179699 -64.995476 -51.609585
-81.762833 -68.917114 -48.752319
-9.844086 -64.588600 -58.909489
69.455208 -66.185432 -57.184502
99.728218 -67.461067 -71.867462
60.519836 -60.899734 -84.562111
111.877602 -62.935455 -81.189674
-65.278481 -65.703369 -88.352989
-61.174953 -67.240860 -91.198792
49.534042 -67.479012 -97.277885
-65.410233 -64.340286 -92.356651
-70.487427 -64.302361 -102.990463
-99.881432 -65.243446 -94.766533
-75.255829 -65.860695 -98.623383
49.926777 -69.667740 -99.715271
-72.333199 -66.348083 -103.493256
57.151894 -65.164742 -102.852867
97.562935 -65.943474 -106.820305
88.820328 -68.273201 -108.560097
-73.005653 -70.007545 -112.680969
-80.807144 -61.527802 -114.340874
-60.529850 -66.786293 -118.428818
-96.569412 -67.666656 -121.540131
-77.590828 -69.333916 -126.957748
-88.733955 -64.487572 -122.560974
-65.249260 -64.325279 -122.634377
-62.391891 -64.553391 -117.202591
-83.609695 -60.982922 -128.000763
-86.390144 -61.949757 -128.058868
-61.928795 -65.912964 -129.621918
-61.370300 -57.678452 -132.262939
-55.902485 -68.453827 -135.518600
-94.238022 -70.479279 -129.498489
-85.738312 -68.439713 -134.445496
24.547312 -67.023354 -149.207352
-43.533958 -71.139626 -143.724380
15.285098 -67.798172 -152.450409
-95.772743 -63.149719 -160.809769
-96.648697 -67.581650 -173.079010
-101.074852 -61.052143 -173.225525
-106.783775 -65.153313 -161.781876
-101.986732 -69.743698 -177.006592
-105.002640 -69.192245 -171.191284
-142.930038 -68.928490 -183.710052
-114.671646 -67.628029 -184.955582
-139.209335 -61.478027 -198.515335
-143.879822 -70.217850 -196.527008
-118.377632 -64.782661 -195.825577
-152.579391 -60.106426 -197.118225
-123.250015 -65.156105 -199.624725
-115.256966 -67.383652 -228.876419
-117.441673 -63.546368 -231.666946
-110.246819 -67.323448 -237.896790
-121.868217 -69.583580 -233.133133
-117.402054 -62.696972 -235.988235
6.884090 -64.520042 -234.102814
13.936690 -64.697182 -236.256699
4.871883 -61.154957 -234.463623
16.144096 -62.865963 -238.252899
-0.670619 -66.020493 -241.404694
20.359177 -66.001663 -239.634567
46.337799 -67.972679 -247.763535
51.397243 -65.027847 -246.647842
-10.796001 -66.640732 -247.410126
28.005299 -65.178001 -253.583023
-135.859482 -66.973358 -259.548157
-128.840134 -64.182686 -265.156158
-125.709221 -68.950157 -251.736313
26.502842 -68.834824 -258.788361
25.386206 -65.767029 -264.658630
28.933243 -67.026955 -266.172485
-155.691284 -70.062241 -291.627869
-143.887482 -69.503197 -297.501434
-159.395294 -61.754410 -289.456635
41.497719 -55.911087 -23.386591
-65.539978 -65.356079 -43.968651
-71.032104 -61.967010 -44.554279
-28.703123 -62.973080 -47.070351
-17.224594 -62.937069 -65.403824
-24.856876 -65.712921 -69.902527
68.006813 -64.913727 -71.454201
-94.309639 -62.992958 -77.439789
-46.404324 -61.831558 -87.326660
59.599636 -69.384895 -87.056870
52.998413 -64.263939 -88.746452
63.766251 -63.844883 -86.624466
104.719406 -63.361542 -90.270149
53.113102 -61.976677 -95.377029
106.524605 -66.487892 -95.851921
-80.710670 -67.036552 -102.041153
-95.887283 -64.233093 -108.436813
76.178169 -63.981709 -110.457153
-75.290627 -66.855232 -101.641853
-86.921791 -64.235817 -119.107582
-54.266945 -67.737434 -124.972946
-66.499313 -61.295418 -132.276184
-79.885864 -63.833519 -133.075211
-80.394371 -66.123161 -136.661392
-81.105499 -63.962383 -125.292442
-84.993828 -66.118530 -132.720886
-64.257355 -61.447220 -131.865173
-85.691940 -62.544777 -134.154663
-52.937565 -69.545296 -132.519012
-58.363598 -65.837112 -143.930466
29.721645 -64.231651 -132.777130
-58.981529 -56.547958 -139.390411
19.479803 -67.112572 -143.794540
21.059160 -62.789818 -155.422256
14.276179 -69.891357 -149.109177
-96.314407 -62.260780 -145.980591
-92.609818 -68.068047 -154.188766
-89.910904 -59.634583 -147.934723
-102.260162 -64.668457 -159.839996
-98.446770 -66.850250 -159.573318
-155.430908 -64.217804 -178.743484
-108.167686 -65.356705 -180.200119
-140.970047 -63.441875 -173.557053
-109.321266 -61.404671 -182.217880
-156.048477 -65.054344 -187.593887
-108.547394 -62.325909 -195.727661
-112.119484 -67.057724 -183.656448
-142.048233 -66.613358 -196.660004
-130.810806 -69.392731 -193.719681
-103.550804 -64.810188 -197.125092
-113.924698 -66.236290 -198.300720
-113.648140 -67.202011 -199.140610
-118.216072 -59.321201 -204.315201
-135.211456 -63.019741 -198.430649
-131.176392 -65.250206 -200.690140
-132.150040 -62.787083 -205.250656
-120.248520 -60.590927 -208.108047
-125.264168 -62.418911 -204.392105
-115.528893 -64.481827 -206.138367
-151.754410 -62.787865 -215.910034
-148.003403 -70.856224 -222.411011
-153.697449 -61.795143 -225.274078
-130.045242 -62.730358 -226.738358
-126.694557 -65.251007 -224.145828
-145.311661 -61.285931 -230.494415
-135.527451 -62.837357 -230.108307
-130.428665 -61.394230 -225.461365
-130.335388 -62.197651 -239.081070
-121.397728 -64.680565 -230.188705
5.722435 -63.794914 -236.053345
18.061243 -65.840141 -240.024780
9.771477 -69.216888 -244.738495
-14.388879 -63.267109 -242.132355
-8.235153 -62.366234 -247.926941
45.125065 -66.436440 -251.707413
45.381344 -63.229763 -257.486389
-144.919769 -63.592613 -252.859695
35.287582 -61.359436 -254.380341
36.297001 -67.143524 -252.200378
-156.723679 -66.367294 -260.030853
-153.358490 -65.035408 -254.409790
2.630026 -66.471535 -267.099304
-154.377441 -56.714672 -266.209351
1.544851 -67.251381 -275.838287
-147.235291 -65.725792 -272.277283
-152.109955 -67.599915 -279.174561
-150.507751 -69.195984 -283.816071
-149.588135 -62.418598 -282.716705
-139.829712 -65.135689 -284.714050
-153.087021 -67.690132 -286.109589
-145.961838 -63.911564 -288.635223
-148.130203 -67.226631 -291.976593
-151.065536 -62.458374 -286.696564
-147.288177 -65.815361 -288.875458
11.158684 -62.849194 -288.585876
-153.221252 -62.060875 -288.402435
-159.928650 -67.426491 -289.230652
-159.722473 -65.650757 -288.062561
-153.130173 -70.207207 -290.626953
-150.312286 -61.287975 -295.143677
-142.139435 -66.403023 -289.388336
-1.273749 -58.868092 -295.285797
-144.850845 -64.682762 -291.653625
-144.887375 -63.156643 -294.003967
30.122231 -56.444363 -18.403929
46.222736 -69.446724 -21.393904
29.433352 -64.203247 -39.072514
-58.614613 -67.684807 -43.063679
-48.949726 -70.130394 -49.187008
87.506783 -66.852707 -56.822052
-98.473190 -60.309845 -60.741329
67.970604 -62.546543 -66.203362
98.186150 -63.741932 -77.980049
63.949463 -66.306023 -74.656891
-41.799526 -63.469650 -75.437813
63.039810 -59.781826 -80.062920
-57.072498 -59.241207 -81.156006
64.962204 -63.816498 -84.387314
63.341660 -64.986778 -80.237144
-100.384483 -68.513214 -86.199463
52.921535 -61.881577 -89.080902
50.205982 -67.985916 -92.701019
60.467106 -66.194725 -87.401390
54.845215 -61.593182 -94.913544
-78.836533 -66.929939 -106.203140
82.961533 -69.741211 -109.609909
-77.149940 -63.845657 -113.845306
-80.198700 -65.501656 -102.966026
-77.925537 -62.856979 -123.917007
-89.138878 -65.960602 -114.411514
-90.976349 -66.409981 -120.171707
-77.277275 -63.100803 -121.384682
-58.476463 -61.827461 -129.672806
-75.233307 -64.775932 -130.957993
-55.446995 -60.076332 -133.839020
-85.644974 -62.810966 -139.178741
30.423473 -63.671066 -140.717773
18.987440 -64.369156 -140.461273
-89.413933 -65.762177 -144.434891
19.089422 -61.537930 -151.647583
-92.784897 -66.260803 -140.692123
-91.398415 -59.363979 -144.785873
16.299660 -61.300159 -153.406387
-94.138535 -65.989105 -139.476669
-97.415146 -65.173096 -150.753128
-101.565598 -63.456242 -159.241714
-94.485718 -63.391773 -164.514618
-106.413170 -64.499084 -172.565765
-110.219788 -72.289040 -167.899246
-104.510994 -68.753067 -162.896194
-109.970413 -62.194618 -169.249756
-142.401840 -68.368927 -179.654007
-109.472313 -59.948704 -175.462982
-141.934143 -62.624519 -185.693558
-147.911728 -65.203148 -187.513062
-152.364273 -63.562531 -188.804520
-123.523064 -66.576591 -201.091965
-135.589478 -61.686680 -203.571198
-123.454613 -62.409348 -198.438782
-137.821960 -65.294731 -206.720947
-129.480667 -65.798714 -206.607285
-143.507004 -66.768211 -202.428940
-149.534851 -64.005356 -210.982254
-153.234131 -65.974701 -227.704666
-139.409576 -65.541359 -231.913269
-126.092247 -65.589310 -237.676025
-156.257233 -64.354263 -232.055603
0.252210 -67.624046 -241.083450
12.988378 -62.953129 -244.398102
-4.627368 -63.155312 -242.427139
-147.593582 -63.705494 -245.293686
-9.671582 -59.081131 -244.096588
-152.071777 -59.774502 -257.141754
-5.551433 -59.098274 -247.756882
-153.031738 -62.920177 -254.186493
-152.790695 -65.716019 -255.211044
-149.881729 -61.443470 -256.791443
-157.495300 -65.236305 -255.073471
-150.618179 -64.285286 -257.242371
33.532425 -61.695255 -254.494461
28.817181 -63.792252 -257.873535
-151.895813 -64.960022 -255.624496
-156.029449 -64.584297 -260.871704
-154.558243 -66.298988 -255.772690
-149.370651 -63.088291 -257.684143
22.993008 -57.707161 -265.272400
26.701534 -65.656586 -266.486877
-147.255020 -62.350563 -266.255615
-147.169754 -57.674545 -260.140015
-149.161636 -64.207756 -266.243713
-143.312881 -62.737217 -262.781250
-150.066101 -69.405029 -262.192841
-154.046646 -63.750793 -267.859558
-149.809586 -58.689175 -262.568909
-151.037933 -62.241222 -284.663422
-155.521896 -62.038433 -286.116333
-150.671265 -61.397533 -281.318115
21.901791 -65.532623 -283.899292
-151.992371 -62.340607 -282.730713
-149.184021 -60.148136 -286.103333
-6.497488 -66.158501 -290.873047
9.664611 -66.265587 -291.519348
-148.608856 -63.910645 -300.789276
47.819958 -60.400288 -31.039499
43.918449 -66.046722 -30.724442
44.022026 -61.919262 -31.252325
23.589447 -57.573593 -39.757511
83.957634 -63.437923 -65.162910
77.127510 -67.123726 -63.841267
-11.425424 -67.245163 -65.822212
64.495888 -55.925735 -68.415604
-30.254263 -67.124992 -79.300446
-52.734512 -64.470680 -76.858818
-48.616894 -59.737450 -80.313667
62.620289 -67.271843 -84.330605
-63.620892 -64.296249 -90.712608
64.591209 -57.581661 -93.420128
58.582317 -57.509392 -95.898232
63.973980 -57.901245 -89.168762
108.431717 -64.646126 -93.312027
-69.932953 -59.739655 -89.594650
55.529190 -60.598892 -92.082039
-74.012825 -62.794727 -105.862175
65.858772 -71.533417 -96.882095
71.285866 -65.378410 -100.306343
-76.910973 -62.427826 -109.845284
-95.833672 -60.459045 -109.893959
-69.983444 -65.282654 -110.676056
-83.744835 -64.865799 -117.081337
-63.743507 -60.079533 -113.073021
-81.207932 -56.972740 -113.956535
-78.591370 -64.727943 -111.184601
-78.039284 -64.951935 -119.517319
-63.054722 -63.994289 -122.100655
-84.808800 -67.202545 -124.374153
34.465046 -61.983379 -122.481293
-51.530029 -62.825607 -128.752121
27.249344 -58.785671 -132.996719
29.568703 -63.070843 -136.450699
34.130333 -66.732178 -134.333298
-49.538715 -68.865875 -135.506516
19.920969 -62.765823 -149.371124
28.858713 -62.356514 -141.952728
-147.509796 -56.518532 -178.451813
-147.679794 -64.215370 -177.905731
-149.195099 -64.831802 -176.991669
-145.411652 -61.139442 -189.273911
-143.845169 -59.829838 -183.546158
-144.203949 -65.249786 -195.627365
-144.273300 -64.676743 -194.076859
-145.811859 -56.497597 -196.525558
-123.491615 -55.521351 -202.485703
-129.747070 -60.376225 -197.757050
-149.411026 -63.248238 -210.778610
-146.090546 -59.759995 -227.517838
-148.918930 -62.059414 -223.416000
-150.217636 -62.044289 -226.442093
-157.613708 -62.480007 -221.884308
-151.490967 -67.288124 -229.751099
-146.717728 -60.379196 -227.890976
-149.509491 -63.471531 -228.450897
-141.705063 -61.332821 -239.508163
-144.119812 -63.837452 -234.311417
-157.405670 -58.916397 -232.842346
7.638904 -65.557487 -240.910538
-7.211373 -69.610474 -236.455551
-146.106110 -65.025795 -230.012955
-152.366409 -59.173943 -238.393829
-149.612915 -59.019577 -239.664124
8.495300 -62.461216 -242.791077
-152.626938 -60.811981 -241.585281
-146.037613 -63.066967 -253.823517
-0.090526 -62.830051 -252.589218
-147.266190 -60.950272 -253.682877
-148.816910 -65.096046 -247.061584
-142.828186 -64.135689 -254.883530
-140.420761 -66.986816 -254.330811
26.305855 -63.947437 -258.481323
-154.755096 -63.764473 -264.303986
26.698225 -63.219021 -269.409363
17.278200 -65.218552 -286.903564
3.121004 -63.872421 -292.509308
4.573822 -61.400043 -290.591034
35.669617 -59.695625 -19.590891
-39.509212 -65.140663 -45.840340
-92.587852 -60.391621 -49.232811
-93.756592 -65.082016 -54.752949
-16.919327 -64.793762 -65.316612
95.730415 -56.343372 -61.204693
97.997536 -68.658058 -69.070740
104.039894 -59.795921 -80.775574
102.871826 -61.752197 -79.882088
-47.270443 -62.358990 -78.562973
-50.896561 -63.656670 -85.435616
-61.987640 -58.145279 -83.637436
58.951248 -61.628323 -85.237457
54.865223 -61.093731 -92.009361
51.310429 -64.002678 -92.794380
-63.699741 -64.578758 -94.380539
-98.059982 -62.511909 -106.803757
81.317841 -66.647499 -108.488152
-78.488968 -66.188492 -117.441444
-67.579308 -60.935883 -105.575111
-85.073853 -59.239525 -115.465858
-86.013451 -62.005402 -111.911682
-80.559952 -66.621468 -118.410027
-66.068237 -59.630703 -116.373207
-71.375145 -60.284069 -116.065590
-84.104424 -61.313927 -118.292679
-81.295158 -64.457909 -119.712112
-64.552124 -63.132172 -122.536858
-85.550056 -65.793510 -113.079811
-81.597893 -65.805489 -123.247116
-72.526237 -68.081009 -125.218605
-76.635880 -65.159241 -128.058746
27.689072 -62.956539 -126.350342
-55.404659 -62.381313 -131.521805
26.404257 -63.496414 -129.623459
26.257126 -63.948147 -137.969131
-145.888779 -60.343670 -193.316925
-139.085052 -64.321815 -201.752121
-158.052902 -64.192154 -200.336090
-145.776810 -62.507149 -197.487137
-155.885178 -62.905422 -203.876297
-147.252731 -61.520275 -200.047821
-141.981476 -63.944763 -204.491699
-147.371902 -59.607452 -211.312393
-146.766327 -62.300892 -218.974884
-147.378448 -57.689793 -220.545105
-141.252213 -60.607559 -221.655716
-147.384079 -62.854084 -218.012619
-147.605133 -59.812458 -227.294098
-137.841675 -61.035160 -223.780746
-145.047058 -64.810005 -225.733261
-144.171509 -63.360229 -232.261795
-145.455185 -65.884941 -229.119232
-147.172928 -64.050407 -234.201965
-141.904602 -57.264057 -239.474213
-147.973007 -65.055573 -237.739929
2.717676 -62.243256 -240.067459
16.445648 -58.951687 -244.164597
19.019709 -65.966148 -239.704163
27.931067 -61.238445 -253.006546
28.825441 -61.168030 -264.499359
6.749787 -63.769299 -267.248718
21.411118 -64.930473 -274.303619
9.248084 -60.292038 -280.849182
5.367548 -57.939602 -294.448517
8.723907 -63.712521 -291.190125
36.522205 -58.440735 -39.020950
-25.938816 -65.735359 -46.969509
-17.770342 -58.216587 -50.380157
-12.594828 -55.821667 -52.302341
-9.598536 -62.861679 -59.251720
91.779724 -61.620777 -59.107086
91.426788 -63.187813 -61.109394
-97.580200 -61.853859 -68.683540
100.740807 -64.502129 -72.605751
-58.538136 -53.750786 -83.683342
56.635872 -57.678673 -88.135384
56.888855 -67.176414 -87.508682
-63.437263 -64.254593 -91.935471
52.365566 -64.162987 -92.112747
60.692760 -65.331352 -92.194260
103.936386 -66.245323 -93.276978
-66.935341 -63.762081 -100.087936
-76.165359 -61.448208 -102.543358
77.134232 -60.810364 -108.826538
78.865395 -55.902340 -110.970406
-66.305580 -59.088570 -105.166885
-65.427834 -64.358925 -110.422775
76.300148 -61.342140 -104.572586
-83.361580 -53.303440 -109.372185
40.171783 -64.184761 -117.903938
-80.102936 -60.207588 -120.230942
42.410557 -60.557331 -120.011955
-91.907730 -65.995903 -112.224968
-96.671242 -62.753906 -118.846245
-67.085930 -61.904320 -123.876549
39.368526 -64.164818 -131.973862
-60.358269 -61.043774 -127.149651
-58.872768 -61.724251 -135.632065
-56.465679 -60.054329 -139.781097
-150.046387 -63.892159 -196.643860
-146.151398 -62.262444 -195.323151
-144.067200 -65.315979 -191.409622
-146.141724 -58.245445 -191.710693
-149.472031 -62.030426 -199.581116
-148.094940 -63.702209 -199.576447
-145.051392 -64.807281 -194.826813
-142.502655 -57.156006 -198.757065
-138.978119 -61.126205 -197.296463
-148.729279 -60.633949 -195.856339
-154.954315 -62.994846 -201.991455
-143.868820 -61.991196 -204.230499
-146.900482 -60.895103 -207.169724
-146.316483 -65.263412 -210.943634
-143.566849 -55.443836 -203.337936
-151.425705 -58.912300 -222.789764
-5.857533 -63.057789 -236.460327
4.431555 -57.179123 -241.274719
13.969895 -58.466949 -242.355804
0.556366 -58.349178 -240.482101
1.132102 -58.708496 -247.536972
20.634678 -58.240559 -245.809433
-0.689536 -66.620773 -257.342163
24.618536 -55.093910 -260.090057
7.793700 -58.302814 -271.242676
23.347908 -57.238792 -265.095886
17.331741 -58.635979 -283.972015
32.366222 -60.759220 -11.766082
-63.777901 -61.539322 -46.373280
-36.533077 -60.261959 -45.632172
-11.127207 -61.775894 -56.009399
69.963974 -59.870468 -64.275352
-27.084459 -70.911072 -72.747147
-34.426971 -51.529812 -70.302544
-39.381222 -61.833237 -73.712997
-36.834435 -57.299934 -77.208260
-43.319332 -64.508781 -82.746361
59.106991 -59.350925 -87.477638
106.045357 -59.719566 -90.380661
61.955399 -59.523678 -91.976517
64.857071 -57.375462 -88.993164
104.565582 -58.191948 -83.439156
66.901360 -64.036774 -88.453087
-72.266243 -57.815147 -101.123795
102.138435 -61.232742 -102.148415
98.275726 -63.229259 -104.808014
-68.783516 -56.033215 -105.247910
-78.429337 -57.981976 -107.091164
53.917580 -55.808887 -107.176674
80.416931 -67.351273 -107.060158
-73.501427 -63.594498 -111.983078
95.306961 -60.530323 -104.875214
56.487701 -52.776203 -102.083687
-70.870461 -60.472721 -105.158569
46.853508 -58.941483 -109.635201
-66.444168 -55.131306 -109.502213
-54.903271 -63.797558 -111.144089
46.997349 -55.985008 -115.385788
-60.050812 -64.033920 -114.256584
-77.303108 -60.793217 -116.294853
-51.576313 -60.764622 -119.827873
-75.789711 -56.400505 -114.887451
-76.459099 -63.960377 -118.654808
38.481300 -65.211166 -122.084305
-97.512192 -60.154831 -127.387001
-47.872845 -59.721245 -132.021851
33.878601 -60.129612 -126.978760
-62.016705 -58.712887 -128.448181
19.065086 -64.538254 -136.713211
30.094780 -51.354603 -135.373764
29.476397 -58.593193 -139.584518
3.152627 -58.054829 -242.926254
7.751297 -64.175735 -241.750778
0.654312 -59.074780 -243.110779
1.311171 -59.623356 -247.186249
5.780622 -60.613808 -286.815247
30.527319 -57.832767 -13.878987
24.210941 -63.046459 -16.652742
39.708954 -61.283524 -18.862328
25.296339 -58.796646 -19.281561
43.203625 -60.640873 -26.296892
38.800301 -52.152214 -42.427868
-46.826408 -60.541901 -47.444508
-11.849577 -68.271500 -58.370869
71.779037 -57.199093 -70.087601
65.239601 -53.784962 -83.807777
-98.155502 -62.441151 -86.119339
69.510567 -63.275616 -105.328873
85.336426 -58.314976 -100.775833
66.379814 -61.580273 -104.214813
-71.314247 -60.828800 -105.215141
87.488228 -56.634975 -110.405739
87.000999 -57.382069 -107.769203
86.381592 -60.927696 -108.463539
-64.436577 -63.627022 -115.784180
42.964886 -60.660957 -118.478691
-82.582466 -66.058235 -116.998932
-56.792057 -60.935322 -120.282700
-87.626999 -57.864567 -118.485802
-65.533997 -60.987804 -117.204552
-88.614899 -59.012199 -114.484489
45.155014 -56.539787 -121.000740
-50.869286 -54.209324 -124.016144
-62.598717 -61.337002 -133.542023
30.880301 -57.645718 -137.735519
-2.957178 -63.292412 -238.065689
26.048861 -60.461742 -247.601654
6.941821 -56.952465 -252.762741
25.647854 -58.360641 -254.112701
27.414316 -62.282993 -273.436707
-15.235148 -59.644951 -264.067169
-5.906490 -58.727646 -276.593750
20.762402 -56.505520 -275.686462
12.106989 -54.923115 -284.943695
8.117980 -57.681030 -290.072418
44.633381 -64.256020 -15.959704
50.565464 -54.524796 -22.123001
-53.567223 -55.879505 -45.963184
-82.878181 -59.738338 -42.238716
-81.475731 -67.765015 -51.227661
-26.301756 -59.965748 -51.074043
-17.928200 -61.386517 -50.588020
85.565331 -61.360104 -57.381596
73.174080 -55.372448 -63.420376
-12.445208 -57.706921 -63.691429
-22.393309 -56.925373 -63.223103
102.384399 -54.071255 -71.393036
67.534714 -53.417732 -68.537560
-67.307045 -51.489826 -73.967712
67.212402 -56.005821 -72.142067
60.707439 -57.993050 -80.742004
-63.627823 -57.321552 -88.731819
61.016056 -57.050072 -79.466972
78.444229 -57.083290 -91.863564
61.218342 -63.312592 -88.516487
105.577957 -60.888706 -90.954926
78.720245 -55.570038 -91.912918
-95.552765 -58.120853 -97.970787
100.187286 -59.764812 -97.445679
-71.277100 -60.133862 -104.595062
74.198830 -57.849728 -102.333046
76.446655 -58.657776 -106.177322
70.751099 -59.125595 -104.982170
66.863846 -60.620686 -107.239281
84.035667 -54.471867 -105.346313
60.964119 -58.012142 -106.965355
92.817291 -62.160580 -114.917961
-68.738716 -60.303585 -119.335777
-54.749382 -55.708981 -108.817528
-87.302818 -62.305859 -119.629753
-99.379715 -59.327545 -115.020691
-66.485924 -60.542088 -123.867813
-55.260059 -61.837818 -118.051979
-54.906036 -55.851856 -128.899353
-66.864204 -57.038902 -124.825035
-58.323746 -54.881565 -122.406860
32.109901 -62.805538 -119.213562
-63.504681 -56.561172 -123.007378
-69.777969 -63.370457 -123.407249
-51.275574 -60.442890 -132.763748
29.371851 -64.445702 -129.251663
18.114948 -57.316143 -243.399460
1.528571 -57.775188 -243.191238
8.868114 -56.004860 -246.909164
4.507633 -62.412338 -259.022858
-18.181709 -57.563702 -259.568939
-19.971041 -60.093124 -265.609833
-16.937889 -56.387028 -261.980286
-17.024061 -62.650528 -261.979218
-16.880129 -53.747383 -256.968079
-18.647068 -56.846642 -261.885895
-17.305384 -56.129601 -266.579193
16.301254 -61.620560 -267.787994
-16.168083 -58.460377 -274.167938
-11.077399 -57.702908 -271.272339
-0.733473 -57.674309 -281.140015
21.435741 -58.857079 -281.919006
40.350708 -64.957764 -11.861206
40.315212 -65.711525 -15.075225
47.002975 -63.634338 -12.814778
23.374887 -49.819511 -19.582289
48.947823 -52.501469 -20.945293
51.816971 -63.421829 -35.706570
47.253075 -67.923241 -38.270039
39.801380 -65.502190 -39.625317
45.581036 -59.997181 -33.704800
28.311226 -65.634857 -37.205227
42.144566 -55.309910 -35.382061
-89.961899 -51.803474 -51.848907
82.935822 -51.167091 -58.694473
91.233841 -60.296230 -59.362484
76.235016 -56.605873 -62.022327
95.821030 -60.631115 -63.100704
99.434052 -57.844662 -61.256752
65.680878 -55.918884 -61.537182
-64.189293 -57.054096 -67.739479
99.066254 -59.672874 -66.639343
-102.180046 -59.047077 -74.345146
104.423607 -59.488567 -72.029305
-52.172550 -61.734135 -81.471794
103.169014 -59.215561 -80.934959
-48.836777 -55.548149 -79.282845
63.630589 -56.739109 -77.544563
60.242588 -55.657322 -86.456238
87.069733 -54.957821 -90.395576
-68.653419 -61.635727 -95.035576
89.386620 -56.556419 -94.759193
71.062653 -55.487492 -97.981194
65.894478 -57.965988 -103.201889
83.814865 -59.417057 -99.461357
74.853798 -55.063789 -99.961876
94.924423 -55.392384 -101.569778
71.457764 -61.546169 -103.170212
54.758392 -56.926128 -103.500992
-60.911762 -57.251976 -104.466797
-64.569626 -58.066036 -104.583885
84.669495 -60.318218 -106.019402
54.214169 -57.832729 -105.352425
99.854469 -59.175903 -108.089470
88.353737 -58.638355 -107.821953
-56.470936 -59.120934 -111.730370
-61.534950 -54.127483 -100.319595
-72.675797 -52.637840 -106.823883
44.685886 -60.845848 -118.313339
-80.675652 -61.195648 -114.930923
44.931961 -58.409405 -123.171074
-56.378098 -58.251846 -126.185287
46.036755 -58.040642 -115.793365
33.477512 -58.233013 -122.990257
38.023136 -54.536354 -121.314369
-63.299759 -55.249203 -129.216934
35.132957 -54.279716 -131.588104
31.913763 -57.680229 -130.897629
-3.387382 -58.361946 -238.722168
3.327690 -58.822731 -240.451111
9.380396 -54.399830 -241.713715
13.859267 -57.605930 -248.009872
4.356922 -54.160091 -250.020996
22.666506 -58.617847 -247.075653
-14.282924 -53.545376 -254.759247
-17.047461 -57.586102 -249.025436
-18.721382 -61.101662 -258.077545
29.367395 -61.568398 -254.176987
-17.618906 -59.182564 -261.051422
-17.315559 -56.825001 -260.975677
-10.951685 -57.045029 -269.269257
-24.048189 -52.615772 -261.264801
-18.134262 -58.953236 -270.010071
-13.712020 -59.023811 -262.526001
-12.890883 -56.931629 -277.369598
-10.986345 -61.415951 -268.270081
-14.583954 -56.993713 -268.524902
-10.970391 -54.780304 -277.111572
13.355671 -54.965816 -277.965576
-11.434526 -57.691940 -283.353516
-8.081158 -57.988224 -279.153839
-11.093436 -56.939194 -279.676300
-13.205335 -60.403603 -280.058990
-12.039294 -56.686886 -278.215637
-9.345428 -55.186657 -281.071503
7.553852 -59.779617 -289.560547
15.895174 -56.056179 -286.045868
-6.648111 -55.697887 -286.576996
-0.063888 -60.040379 -285.634735
-2.932186 -55.389614 -288.159241
31.742262 -63.369808 -12.243970
34.631451 -58.624893 -16.466206
36.468849 -52.366360 -16.627176
27.041723 -53.072609 -28.982452
-72.981659 -59.264080 -40.636681
84.122749 -57.097424 -63.683487
-12.225912 -56.734131 -61.630787
-24.917965 -53.522877 -66.477745
69.583206 -49.161274 -61.486877
-65.183159 -53.150597 -64.231300
-99.863449 -51.608585 -79.604431
107.820229 -50.568672 -68.751320
-46.710632 -61.078598 -79.232552
-37.868366 -59.102062 -81.407387
70.475052 -52.847012 -84.169395
-62.524197 -60.235970 -81.015656
89.199097 -54.351585 -84.952469
-61.169170 -56.178730 -88.371758
95.622108 -57.083038 -89.036346
-65.049690 -52.099312 -93.373466
61.428131 -58.461750 -85.990128
67.467255 -57.383102 -95.820930
-99.276520 -57.628433 -86.651550
62.798393 -55.327236 -88.926720
71.174095 -58.626835 -96.202881
107.924255 -61.154655 -100.128288
74.091881 -53.656277 -96.566231
102.251419 -58.161598 -106.159332
90.392807 -61.334942 -104.215561
61.216911 -53.339401 -104.070679
92.832008 -57.102203 -107.427338
94.238586 -55.590382 -111.456589
53.155621 -55.721439 -112.969849
-98.332718 -62.818260 -113.928810
-78.689056 -58.416737 -113.149399
-65.863655 -60.004234 -112.551788
-76.434822 -56.665211 -120.198616
-57.938892 -52.455078 -124.179924
41.841068 -56.648537 -114.201797
33.354107 -59.366409 -122.747612
41.899338 -57.802799 -122.149818
-65.171158 -53.615105 -123.704460
-57.881020 -56.851158 -128.597946
-3.273149 -55.203922 -234.294556
2.883069 -53.490284 -233.498489
11.078413 -57.404152 -235.484512
1.074464 -57.726448 -243.647934
13.740253 -62.830120 -240.478851
7.162268 -60.635357 -244.343994
-12.441235 -56.783123 -245.300003
26.601679 -55.673904 -248.312714
-18.256580 -52.883633 -256.328156
17.627804 -48.988857 -251.425385
22.966049 -52.283062 -253.383087
-11.445600 -56.143097 -250.865997
20.858593 -54.479660 -265.059082
-13.439683 -60.671223 -262.683044
-16.790670 -54.987740 -278.077576
-8.073995 -56.055332 -282.849915
29.088285 -55.269741 -267.279755
17.558552 -54.658165 -285.997284
-6.318610 -56.172695 -286.179993
-8.667027 -54.478943 -283.601624
12.723619 -55.183441 -290.811035
11.222503 -57.140537 -292.510254
7.511994 -55.519833 -295.390106
24.021626 -59.803257 -24.838154
19.960365 -60.851486 -21.747910
22.452869 -61.156822 -25.934658
29.882988 -56.264427 -33.243122
22.976137 -60.510712 -31.449841
37.402935 -53.541878 -35.694530
32.267002 -53.499344 -39.845963
-61.814335 -58.309708 -44.008263
-73.313347 -56.024525 -41.920746
-49.005840 -53.182312 -42.501141
-84.373322 -50.293999 -53.681976
69.759598 -57.302372 -57.483009
93.725563 -58.032162 -59.980122
-61.636261 -55.263824 -68.825996
-38.048565 -60.869305 -81.071960
65.343117 -55.646194 -82.332474
77.112366 -54.047234 -91.247513
70.517342 -56.809109 -86.776886
73.204163 -53.128239 -90.886925
96.172203 -48.121887 -87.875748
93.280800 -54.337700 -96.778664
98.914459 -53.240234 -97.811432
69.021683 -58.658127 -98.607071
101.740059 -59.690891 -106.118423
61.044651 -57.935551 -104.227036
53.304295 -58.612671 -100.060219
-59.040653 -55.932499 -105.616951
-71.179390 -57.221027 -111.226616
-72.662773 -56.987144 -110.880417
43.075516 -55.651546 -112.172546
-67.088112 -57.521671 -108.294418
46.520973 -56.456738 -121.718781
47.998562 -55.724785 -117.132301
-63.659416 -51.620457 -121.039948
-60.265820 -54.094513 -116.329201
43.404873 -52.190750 -116.249100
-16.050100 -54.783718 -237.543106
-1.978194 -53.499828 -238.194672
-9.282832 -52.699398 -237.980179
4.638036 -55.890236 -239.880722
-8.757031 -57.780643 -242.676483
2.558619 -49.825249 -243.702377
17.048769 -52.689289 -237.876419
17.956285 -56.358532 -241.603561
-16.973352 -55.176422 -241.006348
25.181252 -51.647499 -244.217926
-15.417148 -48.861855 -245.237885
-20.834696 -59.534805 -252.367706
25.376591 -52.015690 -252.265366
26.900566 -51.556839 -260.188568
5.727867 -57.782547 -259.196167
31.628546 -56.783295 -254.226517
-18.261536 -55.711323 -258.603485
-20.091219 -55.757359 -258.576538
-10.586088 -50.770794 -267.367981
27.730467 -55.772419 -261.438721
-10.724309 -55.726372 -270.599701
16.107594 -56.289974 -268.638763
16.636465 -54.448883 -283.962402
14.948222 -45.294128 -275.743835
-12.037159 -58.475815 -283.860687
-7.308895 -57.147556 -280.135681
-10.305852 -52.276127 -289.492676
-5.489154 -55.525936 -292.991302
-2.010112 -58.127064 -292.128296
-0.430687 -49.244030 -293.842285
9.821032 -50.231960 -293.092712
18.689333 -53.904449 -35.117092
32.892471 -65.445107 -33.589962
39.023102 -57.662132 -37.072849
-55.256004 -55.167770 -44.322201
-39.019249 -63.848644 -50.279129
-20.724520 -61.244461 -43.237774
-8.586514 -52.183567 -54.950909
-96.169586 -58.201805 -64.503380
-12.094279 -61.039352 -61.302990
-60.608982 -59.043118 -64.333855
98.294922 -57.217445 -72.181503
-103.085968 -55.641338 -66.580040
-60.484982 -50.745571 -70.253754
64.931190 -47.873985 -74.522858
61.591488 -55.732410 -76.448975
88.644524 -51.798241 -73.319427
-38.716187 -54.987335 -76.359322
73.381020 -55.247749 -75.109299
106.112991 -54.446373 -83.132927
71.669075 -49.391785 -81.573929
93.522415 -52.708584 -78.720879
-54.369019 -54.410778 -88.307724
103.464981 -57.766289 -92.498116
81.675278 -52.089714 -87.865944
74.454445 -49.096432 -91.325409
94.186989 -52.930054 -94.478645
97.736313 -58.701260 -92.575867
74.705276 -47.649059 -100.750099
82.552132 -54.941692 -97.310791
61.043636 -49.526100 -97.284035
-97.077103 -57.556404 -100.689667
62.640259 -53.293324 -102.279221
-68.013565 -52.619755 -105.334801
57.802048 -53.179749 -105.766457
-76.122368 -54.733742 -108.507980
-56.755745 -56.987900 -110.147179
60.480278 -58.640324 -110.569832
52.620258 -53.182610 -103.388466
43.299065 -49.592121 -112.832428
-73.956291 -57.601810 -115.659897
-64.066750 -53.169228 -104.868294
-70.738548 -46.150311 -115.306793
-87.568283 -58.277733 -119.521698
-71.746025 -55.428902 -116.598785
-55.305042 -54.497570 -124.078346
20.287954 -56.613121 -241.967026
-6.250754 -53.368118 -241.338409
10.396322 -51.266838 -240.026810
21.450558 -55.325069 -239.459305
-5.567142 -55.386017 -246.034363
-10.407907 -53.644897 -237.852844
-14.923683 -51.044949 -243.701065
15.154988 -52.247272 -244.255951
16.881153 -52.887901 -238.115372
29.026779 -55.626499 -250.679642
-10.183415 -54.042858 -252.596176
20.688284 -56.437805 -254.948502
29.419388 -56.943275 -263.359161
-13.664420 -59.041023 -267.519836
28.889162 -52.081356 -263.096619
25.032711 -56.428982 -273.176788
23.395706 -55.353405 -273.025452
21.941525 -45.013920 -277.774292
24.643913 -55.713108 -282.852051
-4.679523 -49.277237 -277.130676
-5.081297 -54.374989 -273.494873
18.414614 -52.716194 -278.806549
23.675705 -58.409756 -276.239136
-10.935880 -55.859924 -278.568634
22.292721 -52.456882 -286.464233
0.582253 -50.838997 -290.544220
23.788294 -53.508892 -284.150299
6.794892 -56.886044 -293.727142
10.420057 -52.406300 -290.716766
-1.343778 -55.913563 -298.693573
4.574858 -50.871635 -291.726959
4.749925 -50.105770 -296.954102
30.228298 -53.408718 -18.347115
23.217611 -50.351063 -15.589058
37.630016 -49.972954 -19.252710
24.683216 -51.050156 -26.068920
20.771475 -50.217484 -24.560614
29.640472 -50.628345 -36.156189
51.009365 -60.067482 -35.026951
30.818319 -52.709820 -38.438862
21.995691 -52.979839 -42.492096
38.558540 -52.144516 -39.156681
30.899490 -59.772335 -45.784439
-77.613571 -49.084953 -47.628208
-37.020660 -55.490108 -49.765900
80.751068 -54.854362 -58.653290
-64.933525 -55.210922 -61.239937
-27.463095 -54.523129 -58.533886
-34.385422 -48.309605 -67.772034
-38.883545 -55.725731 -80.920586
75.667542 -55.666821 -77.467003
72.088264 -52.480381 -76.176735
68.598106 -51.909695 -77.214027
-54.536091 -56.619267 -86.002785
-57.132881 -55.867229 -86.504425
-67.336693 -60.054337 -97.854912
65.685226 -52.425007 -93.889061
82.960060 -47.721703 -98.278183
90.277802 -56.401112 -93.430893
80.035156 -50.153549 -94.105080
102.456345 -50.784561 -99.429550
78.379929 -50.458015 -97.416412
88.665878 -52.201435 -100.422707
71.926277 -54.521759 -98.186874
64.348305 -48.907734 -95.984550
71.398094 -56.366241 -102.535332
59.547386 -54.819756 -101.857483
-75.048347 -50.146534 -110.550835
-69.284187 -53.760639 -106.636040
-100.945053 -52.078461 -109.166885
-57.973934 -52.378487 -114.058846
-79.383553 -57.173531 -114.561264
-65.432335 -46.953751 -115.173233
-68.647057 -53.181896 -115.417427
-92.746124 -59.492390 -123.823647
-7.318705 -47.832748 -239.378723
-0.463985 -52.930172 -235.260147
15.084188 -55.714264 -237.061646
-9.826902 -56.013561 -239.844711
-14.481401 -54.251900 -240.574738
-0.710493 -54.702274 -234.581039
0.006804 -55.051395 -240.155365
-6.426561 -52.698158 -241.918777
8.987229 -55.115803 -238.562912
-15.500442 -53.025620 -240.720657
25.372915 -54.014626 -248.156754
23.637766 -54.478115 -251.331375
29.920063 -50.152988 -252.310577
-9.269051 -55.817490 -250.897018
-14.384467 -55.256744 -253.495483
-12.889893 -48.736061 -255.641174
-16.939964 -49.920219 -261.503448
-15.317248 -51.874977 -255.008026
-13.662897 -53.684578 -259.103302
-8.130980 -52.001228 -256.609131
27.466688 -58.080414 -262.290771
29.957462 -56.635124 -257.630768
31.025200 -51.497284 -254.849884
30.828243 -51.680950 -266.773560
30.159824 -54.630878 -260.429596
26.046682 -57.510067 -270.850861
-13.152511 -51.604935 -280.632813
29.193336 -49.494053 -273.682739
28.915321 -52.675793 -263.991913
27.763058 -52.293133 -270.454041
-10.488150 -52.804928 -279.921783
-11.993503 -51.831566 -270.879425
19.559383 -53.288452 -279.359924
18.856194 -52.365360 -278.100494
23.672756 -51.386986 -280.412140
21.609173 -55.072533 -279.570557
18.371304 -53.612305 -275.283905
21.642948 -49.060043 -275.348358
13.623160 -51.709488 -271.420135
22.930960 -57.276733 -283.026001
-2.897225 -52.807957 -282.455688
-8.961653 -51.311043 -278.108521
-5.477125 -47.852715 -277.254669
21.124813 -50.379284 -279.258026
13.449264 -51.853245 -287.249023
-3.202630 -53.504971 -287.489532
14.543622 -55.743427 -288.930389
15.825410 -54.624989 -290.049652
7.760196 -54.216244 -287.613708
9.811575 -49.260658 -289.318787
-1.775394 -53.127064 -292.857605
37.442112 -53.403164 -17.500389
36.160923 -56.377743 -10.848930
28.137341 -51.825062 -7.026682
44.456551 -49.655659 -11.580088
30.935307 -48.416203 -18.607718
43.648434 -54.350739 -23.223291
22.757189 -49.913830 -20.778681
38.194530 -49.750965 -24.894171
46.453049 -47.575909 -31.294020
18.425541 -50.291668 -34.868095
22.745152 -52.417870 -27.744793
26.900709 -45.932793 -33.971111
20.161341 -50.492569 -29.609425
26.080118 -51.594799 -36.757133
28.368753 -51.909275 -29.468607
38.738823 -53.139870 -37.433392
24.603045 -49.105530 -34.680378
34.393173 -48.811996 -37.972500
47.295830 -52.751228 -33.205681
20.606741 -53.830460 -33.326569
35.650661 -47.066227 -44.761688
29.796387 -52.931046 -42.132225
35.312366 -47.835716 -42.440109
37.119350 -54.840824 -41.548687
-72.923309 -48.177231 -45.388046
-83.595009 -55.465443 -50.136242
-23.977205 -58.549065 -50.010681
-16.412411 -51.690063 -50.654011
-12.209118 -54.677860 -53.839638
-96.294716 -52.863808 -53.434853
-6.947865 -47.629684 -63.804836
93.165237 -46.330647 -63.411079
91.710083 -56.814533 -59.967159
69.490662 -55.111534 -57.988968
95.751793 -50.130077 -59.226334
-68.925575 -56.682343 -69.642296
60.703106 -51.846943 -68.992867
70.157394 -48.333828 -73.351547
73.283920 -46.748138 -71.423683
91.040749 -50.235508 -71.779846
98.460732 -50.705868 -82.994598
102.959610 -50.203751 -75.983208
62.164204 -53.877590 -78.703064
-55.433018 -51.403526 -84.902603
104.686745 -52.903717 -82.330070
101.199913 -57.335491 -87.170410
66.674599 -48.907116 -97.734909
102.193787 -54.732616 -91.993729
98.797302 -55.923054 -93.780479
95.607620 -57.456936 -104.223343
-64.768959 -52.958408 -107.300217
-76.675713 -52.694984 -111.060486
-61.866158 -43.612621 -118.690292
-96.960381 -53.173428 -116.766068
-92.488525 -51.978115 -122.024590
1.234646 -50.445419 -235.140717
1.284863 -53.998970 -235.650620
9.155662 -49.459949 -235.438217
12.316174 -50.862923 -233.881195
17.468290 -53.498375 -240.214722
1.110531 -53.896214 -240.414063
4.986087 -49.466564 -241.393936
-3.164517 -50.556187 -240.863937
7.935793 -51.518715 -245.734650
9.634072 -58.887192 -247.727585
17.872972 -50.032276 -242.495041
17.780088 -53.643559 -241.876251
18.731270 -46.428211 -247.335678
-9.064728 -53.205029 -247.291031
-12.045295 -54.941605 -244.459290
13.195299 -57.044308 -247.477203
23.528999 -54.446133 -243.290466
-15.437209 -51.852493 -249.537659
-14.740954 -54.146137 -250.087646
-15.053347 -49.659012 -248.397903
-13.878638 -51.810364 -249.929825
-4.047563 -48.049416 -251.280075
-11.218073 -47.091969 -250.550507
28.665178 -51.704067 -249.649994
-15.303042 -47.964352 -251.957153
32.316071 -55.400368 -251.860275
-12.752903 -52.340828 -250.584244
-13.863228 -49.284119 -248.457230
-11.169869 -52.800926 -251.097122
-8.144644 -57.380753 -251.002411
-11.282273 -49.458298 -253.052200
-9.570729 -53.823204 -252.736954
18.806889 -50.175301 -252.291656
15.156104 -51.370823 -257.334106
-11.598260 -54.162926 -255.428497
17.628971 -54.745911 -264.329376
31.252281 -50.910198 -258.366028
31.431168 -50.642166 -263.239960
19.908829 -48.786308 -261.182220
27.278524 -47.854996 -263.683228
-12.279366 -50.750565 -260.760956
2.268109 -52.057064 -258.064209
-14.363273 -57.297924 -256.799835
35.184479 -51.505196 -267.314819
-3.751574 -52.202950 -260.087921
31.110626 -51.519890 -268.441711
-1.629073 -49.084667 -264.712463
11.943183 -52.221020 -276.570679
30.063114 -46.232979 -273.207672
17.559361 -51.995457 -269.415924
20.470726 -55.455467 -275.977356
-7.690200 -47.485142 -269.103790
2.554025 -50.636227 -275.659393
19.428799 -48.103996 -284.174622
18.860834 -52.706020 -281.301331
15.399817 -57.879276 -283.383209
31.604286 -49.275341 -287.098877
7.831625 -48.715382 -287.312988
11.043663 -48.716759 -294.261383
3.618608 -51.138252 -295.119995
19.960238 -58.937481 -291.889069
8.405555 -51.659172 -289.050323
14.008507 -53.534172 -288.550537
-1.284154 -54.907799 -297.491974
3.872971 -54.779915 -297.820923
41.806477 -52.482803 -17.711651
38.113888 -49.106335 -16.394903
33.216228 -53.462429 -15.411729
33.157574 -50.021183 -19.026627
22.111008 -48.613407 -13.748961
27.641603 -49.112976 -17.964876
43.236729 -55.319302 -28.630522
42.934917 -50.513237 -17.662018
44.541355 -49.598953 -24.416431
45.583424 -51.800228 -33.905823
44.608566 -47.214012 -25.996183
44.167435 -50.453575 -28.563955
51.368382 -54.273205 -27.447298
47.533512 -49.148865 -35.300919
40.626339 -49.003338 -35.056602
30.580658 -50.961750 -32.229282
39.009087 -51.149975 -36.077591
29.533667 -51.610115 -38.756191
40.886509 -52.489128 -37.629169
46.115528 -51.118080 -35.652306
28.634565 -50.626884 -37.562042
32.185787 -46.311989 -45.555904
-94.356979 -55.668015 -52.462559
-63.771004 -50.562229 -62.317577
-98.336891 -47.523071 -65.755501
-29.208967 -53.045090 -61.538754
-58.842339 -51.874153 -66.026787
97.741692 -56.699314 -61.874569
69.455688 -48.183132 -70.472191
78.526932 -46.313797 -68.823235
104.631950 -49.431171 -67.025124
84.875908 -53.479187 -70.122955
61.657970 -45.228336 -69.114388
64.990242 -55.955189 -70.263184
108.531830 -52.308197 -82.881813
-39.498314 -49.989502 -78.556625
61.009190 -53.257347 -86.115990
101.770355 -50.541801 -91.339203
105.325546 -51.792065 -84.683998
102.251785 -50.746647 -93.843117
62.774017 -50.034634 -97.533211
66.158028 -45.849560 -88.091614
101.043449 -49.554138 -94.734833
64.481316 -50.866219 -100.073181
-93.972031 -49.267757 -105.355026
-74.962097 -47.639378 -105.669838
-67.973221 -52.279846 -112.731171
-67.209099 -51.086121 -108.657921
-97.687416 -60.304646 -123.008636
3.767533 -51.088142 -242.910461
7.714492 -43.606884 -233.216095
9.104571 -52.155258 -234.203018
8.557816 -52.033413 -234.321640
5.941091 -53.252617 -239.521667
-12.322157 -54.358620 -242.890106
6.886622 -48.464741 -243.296936
13.054179 -52.491985 -238.136597
2.182834 -56.950691 -241.935791
20.253716 -49.731777 -241.558838
0.940107 -48.526024 -236.653580
-7.302754 -53.373108 -244.399216
1.586619 -46.321728 -242.884659
19.918530 -45.555470 -244.845306
14.054361 -52.452496 -241.634506
19.302647 -45.630039 -248.928558
15.622406 -50.854618 -247.380814
11.120465 -52.073997 -237.765579
6.474292 -50.920135 -241.273636
20.028000 -51.148178 -238.551651
-8.148956 -53.065868 -241.234451
15.338230 -53.819023 -246.997742
27.406641 -51.776928 -251.942642
-12.324849 -56.343491 -247.529678
-5.904141 -49.459858 -248.826401
-15.284942 -52.287289 -249.195007
-11.466501 -50.449402 -245.449966
20.472054 -51.479141 -245.170578
-11.634180 -56.043468 -251.098145
-9.985827 -53.752899 -247.129532
-8.255136 -54.391529 -250.527847
-16.400143 -47.678944 -246.876740
-7.299774 -52.378765 -245.300919
7.188448 -50.895233 -246.973221
-9.498775 -48.259308 -253.601166
-11.234039 -52.461456 -250.964188
-8.300782 -53.952618 -249.604416
14.159195 -53.241219 -244.874527
25.048162 -50.098019 -242.645111
-14.587079 -55.309742 -259.881226
27.607536 -50.625813 -249.390747
-4.283577 -56.022594 -253.298462
4.560003 -55.380821 -259.873016
22.692284 -53.659275 -252.266403
-12.274229 -50.757793 -251.762680
2.846496 -49.493904 -248.814758
30.018364 -52.829018 -252.229874
30.630030 -51.351078 -265.170044
21.277126 -50.302498 -260.665009
-14.923100 -49.536392 -264.812592
26.818335 -47.545433 -268.590881
4.684807 -50.830536 -275.163971
-3.333735 -53.025402 -282.930450
23.728802 -53.842129 -271.145905
25.159458 -50.522713 -278.775299
5.892992 -55.643585 -282.492645
20.954651 -50.597881 -280.121002
18.390808 -49.855690 -289.905396
13.935020 -48.526367 -291.165527
8.598564 -46.311344 -294.800354
15.969517 -51.668034 -296.622833
8.208916 -45.460426 -298.261536
-82.052834 -54.889065 -45.969688
-35.965176 -52.269733 -52.090397
75.145660 -51.511875 -53.934711
-60.583088 -54.113495 -54.435303
-9.710210 -48.569431 -60.780796
-18.100670 -56.134724 -62.660854
87.981689 -53.764423 -57.347660
-59.534969 -43.669861 -58.467617
87.445007 -49.412292 -69.023537
103.848007 -53.434113 -70.529976
65.673782 -50.973133 -76.365204
-41.628567 -58.215500 -77.732697
-98.695580 -49.191807 -85.477577
61.498425 -49.940681 -88.140602
-70.819023 -48.730293 -100.671227
-99.108078 -54.405304 -108.914558
67.720406 -54.539566 -104.813171
70.224770 -48.914536 -113.424164
-97.387825 -54.191654 -119.741768
18.127430 -47.947849 -237.316681
13.352034 -47.051487 -236.755478
24.779531 -51.145100 -241.795822
1.975627 -56.405884 -240.083649
9.727537 -50.147686 -235.620834
21.552973 -47.878029 -239.879120
0.488812 -48.576275 -239.978424
14.521739 -46.150692 -242.998260
24.893738 -50.461807 -247.725739
-11.824677 -47.701534 -243.920090
-11.766189 -46.291718 -243.125427
-10.473337 -48.838081 -245.426849
4.287441 -51.065647 -246.413849
9.464184 -42.982159 -246.076920
-12.730518 -49.215115 -241.996597
-14.601116 -50.588928 -247.581497
-10.289116 -48.837559 -257.424957
-13.765545 -51.157322 -253.966202
-10.412874 -49.393551 -249.361298
-1.613207 -50.538506 -255.009048
-7.887559 -55.321857 -258.420868
18.268011 -52.074203 -252.610352
8.974298 -48.120289 -255.789856
16.978060 -45.971851 -254.567383
13.780408 -46.274284 -264.640625
23.704000 -48.041344 -260.590759
-3.874018 -51.902954 -262.274506
0.123701 -48.995453 -264.755829
-4.193240 -54.406601 -270.530243
10.028645 -50.249195 -274.567322
6.408671 -44.014175 -275.127045
17.120214 -51.525856 -275.902863
-53.922184 -49.757458 -44.071129
-46.659077 -59.684135 -44.519897
76.837418 -40.613091 -55.947102
-66.168716 -49.249744 -58.135815
77.562515 -52.062908 -53.666229
80.284889 -48.983116 -56.217632
-65.880661 -50.507431 -57.979107
73.422272 -46.856026 -63.491444
103.803360 -52.932941 -69.002121
95.206001 -50.476082 -71.229256
68.692017 -53.274490 -74.099075
-41.922955 -49.245480 -80.513794
60.913704 -52.902866 -88.877586
-52.368088 -50.124813 -84.736633
57.457119 -53.983688 -87.192802
61.905495 -53.801098 -77.959824
64.140541 -47.593006 -91.318779
65.876297 -51.132332 -91.385414
57.990101 -49.337849 -86.982285
69.869392 -46.310444 -89.562950
57.518417 -46.165409 -87.395111
-98.307777 -49.663410 -102.685570
58.674847 -50.382706 -94.753471
67.663719 -54.869823 -106.972588
70.222412 -54.402744 -101.950661
76.093689 -49.876629 -104.632401
84.790344 -49.947742 -111.218391
-80.732925 -54.171822 -116.853973
-89.248596 -52.531460 -124.261070
3.157429 -45.913528 -243.382172
-0.753152 -44.377621 -252.509232
-8.242740 -45.368950 -252.121857
-79.351959 -43.463169 -45.065495
-60.838676 -44.877918 -46.166485
