# This PCD file was generated using the MATLAB® pcwrite function
# from Computer Vision Toolbox®.
# .PCD v.7 - Point Cloud Data file format
VERSION .7
FIELDS x y z
SIZE 4 4 4
TYPE F F F
COUNT 1 1 1
WIDTH 1438
HEIGHT 1
VIEWPOINT 0 0 0 1 0 0 0
POINTS 1438
DATA ascii
52.299248 -67.484100 -114.371788
97.601898 -60.332638 -107.934479
100.817337 -70.322861 -103.465485
-78.644890 -67.526138 -118.023300
-77.281021 -60.055260 -110.798737
-64.713585 -69.674866 -122.189163
-103.367035 -60.209438 -120.306915
-75.335426 -58.498348 -134.232788
-88.198738 -65.689255 -133.123642
-62.212841 -60.749645 -121.137955
-59.829735 -68.443420 -120.129654
-96.593208 -69.527687 -128.720840
-88.017082 -69.000565 -131.395584
-62.566872 -71.109810 -127.986458
-58.758492 -59.467247 -131.312546
-54.142353 -69.320526 -144.465073
-85.664574 -63.413963 -127.945900
-86.924644 -62.547260 -134.886551
17.360773 -65.602905 -143.433792
-44.168201 -73.276100 -138.881714
20.606638 -68.972214 -148.600250
-99.621376 -69.275314 -162.935089
-95.000420 -66.364937 -170.049408
-99.786331 -65.182480 -169.854233
-109.248672 -70.656990 -163.532104
-97.081001 -64.477661 -174.654938
-111.662567 -66.785545 -183.639816
-138.641174 -70.055428 -191.573639
-118.076065 -62.406765 -186.546265
-138.104202 -62.931095 -200.401566
-145.927948 -58.256588 -197.487640
-121.892494 -68.058784 -192.154205
-153.238541 -62.626976 -197.674698
-122.535675 -58.625908 -205.632431
-107.631905 -69.715431 -231.692245
-115.403114 -64.262375 -229.578873
-114.315697 -60.646126 -232.062317
-122.491631 -70.788132 -235.227463
-114.829971 -68.552589 -237.369507
3.212164 -62.062962 -235.427063
2.576199 -62.121933 -238.868347
5.361592 -78.020027 -238.380066
8.099979 -69.486061 -236.368896
-9.333811 -64.525238 -245.438751
17.734261 -70.748055 -250.250473
51.406101 -64.044014 -254.647461
52.443226 -60.881107 -252.506897
-8.514381 -63.991951 -250.598007
30.941223 -60.365730 -261.759064
-134.843643 -60.068508 -255.590408
-117.369194 -63.155754 -254.147461
-129.017654 -64.074104 -262.767944
29.128548 -73.086967 -255.650421
28.911568 -60.456512 -258.684052
30.139248 -62.340351 -265.165283
-154.531891 -60.892075 -280.353790
-148.202591 -63.901905 -287.315338
-157.583603 -62.697109 -296.484772
42.079029 -59.177505 -18.663567
-60.554882 -66.968071 -52.197628
-73.503235 -58.377247 -55.097351
-31.728777 -61.618332 -50.049591
-13.128066 -58.450829 -68.475571
-25.714773 -64.996559 -69.281776
61.923573 -65.907829 -76.306358
-96.083992 -61.330845 -81.870956
-45.519173 -67.697754 -88.644516
66.071152 -67.130066 -88.328377
45.988270 -57.894005 -83.105171
62.029606 -59.970951 -94.006165
109.305305 -66.182487 -96.295074
60.984390 -75.795326 -89.421524
102.397209 -65.908569 -99.120537
-78.257957 -65.725822 -108.245216
-99.452087 -64.329254 -102.581329
81.450836 -60.390842 -106.376579
-67.145638 -58.401619 -102.021706
-78.822975 -64.548264 -123.201492
-54.844681 -74.119743 -126.090172
-54.809410 -66.489784 -129.682709
-81.038734 -66.902756 -140.774948
-73.313660 -60.967293 -133.862976
-84.093536 -66.860367 -124.219482
-86.494545 -69.365906 -128.910889
-63.799465 -68.660919 -142.310455
-93.510086 -64.967560 -129.016403
-54.796391 -65.336807 -136.642883
-61.235016 -72.235817 -132.777008
27.923893 -65.875015 -142.034866
-58.827515 -56.193878 -141.934006
14.008922 -62.489429 -141.897110
26.574429 -58.997425 -151.731537
15.775599 -65.241592 -156.379364
-105.222832 -61.750809 -143.702423
-94.902664 -61.108810 -155.199570
-94.298897 -62.421490 -152.309448
-106.460236 -63.951237 -157.166855
-105.381966 -61.688679 -156.166199
-148.303314 -59.821133 -178.517532
-110.415146 -60.052700 -185.038818
-142.333557 -59.628845 -177.772369
-114.331528 -59.163235 -185.638901
-149.691086 -65.764458 -185.695358
-105.171860 -65.199432 -191.391541
-108.807999 -62.930641 -198.221344
-143.823807 -73.026619 -194.990417
-127.600739 -61.130703 -201.073685
-107.184174 -68.298904 -190.207077
-119.918777 -66.362656 -202.004562
-121.017830 -66.872925 -194.101135
-111.693878 -69.406822 -203.870255
-138.559509 -67.199837 -197.390503
-131.787766 -64.703941 -208.756912
-125.990257 -59.918526 -210.307846
-129.464142 -62.532463 -207.843338
-132.413269 -70.105453 -203.208481
-120.125809 -66.175446 -202.157822
-144.540771 -69.622551 -214.521545
-151.498505 -70.590912 -236.414261
-151.338516 -63.443546 -225.434250
-128.865585 -71.484337 -218.473297
-124.591362 -66.988007 -221.376556
-137.764908 -63.915531 -224.672668
-138.754379 -69.478615 -227.493164
-139.930618 -64.060104 -223.264740
-131.822113 -71.661163 -236.087357
-125.177544 -64.513474 -226.693588
3.322154 -61.845837 -235.601410
17.322224 -63.877205 -243.337753
11.074030 -63.992733 -247.102356
-4.403975 -58.508842 -243.236496
-16.215025 -68.684410 -247.309586
38.784340 -59.082550 -250.717514
41.917618 -70.491959 -256.697235
-143.796738 -66.423668 -254.912018
43.138798 -71.801422 -254.855621
31.126734 -62.751865 -253.411392
-148.670609 -60.768467 -259.953094
-152.783676 -57.642197 -261.792664
-1.168083 -60.152847 -268.858063
-150.454483 -61.718395 -271.035065
7.136590 -67.864044 -279.853699
-147.124908 -62.142185 -276.031158
-141.899414 -68.357780 -283.273163
-149.894577 -63.962791 -279.105377
-149.786530 -70.124588 -290.640411
-141.545120 -61.499237 -280.478577
-158.593063 -65.312103 -284.449127
-151.700073 -60.102367 -282.329254
-148.566391 -61.210762 -288.688385
-142.530502 -59.594650 -284.598358
-144.267792 -55.589546 -288.442139
13.604439 -64.660728 -285.318634
-154.610641 -61.140469 -291.827423
-151.101074 -74.834198 -288.552734
-156.253738 -65.685654 -298.101715
-147.958969 -68.335144 -294.275299
-157.778198 -67.607506 -292.049469
-140.677643 -58.905952 -293.368744
5.140460 -64.050186 -291.080139
-140.181183 -62.955395 -289.615509
-149.636765 -57.004917 -290.113464
23.219858 -56.763069 -20.963343
42.824627 -63.819023 -20.714638
28.253048 -66.005554 -41.100185
-59.092850 -60.385921 -43.723328
-50.736027 -61.247383 -42.123589
87.622917 -58.849358 -61.824001
-101.102020 -60.942085 -64.063164
73.238869 -66.381096 -67.291489
104.167343 -62.172153 -79.643761
66.826492 -60.829815 -78.020828
-40.496986 -66.375801 -65.521835
66.720901 -56.681450 -78.502655
-60.074417 -64.035797 -78.072342
65.393837 -68.567978 -97.374146
56.056252 -67.304230 -79.349373
-94.166847 -68.187050 -75.864166
52.586208 -62.979340 -88.769379
57.637569 -65.637115 -93.130707
60.067673 -65.860634 -96.048447
52.445957 -60.993458 -90.879181
-83.725014 -63.150913 -107.713425
83.645088 -57.707905 -108.337334
-66.948524 -66.334534 -112.171356
-79.789513 -67.128075 -107.716789
-82.904449 -61.110790 -121.627335
-85.511711 -67.294746 -118.099754
-91.676781 -64.935692 -123.070198
-78.108826 -58.212395 -127.249458
-56.320156 -60.479515 -125.928711
-75.334930 -63.244141 -136.860291
-69.000114 -63.370468 -134.104660
-93.825127 -57.913708 -133.752487
35.067150 -61.075142 -137.003433
19.021006 -64.828735 -141.457214
-87.183060 -69.083267 -143.438629
21.945177 -62.092720 -155.804657
-89.191124 -63.217430 -145.781876
-100.361229 -60.553230 -144.000122
18.061136 -59.750904 -156.216507
-99.410294 -60.072395 -145.807068
-97.481903 -67.587799 -144.954300
-95.699135 -58.329235 -159.246536
-96.276863 -63.621273 -156.068405
-103.769714 -67.542877 -176.329285
-103.530525 -65.362144 -165.911270
-96.764236 -58.199444 -168.041412
-108.008896 -62.377941 -170.298813
-142.432999 -69.197083 -176.607239
-110.990875 -63.956722 -171.678192
-139.767578 -65.553734 -190.223221
-150.677811 -55.507465 -188.697327
-156.308868 -62.965031 -190.636017
-123.362663 -52.928299 -194.056625
-127.895462 -61.387680 -201.122162
-123.585526 -70.482445 -203.443848
-138.033691 -64.196617 -204.479507
-128.711914 -66.714127 -204.395874
-143.589462 -67.983391 -204.690964
-155.031189 -65.151482 -203.068497
-151.223206 -64.094002 -228.358078
-146.127945 -57.668671 -227.033142
-127.119843 -66.480316 -229.199661
-154.183777 -59.178543 -234.013504
-3.298752 -62.580551 -235.963120
12.157454 -64.841873 -234.387070
-7.715442 -68.859116 -247.991745
-147.256287 -62.733562 -237.923340
-6.997831 -67.978470 -253.391998
-150.179245 -67.675583 -251.124008
-4.319103 -63.187241 -244.245987
-154.796082 -70.940025 -257.269196
-147.943192 -67.696457 -259.631561
-152.748383 -56.385899 -251.545578
-158.080643 -64.388260 -255.145981
-149.902588 -73.478233 -262.386505
34.109158 -64.185936 -263.015686
34.115459 -62.508888 -264.023529
-152.579803 -57.258682 -258.500244
-150.710938 -64.317741 -263.473724
-159.368393 -66.573112 -258.780975
-151.725494 -54.666927 -259.848267
30.188620 -62.647053 -262.050812
34.771587 -64.521378 -258.647278
-150.916519 -59.492641 -261.274994
-137.052795 -55.730812 -263.902863
-157.571228 -68.057961 -261.613403
-144.388794 -58.391735 -261.848541
-150.841583 -64.147469 -259.939178
-150.815659 -68.572739 -266.376068
-150.878922 -58.875744 -254.858612
-148.069809 -63.250992 -282.687469
-145.864960 -57.783268 -282.635742
-146.930511 -62.963005 -287.524811
15.187623 -68.828659 -291.591339
-155.328888 -53.938492 -279.635010
-143.040314 -73.888199 -284.708038
-0.449281 -64.999290 -287.236359
5.895454 -56.841972 -294.865509
-150.510040 -65.816223 -301.376923
48.938091 -59.438145 -30.936737
46.332935 -58.920319 -25.675797
42.556297 -63.291477 -33.805458
20.820883 -56.591793 -37.452667
79.058372 -59.978371 -60.232681
74.615021 -63.343224 -57.537563
-11.438057 -67.398376 -68.275314
68.043091 -61.605843 -64.216896
-26.498652 -61.690411 -85.252823
-57.590149 -66.190826 -74.795250
-52.312733 -60.457737 -75.463509
60.965843 -74.928246 -88.690590
-63.900848 -65.311760 -76.461319
67.632881 -55.054993 -87.945076
55.411049 -65.423592 -88.983322
65.209213 -62.168346 -84.226242
102.845230 -64.107071 -90.777092
-61.013237 -61.054909 -95.624847
59.457790 -69.810349 -91.809174
-73.021721 -59.914352 -109.038200
60.055897 -67.559006 -91.445236
68.839928 -63.962448 -105.619926
-73.373222 -59.245747 -108.675079
-97.116272 -61.665165 -106.179543
-72.006516 -59.412693 -110.131767
-92.873482 -61.457417 -111.630829
-63.511532 -58.752472 -114.764824
-84.048729 -55.982960 -108.528030
-80.447960 -65.873192 -115.265953
-78.638596 -62.918282 -118.149261
-69.128616 -64.208572 -114.808067
-88.256706 -63.845406 -129.652786
38.708721 -59.010841 -130.046402
-58.776043 -70.799301 -124.122932
34.057888 -65.509995 -128.475800
33.327641 -61.827229 -133.457809
35.472794 -57.978741 -136.789307
-54.251339 -58.256046 -132.031738
21.083054 -72.558372 -144.480728
23.132416 -61.475491 -143.068665
-137.951355 -63.554043 -176.854141
-160.545197 -64.558586 -171.981232
-155.808167 -67.635742 -170.274857
-152.814163 -63.041950 -182.686493
-145.230942 -64.531967 -184.977341
-149.482697 -61.617832 -194.104462
-143.623840 -60.639408 -191.879868
-152.969223 -56.228294 -194.569550
-116.493347 -59.831161 -199.829315
-128.188217 -66.018600 -197.609955
-148.951065 -61.155411 -210.992493
-146.147873 -57.094654 -220.683182
-152.202271 -60.778893 -232.133850
-138.107758 -59.760315 -230.913681
-154.424103 -67.662941 -228.172226
-150.606125 -63.726196 -235.956894
-151.572311 -59.624428 -226.392075
-146.239273 -67.040520 -233.213196
-142.108948 -56.632202 -234.306519
-147.364960 -69.546768 -242.568085
-152.644363 -63.677254 -238.538071
9.071640 -67.895752 -236.263290
-14.897475 -68.198952 -236.522263
-146.403717 -63.528690 -234.593216
-150.617676 -67.537689 -239.318604
-154.520233 -56.320564 -238.973602
9.811969 -59.420700 -246.199860
-153.011795 -65.735687 -234.160004
-146.532700 -56.623512 -248.871277
-1.446382 -65.708389 -253.821045
-149.340607 -60.272873 -254.280746
-153.719116 -63.091141 -249.395370
-149.215469 -61.602283 -248.999252
-142.423599 -61.794590 -263.735352
27.061335 -63.601349 -258.384949
-151.575912 -61.392841 -262.296387
29.356365 -69.827278 -268.547943
14.648153 -68.787437 -289.845245
-5.507006 -62.736443 -297.960266
11.984760 -58.572540 -295.448151
23.221708 -60.452236 -26.719627
-44.730598 -62.143440 -43.541016
-89.793762 -61.973804 -52.040634
-91.143280 -59.680023 -67.853638
-19.458057 -66.549179 -72.503922
99.219055 -59.150276 -65.394264
100.933426 -63.634777 -67.691414
103.723396 -54.963856 -78.612442
99.263481 -63.406895 -79.947983
-45.068489 -55.213074 -78.950294
-50.376099 -64.017555 -84.799454
-60.148232 -60.832596 -91.616982
58.374989 -56.232735 -84.109505
56.719929 -54.831863 -96.456017
53.874619 -58.181690 -88.278984
-66.563766 -74.023155 -88.217903
-101.435982 -60.487709 -106.928360
82.666161 -61.770187 -104.553207
-79.606064 -67.481232 -114.539680
-69.783669 -66.605019 -106.504936
-84.927513 -60.811325 -108.071770
-88.645760 -60.157261 -112.315865
-84.914795 -64.432343 -114.866920
-73.471207 -63.072033 -110.251801
-65.005013 -63.223175 -123.206230
-86.139366 -57.130150 -119.688423
-77.091759 -58.377003 -116.423477
-69.522873 -60.500347 -121.987892
-81.600754 -61.552311 -117.357933
-86.602730 -61.938950 -123.495491
-80.775276 -59.174690 -131.004730
-76.612228 -57.901447 -127.430710
28.882957 -56.939735 -137.987091
-53.989510 -64.218277 -133.380936
29.449993 -67.459595 -124.576004
24.518187 -59.618523 -138.665863
-150.860275 -61.602425 -194.987961
-138.731827 -68.212502 -194.038971
-157.819427 -55.762573 -196.817307
-152.373444 -53.308842 -202.377869
-147.588974 -68.598343 -200.778778
-147.421249 -61.996964 -206.592270
-144.851013 -65.313980 -200.733536
-146.630402 -58.497044 -212.021667
-161.730103 -58.974205 -229.781967
-149.898163 -57.304729 -225.249985
-147.344009 -61.533192 -221.198273
-150.449203 -62.411812 -226.229721
-148.873199 -64.942383 -220.506622
-138.729965 -59.511990 -222.866745
-145.035660 -61.724037 -219.263504
-149.253357 -61.522099 -218.829407
-145.174515 -63.477291 -233.198364
-143.938293 -60.107491 -232.466568
-152.094818 -61.391357 -239.579483
-152.302307 -50.447102 -232.533310
-2.209571 -63.122391 -237.822784
16.241205 -59.127525 -237.542099
20.750240 -63.879971 -236.392670
22.640909 -64.120033 -253.504700
28.510496 -54.799511 -256.766449
12.968703 -60.159805 -261.344238
16.758760 -60.354778 -277.691864
-0.468483 -59.466526 -281.576508
3.651218 -63.541576 -284.450073
12.369791 -62.321056 -290.063293
34.708366 -67.026970 -32.311329
-26.194477 -63.215115 -51.318996
-27.611355 -62.064739 -50.992115
-12.195933 -55.209229 -51.003460
-12.275537 -68.203873 -54.584019
83.265335 -59.141991 -61.101444
92.978661 -66.380249 -66.043472
-102.294067 -56.262039 -69.908928
102.486443 -66.002220 -71.698120
-53.849483 -62.091160 -87.420113
41.759750 -64.424507 -85.342308
62.302269 -59.537216 -85.597084
-60.703201 -53.949135 -82.445908
58.300274 -59.842224 -91.187950
55.190250 -67.783005 -95.757462
111.622772 -66.461960 -92.321861
-63.877159 -63.298161 -92.751160
-63.803703 -64.395973 -95.121979
66.155869 -58.340977 -106.903938
75.157547 -63.660416 -108.030685
-72.412247 -61.728142 -106.628189
-64.004829 -70.100266 -103.877060
72.017319 -54.350128 -105.003624
-83.416801 -63.873543 -108.486519
46.188633 -58.455441 -116.642761
-80.534904 -55.919437 -118.411385
40.787022 -64.594299 -122.324524
-94.212578 -62.569820 -115.707695
-100.755844 -70.270256 -116.530136
-72.701782 -59.475468 -111.710449
36.744602 -60.475712 -121.932777
-63.872498 -62.128536 -127.457436
-62.695313 -61.168289 -131.929153
-52.206947 -57.344429 -134.792664
-153.356827 -63.558846 -200.158859
-139.004776 -65.485283 -198.484726
-143.740829 -58.568657 -190.313919
-144.424179 -57.097404 -193.376724
-150.358276 -63.306828 -198.847946
-153.030502 -57.972458 -200.749176
-147.337189 -53.398430 -192.393707
-135.128281 -59.176121 -198.352509
-140.109909 -56.722088 -197.402740
-147.154434 -55.756214 -204.254898
-156.078247 -62.563164 -206.570358
-141.933884 -56.465607 -211.775513
-145.558472 -65.750687 -209.260178
-150.497665 -61.192207 -211.255066
-151.361282 -65.093002 -210.785828
-150.818451 -60.907509 -223.224350
-5.367482 -63.789036 -242.013977
11.027840 -54.229767 -239.011887
11.403865 -56.491665 -248.722244
4.492584 -60.905834 -247.904099
0.735633 -60.019524 -245.653275
18.679308 -64.571838 -248.982162
3.953570 -63.815292 -260.358704
32.379848 -58.440563 -267.541138
9.730429 -54.493950 -268.093842
22.842333 -55.907993 -266.109894
20.099026 -59.572258 -290.458740
33.002289 -62.006969 -15.633167
-68.132530 -58.953815 -52.908401
-31.643003 -59.341797 -47.072678
-14.637593 -68.169739 -54.287876
72.902718 -62.599125 -59.815315
-26.300898 -71.981812 -67.853424
-38.223621 -65.713654 -70.479622
-35.000015 -52.691536 -66.915901
-34.707176 -68.441612 -77.008339
-39.765915 -59.557774 -83.915558
54.387943 -64.160889 -86.358246
109.545067 -61.684048 -84.646492
72.109375 -54.108074 -90.599045
56.647938 -59.944584 -83.774773
107.474518 -62.629749 -87.370071
63.403740 -65.800430 -89.699196
-77.068840 -59.444721 -95.953133
97.692451 -58.284424 -102.733490
105.100136 -66.521614 -109.928513
-59.812431 -56.577908 -107.973991
-70.917297 -63.681160 -118.379456
57.791714 -54.375561 -114.753471
72.643997 -61.579750 -114.688835
-73.061920 -60.883404 -110.227242
92.744461 -65.811539 -107.395744
53.973606 -57.543011 -97.591263
-69.983353 -58.881531 -104.861000
51.294853 -58.365238 -111.937737
-66.830482 -63.272793 -112.960533
-56.498878 -62.806385 -110.937843
50.053616 -56.465286 -106.423065
-61.517513 -60.617527 -115.687988
-73.223938 -60.496185 -117.152496
-55.586811 -61.930408 -115.028099
-79.765152 -55.491108 -110.316307
-81.477669 -61.201504 -119.275307
33.038910 -65.595627 -125.903976
-97.204391 -61.614449 -117.054787
-56.930103 -60.713066 -131.543671
37.343521 -63.379063 -128.198898
-56.411259 -64.103500 -133.671631
26.545807 -66.711296 -142.416168
30.221849 -62.190197 -131.497147
28.110882 -64.246178 -141.269089
-2.593655 -62.688778 -241.621185
11.948503 -56.420815 -239.228333
-8.952085 -62.027348 -238.482300
-1.033303 -55.260361 -245.247879
0.377657 -67.979172 -287.883362
31.296450 -54.058910 -20.479664
17.291851 -64.985954 -16.029116
36.211113 -57.930622 -21.206171
25.019258 -57.843544 -28.016500
39.866005 -71.405113 -22.936205
28.870539 -55.857502 -40.291473
-45.648453 -66.038300 -48.485619
-7.165689 -62.504726 -57.930656
71.134369 -58.476070 -72.097855
59.690430 -56.252407 -92.674530
-98.193275 -51.373875 -82.200226
59.344166 -54.197876 -92.598129
91.032654 -55.233376 -93.708458
63.769547 -56.899239 -100.350327
-72.800781 -53.918140 -109.186317
90.707260 -54.435547 -108.771553
87.978241 -56.301254 -110.575737
82.145653 -55.787109 -116.593460
-63.864166 -62.576263 -111.663628
47.362591 -65.906273 -115.042488
-83.227997 -57.310711 -115.089867
-49.984947 -63.503708 -115.909081
-87.643723 -57.497494 -110.561913
-66.165489 -60.692390 -119.455582
-84.017815 -60.116764 -112.708069
43.028347 -62.566662 -121.098686
-56.133320 -57.044136 -126.764030
-65.798721 -60.261677 -127.606476
33.382927 -55.591652 -137.006866
2.160115 -62.484604 -244.568787
18.539322 -66.875198 -245.267517
4.348838 -62.402000 -251.477371
21.965214 -61.162746 -246.761108
25.194004 -56.326416 -278.411102
-14.484700 -55.476189 -259.517181
-9.344871 -54.110588 -280.130493
20.491522 -58.845013 -276.899384
18.830036 -57.331615 -280.916016
12.744405 -58.222584 -293.363892
44.211605 -66.228043 -22.242733
54.670277 -47.525574 -20.751011
-57.779140 -63.774891 -52.886826
-89.334053 -66.741791 -49.218616
-76.673279 -59.798218 -49.228539
-25.972647 -56.369781 -55.195431
-14.358983 -57.458115 -56.805878
85.267181 -62.620975 -61.575039
80.441048 -58.023762 -56.263504
-8.115463 -56.491463 -68.374733
-10.843863 -56.884899 -57.037910
100.753792 -61.801270 -73.820511
66.631607 -60.779808 -63.609135
-72.533379 -59.928570 -70.084290
66.775429 -53.123302 -71.890862
59.289486 -60.422691 -78.221016
-61.493992 -54.674473 -84.726845
59.219173 -57.808929 -82.673347
80.579376 -52.847614 -90.501747
58.238716 -55.649101 -93.187775
103.973854 -62.632000 -96.204033
78.054092 -57.855282 -100.410728
-104.756943 -64.202446 -96.046913
111.767357 -60.703735 -97.953674
-71.738403 -61.972458 -105.683189
77.071518 -49.175747 -100.091156
71.662766 -54.011665 -102.344864
73.610489 -52.961796 -116.507866
72.409485 -56.756062 -99.048958
80.765259 -53.758762 -105.473770
51.932770 -51.562687 -108.189407
84.925034 -63.053421 -109.521622
-75.617439 -64.192604 -116.732986
-51.380589 -51.074875 -115.611595
-86.696182 -62.868713 -119.785530
-93.025581 -57.267761 -120.604965
-64.477638 -55.993713 -121.958908
-58.942169 -57.062252 -122.379074
-53.351261 -52.995033 -128.725296
-76.046883 -65.134766 -127.845711
-59.370049 -62.426727 -127.767029
34.213207 -57.895775 -123.786537
-65.933640 -52.442089 -128.576050
-67.759377 -52.013023 -126.220650
-57.225700 -56.822170 -138.671860
27.764942 -55.898697 -132.541199
25.981262 -57.065243 -251.025742
3.790045 -57.656136 -244.466675
19.196131 -60.420273 -242.333786
3.811560 -60.996597 -256.910583
-23.240843 -63.762489 -260.828552
-19.382843 -55.881920 -269.558258
-12.105521 -57.467262 -262.668182
-20.314156 -53.262558 -255.505051
-21.123444 -57.428226 -263.426758
-23.227276 -60.674854 -264.145508
-17.191595 -53.882744 -268.291351
4.032495 -59.614536 -265.847351
-13.547673 -57.756393 -275.460083
-15.011782 -57.333084 -276.205170
-12.318645 -53.966156 -278.626160
11.314177 -54.432503 -280.430511
34.514736 -66.350243 0.082048
36.891045 -68.910118 -10.676963
41.917286 -58.552738 -6.702237
28.104422 -53.419041 -22.717554
43.166603 -49.532063 -12.160316
48.965504 -64.078362 -27.862959
41.628906 -57.148453 -42.296547
36.157700 -68.004471 -39.164444
45.942104 -59.601196 -35.781078
24.029066 -58.317955 -41.859688
39.668652 -61.538143 -36.229942
-88.131996 -60.360554 -59.119656
80.058365 -50.663525 -56.271542
88.363991 -54.866646 -62.323483
77.258453 -59.805935 -58.695381
97.363167 -57.411633 -60.826611
94.146515 -66.384262 -64.563904
62.471180 -59.330761 -63.545410
-64.576950 -56.716949 -69.525406
99.438385 -58.025105 -60.630154
-99.651299 -63.316597 -74.160606
101.674492 -62.804119 -69.312935
-43.968693 -57.959881 -77.586372
107.569420 -65.455818 -85.317764
-51.119179 -52.910152 -76.036308
63.820858 -58.662945 -80.376976
63.916767 -52.834545 -79.217361
80.853737 -54.379074 -86.434143
-66.694862 -61.401421 -94.562271
81.665535 -66.210732 -97.383553
69.545059 -60.663372 -94.246361
69.377777 -62.465122 -95.112549
83.024246 -57.791344 -94.413727
72.709930 -61.748302 -107.053101
92.658348 -57.850960 -92.691772
75.480667 -55.813107 -101.858597
51.457718 -62.640339 -100.132767
-62.899944 -62.711910 -107.093597
-65.664406 -56.388783 -104.840317
77.860092 -46.859051 -96.922684
60.115578 -58.389484 -104.523354
97.844688 -53.332130 -108.810806
89.698578 -56.826355 -106.996925
-59.315220 -56.442947 -102.914604
-63.469597 -55.992718 -107.077171
-73.430298 -55.081642 -107.618225
44.354134 -51.585949 -112.209320
-78.113823 -56.796432 -112.941650
47.768955 -60.788467 -116.899506
-66.194984 -58.540493 -119.473694
37.775997 -59.325130 -119.736221
32.141438 -46.367832 -115.778656
40.147438 -56.100319 -129.199631
-62.573490 -48.169331 -124.942551
28.018848 -58.867794 -124.368790
30.298416 -60.780952 -132.735703
-5.726623 -57.909370 -236.757278
1.660965 -53.074368 -246.479324
5.956440 -61.149914 -237.782578
10.290755 -65.202492 -242.246902
12.047395 -63.174679 -249.585007
31.666565 -55.980949 -255.674210
-16.324562 -53.535671 -257.405365
-17.032812 -45.647598 -254.644272
-11.912047 -66.744781 -258.041199
14.540566 -56.049706 -256.168213
-13.112550 -60.775898 -261.614197
-13.813395 -58.199333 -262.448822
-14.964154 -55.615005 -262.245483
-24.238010 -59.150219 -265.213531
-10.922226 -57.830074 -267.885620
-15.005809 -58.794102 -266.630524
-12.341594 -53.733055 -273.597778
-19.892794 -54.356495 -271.489258
-12.280135 -61.598545 -272.468964
-11.015923 -55.385834 -283.392609
10.132002 -57.156593 -276.896057
-10.212553 -58.841644 -282.655121
-5.475599 -65.528976 -286.071777
-15.717971 -52.350517 -284.374268
-14.751409 -53.133499 -282.862762
-7.319375 -57.087212 -275.639069
-13.057291 -63.235966 -286.730316
13.480515 -52.482624 -280.577545
13.673229 -56.366432 -289.841248
-12.328709 -49.672813 -289.836487
-2.444147 -53.825939 -286.720337
-3.278938 -57.667694 -291.678253
29.994640 -62.111595 -15.104280
36.079380 -56.330589 -15.325869
32.204720 -47.813675 -18.639111
21.516869 -55.394169 -17.790239
-77.986092 -65.958580 -48.580227
81.459389 -54.656876 -56.362957
-17.488808 -50.287804 -56.680115
-34.797604 -57.103920 -62.385700
66.474365 -49.851131 -63.784550
-67.190239 -48.851727 -77.320564
-101.724190 -54.422604 -81.099960
105.728455 -49.930134 -79.135948
-51.078392 -54.233200 -75.912163
-42.711815 -47.086613 -75.274216
71.682632 -48.164322 -85.176971
-60.147865 -51.723953 -86.695518
86.268631 -52.316299 -77.311127
-63.849106 -60.410858 -88.718445
93.009865 -50.582821 -88.261124
-65.712181 -60.889866 -93.004379
65.456902 -45.373306 -95.265419
70.491219 -67.324600 -101.429428
-106.769966 -60.650745 -88.695137
68.105835 -58.748066 -88.215286
70.166061 -61.069366 -100.636467
102.259674 -52.551899 -95.796242
81.405464 -55.773872 -99.566795
99.845436 -54.051231 -102.246971
92.765480 -52.843407 -108.089592
64.546867 -52.692989 -108.127968
82.633774 -58.868176 -112.805084
103.909363 -53.872280 -101.304565
54.192169 -60.113503 -110.129936
-92.851479 -65.355080 -115.093025
-83.755821 -53.630878 -120.415688
-71.883034 -54.190990 -116.459503
-80.644554 -55.656422 -110.833336
-60.353863 -54.450588 -123.206970
34.219242 -59.909435 -123.854630
36.224949 -56.255543 -130.920837
38.414524 -55.511307 -125.309776
-59.945007 -57.440647 -118.855331
-61.802822 -56.528618 -126.583420
5.389306 -54.190258 -241.809326
2.507611 -56.186451 -233.374954
14.278940 -60.927326 -240.593414
-3.395283 -60.254398 -233.744781
15.634865 -61.186928 -242.180252
-1.186850 -57.574265 -243.590088
-20.167089 -56.182842 -243.761932
31.172302 -46.848286 -250.935654
-14.310517 -54.029015 -255.691559
10.968502 -54.178925 -248.742020
24.867773 -61.018887 -250.684311
-15.280720 -58.502880 -266.253845
21.312435 -57.965466 -263.877014
-16.961327 -59.285042 -256.887390
-13.549255 -57.676037 -270.919556
-7.921449 -54.408127 -284.612457
24.350937 -54.924011 -272.393433
20.642443 -48.222912 -285.188782
-6.710772 -52.694489 -284.322418
-9.259628 -52.951550 -289.155151
12.588124 -49.713501 -290.494690
6.265848 -49.635674 -295.493958
11.640957 -59.521576 -290.261047
28.834440 -64.804237 -21.567446
16.559574 -63.810032 -29.324524
21.949831 -65.861511 -29.122881
26.205923 -61.001049 -29.328981
27.261684 -60.680931 -33.894611
39.533504 -48.634659 -34.448715
26.731106 -52.588474 -45.446087
-59.890472 -54.448650 -42.505962
-70.270210 -53.590111 -46.462097
-48.829929 -50.509018 -40.152199
-87.768066 -49.931446 -42.763615
72.666031 -49.804600 -52.297195
91.998787 -52.833130 -70.527275
-64.114616 -56.527988 -68.997910
-41.253296 -49.634762 -81.075356
60.602551 -51.239548 -82.644478
73.431107 -55.324615 -85.675636
63.350971 -54.344078 -87.864845
70.738869 -53.166878 -88.704880
98.765594 -53.463791 -103.726761
91.422768 -57.658325 -96.390709
90.299652 -56.978481 -97.216759
71.984818 -60.116547 -93.949913
103.772408 -51.757885 -109.783096
61.224747 -55.652275 -103.226212
49.875000 -59.013596 -105.949730
-59.476025 -61.231384 -111.426727
-81.824104 -54.706890 -116.024948
-68.225082 -57.804924 -111.654861
48.826553 -50.357883 -116.591576
-64.701118 -52.625702 -114.120842
53.111488 -59.065239 -117.412216
44.223438 -57.478455 -114.582565
-62.105923 -54.151615 -110.633057
-57.585560 -52.848755 -117.649132
38.827156 -55.774433 -114.866455
-5.120037 -55.158787 -241.084137
5.682308 -52.064209 -242.166046
0.085647 -49.091637 -240.193634
5.966146 -54.211578 -238.575089
-11.922333 -65.310150 -240.256622
12.914602 -54.878708 -238.188614
18.001127 -57.419296 -249.777298
16.278940 -56.024605 -245.406921
-17.042738 -53.748890 -249.908737
19.908707 -62.259872 -241.435837
-21.849766 -50.594429 -248.014252
-12.443189 -60.316578 -252.463867
19.817837 -53.194046 -254.438065
32.061447 -52.417156 -259.459320
16.334139 -58.245846 -262.570557
24.935352 -52.321934 -262.250244
-12.215014 -55.116360 -265.176849
-11.325691 -51.443142 -264.687164
-12.359452 -48.530506 -264.203644
24.297195 -61.110813 -272.318634
-15.363412 -55.831215 -269.196167
14.409096 -54.978909 -271.216644
21.302118 -52.820660 -271.897217
12.256620 -50.951904 -279.527466
-13.231282 -49.042999 -276.577545
-3.177797 -52.413406 -281.135651
-9.400674 -61.167088 -287.388245
0.070740 -47.109497 -291.883240
-9.406231 -52.022205 -288.550629
-6.101702 -60.390095 -292.786041
4.164623 -63.165302 -291.079071
19.066832 -53.071144 -35.404301
34.392136 -61.833584 -31.266954
33.334713 -52.761944 -46.417900
-61.744335 -62.491245 -41.969700
-44.112896 -60.355686 -47.427280
-21.839685 -55.099983 -45.721680
-11.681478 -54.799778 -51.749149
-91.343872 -59.435905 -61.133934
-18.853878 -55.435173 -60.457905
-64.781464 -58.175518 -73.679192
103.293846 -45.039394 -69.639359
-94.760223 -56.315113 -73.976357
-66.490334 -52.400414 -69.052826
66.303123 -56.376076 -71.887459
67.909645 -51.826950 -73.994797
86.444214 -51.747791 -75.580658
-37.436275 -56.958187 -78.820648
69.480476 -55.119911 -76.355652
103.138435 -53.478539 -78.579353
66.208664 -49.698605 -83.359543
94.829247 -56.801262 -80.430115
-55.408386 -52.936096 -84.714455
111.856674 -55.655991 -86.838974
85.895699 -52.220146 -91.581680
76.805984 -57.413578 -96.071312
89.808701 -57.943790 -88.642410
88.905510 -53.118645 -99.505684
76.199364 -50.470200 -98.069695
81.073357 -54.189449 -98.153015
59.178097 -56.017658 -108.320450
-102.370651 -49.390804 -96.342316
64.590675 -48.932369 -109.238678
-72.313438 -54.916332 -107.635780
51.218834 -49.297539 -111.833824
-65.125336 -49.392677 -117.968246
-56.599529 -52.581535 -109.739517
56.355412 -58.267918 -111.160118
59.137814 -53.092857 -105.936798
50.591476 -58.987377 -108.163681
-74.559715 -66.534966 -121.896606
-60.144039 -50.824921 -109.543480
-60.598637 -51.581486 -126.787712
-81.223366 -53.163219 -120.363449
-69.312820 -54.773998 -109.962013
-58.953842 -54.591766 -130.942902
19.733883 -53.969231 -238.411667
-9.747289 -49.319645 -241.671265
10.307410 -53.152786 -239.677795
18.194090 -56.790062 -237.864548
-13.871348 -58.781021 -251.155106
-4.053149 -51.254475 -245.029755
-15.463425 -48.782558 -244.714813
20.144329 -51.061550 -244.124847
20.849581 -51.421959 -238.929688
22.393570 -48.470158 -253.353867
-21.590084 -54.835018 -252.295746
22.923159 -51.994865 -260.519928
30.067036 -59.123795 -261.757507
-8.652472 -53.211170 -274.580627
31.332644 -51.779976 -264.780396
21.268909 -52.959568 -261.044891
36.447876 -61.293205 -267.515381
18.492979 -50.633694 -277.234985
25.228437 -60.630318 -275.798126
-1.109614 -44.596634 -274.910278
-5.904960 -50.543324 -285.175842
14.643612 -51.141285 -290.976379
27.899567 -45.660557 -288.994537
-9.580306 -52.442680 -282.730560
14.752666 -59.722427 -292.662598
-1.679011 -59.608768 -294.337006
24.808199 -51.847824 -283.515106
8.596251 -55.072701 -291.798737
11.020166 -56.235085 -297.636688
0.402793 -47.456898 -294.061218
4.003563 -53.189262 -294.853760
13.130012 -52.573853 -288.705200
35.489517 -49.414082 -7.041212
24.998806 -52.599701 -18.292547
47.124546 -48.846619 -18.298563
18.326832 -53.748642 -21.119669
24.044416 -49.607563 -23.562616
25.819475 -53.460140 -30.617647
43.388206 -60.970715 -26.852425
37.174706 -48.761452 -45.212742
23.323629 -53.470989 -40.073532
44.256004 -59.513039 -37.492908
30.821049 -57.304913 -38.836346
-77.737350 -51.879978 -54.579067
-39.261181 -61.435318 -49.814819
79.600830 -54.504032 -59.362396
-57.097252 -49.615040 -55.697701
-42.098747 -54.219593 -60.854332
-33.048256 -46.387619 -66.319832
-34.600082 -58.547073 -81.384109
77.024773 -55.434494 -86.386536
71.544548 -50.630852 -73.943588
63.658199 -53.770260 -74.192421
-54.394108 -54.573650 -80.910896
-58.012493 -50.750797 -85.158195
-77.273247 -62.897942 -97.496216
74.430344 -47.767292 -101.777359
86.354858 -50.714462 -97.952011
85.320908 -49.137318 -99.593445
78.158890 -54.278709 -100.282341
95.713829 -58.976521 -98.420471
72.004456 -56.236656 -97.098816
92.385117 -57.524834 -94.512230
73.570724 -55.709225 -96.785774
65.010460 -46.071320 -100.692307
67.376251 -54.373093 -96.412308
61.123650 -52.667797 -100.630547
-75.963036 -49.008736 -104.543480
-68.240913 -51.821342 -109.750824
-98.035606 -54.661892 -109.856239
-67.845886 -61.328060 -107.763489
-81.891556 -53.261219 -109.398849
-69.476868 -57.276814 -123.235497
-67.524971 -44.721973 -119.362030
-90.567329 -49.488430 -120.043884
-8.126499 -50.306362 -241.717804
-5.290481 -45.037899 -241.262009
17.647621 -50.160904 -230.296295
-12.166560 -48.107513 -233.558914
-12.952904 -63.050694 -233.429001
3.811311 -54.916931 -235.024460
3.112549 -54.210735 -241.168732
-3.045261 -46.318295 -236.711304
18.181263 -49.573608 -240.993134
-21.481281 -54.787594 -235.826736
27.867666 -51.117424 -247.937729
28.422581 -58.072083 -249.140549
26.037533 -50.669727 -243.547104
-16.583828 -51.498749 -254.775558
-25.784649 -47.290806 -259.825470
-18.223608 -53.801559 -256.971649
-11.539001 -54.619331 -253.270386
-12.279360 -54.394817 -248.213303
-20.224548 -48.209751 -253.393646
-14.559875 -50.655380 -259.292664
25.213354 -57.178867 -248.235367
20.007057 -53.636292 -257.224701
22.498751 -57.284447 -258.872131
19.243698 -58.436222 -264.115692
29.109022 -48.480179 -257.373932
26.022110 -51.643002 -273.788147
-8.752946 -53.386532 -269.664124
28.247257 -50.931160 -274.653320
31.651112 -51.612061 -271.573212
29.669390 -54.863384 -267.398468
-3.807842 -51.962631 -284.153870
-13.080735 -52.690407 -277.112305
18.524109 -54.013252 -274.543365
15.422606 -47.887325 -273.092133
19.336275 -47.922565 -275.765930
20.494738 -43.199436 -281.650726
17.239283 -48.258205 -273.108795
27.556484 -53.100899 -276.466766
13.194920 -49.400925 -273.681274
21.269835 -54.131416 -275.148193
-5.834649 -55.963772 -279.970795
-12.314932 -51.807335 -278.242706
-3.680353 -50.293640 -286.993225
27.819120 -54.284832 -277.287720
20.325651 -57.484818 -292.983978
-7.145599 -48.669624 -281.491943
25.253790 -55.948048 -288.110626
26.559189 -53.981232 -292.057312
6.139487 -57.501560 -284.832977
7.364340 -57.014679 -287.418427
2.983826 -58.656681 -290.583191
29.472836 -47.971539 -12.735998
38.044521 -55.645649 -7.586510
33.153854 -55.532856 -12.379566
36.920845 -47.842197 -16.894087
35.807693 -44.291943 -15.326180
45.763958 -48.909744 -22.805880
19.664246 -55.373341 -19.548258
45.444069 -54.478691 -20.379423
52.037754 -54.273067 -25.148628
18.925608 -58.458393 -28.083996
25.883383 -50.254623 -23.466295
20.705404 -48.310123 -28.822531
26.223862 -52.039917 -26.455101
25.543713 -55.217609 -30.098053
20.060925 -55.138527 -27.601025
42.920887 -44.194016 -34.902485
20.430525 -46.772991 -37.075432
36.367500 -52.537537 -41.486572
46.267830 -55.417683 -34.936256
21.567259 -53.207130 -37.722137
29.791225 -53.384960 -43.910858
27.286236 -54.908203 -39.165352
29.615501 -53.261600 -39.745182
32.081493 -59.094841 -37.883701
-72.489532 -52.904751 -46.945553
-87.935219 -56.381725 -50.559235
-27.045895 -55.106052 -51.964256
-23.172981 -55.615833 -51.102406
-15.599194 -55.880009 -50.548679
-96.272522 -52.972523 -52.028030
-8.374475 -58.536343 -56.494083
99.105698 -47.057659 -58.608784
96.423767 -47.449543 -60.427891
72.047279 -45.789742 -53.364601
95.536041 -52.477493 -55.270390
-65.610191 -55.715031 -69.937363
65.765396 -54.653893 -64.527878
69.421555 -49.982063 -73.314850
80.423615 -48.050182 -62.243233
81.252197 -49.357117 -70.503113
87.414398 -45.725929 -87.998795
93.811073 -50.315113 -79.300285
66.522072 -52.994991 -78.699203
-40.890301 -56.056351 -84.289047
101.116295 -52.113422 -77.796425
109.351601 -53.785618 -83.863167
65.812981 -51.498985 -91.888374
101.386810 -43.560371 -90.258636
98.283173 -52.527340 -96.380119
104.047203 -52.947727 -92.871048
-63.649734 -52.363010 -104.095146
-71.114067 -53.645466 -109.680878
-65.401405 -49.111614 -117.498604
-100.092651 -52.204174 -112.092461
-97.154099 -51.503872 -119.501175
1.371825 -48.085621 -235.995392
-7.505565 -51.402199 -238.852600
17.588810 -50.334496 -242.342209
14.175180 -55.210419 -242.400986
17.490120 -48.152225 -241.637314
6.946635 -51.959095 -234.143219
7.490555 -50.097904 -246.392548
-5.231608 -52.037426 -240.947205
15.488658 -53.382824 -247.191406
5.340118 -52.892834 -243.888412
17.017826 -48.766644 -243.825760
21.095871 -51.393787 -248.454880
16.477201 -54.804588 -247.280228
-12.796576 -50.171726 -248.356583
-14.406120 -59.188858 -250.476685
15.989402 -51.353168 -246.964096
24.574780 -54.614334 -244.543243
-8.376358 -52.193035 -251.008255
-14.711991 -47.848431 -239.811371
-8.791615 -52.370373 -250.009552
-10.834734 -56.720615 -251.341171
-12.070765 -49.145359 -247.377777
-14.682030 -53.835636 -254.476883
21.863821 -58.058079 -249.962845
-13.935331 -54.276836 -247.120193
32.997936 -48.664070 -258.815704
-21.823597 -53.027584 -254.093399
-7.180238 -45.219654 -256.385864
-16.688978 -54.452301 -255.675751
-9.420332 -50.676796 -255.543777
-7.474753 -46.704128 -261.600739
-7.355794 -44.221718 -250.071167
15.705784 -50.826736 -255.022583
14.665558 -51.998421 -262.351990
-16.908369 -50.304390 -249.480789
18.219234 -48.997944 -256.604950
26.517427 -54.074863 -261.004547
24.449337 -51.724316 -259.836792
17.083424 -56.762848 -258.332397
21.849426 -57.515079 -269.017914
-16.566849 -48.242561 -266.697205
2.581992 -53.719440 -253.066635
-12.273348 -51.643757 -257.337860
29.542894 -47.943787 -271.947937
-11.676716 -57.191738 -270.617767
30.697630 -53.504250 -273.696136
1.288577 -53.181503 -264.544159
19.797466 -50.841728 -267.229980
30.499838 -48.166862 -273.373932
22.410538 -50.230270 -271.056763
30.596121 -50.436920 -271.507446
-8.200703 -47.097477 -268.346405
0.268209 -55.351215 -274.225708
22.582235 -49.841011 -283.843262
9.094309 -48.987514 -282.562653
14.802179 -58.424011 -285.679810
26.826965 -51.385715 -285.045258
9.429463 -54.367943 -289.626831
11.200319 -45.888103 -289.914459
5.491638 -51.884949 -291.960327
19.533348 -54.214382 -283.316467
8.983361 -53.978107 -289.700775
12.092290 -50.263882 -294.568298
5.638107 -54.611404 -286.043030
12.192463 -49.567471 -301.572784
45.885311 -49.737328 -16.961899
35.701641 -54.138668 -20.627455
30.173903 -54.209076 -19.062494
27.112236 -50.843681 -13.552182
30.163664 -50.296410 -13.745924
22.881203 -56.453274 -19.288044
39.440521 -46.734375 -19.553455
44.892067 -50.307095 -20.212633
52.422611 -47.190277 -24.705200
43.977894 -54.652985 -39.291306
47.622948 -57.741703 -30.636282
46.767780 -43.940948 -25.040379
45.341396 -47.537277 -20.969915
49.415127 -60.036678 -37.791683
45.690468 -50.125168 -34.700600
32.321781 -56.394043 -35.551548
39.996887 -45.470219 -26.331369
30.114492 -51.097054 -40.053352
45.049175 -44.072979 -36.068462
44.019039 -57.963402 -31.135683
31.927366 -47.570873 -38.698643
34.576122 -49.719601 -30.731562
-96.402260 -50.133751 -57.054317
-69.439171 -52.384209 -63.127472
-96.710114 -46.359173 -57.583836
-34.469551 -51.657639 -69.275360
-57.172764 -51.039505 -71.332283
99.395081 -44.234749 -62.161839
65.960754 -48.756771 -61.253429
83.149117 -53.440178 -69.632790
98.272507 -47.616261 -76.050011
87.299721 -55.079250 -76.493446
64.411011 -55.214588 -82.247467
67.564697 -43.866417 -64.631760
105.884750 -54.661274 -79.540154
-38.278660 -58.567558 -81.389221
54.945816 -55.468758 -84.899574
101.634491 -48.036648 -92.988228
98.826836 -52.408768 -90.384644
97.402367 -56.263344 -90.239388
65.250061 -47.803730 -90.801399
56.537399 -49.110664 -91.243652
98.508270 -55.278397 -88.011215
70.427315 -52.996315 -101.800613
-97.281670 -52.853848 -108.612411
-78.204391 -49.602406 -106.051987
-62.693752 -49.359680 -105.807518
-66.173172 -55.995277 -114.687195
-97.027107 -60.272060 -121.297142
0.496744 -51.852261 -241.067657
10.102718 -45.782677 -236.273849
12.935683 -56.973507 -235.666306
0.362772 -57.107643 -232.999298
1.708782 -49.940815 -231.504700
-6.841817 -49.402702 -242.426178
8.973407 -51.753235 -237.810150
10.301226 -57.767723 -241.058029
-5.271971 -48.941422 -241.844681
14.626644 -54.353230 -238.618668
3.711560 -54.897923 -246.022232
1.183374 -56.448536 -246.511398
7.889389 -47.347214 -237.067993
11.618081 -47.459862 -250.896133
17.001671 -58.672138 -238.894608
14.407895 -47.786488 -242.984940
21.546680 -54.015858 -238.156357
10.412602 -48.096615 -240.466187
8.575288 -48.226414 -248.631165
31.422699 -52.174702 -243.901703
-14.496902 -59.146839 -247.781952
16.906849 -54.894814 -248.978043
33.078819 -52.057846 -245.509262
-13.572359 -56.079960 -245.684875
-9.347482 -45.590508 -250.703522
-14.299458 -51.310192 -247.649261
-19.258663 -51.307270 -250.116974
23.467102 -55.709461 -244.069199
-8.500512 -52.584789 -248.583328
-15.692245 -52.145805 -246.347763
-13.571507 -43.813961 -255.292664
-11.244493 -53.366943 -246.808380
-6.783359 -53.807381 -242.442474
10.125562 -50.785622 -255.255722
-9.690031 -50.024654 -251.677597
-12.484904 -45.990456 -256.026337
-7.301842 -48.466396 -249.070984
15.120388 -47.662189 -240.085068
35.871521 -44.567307 -254.592606
-16.340342 -48.956627 -258.020782
29.318958 -51.208061 -253.099701
0.476469 -58.013039 -255.429932
4.748140 -46.378159 -263.294861
26.536127 -50.804703 -253.507843
-5.700798 -51.908897 -255.817719
8.004288 -41.636269 -250.935959
26.553041 -53.810158 -260.926300
29.966196 -54.200478 -262.383698
23.259817 -49.878288 -258.657806
-14.983558 -48.227215 -261.886597
18.099031 -49.383656 -263.742798
1.252462 -48.890717 -277.980774
-1.444034 -52.480145 -282.151276
14.665172 -55.121746 -275.681244
24.424358 -47.611801 -278.611450
4.509038 -50.599297 -288.676605
17.641911 -49.439976 -284.840942
12.340099 -45.833641 -286.398315
19.807289 -51.997993 -291.668762
14.832440 -49.886108 -296.804565
10.431791 -54.130402 -297.969147
5.922101 -53.185703 -297.487488
-76.524185 -60.939957 -46.551140
-31.151663 -50.893612 -51.690006
73.652748 -49.303398 -54.637848
-63.725403 -40.164223 -58.624905
-9.583695 -42.028225 -61.703590
-18.722878 -58.145451 -65.638008
85.546860 -52.215675 -56.348492
-55.603123 -51.384823 -57.232971
96.111168 -47.405407 -64.338936
105.768875 -48.919510 -70.225189
59.914246 -50.421371 -72.359955
-44.874725 -53.456501 -77.444153
-96.751244 -52.395138 -81.386841
58.411549 -46.927052 -93.647354
-68.034325 -58.305130 -93.218697
-99.132370 -48.756207 -114.042381
68.882393 -54.340759 -102.688683
77.311211 -55.970921 -121.034927
-93.772141 -51.519508 -119.250809
17.130989 -46.803879 -235.308502
18.326534 -49.404415 -233.071243
28.213181 -48.454559 -240.981079
2.906786 -47.569748 -244.198654
9.724519 -52.586643 -249.118317
24.229761 -56.517242 -238.929504
-2.372441 -53.144150 -230.490601
19.460331 -43.472748 -239.313995
26.703655 -55.160473 -245.408722
-11.124125 -44.692184 -249.938614
-6.580768 -55.628674 -242.885239
-10.540584 -48.909611 -245.740906
6.877422 -50.831779 -243.917343
12.461458 -45.636894 -247.214706
-4.843589 -44.411804 -246.493576
-10.032088 -48.468517 -252.807678
-11.075016 -41.461319 -248.877930
-9.759501 -46.560303 -249.827759
-22.646566 -51.818832 -245.132355
-0.146580 -52.044918 -253.021942
-13.615364 -51.748604 -254.549835
24.293673 -52.008266 -253.555939
11.474310 -51.435177 -256.157990
22.579763 -50.832043 -249.250198
8.321575 -48.892838 -258.455658
23.054213 -51.655186 -264.578644
-7.149552 -54.409679 -254.589493
-3.432544 -51.187050 -256.572479
-7.936048 -53.000828 -273.124786
14.600346 -54.795898 -267.634827
5.463054 -40.952328 -271.561859
12.084003 -48.585403 -277.238464
-53.006977 -39.371964 -46.100880
-42.594765 -59.889763 -49.277679
88.461929 -46.663738 -56.232262
-63.477024 -52.253258 -67.584778
77.882668 -51.277634 -58.390656
80.343849 -43.274460 -61.045868
-68.816666 -46.693748 -52.993599
71.973442 -40.558670 -69.119659
108.769569 -55.909771 -69.118454
100.233757 -42.280853 -68.805176
61.670158 -51.230507 -75.412956
-37.669567 -45.930576 -86.615578
59.015636 -53.426479 -80.524841
-62.882572 -49.531040 -81.838829
68.711296 -49.544514 -89.701019
53.474403 -46.046986 -79.405769
62.509705 -43.138123 -91.168167
66.118027 -53.793930 -86.704323
60.950478 -45.892639 -91.755257
68.608734 -48.715233 -90.291420
55.019279 -51.437237 -91.807808
-99.298584 -57.509083 -101.609032
64.815552 -54.443058 -95.563179
64.166855 -51.772438 -106.430527
66.360901 -51.026947 -102.359375
77.833458 -49.374012 -109.317604
94.334709 -52.927906 -104.403946
-85.108864 -46.193134 -121.115097
-86.439209 -55.851269 -117.812347
-4.940624 -47.727657 -241.027512
1.636186 -48.822262 -258.117554
-3.154080 -48.712109 -251.989853
-77.199547 -58.078537 -36.552296
-61.400589 -49.575848 -37.410908
-59.281288 -45.909470 -53.280678
-58.935478 -44.129642 -48.670170
-67.493332 -54.836250 -56.324772
92.577171 -57.470882 -54.953030
85.290840 -48.875782 -62.471439
70.275497 -48.847134 -60.867397
-69.247177 -44.351028 -68.185425
64.769409 -48.972778 -63.608097
81.505119 -47.160664 -72.943542
68.065308 -50.428391 -66.871925
67.006607 -51.518658 -68.016869
64.644684 -42.177586 -71.295441
94.247948 -49.362812 -67.513184
69.140572 -51.259773 -74.678467
-46.381523 -55.508945 -73.256409
52.099087 -48.106480 -84.352737
68.463699 -49.717381 -73.090454
66.680656 -52.968990 -82.783211
60.151234 -45.865089 -83.541855
63.761398 -52.438915 -89.371002
74.048019 -51.195183 -96.702576
60.808823 -52.606812 -91.277161
66.241051 -59.114822 -82.220276
72.088570 -43.735142 -94.941978
70.603233 -53.540604 -90.629562
59.917969 -43.063850 -92.829468
69.173286 -42.627041 -91.179878
65.099152 -46.317379 -92.050224
-73.732224 -45.347866 -96.292183
63.443939 -47.850277 -85.766541
59.761532 -43.054165 -91.506607
66.533707 -43.006535 -93.408577
61.285046 -46.170094 -102.263786
61.399643 -48.450172 -98.988098
66.391785 -40.147415 -99.935989
75.819229 -48.593624 -95.592804
70.556038 -46.091969 -102.011856
70.105095 -42.447750 -107.878021
72.774673 -54.396183 -105.152283
63.595455 -46.852859 -101.287567
61.177853 -45.029587 -100.799339
73.252411 -50.475796 -108.353394
73.822479 -52.287472 -107.488464
67.387772 -51.055653 -110.418602
73.549660 -57.282345 -114.078468
77.543007 -39.606064 -110.254944
-76.706650 -40.264309 -107.485085
86.500832 -53.805069 -106.753151
68.013924 -50.438061 -109.791092
73.033539 -52.769630 -107.369423
78.787117 -44.818184 -110.760841
80.055298 -52.143250 -111.021980
84.594803 -57.701740 -115.382942
-40.730732 -51.497574 -48.449718
-64.380669 -50.498962 -51.991058
-30.420753 -54.221275 -49.862259
-30.472950 -42.536877 -53.175816
-8.476499 -51.139664 -53.769688
77.672447 -48.725319 -62.342735
66.606766 -46.381435 -57.361988
66.899704 -46.978859 -61.463867
71.581207 -52.689537 -57.629162
73.379128 -43.967464 -62.107704
100.041084 -49.248684 -65.042549
80.744377 -44.338230 -65.093597
85.778526 -47.418259 -65.093460
70.105789 -50.909115 -62.954365
62.486916 -49.338768 -60.826813
68.972000 -49.991390 -66.712967
61.344055 -49.692627 -62.690926
72.853989 -47.620140 -63.572521
60.384972 -45.129822 -68.139664
63.390652 -44.819759 -62.441761
60.127567 -46.739857 -71.973244
68.376190 -48.550957 -65.041077
53.992741 -44.735867 -75.511414
70.670494 -48.918968 -73.171486
59.595764 -48.228745 -74.640648
109.811661 -42.124340 -78.874428
-45.048252 -55.904827 -79.887276
102.084213 -46.039585 -84.499947
80.170853 -44.269310 -84.769539
68.226326 -43.659111 -80.058922
67.612709 -45.775181 -87.781548
64.979729 -42.093407 -92.156647
65.715515 -48.194660 -86.441116
-95.436768 -54.100998 -92.635170
102.990807 -49.018673 -98.599411
75.163193 -42.119011 -94.763512
54.988586 -52.950035 -97.979294
62.552200 -39.985207 -101.398636
101.005745 -51.679161 -98.053864
86.351624 -46.202171 -97.129280
59.882000 -51.038609 -91.079033
-73.990608 -51.282650 -111.478966
74.288246 -52.868607 -98.826859
71.444740 -47.786114 -100.294800
80.211311 -50.835972 -104.260612
100.169029 -61.522018 -110.318863
59.487160 -40.897541 -101.519257
83.074234 -47.052551 -112.947289
92.062172 -52.493484 -113.820801
95.135040 -56.706936 -111.116447
71.205383 -51.216480 -108.048096
90.627640 -42.440125 -104.229759
-82.918655 -48.962368 -107.720367
91.722267 -47.699280 -115.384315
-97.209221 -47.374165 -111.873848
-91.143860 -57.205750 -116.880257
-60.569904 -46.281857 -45.019901
-66.587265 -44.314316 -60.771389
-65.891304 -46.919403 -62.267124
