# This PCD file was generated using the MATLAB® pcwrite function
# from Computer Vision Toolbox®.
# .PCD v.7 - Point Cloud Data file format
VERSION .7
FIELDS x y z
SIZE 4 4 4
TYPE F F F
COUNT 1 1 1
WIDTH 1415
HEIGHT 1
VIEWPOINT 0 0 0 1 0 0 0
POINTS 1415
DATA ascii
-145.965424 -75.882782 -190.973267
103.537354 -73.986938 -193.936417
-16.704025 -72.939644 -192.999329
102.513191 -75.034225 -189.886459
12.221828 -74.443840 -189.247971
-131.769226 -74.686478 -199.685486
-142.238953 -76.121857 -201.704742
97.538696 -75.680824 -200.182663
-13.789238 -78.290718 -201.718460
-14.543904 -74.339630 -201.812546
7.652227 -76.395073 -208.577988
-148.009079 -70.643631 -206.350647
-144.211105 -75.950447 -207.113922
96.802055 -73.847992 -201.530365
-78.668831 -72.258881 -209.719055
-37.140713 -73.804230 -201.788513
17.360632 -76.223450 -209.791031
-27.558645 -74.243996 -211.538208
-77.321686 -72.764336 -214.048416
89.425873 -73.833862 -210.840378
-80.870895 -72.595009 -212.142166
-144.991699 -75.298286 -219.164063
-78.347984 -72.894562 -214.091690
-15.575541 -73.801910 -215.461456
-21.711296 -73.396858 -218.823196
21.099836 -73.143616 -212.414291
-4.072668 -74.175247 -217.655075
-87.252754 -72.223076 -219.158295
93.839920 -74.374916 -212.680725
-94.693100 -73.808601 -217.056702
-147.398087 -75.540672 -222.167419
-18.557436 -73.288269 -220.036713
16.586683 -70.861259 -216.703857
-101.247871 -73.852211 -220.402664
6.267774 -73.708122 -218.921066
-22.078039 -76.258598 -217.732697
84.014198 -74.151917 -222.959946
-146.595734 -74.781418 -221.663528
6.787491 -71.163078 -225.856903
-9.395118 -75.907822 -223.234619
16.601006 -74.071373 -220.197144
81.935799 -72.310837 -223.410034
-11.419549 -75.758553 -228.812897
-128.482941 -74.072563 -224.576508
-13.065712 -72.302612 -227.783203
19.177523 -75.835663 -235.111938
-121.914055 -75.448921 -228.793549
-148.493835 -72.432106 -227.451416
-139.185013 -73.117622 -229.666061
-135.349777 -74.460915 -231.803757
-14.070994 -76.237068 -224.453049
72.617798 -75.249107 -227.144516
-140.072449 -72.793221 -230.195114
73.717972 -76.793282 -231.391251
-19.444864 -76.371292 -228.229568
-140.402313 -76.535057 -233.102631
81.067780 -71.675194 -225.927521
6.676787 -76.085030 -237.509674
-142.261978 -78.395287 -235.386230
-151.056107 -74.006104 -234.911636
15.417675 -73.617477 -232.860535
-1.900379 -75.702927 -234.078949
-25.963133 -76.303841 -239.496841
-2.752647 -71.066681 -240.759644
-160.612946 -73.558502 -237.485397
9.854544 -74.874580 -244.590225
-167.933502 -73.243095 -234.782852
-14.657695 -76.610641 -239.709778
65.546448 -73.600212 -238.187469
-12.620307 -72.597534 -239.976364
-24.609110 -73.382690 -240.230133
-25.542795 -73.204910 -241.971695
-12.941841 -73.567238 -240.286377
-146.242676 -72.646263 -236.267227
8.688958 -76.035538 -243.635696
67.730774 -73.167763 -242.228058
14.527229 -73.801521 -245.461685
-161.804504 -74.054070 -238.943802
-49.058773 -74.647545 -243.816528
3.068979 -82.288727 -246.593414
16.581142 -71.659004 -245.251724
-52.401211 -71.222977 -247.639206
-4.519630 -74.879410 -245.279068
22.966654 -75.333206 -246.934860
-165.233749 -72.818268 -246.353470
-69.862785 -73.434212 -246.211166
-49.561783 -74.468842 -247.064682
-78.291443 -74.712463 -250.446487
-160.438522 -75.227112 -247.802902
-151.471756 -74.099525 -252.218750
-58.147903 -77.057480 -249.487137
-69.963341 -74.378716 -250.365417
-153.033569 -71.618546 -254.359787
-150.341370 -75.720589 -253.397552
-76.424736 -74.197357 -254.337936
-92.725693 -75.205452 -254.278488
-166.942459 -72.815498 -249.834259
-155.423553 -72.543999 -258.790405
-133.780045 -73.589081 -256.799011
-82.590805 -77.123657 -254.404480
-162.584366 -75.500053 -251.203293
-143.043137 -74.831345 -256.675140
-86.294556 -73.470963 -254.953278
-93.270683 -72.297531 -257.521759
-145.790268 -73.190506 -258.531799
-93.836510 -72.395721 -256.212524
-150.376740 -72.128052 -256.941956
-98.457260 -74.019379 -257.605896
-166.369125 -73.821823 -258.763641
-160.611298 -73.300209 -260.465210
-124.679413 -74.031029 -257.769318
-151.678833 -74.136925 -260.292847
-113.903999 -73.397209 -261.298767
-15.735165 -75.288483 -262.399353
-144.301636 -72.131836 -263.069855
-123.917496 -72.490402 -260.535187
-158.099060 -74.619476 -262.285339
22.065577 -74.598251 -268.560425
-146.348495 -76.127220 -278.415100
-164.709457 -73.722321 -278.537933
-6.348467 -75.912308 -278.597015
-145.854935 -74.702660 -282.596161
-6.076185 -72.561554 -280.684296
14.012098 -72.038025 -286.381775
-134.352966 -72.148155 -284.579681
-70.537476 -74.226196 -286.678711
-33.752720 -75.099579 -285.679871
-111.931496 -74.582474 -286.361267
-91.166031 -75.800842 -290.614441
-90.176163 -74.013611 -292.623657
-47.375786 -75.288933 -291.738586
-117.443298 -74.094185 -291.601959
-111.825722 -76.169151 -289.558075
-30.264505 -74.082275 -292.818726
-112.763939 -73.845551 -291.572449
-126.860573 -71.681358 -291.747406
-145.337296 -75.378174 -291.541412
9.167972 -71.795311 -291.313446
15.044395 -75.769218 -294.276398
-157.609543 -73.262138 -294.168732
-153.741135 -75.900787 -299.785461
-142.840805 -74.236504 -309.752167
-153.029343 -71.969536 -313.479797
-151.932571 -75.678787 -312.980286
28.704197 -74.015411 -14.953601
23.205635 -71.679443 -16.596218
22.824896 -72.341576 -21.163361
27.919718 -71.275879 -41.399654
-53.397228 -71.756119 -47.290367
-63.414204 -71.428017 -50.486870
-38.433186 -72.214783 -51.942974
-81.712379 -73.320160 -59.177486
82.702682 -73.463837 -72.233704
-19.900352 -74.158974 -72.384209
88.754326 -75.219627 -72.532936
98.320595 -72.380371 -79.751587
-90.747589 -73.598228 -79.895287
73.102516 -71.482979 -79.992088
-41.875057 -78.975853 -83.609848
98.553474 -70.571350 -85.766037
-50.366776 -75.013870 -89.059021
51.870781 -71.544479 -92.240295
72.657303 -74.640984 -92.656952
57.597145 -75.462143 -97.491447
52.817997 -74.796219 -99.934143
73.113655 -77.253220 -95.455307
45.245201 -73.540367 -99.451752
106.241165 -73.119919 -99.456848
108.190987 -72.871910 -105.939545
85.545677 -70.470108 -102.311569
90.224480 -73.973228 -100.550858
101.939560 -71.228287 -97.218636
108.388580 -71.618187 -100.927658
38.588451 -75.798607 -106.212914
109.430695 -71.210930 -121.384956
112.980461 -73.703583 -118.266434
33.229248 -74.489655 -122.307159
46.082977 -73.312592 -117.335228
115.876862 -74.444466 -126.616196
39.097992 -73.065819 -128.940857
115.300224 -74.377205 -128.663757
111.469292 -73.409607 -121.899048
25.256350 -73.071335 -134.718765
-48.025864 -71.693375 -133.155060
-52.354279 -74.880585 -134.434677
112.412178 -73.733856 -133.497650
-71.382294 -74.098297 -143.597321
-74.074295 -75.936699 -139.634308
-56.664429 -75.287514 -144.114655
34.490612 -72.136078 -144.585205
112.539001 -73.838654 -143.242294
-65.489525 -74.008774 -145.981873
-47.159790 -71.635521 -145.471375
36.742317 -76.809235 -149.557800
-67.143242 -74.342079 -147.867584
117.463371 -74.347443 -144.050003
116.340240 -73.118103 -157.681595
118.580360 -74.672256 -152.014587
-37.149586 -72.898857 -154.626602
-63.400955 -75.559425 -161.708466
-72.814636 -74.168541 -155.005722
31.316923 -72.836113 -150.870239
-1.279726 -73.855942 -163.141144
111.113022 -73.987991 -159.245621
110.836273 -72.362061 -156.441238
111.079155 -73.118507 -155.825394
-64.907722 -71.496056 -163.705399
-47.090824 -75.016357 -160.396301
1.296328 -70.865334 -163.812653
-24.601515 -72.925003 -175.453720
108.253273 -74.843796 -166.091644
-35.196930 -73.963600 -159.798584
112.046356 -72.880013 -169.399277
-40.418110 -73.344627 -170.746384
110.590981 -72.541252 -166.390625
-147.553665 -74.005356 -180.474762
-28.772661 -71.286591 -176.109924
-21.287327 -72.977005 -183.054184
27.731041 -75.996254 -177.833054
16.709324 -73.776886 -181.525253
28.005873 -75.416130 -183.908417
107.928116 -75.114189 -181.380386
-150.516083 -71.057823 -184.049637
-21.069845 -74.802994 -188.404251
104.748558 -72.997047 -178.665085
106.221939 -71.970253 -190.362259
106.842537 -72.167557 -180.513474
98.265350 -73.093353 -195.349884
-151.644745 -75.156586 -194.284409
101.287827 -74.930313 -202.074295
-27.701677 -70.421303 -195.591446
100.625793 -72.826103 -198.407059
-125.344040 -72.531746 -196.749664
-28.321299 -76.174805 -191.065674
-143.041611 -73.254837 -197.945267
95.313599 -73.576859 -199.632614
7.981732 -75.161034 -199.388840
25.540827 -74.410370 -195.255310
-145.568665 -71.685127 -198.985382
-142.027252 -71.559990 -201.660828
-10.916666 -72.266953 -204.454330
-123.048645 -75.108109 -200.794815
-143.525726 -76.969734 -203.665863
6.612357 -73.830406 -200.585648
-20.439262 -75.279793 -203.236954
21.810295 -74.582581 -203.396179
11.062707 -73.737267 -210.961960
88.343079 -74.700653 -209.387802
-19.730776 -73.075119 -209.844543
94.562080 -71.138168 -208.688065
95.184967 -71.917068 -207.484573
-149.149139 -72.800308 -216.507004
96.014557 -73.887444 -211.288712
7.715329 -76.908134 -209.861847
5.850942 -72.562897 -214.225677
-35.695789 -74.063881 -208.331314
-89.437645 -72.793457 -212.493469
-27.721529 -71.999138 -212.982941
85.428246 -73.355255 -215.962891
87.433495 -72.584641 -218.672684
-32.521240 -73.446732 -213.630127
-85.996712 -74.132156 -216.470383
-1.525833 -76.123230 -218.092285
89.846321 -71.187988 -214.598618
-150.807999 -72.188461 -224.123901
-164.103821 -73.964096 -213.566101
-158.302643 -72.342705 -222.567093
-20.771095 -72.545532 -224.868256
-152.098267 -73.032921 -224.839966
-6.004700 -75.000511 -226.374100
11.064620 -72.356438 -217.715042
-160.065170 -71.987709 -223.839630
-161.527328 -73.468147 -225.095261
81.235550 -75.185364 -231.229355
4.402541 -70.629097 -228.753754
-154.757614 -71.684830 -226.484894
-142.018982 -71.968483 -228.212463
-17.316721 -73.698433 -222.903137
1.413801 -76.409920 -226.082916
79.059639 -74.699570 -221.865860
-159.227203 -74.266197 -228.384415
-147.023636 -72.134079 -228.209534
-122.768677 -71.891235 -229.850601
80.624008 -74.598900 -223.740662
-115.097069 -72.307701 -227.753708
-146.439346 -75.737030 -228.683212
-149.377701 -72.571869 -229.705261
-147.041061 -73.729927 -230.339417
-155.840698 -73.286156 -227.922623
-163.025558 -72.167458 -229.151764
-133.657089 -70.927330 -233.437881
-132.665344 -76.463036 -233.074326
-155.346420 -70.682632 -231.549637
-147.079742 -71.662247 -234.671677
-150.611374 -71.723625 -234.913834
75.585342 -72.554771 -232.409439
69.644493 -71.551941 -237.851685
-157.218567 -72.746895 -234.619568
71.956757 -70.124306 -231.855453
-18.603434 -75.674767 -238.588882
11.326500 -74.471718 -235.549774
6.529523 -74.408409 -234.454132
-151.385483 -76.417374 -244.083618
13.921534 -73.318695 -238.998428
64.346001 -75.523613 -236.212814
13.114434 -72.523422 -236.822754
8.267825 -74.637512 -243.284317
-6.509260 -73.670540 -243.600540
-17.908569 -71.198471 -242.423309
3.089212 -70.949699 -244.936737
2.898849 -73.143799 -240.104233
58.644516 -72.364136 -242.235504
-56.965809 -73.744087 -244.211197
19.754314 -74.595490 -247.703979
-61.426529 -73.695374 -243.407944
-6.988450 -71.402512 -248.558701
-65.306587 -70.998039 -248.143707
-86.197502 -74.790443 -250.940079
-83.018867 -70.979469 -252.075455
-13.043173 -74.541641 -252.807556
-124.361115 -71.947617 -254.906082
-15.470810 -75.167747 -254.230957
-118.629143 -72.250229 -257.684753
-111.585030 -70.784889 -257.438721
-102.843727 -72.327751 -257.973083
-143.414474 -73.079857 -263.839417
-145.551468 -73.177490 -266.818542
-167.075012 -73.433144 -262.820709
18.454552 -74.569038 -281.146790
-53.289566 -73.557732 -286.733795
-65.902580 -71.672768 -286.698975
-40.461590 -74.262634 -287.947968
-30.067177 -74.325523 -284.960419
-96.234818 -72.880234 -286.157623
-30.230200 -71.292915 -286.724335
-6.061897 -72.882393 -289.198792
-166.507599 -71.806351 -288.707642
-9.936004 -74.577446 -286.724548
9.082557 -75.331879 -287.295532
14.751007 -76.411736 -288.052979
-55.677418 -74.205696 -290.945923
-29.806934 -73.506187 -290.213562
14.547334 -71.950630 -290.474274
-67.846733 -74.401642 -291.756836
-36.420376 -70.469749 -289.727203
-17.362064 -71.984932 -288.372467
19.572857 -74.118065 -289.544769
-9.460779 -72.330627 -290.704865
3.292495 -73.582222 -293.551422
14.509044 -74.832802 -292.214417
-132.589188 -75.534782 -295.512390
-144.156982 -74.432518 -300.244904
-146.709290 -73.946373 -312.555878
41.467354 -72.487213 -15.707574
28.402279 -71.574875 -13.673166
40.056614 -72.144753 -15.586347
21.899887 -71.294456 -17.754311
45.469337 -72.540390 -20.321840
25.702518 -72.558365 -22.581665
24.934156 -71.600357 -29.713858
23.202257 -74.207901 -34.176804
44.844826 -71.799789 -31.554123
29.130627 -74.395035 -35.540901
43.452789 -72.428955 -32.853771
32.446110 -72.853760 -37.976269
35.543068 -70.860321 -37.971531
31.029268 -73.884377 -40.486141
41.719028 -71.100143 -40.220486
37.915371 -74.665207 -44.038704
-38.752956 -67.331734 -51.290897
-31.658625 -67.886940 -51.220310
-88.100693 -67.224808 -56.024261
-86.344276 -73.514381 -65.803551
79.870453 -74.027718 -72.526230
84.674561 -74.382912 -73.220879
-17.797789 -72.303726 -71.304977
-86.870506 -76.581192 -71.807846
-23.229691 -70.995834 -76.368462
-49.165569 -72.338379 -86.814461
64.126633 -69.417397 -83.684181
52.691124 -72.365166 -90.891144
98.591682 -71.498039 -90.218147
70.725792 -70.558731 -97.857719
-64.684296 -77.397858 -95.280060
-66.152611 -74.262573 -96.441551
47.664909 -75.108437 -95.725540
77.998901 -70.915642 -101.951721
54.506248 -74.656845 -104.358383
100.696526 -72.424141 -98.047104
-95.787308 -72.112869 -107.872787
38.010330 -73.240967 -113.356079
107.057541 -71.617500 -106.768974
47.423847 -70.946938 -111.842514
104.050476 -68.678688 -106.951790
-84.416092 -74.772507 -110.268494
36.288296 -74.494225 -111.105469
105.266083 -73.677757 -118.050514
106.266937 -71.336029 -114.363976
107.479057 -72.347427 -117.110931
112.079636 -72.784256 -114.775246
39.162556 -68.974106 -113.478294
32.516125 -71.437553 -119.176575
46.081165 -70.402504 -116.807671
109.750328 -70.626663 -121.972244
40.433460 -70.061005 -123.243866
110.392830 -73.040565 -130.354736
114.038589 -70.624222 -129.296082
33.459042 -72.724609 -125.233765
-76.035667 -71.279243 -129.787918
117.082939 -71.870201 -133.512741
-56.894070 -71.257149 -134.764786
37.285522 -75.077194 -135.834976
-73.030838 -73.003609 -138.231384
29.695047 -72.902679 -134.729507
-77.158134 -71.030655 -141.977524
-45.038052 -74.449554 -142.897507
-71.443184 -68.649925 -137.792023
111.517799 -72.657745 -138.195572
112.227440 -71.009827 -142.434021
119.593498 -74.973473 -145.487778
-72.524231 -72.790779 -143.947098
8.638092 -70.090553 -151.244003
-54.805218 -73.292763 -151.856628
-46.377323 -72.691086 -154.848465
106.406166 -72.192123 -159.566406
-42.154964 -72.692467 -151.876465
12.314363 -73.459923 -156.497574
23.262569 -72.481377 -157.961838
115.455040 -70.825592 -163.775681
29.405897 -71.529594 -162.296097
-2.273177 -74.485374 -164.189682
34.890884 -73.485191 -160.530350
-67.920006 -71.332336 -157.598007
-65.930061 -72.691803 -157.367767
-68.182709 -74.771790 -164.823227
115.429840 -71.409538 -162.390335
-42.789040 -72.045052 -163.108109
20.501188 -72.232086 -167.557007
-64.798340 -72.344177 -168.027420
-60.960682 -72.564796 -170.396011
-38.023533 -72.308586 -159.653549
-31.917538 -70.599388 -170.911667
118.239174 -73.138832 -171.113815
-37.108768 -74.576721 -176.972046
14.778060 -73.998291 -175.947815
109.710190 -72.863792 -180.480682
-149.401978 -72.576775 -176.155746
-143.789612 -73.288910 -177.588394
-151.155624 -72.284439 -177.833267
-143.486847 -71.676361 -180.705734
-28.537422 -71.671173 -186.636627
-23.252026 -74.968399 -185.564667
20.343801 -71.988647 -187.251709
-143.742050 -71.084480 -186.115311
-144.518524 -73.858635 -188.472778
-18.553499 -67.499603 -186.299759
13.819641 -73.959496 -180.884094
-147.232208 -72.161263 -189.546951
-31.457989 -75.505325 -184.405273
100.402374 -72.806541 -187.459473
107.286324 -74.168953 -191.454285
23.546160 -69.330826 -193.672897
-18.117289 -73.536758 -187.259644
-25.728756 -74.063011 -194.911209
-152.597046 -70.879997 -198.169968
-131.213013 -72.044937 -197.140137
-125.119324 -71.884048 -195.562683
-122.976830 -70.709709 -198.154831
-24.285263 -68.538727 -196.762558
10.206678 -72.561562 -191.823151
96.501511 -73.590439 -201.409271
-146.577957 -70.481819 -196.754028
-144.878464 -70.856148 -200.529938
-149.174149 -72.361496 -197.722137
-153.452316 -70.420036 -199.747406
-25.138323 -71.570084 -198.216370
-14.982731 -74.920334 -196.984711
-148.383591 -73.755295 -201.131287
-15.192254 -75.036613 -202.049759
-162.284256 -71.542442 -197.076172
-133.408066 -74.026253 -199.019806
17.386904 -70.796638 -207.998871
-162.883026 -72.105324 -204.912201
-143.814514 -70.321846 -207.380020
13.752539 -74.052521 -200.072388
-154.950562 -73.049477 -200.326172
-21.901154 -74.196724 -201.072540
102.474678 -71.139587 -198.505554
-153.169342 -70.797615 -212.495819
-164.135010 -72.343567 -210.700226
-77.507912 -72.915977 -210.435608
88.668480 -71.709259 -211.094574
-2.269724 -70.405777 -215.958099
-150.759750 -72.656349 -211.956360
-86.953133 -70.056404 -214.649429
-5.171329 -72.888962 -211.482498
14.745757 -72.004051 -220.905502
-144.310944 -73.727058 -217.793015
-3.496924 -72.952362 -222.184647
-20.317146 -69.060928 -221.853394
-14.142596 -67.366890 -221.146347
87.018066 -72.508560 -216.271530
-19.373804 -70.778625 -219.383347
-26.481018 -73.370598 -214.892288
-107.631073 -73.969261 -222.245560
-17.016106 -71.070412 -219.672607
90.017776 -70.363091 -219.004257
82.109558 -73.098022 -219.283112
6.669444 -72.964447 -220.426147
-9.765468 -72.532829 -225.588455
77.982857 -76.467918 -221.977341
-122.312157 -72.274445 -223.607346
-24.213999 -70.703217 -222.037506
-100.856750 -72.045479 -223.747406
-105.351425 -71.182915 -229.092453
-133.535919 -71.888168 -226.239197
83.091660 -73.773376 -226.855225
-123.236023 -71.083809 -227.796677
7.947890 -72.476425 -228.759415
81.037964 -70.680450 -223.766983
-13.635439 -70.977280 -222.693817
-13.707387 -72.065742 -230.065872
-3.328876 -72.624428 -227.753250
10.440658 -71.339211 -227.355408
86.134323 -73.274551 -225.479752
10.231435 -71.131996 -232.795685
3.553531 -74.554207 -229.536865
-7.834249 -70.618019 -228.570038
-5.630717 -73.933975 -232.759903
15.870382 -71.249496 -232.857651
-10.122080 -72.971352 -233.856552
71.114571 -73.553558 -236.179184
-7.151130 -70.508492 -239.848389
19.203211 -74.944954 -234.992432
-165.861618 -74.284378 -241.900681
-3.799255 -74.074821 -237.384171
-9.176346 -69.888733 -241.748520
-168.406311 -69.999916 -249.668915
-8.271742 -74.549896 -244.061066
16.409088 -73.724419 -248.042938
-147.682587 -74.952957 -253.168762
-67.622345 -68.967400 -248.202942
-59.720772 -72.836502 -247.496796
55.405865 -71.548088 -246.792831
-76.415359 -71.694672 -247.870743
19.034826 -73.325096 -248.248795
-73.769272 -71.051689 -252.668869
-11.971614 -74.018806 -252.360428
-144.326462 -71.941383 -252.994614
49.380577 -72.851395 -247.295868
-78.732254 -71.274803 -255.332062
-99.781075 -70.447853 -255.072418
-96.105843 -73.630898 -255.334763
-115.666939 -74.409706 -256.216064
-104.535561 -70.663521 -258.806946
-108.982010 -72.688057 -258.983582
22.639843 -72.442253 -260.082214
-128.636078 -70.979454 -264.698120
-12.878851 -72.842125 -275.446289
-144.206528 -71.088875 -281.577026
-169.191376 -75.113434 -282.466949
-125.008766 -73.030441 -286.705994
-115.049118 -70.619026 -287.144226
-75.411400 -69.853622 -288.216187
-56.672443 -71.472221 -287.103485
-42.286209 -72.524841 -287.372803
-15.637988 -71.976128 -286.862061
-13.324929 -71.454727 -287.547272
-38.634644 -69.089455 -287.795074
-32.847733 -70.095924 -288.237244
-17.599670 -70.858093 -290.286591
-68.916016 -72.081963 -291.697693
-54.034985 -71.104591 -292.120972
-14.805019 -72.751656 -290.822266
-13.841401 -72.812843 -290.557129
-3.807343 -72.721931 -292.028656
1.114595 -73.256172 -291.432190
-88.591759 -71.837074 -291.337128
-140.176865 -70.882050 -294.031036
-118.602425 -73.194138 -290.308990
-152.470535 -75.446091 -297.080231
-154.446991 -73.081352 -299.170349
-146.109711 -74.471207 -300.520508
48.564438 -71.567368 -17.548801
18.584282 -71.510078 -21.652987
51.007751 -71.876808 -27.540239
47.712955 -70.989365 -35.146206
88.296036 -72.774429 -68.049004
92.565422 -73.224228 -72.736717
100.168213 -68.899567 -80.195114
98.559135 -71.837563 -83.333542
59.285423 -71.492325 -88.429649
49.193508 -73.442909 -95.635109
63.782043 -67.862640 -93.330399
-65.028091 -69.357712 -90.209419
68.294281 -74.612923 -87.630630
102.509163 -70.305542 -97.014336
74.093750 -72.771828 -99.268150
97.736198 -69.686859 -101.806877
-79.502327 -73.774963 -101.664719
44.061474 -72.071289 -101.159363
-82.764389 -69.535583 -104.920403
50.880802 -75.180649 -112.021545
42.364925 -73.261932 -103.388664
107.900574 -69.616722 -101.195847
38.212605 -71.217598 -107.646118
41.434818 -69.252724 -116.541977
44.481426 -72.513260 -111.912216
107.075470 -70.846619 -115.971313
-80.929916 -70.673340 -122.089684
111.889641 -71.478226 -126.154587
37.059818 -71.087166 -124.430695
41.953445 -67.568909 -118.079399
36.905369 -69.665131 -122.370712
-59.008907 -72.394806 -132.949738
29.808258 -71.167793 -122.758125
-76.688835 -72.076881 -135.318451
-54.724911 -71.753326 -133.852432
-80.075439 -71.071243 -135.087860
34.539825 -73.503822 -129.965103
-60.378815 -71.784309 -134.437073
36.498711 -72.247818 -133.694687
-73.628250 -70.516640 -141.128311
-57.958363 -72.280632 -138.771088
30.050404 -71.745018 -140.702515
108.111794 -72.147934 -143.357254
118.447151 -68.753563 -137.055115
32.232567 -70.375267 -137.283279
-43.766781 -69.512985 -141.464233
109.304054 -69.732224 -153.393951
-72.617783 -70.451340 -145.063904
-57.230373 -71.479881 -141.331940
32.313183 -71.415543 -150.416550
-76.950493 -71.087753 -145.585083
-71.135956 -72.828232 -154.691223
116.779381 -71.757317 -152.173889
-63.641083 -71.834854 -155.056000
-40.665043 -69.986107 -154.496307
29.552210 -70.871719 -146.514374
-74.695488 -71.814583 -150.406967
11.984277 -70.951965 -152.459778
31.776896 -68.642105 -155.917618
29.735157 -70.638466 -148.241699
14.746576 -74.390175 -156.405945
-48.641106 -72.693283 -153.179535
28.500996 -68.963356 -155.232178
-45.094769 -71.169716 -147.633591
5.102962 -72.476028 -155.234818
23.089563 -71.808548 -150.332367
-71.116982 -73.979622 -152.869797
-46.429127 -69.572670 -154.092499
-67.451973 -69.698929 -158.428619
16.087048 -69.915512 -157.594315
25.938555 -72.272629 -150.909241
2.721848 -69.344696 -162.242966
21.128626 -72.030998 -156.122238
29.787580 -70.768929 -164.153229
-47.597626 -71.829803 -160.234329
-32.575481 -68.852997 -162.748703
-40.518593 -72.134926 -159.483582
27.944546 -72.084770 -162.124313
-44.551788 -72.426331 -169.805359
-40.718796 -70.395599 -163.985245
20.720531 -71.068733 -166.605911
-40.007969 -72.815445 -175.340729
27.980782 -71.010040 -170.665131
114.540070 -68.563431 -167.980988
-31.707952 -73.273758 -169.936920
106.987793 -70.580658 -174.032715
-32.518826 -72.354637 -175.784393
-36.311901 -73.305923 -178.330322
17.059666 -74.232033 -174.197800
105.077850 -69.266350 -178.682190
-26.979660 -72.202171 -183.427658
-30.944395 -68.428825 -174.880661
-23.311447 -70.173958 -187.055252
-148.873917 -73.507843 -188.516342
14.672408 -71.905197 -184.238525
105.131294 -71.984230 -188.592514
-156.498947 -71.888741 -194.646698
-26.298553 -71.152367 -193.253677
-114.988586 -72.400101 -196.034134
-135.387711 -70.214584 -196.151154
-108.727692 -71.803024 -200.837173
-110.509857 -73.461845 -201.820114
-12.146173 -70.880264 -196.446457
18.322428 -71.729980 -197.659027
-15.034460 -69.366425 -203.016663
-124.641289 -72.799644 -205.554123
-20.496981 -70.501160 -207.416458
-130.096573 -73.280708 -202.067688
-10.783750 -72.888420 -200.876038
-142.842285 -69.518829 -206.154129
92.168213 -70.826714 -207.838440
-166.141418 -72.224541 -202.212158
-4.303288 -74.829231 -213.911697
8.355557 -71.906036 -207.985825
9.326327 -70.405197 -216.047516
83.934898 -74.278603 -217.652832
8.891654 -70.728508 -211.970551
15.049902 -70.799698 -215.050217
-16.720667 -71.992493 -216.853409
-89.993713 -72.980415 -217.683105
-98.821480 -71.756218 -213.513809
-3.770362 -70.490616 -219.600403
-163.754425 -71.104805 -223.521164
14.248284 -72.194069 -220.616440
-144.802094 -70.853065 -221.943436
12.501104 -72.772560 -225.735077
-133.867874 -72.711380 -226.683075
-119.376534 -71.354866 -224.122192
14.442757 -72.295341 -220.885635
75.733887 -70.044838 -226.262634
8.918618 -70.651672 -222.944656
-111.627602 -70.911339 -229.665680
79.013809 -69.176758 -228.591400
79.239998 -70.918556 -231.519287
-122.202591 -72.007393 -232.299362
-113.901642 -71.070900 -229.139313
-11.564351 -71.245743 -228.175308
72.506340 -71.137650 -229.519592
64.766502 -72.119362 -236.899094
76.223511 -73.288727 -232.281952
-133.211380 -71.282265 -234.043610
71.341248 -71.773094 -235.749390
67.036903 -69.905167 -235.617294
-165.463516 -73.403976 -227.602570
1.308109 -73.441742 -237.944305
16.721085 -72.908470 -241.521973
-6.421203 -71.779106 -242.299393
15.705897 -70.173210 -238.219604
65.263168 -72.650925 -239.802811
11.293872 -72.561913 -241.542130
-8.293389 -69.525978 -241.692505
3.095796 -71.343666 -240.193130
64.697220 -72.642517 -242.749222
6.856977 -72.839417 -242.242538
-9.092970 -71.200027 -243.422806
14.091433 -70.250595 -245.731537
-166.794113 -71.397003 -240.610748
59.188744 -69.081566 -248.272324
51.855232 -69.632156 -249.265930
55.457317 -71.708466 -242.748947
-12.100892 -71.989967 -246.680954
54.959518 -71.923439 -247.105194
-72.050804 -70.888145 -247.054840
52.099495 -71.682541 -248.808792
-91.480698 -72.943687 -250.889481
-125.320587 -74.250626 -254.214737
-133.018677 -72.623444 -253.087769
45.039883 -72.011536 -251.751495
-135.333008 -71.402008 -255.261887
-110.017204 -71.562202 -256.329407
-112.668777 -70.092918 -256.736328
-80.929115 -71.049789 -253.449326
-112.248268 -73.086250 -259.772614
-121.529747 -72.015999 -263.309052
-146.206253 -69.686417 -265.231842
-15.166245 -71.022141 -261.617279
-167.963028 -68.793533 -266.402008
-14.245248 -72.424194 -273.001068
-160.554596 -68.710289 -265.377747
-152.917633 -72.028366 -276.074738
-169.816910 -71.880272 -277.441650
-13.497485 -71.939468 -274.577881
-133.750809 -71.695526 -284.080963
-160.493286 -69.916992 -287.741699
-146.409409 -72.001488 -282.362061
-135.517197 -72.944183 -284.069946
-9.089730 -70.605186 -282.705322
-125.469536 -75.233421 -284.494354
-141.586487 -72.158325 -286.332275
-115.624054 -69.445724 -284.275635
-73.876770 -71.427917 -284.770844
-62.386509 -71.044151 -287.822784
-5.548225 -70.558304 -289.996521
-51.782967 -70.617233 -288.529388
-57.127945 -71.865143 -286.454498
-69.361710 -72.024689 -291.469360
-87.821716 -73.721855 -292.765778
-97.027428 -69.239594 -291.444153
-161.955795 -70.171501 -290.551575
-162.058731 -71.872414 -291.989471
-126.399338 -73.452904 -294.095581
-145.408234 -73.044258 -293.972656
-155.016357 -73.229790 -299.713409
-147.801315 -71.507538 -311.202667
48.272530 -69.092293 -18.848972
18.422512 -73.140114 -26.263477
40.680393 -70.170776 -34.020653
-17.680143 -71.592545 -66.215912
82.004532 -69.469841 -64.056999
86.547050 -68.477058 -65.365417
78.305054 -70.054298 -65.027939
71.747673 -70.683105 -68.456680
91.369011 -73.699890 -75.004028
-94.466507 -69.374435 -69.264481
70.386925 -71.815956 -74.479477
-34.507065 -69.284180 -78.893242
99.315544 -70.331337 -86.449272
60.808140 -71.549370 -89.665306
105.554039 -71.032883 -98.228348
105.356804 -69.185753 -98.898613
70.380043 -69.785217 -99.024269
-77.438156 -73.821869 -98.029770
54.988522 -71.080048 -101.359688
104.080154 -71.401619 -103.973427
49.193249 -72.487999 -108.640877
81.490822 -69.838623 -104.950439
40.648342 -70.733772 -104.897530
105.667160 -68.958603 -102.162621
50.052017 -69.874023 -106.327530
111.014664 -70.729156 -110.312347
109.149353 -69.073586 -116.865417
-78.284653 -72.367088 -113.919594
-82.023964 -71.475006 -116.164101
42.343601 -72.570786 -119.608086
114.627274 -72.447861 -121.093086
113.811638 -67.044273 -122.630310
-85.934746 -70.383965 -128.500198
106.911476 -67.448799 -124.708282
-57.660580 -72.873718 -131.803772
-86.192970 -70.963898 -125.069366
-76.751846 -68.760300 -125.388359
-57.899170 -67.374809 -127.324936
32.314644 -70.499397 -129.751297
38.129520 -73.755348 -132.030685
-75.668175 -70.807365 -138.561646
28.651203 -70.194801 -134.596146
109.262230 -70.500191 -140.420868
-45.271748 -70.687927 -143.905624
26.716667 -68.652908 -149.016800
115.328995 -70.685707 -145.213959
35.228558 -70.429161 -143.200821
111.046143 -67.832191 -141.894470
-52.494640 -70.958015 -146.867752
-67.918289 -71.423950 -150.064026
-54.027576 -73.192703 -155.038895
-40.234463 -73.165215 -164.940338
3.998455 -68.609962 -156.621048
110.342613 -68.947533 -156.049149
110.883186 -70.799736 -157.586761
8.131212 -68.917290 -157.509567
6.557228 -71.433647 -163.694168
15.315332 -70.895447 -159.355453
23.677954 -68.344933 -157.664490
111.631409 -69.925560 -168.712128
107.574348 -71.231354 -167.510818
23.601280 -68.436523 -171.785507
27.781668 -71.075844 -161.345123
114.732178 -70.268867 -162.356888
-27.900349 -69.733620 -173.421509
110.080650 -70.344086 -171.563171
16.535053 -72.351128 -169.953049
21.518875 -71.128151 -166.166290
109.938705 -69.069519 -173.741180
25.126692 -68.229881 -172.334335
109.534866 -71.687958 -182.400421
-37.143078 -70.407593 -176.895187
26.415636 -68.018616 -172.620285
105.692848 -70.812073 -181.760529
25.492510 -70.426704 -180.900665
-151.008392 -69.821259 -188.616516
-28.456818 -66.071587 -188.011230
25.003389 -70.153549 -183.807404
-108.470108 -70.165764 -190.446228
-109.991310 -67.759583 -190.477600
21.882751 -69.769310 -190.004959
13.557269 -72.212105 -185.899277
-26.550861 -70.447144 -190.491486
-31.286018 -72.429718 -187.929031
-26.344208 -72.490303 -186.552094
19.410812 -69.755180 -179.355804
-151.286026 -71.090591 -194.161057
-141.377182 -70.867760 -193.107605
-141.893356 -70.113243 -194.138474
-21.183764 -68.797844 -190.815277
13.407928 -71.546043 -198.927933
101.565712 -70.900826 -193.372055
-116.296158 -69.463615 -200.547867
22.389677 -69.236961 -201.124359
-19.569744 -70.207809 -196.790604
-19.349295 -67.467880 -198.642151
100.291687 -67.948837 -198.000504
8.081626 -71.112999 -199.497589
-22.246778 -69.193970 -197.234955
-122.293831 -71.756004 -197.963455
-133.038040 -69.692039 -203.970337
-113.200745 -70.189468 -204.121292
-142.864273 -71.028702 -204.669128
18.399004 -68.874031 -197.618011
96.785065 -68.195236 -204.882706
-166.550583 -70.209900 -201.056976
100.135040 -72.408951 -203.757858
-19.743132 -70.555969 -209.023148
93.530937 -70.051849 -213.527451
88.664597 -69.059074 -214.330765
15.119159 -68.903992 -210.076370
18.126085 -69.570610 -210.679214
10.724847 -68.960052 -205.800308
-12.155426 -71.641731 -222.268524
-94.136833 -71.638611 -218.389297
-8.171477 -71.112495 -213.541870
90.162369 -68.345917 -214.117096
-92.552940 -71.217300 -218.619354
-102.569641 -71.878548 -219.154068
-91.136787 -73.107704 -220.674789
88.496002 -71.555725 -221.379562
-133.936707 -67.366325 -226.635727
-134.964172 -69.860413 -226.399170
-118.851242 -70.318718 -226.354904
-113.166672 -67.872604 -224.309265
-133.558716 -68.987442 -226.607208
-107.477921 -72.480667 -226.597076
-114.082901 -71.003906 -227.946533
-5.395017 -70.236755 -227.290070
-18.275690 -68.875732 -224.034576
-2.426292 -70.326988 -231.633255
-10.789871 -70.984940 -227.852448
14.321881 -68.697617 -233.537750
-14.699444 -69.868019 -230.810684
-165.834625 -70.970833 -225.780060
-3.519586 -69.948730 -232.828247
79.698463 -69.584366 -230.179825
8.014227 -68.524040 -234.731537
-6.426250 -68.325417 -232.837280
-156.848053 -70.365730 -238.709381
-139.334930 -69.253006 -234.002319
64.177689 -69.073395 -236.430893
-5.359793 -72.249039 -235.789520
7.037624 -70.329170 -232.251999
68.867073 -68.497520 -235.494308
78.293312 -72.222099 -234.240753
70.884041 -69.493408 -240.900421
0.126090 -69.920006 -236.217209
56.868706 -70.478310 -241.358246
-19.396044 -70.241234 -235.986298
-16.208582 -72.039818 -242.845352
10.179398 -70.925835 -242.888611
67.357597 -69.913666 -239.324982
61.707687 -69.858215 -239.788589
51.887154 -70.167030 -247.218216
60.421837 -71.653915 -240.829697
-16.722740 -73.645050 -249.741455
-83.046402 -71.683716 -248.871353
-77.268143 -70.519127 -252.949036
45.199379 -70.634216 -249.004257
-144.493973 -70.689796 -251.561356
35.715397 -71.109299 -256.008423
-92.764008 -70.083199 -252.775024
-154.869095 -68.879005 -255.693893
-142.359192 -68.657196 -254.014465
45.982433 -71.096497 -253.679428
-122.525063 -69.484924 -257.285278
-112.544861 -70.486458 -256.043884
-93.784630 -67.592087 -257.177917
-14.312199 -70.320152 -253.364273
31.183149 -70.642944 -257.783081
25.809597 -66.438995 -260.933380
-156.098923 -72.408424 -259.179932
-113.353516 -71.548294 -262.298920
-11.572354 -68.384453 -262.661987
-135.492737 -72.148689 -263.437195
-14.567842 -69.857605 -269.476807
-167.891724 -69.872559 -274.555389
-10.048977 -72.749832 -281.561798
-161.571625 -68.769272 -286.823792
-162.271118 -69.079315 -277.437225
-140.665085 -70.562004 -285.939667
-168.334717 -72.620117 -286.084442
13.758221 -69.952263 -286.834717
-102.323845 -68.797150 -288.376648
-87.531090 -69.898933 -288.270844
-167.020035 -69.822006 -287.237152
-89.298935 -70.769646 -287.765137
-149.616379 -71.667007 -285.670959
-72.662933 -70.265938 -286.871338
-67.076721 -72.467690 -289.662170
-81.156136 -68.026649 -289.516968
-4.458330 -67.199303 -291.251709
-85.255211 -70.517578 -291.712463
-99.264122 -70.626846 -292.359589
-114.102341 -69.325043 -294.132446
-116.817276 -68.937202 -293.246613
-133.243454 -69.660278 -294.627167
-144.590088 -71.197098 -301.023987
-144.688919 -70.408615 -311.246613
22.861643 -70.432930 -16.384811
30.118082 -71.656631 -18.025892
30.695389 -69.931946 -17.458410
44.955982 -70.018089 -25.033192
26.764791 -71.744286 -32.498852
-74.182732 -66.355614 -46.322845
88.703766 -67.430923 -64.906929
-14.441053 -71.515358 -68.937546
102.066101 -67.508141 -75.189491
96.380508 -73.109573 -77.749657
68.276962 -72.085136 -81.159264
68.253571 -72.938881 -82.213203
-45.305222 -70.460022 -84.511925
61.015537 -68.059357 -82.557999
-94.550949 -70.427132 -89.007584
-50.294472 -67.436531 -86.946884
-54.099117 -76.436615 -93.385887
100.255478 -71.543228 -96.154930
57.582352 -70.301834 -95.668655
65.029472 -67.177292 -92.129974
-99.120789 -66.536880 -96.391594
108.157364 -70.042305 -95.047440
46.104118 -70.231964 -98.017860
97.787186 -68.380356 -96.585136
104.599426 -69.303993 -104.129440
102.928375 -68.753860 -106.928474
73.232498 -68.897415 -101.548943
88.739548 -70.195641 -105.487854
48.709293 -72.193329 -112.314873
109.881706 -71.146858 -106.029785
45.484211 -68.998390 -107.618950
45.900593 -67.660652 -98.949219
112.258789 -67.329849 -111.238083
-77.827415 -69.712219 -111.482178
47.673595 -68.600121 -115.298439
36.878555 -66.796783 -113.231987
105.335800 -66.982979 -111.260262
42.546814 -68.654594 -109.598114
-88.148972 -69.360748 -118.026138
-94.261436 -68.459602 -116.448883
105.468712 -69.539078 -119.795235
-95.062927 -74.356850 -117.943588
40.525860 -69.663567 -123.581932
38.306507 -67.378960 -118.699387
-79.899567 -69.402069 -123.609314
31.864906 -69.274818 -135.733398
107.758247 -71.980682 -131.642776
-51.881126 -67.343544 -133.080658
-88.648521 -68.885056 -130.670441
35.783386 -69.724701 -133.036057
-92.504829 -66.393547 -134.975876
-93.755791 -69.503540 -137.771576
-47.317966 -71.317360 -138.612427
-69.605980 -70.998566 -141.853348
-51.012028 -68.893478 -133.650711
111.050621 -67.856140 -138.147141
-74.056847 -68.650650 -139.191513
34.489723 -69.506340 -132.413925
-78.506729 -72.285690 -138.556030
-76.777832 -66.342728 -134.290298
-87.944351 -69.358818 -137.242783
-53.284649 -71.734306 -148.735001
31.227446 -68.814323 -146.054367
27.542774 -67.506607 -150.793381
19.869766 -68.141861 -142.716415
114.559280 -70.005356 -146.432999
-98.211533 -69.077248 -153.282043
16.953337 -70.769211 -152.549271
-71.895836 -68.551331 -150.227142
22.718399 -67.328720 -152.133774
-47.284668 -68.287277 -157.199036
9.148469 -71.361244 -154.803757
13.117140 -69.354477 -156.272385
21.301632 -69.528534 -165.338654
-47.217609 -71.029572 -160.032425
-39.947006 -70.579903 -154.059464
-45.304665 -68.269753 -161.008392
-104.040382 -68.664932 -170.790253
23.366085 -69.723816 -170.642319
-36.475983 -69.820343 -173.261063
16.547430 -68.986481 -177.015915
-144.474792 -70.143959 -173.140305
-30.573139 -67.782791 -171.667435
-152.882080 -69.814995 -175.607986
22.663782 -69.728058 -184.237717
-31.198414 -69.610123 -173.253693
-108.312637 -68.393921 -182.418777
-107.285164 -69.056137 -182.136398
-28.459007 -68.763535 -183.804916
-20.967159 -70.486115 -183.327469
15.566072 -69.003036 -188.938721
19.304399 -69.202309 -194.602203
14.415455 -68.116196 -185.569397
-143.435226 -69.591980 -189.591095
15.705885 -69.850807 -190.767838
11.266549 -70.456413 -195.987335
-140.496765 -68.527725 -195.237015
-119.798332 -69.975861 -195.369202
13.826253 -70.738617 -199.320526
-111.303719 -70.552383 -195.929382
-108.296227 -69.481071 -191.429123
-162.724365 -69.691139 -198.519363
-24.435326 -69.418686 -200.821274
15.439405 -68.575577 -201.270462
-137.754517 -66.582542 -202.884491
-132.374603 -69.484909 -205.251648
-14.669048 -68.582474 -207.136261
-10.843998 -69.688210 -203.913834
-17.583239 -69.907425 -206.955780
-142.750122 -67.403740 -204.488235
-13.373615 -69.703125 -213.300674
-9.870076 -69.304153 -215.500717
16.089449 -65.919189 -211.368713
-10.057954 -68.171288 -211.411667
12.525499 -69.803780 -210.486343
-8.777162 -66.560356 -214.969162
-16.361004 -69.740791 -212.859863
14.180845 -68.824196 -221.668411
-1.752743 -69.204666 -221.634109
11.753231 -68.416779 -222.753616
-4.343035 -70.362152 -223.628433
-155.475616 -69.222328 -224.025131
80.130699 -69.420372 -224.039688
-135.725571 -69.967918 -225.793503
-133.934830 -70.148285 -225.815491
-9.335763 -69.096466 -224.192947
10.997248 -69.153687 -230.946625
-154.146591 -71.034195 -223.542648
87.864594 -68.604584 -219.256638
-2.025398 -68.753868 -226.242126
0.897561 -70.063934 -226.651321
74.481857 -70.717308 -226.042816
2.618188 -67.520828 -232.662140
-16.962965 -72.521507 -230.541794
-123.709908 -70.482521 -234.651169
-3.604056 -69.798149 -235.005981
3.811679 -67.902992 -235.841232
67.222267 -69.362267 -238.851822
-160.326508 -67.801781 -240.691422
-11.531830 -69.669952 -242.191101
-166.078415 -69.158394 -238.644943
10.409111 -71.291786 -245.320190
-166.072784 -68.415581 -239.309189
-162.107498 -67.209259 -245.502289
54.128208 -68.586418 -247.910599
65.351967 -70.073090 -244.538986
57.795849 -71.422569 -242.341476
52.349518 -68.091805 -248.446594
-159.909332 -68.769829 -244.586411
-156.099686 -71.276474 -251.102020
-12.895128 -68.245209 -250.400909
-153.463699 -69.701416 -247.219482
22.405497 -72.095688 -252.090866
-167.250076 -70.865128 -251.473007
-165.880554 -68.789581 -243.290924
-82.720833 -67.906471 -251.976654
-166.496460 -69.999306 -262.155609
-86.493584 -69.317978 -252.939301
42.956936 -68.832672 -252.812134
23.676933 -73.166374 -255.009842
-158.176224 -68.892876 -258.867371
-99.488144 -68.235840 -255.690338
38.220726 -69.371246 -255.661652
-101.125664 -71.485069 -258.889648
-105.590637 -68.169556 -259.889038
-164.739822 -66.691238 -259.573578
-111.694565 -71.360168 -262.906616
-153.109879 -71.650520 -264.557739
-156.838455 -70.165642 -264.901184
-164.622711 -68.930435 -262.485413
-163.458359 -67.868698 -261.702942
-167.374252 -68.585533 -265.474213
-161.569656 -69.880096 -268.223389
25.852455 -70.771797 -263.570801
-153.362411 -70.174461 -265.816376
-147.519730 -67.950172 -281.379913
18.903477 -71.389252 -279.186432
-8.574971 -68.835281 -274.040314
-126.795807 -69.283829 -283.845398
-136.991684 -69.613670 -285.661530
-135.668411 -68.554474 -287.353180
-124.565231 -69.957123 -284.289490
-115.626175 -69.220322 -286.772827
-107.290154 -68.928741 -288.176971
9.890427 -69.426956 -287.932556
-87.265022 -69.535667 -289.707458
-149.347916 -70.558891 -290.419006
-100.607903 -68.891052 -290.895020
-124.505447 -68.070496 -290.249603
9.284331 -71.714478 -290.562195
-113.014275 -68.530037 -291.116302
1.711428 -69.351616 -291.736420
-145.155579 -67.400208 -291.350037
-154.512405 -69.510231 -297.401581
-156.689651 -71.756065 -310.842255
-153.920364 -71.288605 -313.931366
47.792065 -69.986610 -24.520027
19.521246 -68.485703 -33.559036
36.725105 -71.231995 -37.084351
-48.459496 -71.166367 -48.110985
-14.549564 -70.938896 -61.949322
93.200340 -70.446167 -69.504959
71.002090 -68.103806 -71.997238
-21.965485 -70.928802 -71.784081
-93.334724 -72.063766 -81.438087
-42.372864 -71.652855 -80.070076
67.080315 -67.554230 -81.887466
60.714767 -69.738831 -87.769539
55.086082 -69.400246 -88.175491
-57.969307 -67.715179 -90.747070
65.729591 -68.568336 -88.837921
45.782032 -70.902039 -97.862007
68.353607 -69.130470 -95.446144
-65.550896 -69.256317 -92.795624
47.200016 -72.173172 -95.069595
45.873917 -70.209084 -100.885338
102.272827 -69.855743 -97.593140
-69.943718 -69.104324 -100.160378
111.192574 -68.673584 -102.119400
-79.189598 -66.945091 -100.631699
55.072800 -73.723877 -103.567719
47.208096 -69.172363 -100.038414
93.228935 -71.321220 -104.994301
52.323315 -68.572266 -104.980858
-74.073143 -70.300728 -108.367508
-74.221603 -68.199387 -111.613556
-79.898453 -71.815247 -118.435593
-90.099548 -70.918983 -119.297806
106.165550 -68.354988 -113.756210
-85.901779 -69.750496 -120.986122
-78.295189 -68.040581 -121.752846
109.257004 -67.031349 -116.875275
113.433121 -68.525177 -131.741348
109.971382 -67.944931 -129.619324
109.340012 -68.001610 -121.492188
-92.892357 -67.446739 -138.161743
-49.461300 -69.051422 -141.432495
-75.193352 -69.552208 -144.836853
-69.065445 -71.026619 -147.510605
-72.408607 -66.330269 -144.341782
-54.871048 -66.042450 -143.419540
-49.421192 -68.013123 -147.963669
18.853539 -69.396355 -145.512894
-94.183502 -69.999130 -146.203568
-44.470848 -67.715218 -147.490631
-53.571754 -66.992287 -150.300903
-41.172058 -68.226471 -156.592545
27.907434 -69.397697 -165.748215
-47.884510 -69.500359 -149.980896
-99.266586 -66.707710 -150.332901
-42.912647 -65.156349 -160.675552
26.709793 -67.726936 -149.817581
-101.054993 -69.653893 -162.481430
22.711439 -68.659386 -156.888199
-106.616943 -67.295341 -170.286606
-99.554955 -66.733925 -163.600372
22.402853 -68.051208 -164.820862
25.848751 -66.903152 -167.971817
-103.634880 -67.682976 -172.418152
-142.603607 -70.064842 -176.283707
-23.163910 -68.698242 -188.265060
-26.213346 -68.167664 -181.803787
-111.785500 -68.068359 -186.347855
-105.313614 -68.549347 -181.990982
-155.647751 -68.238602 -193.658813
-130.605530 -70.427063 -196.067337
-132.715851 -71.613159 -195.495102
-18.903265 -68.013451 -190.780426
-121.642693 -68.970993 -195.163345
-114.290672 -66.526520 -196.674332
-24.235695 -65.497414 -196.689255
-155.458069 -67.003647 -203.156708
-131.353348 -71.177025 -205.920685
-123.816513 -68.250748 -203.668091
18.153183 -66.639969 -201.628677
8.189813 -70.329575 -214.685455
12.291009 -67.481842 -214.940079
-18.960394 -66.556725 -204.912888
-5.881490 -68.985634 -216.579285
-165.238113 -66.055519 -209.349579
-156.943695 -68.435333 -215.437897
-91.889099 -68.307571 -217.185242
-101.421158 -68.390610 -224.413544
-160.670853 -64.795372 -224.769211
-103.760834 -69.897903 -218.064590
-12.911866 -69.244934 -218.597290
-124.661964 -69.448395 -224.147186
-141.386932 -71.917473 -224.677521
-3.555400 -68.658524 -221.092560
-135.275131 -67.136551 -225.624557
-125.013817 -68.744255 -223.846268
-114.889893 -67.055367 -227.504578
3.483988 -68.425598 -224.701843
-106.320435 -70.531792 -227.714767
-157.100235 -65.194077 -224.585663
-147.823074 -69.560730 -227.819626
-165.226273 -67.831001 -224.761963
-8.608569 -70.034706 -227.471497
-8.155513 -66.042274 -230.880356
78.574242 -68.489182 -226.213089
1.880956 -66.519356 -230.859116
-142.394730 -68.115524 -232.608658
-11.745429 -69.277519 -228.970917
72.576401 -69.444450 -227.811111
75.101067 -70.166489 -233.924011
-134.992401 -70.097847 -232.024490
-158.297531 -68.890488 -227.714935
-112.519913 -67.730362 -233.334579
-122.996498 -65.399895 -233.937653
-165.768524 -65.119858 -234.904938
-161.318451 -68.056831 -236.119766
-144.375732 -70.258575 -236.268295
-7.752180 -70.258995 -236.467102
-3.916522 -68.863075 -238.438293
-158.823303 -68.372177 -238.526108
3.160301 -70.121735 -239.930206
5.333076 -67.093903 -234.033569
-159.775375 -67.621620 -240.968582
13.735853 -72.151558 -242.813599
51.428844 -71.112846 -243.928513
51.275578 -68.587402 -246.450714
-15.696396 -71.048882 -246.974136
52.287365 -66.137222 -249.407013
-163.253067 -68.313416 -252.545761
-161.440338 -66.096680 -249.830872
-158.471817 -68.058495 -249.326782
51.627689 -68.734108 -248.175980
-88.191261 -69.562019 -252.119080
-125.282410 -69.256607 -253.679062
-105.399277 -70.729584 -256.519073
28.623199 -69.404396 -260.544525
43.201618 -69.057381 -251.572174
-102.013420 -66.064728 -255.286179
-93.031113 -65.899651 -256.117188
46.142490 -67.753731 -253.800247
43.250462 -68.739983 -255.955734
-155.561691 -69.938637 -258.568146
32.970257 -69.419144 -258.946594
-141.999878 -69.406006 -262.079407
-113.422874 -65.202248 -260.075348
-133.414536 -70.369995 -263.836792
28.920189 -70.231117 -264.417145
-126.185188 -66.099762 -264.779724
-11.483050 -65.026039 -260.479462
25.125462 -71.642120 -270.283783
-8.702749 -67.427177 -267.204681
20.922119 -68.858810 -280.411163
-150.855362 -68.673935 -283.649902
-10.293567 -68.478996 -280.926147
-152.493958 -68.951660 -286.687866
-126.013443 -69.507393 -283.735565
-154.477341 -70.631149 -288.073242
-111.465973 -70.140785 -286.758606
-105.437714 -68.035103 -288.830566
-7.826670 -67.984154 -286.038879
-110.568062 -68.746811 -290.953949
-116.882042 -65.818062 -288.413788
-115.997520 -68.261711 -289.427765
-135.415421 -67.158722 -290.179993
-123.658440 -69.293503 -291.759674
-157.462448 -70.601013 -289.831848
-145.912201 -70.201210 -295.905243
-151.957474 -70.052628 -299.691498
-153.070267 -67.640213 -311.604736
-156.654922 -68.704269 -300.724091
-144.289734 -71.658844 -312.023712
37.484203 -70.032730 -13.793452
42.076328 -72.927391 -16.523237
49.775471 -69.895844 -30.850010
31.250059 -72.055298 -34.678616
35.772369 -69.674042 -37.267639
-58.485073 -68.856857 -44.721943
85.131752 -68.699593 -63.572590
80.453949 -70.461159 -67.930038
-92.113235 -69.367699 -59.577923
-12.981647 -66.072563 -64.195244
-92.792801 -69.080200 -67.334572
94.690033 -68.834595 -70.316307
70.166496 -67.276413 -75.738174
-37.026928 -69.768745 -77.292168
-28.761890 -74.410645 -77.580254
57.393147 -72.162682 -87.230476
-45.576767 -77.358192 -86.319580
54.898922 -72.425568 -88.826576
50.830978 -70.563469 -90.208099
61.968788 -67.195320 -91.773926
59.985481 -69.457291 -94.290588
102.072861 -68.227158 -96.582581
103.402023 -66.161385 -94.268570
58.966011 -68.749207 -94.520119
-73.214180 -67.831230 -99.276825
101.215485 -65.950653 -99.791451
55.341881 -67.323151 -99.451050
71.443481 -68.067924 -100.264549
-73.544388 -68.910423 -106.525108
-84.913338 -66.707787 -106.170929
94.503448 -67.675766 -104.375320
45.448456 -66.878174 -107.645981
102.859566 -66.497398 -99.909134
46.511166 -67.875015 -115.085075
108.352539 -66.979286 -106.702995
-84.321373 -63.786339 -119.157227
-58.639080 -70.072655 -128.694382
-72.935608 -67.471054 -128.787247
-51.157169 -68.917427 -128.428467
-84.884354 -67.160156 -131.803421
-76.166695 -67.768288 -135.934631
-83.325417 -67.475494 -128.435394
-56.781754 -71.228973 -142.131729
-63.937904 -69.639572 -138.487106
23.262192 -66.617874 -139.426010
-91.757004 -67.036064 -144.342865
-46.536594 -67.004677 -141.947861
-98.391327 -68.517487 -152.596817
20.124725 -68.169304 -152.580872
14.974577 -68.054810 -156.444092
-97.591446 -67.871132 -156.824844
-102.539185 -66.857285 -156.980057
-103.052773 -67.531029 -169.537323
21.930889 -65.420227 -170.174759
-108.312836 -66.645523 -171.847549
21.953814 -67.666931 -167.856003
-146.956375 -66.538292 -175.821808
18.359964 -67.867508 -177.049164
23.011805 -66.942795 -183.942978
-152.894745 -65.950699 -188.240189
-142.938126 -69.784714 -184.771500
-154.978928 -67.211510 -188.990295
