# This PCD file was generated using the MATLAB® pcwrite function
# from Computer Vision Toolbox®.
# .PCD v.7 - Point Cloud Data file format
VERSION .7
FIELDS x y z
SIZE 8 8 8
TYPE F F F
COUNT 1 1 1
WIDTH 785
HEIGHT 1
VIEWPOINT 0 0 0 1 0 0 0
POINTS 785
DATA ascii
-11.826631931190720 -67.926036497515696 -255.997614699986968
-124.220583191061607 -67.898720784105492 -255.435552354211097
-105.193806549429581 -70.330539694620057 -256.224338216673914
-91.862979795065513 -69.655734024259914 -256.078305880975734
30.779278503575306 -64.931578601641178 -256.776716743690145
41.331305656293104 -68.496436706204605 -251.449534135686520
-100.831297381426324 -65.146228941647877 -254.645862649937158
-117.380203822744875 -67.632804986219384 -257.616181212843401
-93.939122501477499 -67.967913899386559 -257.742230752372052
-97.184345670933013 -65.618423577769306 -259.318456665029089
32.227250128723171 -67.544776255064477 -258.355204486024945
43.901987402073317 -68.210013642965379 -253.811190696684150
-123.601735268771947 -69.451380685478270 -257.778003617868080
41.242130335149646 -68.805667415630879 -256.750182686251890
25.057756877731997 -70.461272028444171 -257.883464882763576
-157.260959264640690 -69.171770465939218 -257.141695469227159
34.584179206944690 -66.149405051634034 -259.518504550697514
34.332686547921860 -65.376814599408021 -262.023784764293680
-143.262262667373250 -68.385468600929514 -263.843039036183370
-138.660489845426639 -67.882334864812549 -261.444776919916194
-112.566328210543091 -67.100355817686989 -262.499258127461758
-112.143132335331757 -68.748460200674657 -260.813815851641039
-133.893738808033163 -69.751606145902798 -263.733342236590829
33.125625767155086 -67.719059483474510 -263.471171549463122
-8.032529768023236 -70.363949492726945 -260.659979503580814
-134.612548179514619 -69.500878946540396 -265.244906264795645
-124.424430104047900 -68.265362646529212 -266.057422881258447
-8.687009952584507 -69.074404544206004 -264.322502050743708
24.425042033701857 -68.978910615998984 -266.969336021054005
-8.464371388333491 -67.326242914084986 -269.696957094757067
-6.713648962123938 -69.267456087961932 -270.918944577794036
-150.555181269713017 -65.611437705586169 -265.006866304736377
-7.636101020614412 -69.989755297754755 -281.920213854314056
20.294668887657814 -71.299587695619167 -278.720361047395613
-150.223343101518196 -68.010442005901595 -282.033299075683544
-9.877301655315284 -68.711138382167263 -279.776519972704364
-153.564685622301170 -70.970123915930330 -284.655932195066100
-133.281078626434862 -68.732203653550556 -287.879318042181353
-124.470522039375396 -68.336997395329448 -283.753507268431463
-152.159645682094606 -71.364045739427240 -286.136829547398520
-116.016155502822144 -67.899543380776976 -287.067675918564703
-108.421022078306223 -66.038048830936006 -290.714610860554501
-113.484502991337365 -65.752257131704695 -288.586263679473063
-4.646548113193001 -66.285811337319373 -287.252597397874808
-3.352701091345153 -67.112311521481203 -290.691689133805028
-134.968420213555959 -66.013356716933643 -286.949463723451288
-111.089739658733407 -65.940997117099343 -291.215678351042698
-158.007614639645141 -69.677148909436440 -289.430631547167820
10.526990937493377 -72.043889907795887 -289.354381163040671
-141.857680394010970 -66.202750960832745 -291.198145876881597
-112.571949571414478 -68.653423795085189 -288.382340646762998
-114.969599734759399 -67.266501261834293 -293.079040626628625
-135.118329585883686 -63.244044163833628 -290.784665533385066
-125.222393158863198 -69.965161166500465 -292.603268881248653
6.206502787905606 -66.829569705674345 -292.680878029456210
-156.598167201169730 -70.070913411203222 -290.962909185138699
-134.380339046589540 -66.825421635180518 -294.075794857520862
-146.266428199675374 -66.682970553253455 -294.296098052098841
-149.849846705055285 -69.758823153153244 -296.015191231453628
-151.385952128926931 -67.222882597999970 -301.632966942274265
-151.187224759931979 -65.665725704616037 -308.794098744840426
-154.346892367893986 -71.357304052014840 -305.697123619045328
-144.857181202088725 -68.333837214959431 -311.870791165650530
-151.269025854436393 -68.113368040441841 -315.064416017964788
37.897775960673876 -67.414334280044187 -12.403714502134378
40.749127209915159 -67.019950921452732 -11.621006542970321
40.234580175885981 -68.170942555134502 -15.421383615882380
29.071819606841053 -70.150809364260127 -17.755278399783688
50.360112110060470 -68.161139183705757 -23.060372020498804
26.899442988243536 -66.624186328449582 -25.193809123449505
50.370131635459863 -67.142474735924992 -29.211306896116696
41.406008689479428 -61.524410428243904 -33.675083424185779
27.861422405765222 -64.753496355297401 -34.940759897133226
36.566746821835963 -68.349911125655225 -38.440990151551183
-66.138382280956108 -66.661773630297034 -43.609795187093873
-58.013156113388327 -64.854005281826616 -44.432281206384332
-42.589788575719730 -67.479015688618389 -47.016847695506556
-76.636819155009192 -65.916037515304652 -46.780868712749928
-21.632249103660271 -66.299816533800765 -53.513879220490928
-16.498790694908699 -64.044330994171943 -54.908406052260410
85.443012965935964 -67.324589538299549 -63.233038463045766
78.315857541979895 -65.350319272190177 -64.432991399596062
74.021492863953554 -66.077663431575047 -62.538041448223460
-92.081662308931030 -64.379719862251164 -60.899591074947516
-12.322240424861144 -67.331354252085745 -64.647889619220365
-91.441322239009935 -66.610537653134088 -67.742392604166014
74.614428340775476 -63.208842938184738 -67.458354139473187
-12.753955083422193 -66.735342931080098 -66.720555678583054
96.733574704381198 -67.618124142552915 -70.727739866844217
-16.722556236349178 -66.484132153908376 -71.132916987192260
100.438044189275047 -67.750965418368807 -70.145573871632763
-23.097709474552122 -66.341313693528875 -74.465568680568822
-94.194190932060934 -67.987903773377013 -71.368589349636693
67.653290810793735 -68.646453375883752 -74.465164251755539
-37.908397958865869 -67.669236855327270 -76.479813968316392
-28.712164296228156 -68.872317138684863 -78.656552499779963
66.145768750951902 -62.776550343724054 -79.621955985021373
59.556096814949768 -67.564722509994127 -84.228204415988415
65.808907591057235 -66.571120626235782 -82.236350952976977
-98.255236920575513 -63.876453352170486 -86.574051694655708
-49.707376561489490 -68.580362057081871 -86.949633516359114
-47.769058149351167 -69.049446368357508 -86.749010291144316
66.250192565977898 -66.732156372281182 -86.725559107609087
53.755054311470523 -64.286306427005869 -85.807285564195780
101.063747242889249 -67.737544343586620 -86.690690880691648
103.697951114715806 -66.349338175605254 -87.305625116373335
50.566787786409741 -67.036289576707063 -91.991485066506243
53.812174253347415 -66.735811911835214 -90.900466825926429
61.396226471104328 -68.446246831128164 -91.061753887137769
63.173716216461379 -64.494038379107636 -91.245571665038540
103.709753896786140 -69.395765395899232 -90.890027067025358
58.141626750087937 -63.670141897268429 -93.087033685458721
102.402976760029446 -66.777143181071096 -95.873410774823725
105.950485323237004 -67.192466969387695 -98.856815222232882
60.160541043951476 -65.669267219261158 -96.528361934302609
101.872599667753263 -69.928802191085325 -95.735407344855105
107.847995288227025 -68.325527870658576 -96.820313029313326
58.981787404094270 -69.193409310375017 -99.988707992738114
-72.951228467385874 -67.448035601136937 -100.794942667787097
68.021159756593477 -69.035047471343262 -97.988692765787590
-74.440965352967467 -62.267002064981249 -99.715292856075564
101.295374926638942 -65.634961279920276 -95.576060031698404
52.709089561387714 -67.959592692521952 -100.214268725883613
71.002588017571412 -66.077668659439965 -102.753929750200911
42.923011312279002 -67.538284962609865 -99.215752882732232
-69.398587583553265 -66.696447433033768 -103.407838715322441
-70.450450897226474 -65.447404127481633 -99.672747597999575
105.723236248763655 -65.912639729043505 -104.029079703103491
-81.782208021305408 -67.875898359657327 -103.857861164886941
-75.960647488435583 -66.128022323363410 -105.865072998079768
53.819512191815797 -66.566529183025409 -101.317926221462386
83.261135903881680 -64.651199752847063 -103.905743394236339
106.029937747267653 -66.015714680927815 -101.212168569315992
95.096140690845772 -64.055484262146535 -104.964477034929502
42.642206309655201 -65.777765330736003 -105.664137027063788
105.427312533683860 -67.518613886423012 -102.780682936787542
48.811886429428640 -65.461328521940814 -104.515950552742083
44.508991072276700 -66.678992098789848 -110.906313086280903
48.644803379133656 -67.017544636648722 -107.788782447294409
108.720753407371518 -66.813613092301097 -105.967984713114419
110.653447197424796 -67.487703855485705 -114.026415507556834
-74.017975215797946 -68.421557360063446 -112.550974014732134
-78.224449460013133 -63.389822342777656 -109.109897193582270
109.848988960370846 -64.754761396098061 -110.638542139906860
-89.740635534170650 -66.588192959944507 -112.720768774431519
-89.329165127399136 -64.788439397765444 -119.330453966424955
-76.261268194544996 -65.377330461866379 -120.704216430874624
-86.578835663145313 -66.643454198662326 -122.659615096545679
-79.144519053563428 -66.235373591443278 -126.015849213833718
-59.909011967226824 -66.880631975331838 -129.063418199165199
-54.992566279435650 -67.305620506988120 -124.910179195125750
-90.149510424256320 -68.552318981462335 -126.071030158945973
-73.396895291452651 -67.229557110950338 -131.189601311717922
-51.614823311427521 -69.772837610867143 -132.590237120928919
-75.721553272024167 -66.177853265049862 -132.805764089367585
-82.867577584991338 -66.302061898142853 -130.715681172031282
-61.089769015927018 -66.492005157631027 -130.964371215907931
-79.062215411223519 -67.207550050551163 -133.566707200685670
-78.343642105128225 -68.088230932911856 -134.450388599840778
-81.151453649169753 -67.067996060598716 -134.308934514118363
-58.975169848880320 -65.154388804202469 -134.085976514855531
-57.108378058721591 -67.637337514845242 -137.305374778646183
-78.475540031569068 -65.603250576416158 -139.722565527062102
-73.245324391176979 -64.117430110719852 -134.566052973429862
-58.653349250957618 -64.414724970733118 -139.460951021951189
-59.501109618640122 -67.853030693305001 -140.128486558841530
-51.104616333056647 -64.825444031231470 -138.417161041788006
-58.493615831060616 -66.408097017628137 -144.457025727815733
-50.819926220430318 -67.542511033548479 -141.071947220160695
-95.466344055990533 -64.690249852306408 -144.680714162315155
20.129408562916382 -66.186595999872836 -141.992726518908626
23.955415035298916 -65.058618051274294 -145.198496688124635
-90.624412515366743 -66.061293609655351 -144.263897382159684
-44.001237252731919 -65.855252033754752 -144.927682207573241
-54.247515918776969 -66.474043690508566 -145.350668729528394
23.520263575480708 -66.185364742542603 -146.973666299969096
-96.979366965789097 -66.787982677742434 -146.513919111518163
19.936519342968932 -68.189691839274374 -151.533935520988962
-98.602231320096379 -65.163128228084972 -152.972596637999118
9.545215083138419 -67.955838109384516 -153.361557889727948
16.769519908474098 -66.653668604219732 -153.304622405819117
18.809589501234445 -71.276847183493160 -153.340042246100438
12.272973607499249 -66.489255602385796 -155.924828739921281
-91.836173151897043 -66.208288964383115 -151.079557013956332
-96.811647654605551 -66.271867387332975 -159.145760213425689
-105.483739799318528 -66.044515366900313 -163.543958838159938
-106.080629235057458 -65.944019473103467 -168.210868189322895
-100.631257535830173 -66.669169213568267 -169.471865767849607
23.173387401899681 -64.443628089285767 -171.106584699043850
25.274792912553760 -68.790906383253272 -167.887347946576369
-100.243353857121164 -64.898688700360751 -171.767039248057046
-146.453525725208294 -67.140826701165707 -177.382773236117629
-109.513086726366524 -65.290588238818756 -173.660663974921562
-148.338895771417640 -70.440136467846017 -177.744836415083569
-145.733825661560672 -64.998687585270460 -176.422005148925507
20.548120486650269 -69.112860705544264 -172.119356270340148
-146.964606026284969 -67.429885124141720 -177.997128041928420
-144.654979392740131 -67.617704037228563 -176.007400459140712
-147.461477647685427 -67.581808320957620 -178.593560250935553
22.941952539985937 -66.027845585977261 -182.560773601446243
18.650029778585271 -65.911595251307588 -180.663807303137190
22.333867552131952 -66.126847251194235 -178.240344214914813
23.390384775151535 -69.597384083914775 -187.759050945210902
-152.754919731561870 -65.343164873686504 -186.007507853837694
21.403328620077790 -66.506403815947166 -177.683390153565426
19.348953703737525 -67.287438835082526 -176.827011211878528
-140.482121710749851 -68.722377220657506 -185.503740188486148
-111.827631955669219 -66.949206153812582 -188.845087784759841
-153.018080165158153 -66.714519364058845 -187.850106522440882
21.360297576815711 -65.960325524703691 -187.393669308181899
16.923159886114991 -64.199027679524903 -188.412968272195229
17.031645199393100 -67.073148275129697 -196.594257897079643
-143.092679155825323 -68.931177283095252 -194.853986409300489
-107.621883863411071 -69.086348281439385 -195.119795002480032
19.194622476254207 -69.087022513467801 -191.506668818931132
20.654294445809882 -66.985322661079337 -197.915616282828182
-130.647107281275311 -67.869408444967377 -193.595922282128271
-124.653994092478897 -66.563161637060745 -196.300188902831991
14.001469293797749 -68.177552554911770 -194.535299068761475
-154.220521730891448 -65.602444320419281 -193.889864116434723
-141.456294976344168 -71.191810667059158 -194.453354418537202
-134.484061079945832 -67.305751119964413 -196.771965599387897
-157.053336474783777 -64.330495870848850 -195.622876563026921
-163.859531032349622 -68.233824316832312 -196.580682635465280
-162.328533040457501 -67.670792945936284 -200.244415609576066
-109.454085431260935 -66.527349234962230 -196.662322462443285
-20.087178229586133 -66.762959739023245 -199.463390655395273
16.774529012574423 -67.055212329908741 -198.814531437403474
-164.896158649109282 -67.428372640896470 -202.264692557414747
-20.669384357840070 -67.549515455073177 -196.240507732530602
-154.669278920273456 -65.883617951140963 -202.522568996663324
-16.073981159798162 -68.517156168469612 -200.668523717764998
15.383713728074479 -66.099459513207734 -196.387696606802223
-158.218294373404319 -66.479740084132686 -200.655802548717588
-147.263069996861276 -66.057938272472853 -200.985636170343753
-110.013337469207798 -65.872507285954669 -201.222834022020123
-138.248828509227110 -66.395570688993573 -203.087762598170514
-20.043934824298997 -67.388062263697577 -202.053313577136009
-159.567827663786744 -67.045064236712946 -202.141770869600151
-150.441819704761940 -64.845791069763195 -207.099249882654590
-134.538722362864718 -67.749437299703374 -202.401828751952223
13.974417114934832 -65.597502307672414 -202.792601836584083
-163.491043379340908 -67.858605862690183 -201.077134989707133
-123.373008348912137 -64.733159144716893 -204.067091801201116
-115.249969255059611 -65.883144083702319 -203.635861214566404
-121.608470784656703 -64.435088445749088 -206.722568830329493
-15.680155232101415 -63.734795457980375 -204.808142868582678
-16.424695810029309 -66.491304829967831 -209.114938328473642
-13.209579348699025 -67.005899834204982 -205.342768131367563
-143.698025578466144 -66.053710142183462 -209.915728042748526
-164.773061106721514 -65.904090908087767 -207.537418541408357
-148.812716695314407 -65.114705367100470 -207.862418329721407
-9.322488026598910 -68.236062201342477 -211.751673285748495
-162.900250429135838 -67.776154928483024 -209.000223056416814
-12.645386264161237 -68.901106912457237 -209.217837778418357
-164.214776648274523 -65.373437099242764 -210.843507432603758
-161.295941651575333 -65.765517430936583 -217.373653608181741
-165.312151854515605 -63.820107525928847 -216.758043075497454
-143.716363584740662 -66.167152660012690 -217.097961558810880
-11.431273806801423 -67.072637053889466 -216.443934934819850
-7.022056132657679 -66.321214657206511 -215.815965129329527
-143.561634753740009 -68.200716060491530 -225.035435804654895
-103.096614707816002 -67.705170364060294 -222.398952703820697
-5.663855887355186 -66.982543247617372 -222.202344632427980
-6.257379637134218 -67.402543504761965 -219.094268192414802
-99.992013250930867 -66.730223646733521 -221.301735019320404
-161.126278433666897 -70.324928003502563 -224.683687350508052
-124.355004542449905 -65.146785712197286 -224.238854932463539
-102.505744877989102 -69.992295732034421 -228.683276079487712
-5.635888659301159 -66.005473228996891 -224.906884681632476
-134.885379207275946 -65.858195769122588 -227.511170782317635
-165.421195896598078 -66.487221496860968 -226.318903662014037
-109.093533412963083 -64.927582754389491 -228.303722024001445
-103.883009569928873 -66.473549189380833 -225.959047294390814
-162.169279878927682 -66.204544641487502 -226.039326423550932
-108.877840459237220 -64.036038661065604 -230.224525990140194
-0.993239172036823 -66.540426016081625 -227.419862539529845
2.952855960055365 -66.677676695513568 -225.683633773883656
5.959682159588133 -67.385466526370706 -228.868927974344842
-109.422518957986625 -67.335008157625140 -233.050510740250843
7.901534727800763 -68.686437486399257 -233.638521120067480
1.276267873410878 -63.509375559147500 -232.356818410056434
-4.754138575066289 -65.776781091423942 -234.862602738182204
2.148091914204157 -66.569128275472494 -233.354315000884696
-116.980205292416358 -68.898734752185334 -234.958873253518362
-115.657827633236025 -64.903753310215521 -234.549649962872081
-3.807081961202871 -65.476164350303364 -235.033100354813257
-127.571267473930632 -69.583796914122729 -235.043421783647943
-8.745725265387955 -66.381071327784596 -235.800368528451287
-3.251790330797240 -67.485961225644488 -235.789019244020665
1.645475561759715 -65.715566134892825 -235.240366436992758
68.139808923784329 -67.709611198191112 -236.832953797472811
-6.085769756664331 -65.411869358569120 -235.834579104049709
72.996375855857337 -65.211710853933326 -235.608927623036209
4.765605722166494 -66.929635870694810 -238.137169429676987
-14.970141843096171 -69.478412513393451 -237.987939995499715
4.613285247184423 -66.749492901646846 -239.076262584211406
10.540176368752434 -65.989970643441708 -236.763569550276742
8.739235084910739 -67.012660711311113 -236.507546477453388
10.341542278076455 -68.383074903533469 -239.028119691840942
0.318912948908512 -66.014508220886057 -240.389072581672195
66.268050052448800 -65.611040956778069 -240.101811104574381
65.126960090481049 -67.334806813214527 -243.068791007815662
11.188357435164601 -70.089597068351964 -242.178798225878836
67.130727695934794 -68.654754235471515 -240.409716987245218
57.656825472280488 -66.857961065619349 -241.871981378703623
50.014141758300106 -67.288155451061783 -243.509674521177260
50.109720449332627 -67.719697267687579 -247.635883656448186
40.143845672434857 -67.747152173900602 -250.469341659309237
47.773904146264726 -68.297416203498784 -251.551020304198630
52.745750981432344 -67.253714119695388 -253.472946337307178
32.916530650738736 -65.437081608083133 -254.900108255446980
-12.313301699510774 -66.769679648499931 -251.932922237215166
41.926193317887837 -66.856740329450446 -252.022364743005028
-153.387449280374483 -70.400396827031017 -255.971246367306321
-130.485728112846601 -68.643585075669066 -254.153053154236773
-11.656623263607290 -69.306440761329355 -251.175842551211190
28.066799268861210 -66.303852824904837 -257.021046266370377
41.608352904578176 -67.590259546198311 -253.420231781726898
-115.789801765659817 -66.889190030520922 -258.333033133945094
23.536130105395429 -66.725139373498607 -256.161897259726231
-112.709710320506062 -68.232654624285487 -258.912095299476277
-99.423470247473489 -68.144466714306049 -258.611430846905762
35.339569114862435 -66.178458673696724 -257.957061187309421
43.451122365127837 -66.271001364120806 -259.023095656992894
-148.342374002283321 -68.264623948030362 -257.847146975660337
-113.778745724220201 -65.734113559141775 -257.576567708341088
-104.237413998305271 -66.558883787848799 -256.899012754674857
-100.640589925029218 -68.953225231893825 -261.229571110666598
-6.306401076062517 -66.737942738548767 -261.183105041794704
-146.781339545314353 -70.296735484559932 -257.916227969967395
34.945350916579734 -64.978281945365566 -260.140142500999787
-113.403498689297365 -64.865780305895925 -261.075877908468840
-106.166743478518541 -67.573933119239626 -258.254416795451789
41.441986798230140 -68.728822288113946 -259.812782468510193
-115.701463394786714 -65.282070540822318 -262.960075107521163
-105.047007764612147 -66.584457120250036 -260.987892966408651
27.346809427782592 -66.832632905203525 -260.648222016532031
31.013578294179496 -68.587805665412716 -258.974799136503236
-147.854114097570005 -68.000003691158639 -260.444478524508895
-134.515116916048129 -65.722771046238080 -259.580860610585489
-113.386709287561402 -65.845498353391932 -259.139349516631967
-110.448153194762114 -65.534802451465509 -263.403672190925590
-115.616666393274855 -66.013322316201027 -261.810323213825939
-134.164535236844671 -69.069453260777550 -263.067032699799711
29.077597193535421 -67.098412601284068 -262.382895030407326
-142.999211086974213 -68.534082839189580 -262.990976434946276
-125.452569975709622 -65.748470666271942 -266.140066351105816
-130.747571652584043 -69.903685283489665 -266.942077645934035
-115.967173379110761 -67.533271024043358 -263.552837966610753
-4.038370342847176 -66.543409402736444 -266.945044935216799
-142.760035933701261 -71.424518379257805 -265.849964925269944
-4.427811518898016 -66.990838788224437 -263.504483476578400
-6.519721256491375 -66.655174258393473 -271.212985888145397
-3.529095714549337 -67.322242991552272 -270.105697270438554
-150.067007701319596 -66.315669840831845 -276.713166235397580
22.703358881380158 -68.132344828219956 -272.179331364088966
-151.494832320736634 -66.319282578744904 -282.334553019077475
-144.559738697216687 -70.881841448488402 -282.660350190065685
-7.053049886385555 -66.394957375518700 -283.973189073447145
-3.788666592024543 -67.758167999811775 -285.818639356276321
15.134945079522664 -65.993242967359521 -289.120400199987614
-132.046825485894942 -69.414355226852138 -284.907968241886238
-127.368534400767842 -66.504923871437441 -284.876488915911750
-133.624211585347496 -67.444242655296108 -286.161204664522586
-6.284358052696861 -66.002077178277119 -288.912076900161026
-135.274265789600889 -67.647952343533760 -286.089769157685566
-121.738369147789200 -65.791915251663113 -289.048916880281240
-114.216919595163830 -67.408134774872110 -288.739354990831544
-115.880850070730773 -68.497551133101524 -290.125772361492920
13.563852419482641 -64.067055950289799 -290.444732917899614
-135.849569681025145 -67.553655989074045 -295.083847181979365
-1.657418162759975 -67.311690905971830 -291.776773192098688
-129.139903779941477 -71.236513205009174 -293.270504339183049
-124.983086435964495 -68.584856389329502 -293.793207410163404
-151.318128414041439 -67.077977456143188 -298.527078083771357
-151.336080199272715 -66.439106336139076 -300.119568051083832
-145.760225696883197 -67.468228978092256 -300.187087283837911
-151.808403319912173 -66.035574099167434 -303.682370599983358
-143.805348669143456 -67.083855258214342 -301.137127096580059
-151.691625703775657 -68.951503297792456 -308.458556742333712
-147.434532523726205 -68.402772533255799 -301.796829465774238
-145.339395424037633 -68.872223821351241 -306.328600689538291
-147.581515620405952 -68.567915579345737 -309.516755459372973
-152.547242327822062 -67.558881031854753 -309.543160310657072
-148.411967851326551 -65.512976336749233 -312.076665474387198
-147.442964630717853 -69.413296310899412 -314.379709577372012
46.650585176534399 -67.570650699863279 -18.054525719778564
44.718579240969177 -65.312885127079412 -26.873645887468271
20.672118932840895 -68.866192151397627 -31.131941552313307
44.934989298655339 -66.332830630855184 -28.888239622373966
27.494002697942285 -65.061095984063911 -33.475483268250386
49.352007199969272 -67.520170313493836 -34.828039958571523
34.787599071288938 -68.636272671363145 -35.727702625242024
27.444641718491621 -66.377741385019931 -39.007912001970524
29.941916052389324 -59.549002000083973 -40.948704215909025
33.630317174229141 -69.715267245743576 -39.519334286103799
35.302584163189678 -61.226230103338132 -43.820997672799642
-70.410226087424874 -61.902949981840813 -44.074533776152222
-45.666136869606824 -66.393145935682469 -44.072180657419715
-81.238070114094640 -66.191431630330527 -48.584893473876541
-31.067287513474916 -63.493923150079041 -50.417262901278988
-24.155706410751890 -63.563823621730052 -51.812188194623829
-16.795442172033813 -64.321615960191394 -59.244294309012226
81.410171210442996 -63.066102566469404 -60.443485969710871
86.058876348535421 -66.934185928928187 -63.892043730510075
77.318250601032105 -64.830186827410557 -62.653184947280998
70.429922809606353 -65.531423455269220 -71.273241269579444
100.400922924444458 -64.697293641923949 -70.874639358599268
-96.560172917641495 -61.828168798671619 -72.936535516920600
99.323135334992699 -64.057128626172570 -76.361396649242664
101.649806311570472 -63.802462155385435 -77.516176379913617
-41.547810292991343 -66.560375596129219 -77.206171781359046
-33.661341494572710 -66.012916010734472 -78.910219924195417
-43.780233122948125 -64.722701092921668 -80.612858842893985
64.096036572395448 -64.821247615186422 -79.114576199357032
-47.220891279472127 -64.871978171852220 -81.555449039406028
65.865740123245430 -63.844333023099743 -84.406800153000546
-49.903066662665111 -64.997526995115990 -85.064690178078990
66.709133988951180 -65.431783375039799 -84.614726545242632
-96.401352146140397 -62.845306515067413 -84.145997143581269
50.911762820341757 -67.131154760789016 -91.076553435797308
-59.262609206573849 -63.188482168235730 -88.844226902176871
101.941248958541024 -65.810503056283920 -88.796417993054007
51.899699671357872 -62.395242354687561 -89.318503144922687
66.430418673370468 -65.619720860059545 -91.195309310610185
66.696447693705650 -62.431164916733628 -97.589433304057309
56.073282624828124 -67.684726630096762 -96.706365225664456
-96.624613520509115 -65.902243067565152 -96.371647448208392
49.198877546870307 -66.205459344424511 -97.746503822811633
45.481995217860081 -65.832023995731333 -96.871728048591706
54.223465603793144 -65.184947427999091 -95.454929797398194
51.763193452403456 -65.295817732229850 -99.605395340904437
57.748452199696203 -64.260372727186052 -97.954221772025875
103.652595949743272 -63.337469511373961 -98.036213205288107
100.375677255154528 -67.969360692673746 -100.082904443091195
-78.218055872587158 -63.947860850362545 -102.543866747837029
53.349379706668138 -62.598380925522100 -100.295435927181472
-73.103805483351266 -63.138974227717775 -99.792680614683405
71.398126039710206 -65.680643342099231 -102.959537692140231
97.103641318820678 -65.749402729037371 -101.302348469899215
-76.169263773143285 -64.610650976058650 -105.442989870497144
47.729459574010669 -63.380885771075626 -103.788144569268468
-84.478135212799430 -67.421589408994464 -108.282573163438400
-69.736582388101439 -64.037949344555145 -103.159220075264415
76.893194480320417 -66.720701606045907 -105.007984331096765
88.519789572686889 -65.676555839222672 -106.894918976754127
-77.647840386374412 -67.608422834350563 -110.132573295563532
-88.378842562394723 -62.959361522468654 -112.294644847939651
-77.329515663952705 -65.576678244689774 -114.115793027986427
-91.440991410413986 -65.315080382122758 -115.456094621284478
-96.461842102334728 -61.139771811379333 -119.828869829580384
-83.024291155423739 -66.771724704115371 -116.273428333760393
-83.948317335044408 -61.625603655154229 -116.894125658972342
-78.594491331461256 -62.786478245250336 -119.693321316056910
-56.344562686068237 -63.689751413344418 -121.837434785280550
-59.726574303524025 -62.394382239069387 -119.831377294519001
-80.376644702031200 -66.101937021390995 -121.076096048821285
-58.325028887235497 -66.313718829495855 -125.948224390312134
-84.069913226032540 -65.554133108246830 -119.758611640875642
-94.292583482407409 -66.646163709010153 -121.463997242814798
-75.467552005784839 -67.123918547390929 -125.415783543855952
-78.633948833071216 -64.577361993274010 -126.651466605477225
-71.475967864564993 -66.109117050306125 -127.013719429223471
-59.988283422562176 -67.016167982681480 -128.762212300978291
-57.110447649752651 -64.970245211732674 -124.525214455997713
-77.524956843752548 -64.405211484990275 -127.890806705394510
-56.919682231864634 -68.286822526985546 -127.839322335027504
-78.629705422046513 -65.742280367144545 -129.183809686154149
-88.151406534184559 -64.758129571907730 -127.459796482758236
-55.935641587357779 -66.361808822890012 -129.374423498085889
-76.763672228009810 -67.376462588217777 -128.715865872955789
-81.325742707244146 -65.938297131058775 -129.300977336168330
-51.702344572353816 -65.823972573000589 -131.338915012264437
-62.858681912069677 -68.817494223816595 -131.452262108422843
-93.033440917663739 -65.777445452198918 -130.525897864211601
-85.350171245118915 -68.296484535842851 -132.572612501123388
-73.798377359286320 -64.660594942936669 -132.503470036762792
-47.780294416139952 -67.881825527695611 -132.315011050093034
-49.181082375213933 -66.140939853551103 -133.641640494113773
-51.954182768462161 -63.709691281642442 -136.818568104897821
-91.713730921699707 -66.497544806735036 -133.779726277749148
-93.719306095073449 -66.579462267361208 -135.158192946714621
-73.839049720214803 -65.223601561532519 -137.037379000055552
-89.573409920757427 -67.500872032243024 -141.186362434349064
-74.572592325208646 -66.090281172470981 -140.699798762064205
-56.484917947723687 -66.169432181769295 -138.838558484614964
-54.729755647963835 -64.333959040104190 -140.888044692147275
-75.912779721939600 -66.262421624067983 -141.524030267179938
21.570220097647816 -64.381603982007817 -138.232151274319421
-48.513810444783658 -64.695255129485417 -140.431157997827682
-57.887969021404778 -67.289964217696266 -142.522673746957764
23.556466893599673 -64.813563510197866 -142.441839900199057
-58.239584199758731 -64.426346223711391 -143.098403331620347
-47.951598396665176 -64.853110310930717 -146.184742336115306
15.850669980638139 -64.865160113755721 -154.625706845293706
16.131176757212437 -64.537918138897410 -151.820259566587225
-93.127695552314449 -65.643340446886114 -153.931228881293436
-102.657157599253509 -63.807210389295534 -158.017582970313754
-103.963158519941672 -66.060413477028618 -157.126635294787519
-145.172789279998938 -63.930571909486488 -176.592909382771126
-109.895619951165699 -66.658489122028001 -178.021670711952169
-105.368020210048414 -66.385235147996056 -183.686101017504427
-112.807696458667394 -65.296238573603020 -184.633250723457962
-141.127197425592470 -67.334696127774080 -182.070914109191676
-106.160931379069638 -67.225137462139685 -189.118591421009711
-151.825780849578649 -66.136059276962882 -193.806178479422670
-114.039390102007914 -66.645617835818257 -190.689746291831170
-153.091154965541904 -64.760677478976220 -196.567198591950699
-141.779838136713607 -69.298913286842023 -197.297692367577383
-113.877628535366071 -65.455094225271296 -197.932504014651272
-148.988122638556320 -66.183679818849612 -199.575393633290673
-147.488744037241077 -65.771118950200972 -200.138886484369635
-151.956569574460872 -66.911303416952308 -205.854301409699275
-144.035361841421633 -65.796732344233774 -212.009959021698393
-150.292817826265804 -65.409191946652868 -215.426195877959600
-145.201518770032010 -65.825677314892516 -223.456481694137722
-152.609170238761379 -67.009275671969846 -222.533993287437880
-107.038292195997684 -65.041552276051135 -223.497259290715760
-124.734854209592015 -65.137972893413391 -229.774511906128424
-112.370874056014927 -64.027079859941693 -225.597422277991200
-105.633043800293720 -66.171274662467042 -225.034565766280338
-126.047668114242043 -63.121929705970736 -227.515053961279591
-107.960927784201431 -64.794596249913610 -228.344671097804991
-142.673262498689070 -64.564166455516670 -228.268521462008721
-154.940678151979967 -67.222279220476025 -230.609812292206584
1.924951029262835 -66.763405250852088 -229.310336432146585
-142.722933285217835 -67.462238241269176 -232.412774601919608
-134.033756746257751 -64.783186516236754 -230.953436102097015
4.377831839915446 -66.413864405455186 -230.158815129832789
-153.151758616504623 -67.872964941768188 -232.307048469274264
-135.369126888043581 -67.218787232002811 -234.347032028519749
-116.807329968620323 -66.182913624885089 -233.437714097529039
-132.085591724177789 -65.890294010618916 -234.276708658691888
-124.649879099652267 -66.529639150022106 -234.389725100264940
1.619290344523820 -64.684968748615489 -235.685652371624883
-13.138750962788754 -70.439254778569222 -237.476822351812871
8.924241174687650 -63.948659206453300 -238.305098488792680
-11.726876061624763 -67.867188866811631 -239.461518542575220
-12.775648560704122 -68.204281801803305 -239.544705405501588
9.767037166184474 -67.484827680424246 -244.349854130887621
10.208150609899000 -66.433491563405852 -241.028940570937209
14.050464645585015 -66.686706605934646 -243.419959774269728
-10.758419920235960 -66.778741602364036 -247.128256989179079
-152.080685754742859 -66.936082233312007 -246.985442609742904
56.913153856032032 -65.639545818351905 -243.901775709896839
62.939443754771553 -64.803909072009361 -240.790889523381281
19.710112719679074 -66.439100448649697 -246.525313600669506
52.521872461202889 -63.852793808759095 -247.110974445249383
61.724099392371507 -66.457517719295666 -248.266845916042485
56.458174274234608 -64.333650521971549 -246.370888964023294
19.587234496892496 -68.370139563833931 -247.744507340108839
47.275091158106108 -65.000754809770214 -246.220015962527015
57.869095027795161 -67.523115510760221 -246.662460096072607
-149.221928405104904 -64.670223102178994 -254.265104930275527
-12.543384550359576 -65.727021581872791 -247.301571452486712
52.684013483610350 -65.309009786381907 -251.597148509657245
40.822514112328406 -66.911241251837353 -251.264296551129860
-152.899027857745892 -68.503965244539032 -253.493115407025527
-145.103448155953913 -66.979567675075955 -255.135626529092008
45.294632296455724 -64.576199949162458 -255.715045475709360
-127.093489017934914 -66.718616891371042 -255.183372309663639
23.862086049141652 -65.518407921378810 -257.143856767063198
36.357808655460758 -66.179531552048275 -254.416467677801847
41.052465821184846 -66.695111689330332 -253.012897120270338
-143.460636760850662 -69.216927727937090 -256.459568241716454
-131.873865154473833 -63.924306578809514 -257.824645915948963
-128.470166184140368 -66.980416634420166 -257.937449215754270
-7.055107484738475 -66.798755017898088 -252.694514627138290
35.559389390018069 -65.280275669875309 -256.827224027523016
30.892444441423464 -64.749615338740313 -256.070991890605569
-135.049085823331154 -65.198955191959669 -256.471269880199202
-142.532117640944080 -63.690248639905548 -257.923055326073666
-141.645465552117713 -65.525030142627259 -257.886413274988797
-123.550904912139174 -65.093829803895659 -258.740173932207369
-6.076373158839383 -66.569305617737484 -260.059764942319816
-124.119612857923897 -66.217415980822665 -260.214244494124102
31.091802216221783 -66.764948211539675 -257.436863803853441
-134.277265316843057 -65.247810398218590 -259.262688380109239
-2.741406420089012 -65.928584849909981 -259.490605086911160
-147.326141832076217 -68.736597512074979 -260.855781614145201
32.923523246919046 -65.345952804366561 -258.410609511716473
-140.387970231361805 -66.775678856482330 -261.699237501279356
-123.045782183012534 -65.144368433890833 -262.275811795179095
-123.367855288440936 -67.835526168711766 -263.626940761775643
-114.924828634191599 -67.141367737658271 -264.235884126569999
-127.136120593662127 -66.047382835312533 -263.707222683755390
-124.556167574197488 -65.273383029200104 -263.363883384086478
-118.481880237044820 -65.996284291216682 -263.804866491975190
-115.674670313351740 -68.326213210247190 -267.522509342731269
-2.440963469715608 -68.082272625289846 -263.438336795417570
25.096879499429161 -67.503511421867557 -261.220426501064139
25.011931883675615 -66.670387486040084 -267.799512007767248
-145.679745171693014 -66.501683518779785 -267.090383956763958
26.450235894990712 -65.376691148073661 -268.377722616592621
-2.604395689267072 -66.458656530496540 -269.978236956285514
-3.567381487466846 -64.574060749002115 -277.400000477887659
0.174158286047655 -63.536284879842675 -269.188243076821038
-2.487963372171059 -66.630802890321206 -282.043986890894246
16.939867584399618 -68.441921108653659 -283.010299598506663
-131.883015460489815 -67.200277456275728 -288.308706136605338
-125.788260822282453 -66.114947658670459 -288.306230753226828
-143.136874146894826 -67.583358922043274 -287.133719925884236
-124.392650242340650 -69.501194885847937 -287.412945312550733
-124.219335797268968 -67.008118642908272 -286.925011908899023
-124.103903669204172 -62.885751257839999 -289.223893527255768
-133.536494487362603 -64.877543060651718 -291.170074677529328
-154.359166138891396 -65.960173642979697 -288.750504911575490
-141.952790020369321 -66.445350697425170 -293.059374188427455
-117.649752077818775 -64.687400273741588 -289.002968409151322
-155.302210920837808 -66.344903977504231 -292.702039834201742
-147.514551331981437 -70.223824726626304 -289.426026135024586
-124.003013430853613 -64.274390964687754 -289.054363631779268
-132.889883185125171 -67.017571696362580 -289.747943885985478
-126.584881846521469 -64.025279821808439 -290.831545670211483
-126.149310159755387 -64.091840099587117 -288.635014782944324
-118.482946308816096 -65.742137897705433 -292.433149187198865
-149.641300842608729 -63.896713185277839 -293.571767133403057
-126.157160248031133 -66.389586986020475 -293.931683636358684
-1.368516573415753 -67.160904979215971 -292.826459465155040
-148.101990426964704 -66.510654214475196 -294.172644794094936
35.304724014587791 -60.823670075058089 -11.276735279171874
25.548540532931913 -68.072859872727904 -15.454714823936197
34.590966536069331 -65.722645783863868 -17.513856581071124
38.252791547577601 -69.684591955670271 -19.434327704071066
20.487517292205450 -69.744957344177237 -21.586357986306574
51.405277271988439 -68.785292584108078 -23.194728431151866
50.765750492382026 -61.393212425174113 -24.960487135903058
24.969398171193141 -69.242976009815223 -26.791051732296246
21.646329783537677 -69.838495367371465 -34.974435591592851
44.285073287854253 -68.730751615941941 -36.762013555866915
41.619658283741323 -65.800864257582859 -40.787445408986088
41.301556663888249 -68.453590971455270 -40.221015721824358
40.838471472431770 -68.601481309638402 -41.387453139615069
-50.041516560145702 -65.185960289008207 -45.444342550389159
-72.069037149775411 -64.183487624919493 -45.594145116040799
-39.091388580349722 -62.369752328280363 -45.671819028622799
-80.572177947887809 -62.925038295306564 -49.820236471870317
-83.485410055528405 -64.052803840011194 -50.750596411007223
-16.912442246725831 -63.562107519185410 -57.977968089085884
-88.486155255295131 -67.156522109569437 -57.648103719721554
77.434989744878095 -65.364022371433293 -60.893187890394266
85.724564013710690 -64.543753093118241 -61.618665492027667
-11.774261535393835 -65.918774526087503 -61.423529679578998
81.370412591191879 -63.735894859869695 -60.479851197101887
90.128235525910995 -66.203164812759454 -63.991099678120314
70.673808504427072 -64.556535583856075 -65.623101308870616
98.115809166160034 -66.787008839408813 -66.737307448200653
-23.051060448259577 -61.725793677944388 -68.328556199942994
-13.792098340862831 -66.356736293223875 -68.512234039247403
65.018331370140274 -63.278563659738793 -75.083082819167544
64.226477437457021 -66.059174947978065 -81.109518724451931
64.065788242965269 -62.929965964364079 -80.738497392833523
59.566926302589955 -63.159483421140635 -82.041801887090287
60.850650307946196 -63.792856234375286 -85.723608247097616
101.219160597350665 -66.160411239532579 -84.476128078733495
-52.497162400580542 -66.062533608089907 -86.862607227059584
-55.699281284232470 -65.504957505721833 -86.448597591754350
52.134450873918283 -66.618561452326759 -89.936522627753391
51.174840644174381 -64.359024712643844 -94.154839048621511
60.302973925581611 -66.812815205214619 -95.106156393955928
-65.489116185597354 -64.577273253969238 -92.550675688812674
47.572927774020258 -62.246601624349580 -94.877562754772356
104.859801781830910 -63.754254568373447 -96.541108908268200
-65.531736738478571 -63.238710477838055 -94.198026413091981
-97.377981029340901 -63.381231071624406 -93.559788405435938
-67.286007240661618 -66.181260204337576 -95.876235819451608
-97.611460874797800 -62.485462248324033 -102.185484636875060
-75.672663670733272 -65.385709387598482 -99.663076486067325
46.756537242296311 -64.941175012675828 -101.791274764185829
-67.532545832527234 -65.630773965016814 -101.745440636064302
48.959198315985731 -65.085967648806090 -103.840269660976702
-75.253344430170202 -62.744343663257688 -102.320265948870258
98.358801710393593 -65.139399423330232 -104.707358807218952
-76.884485700711792 -63.019626403972488 -106.512558416877738
92.385621203783629 -64.730957312937534 -106.910185001724244
-73.521030592962745 -64.411732232236460 -110.649192232154803
-76.758215096869819 -64.535774964856913 -112.735818573037903
-82.739605274001605 -63.984828987306813 -116.306896580536829
-64.607905051794816 -65.846521876462532 -118.068371694752130
-75.641558005113907 -63.505055012048274 -121.239857072057930
-96.693660370050821 -66.376684992845938 -122.308131767814103
-76.594100699364859 -65.284805533625729 -123.016706167748168
-92.999137958987717 -67.925756019629674 -121.197172614121286
-59.994534663984190 -62.175965069274596 -125.083446340422853
-62.358908717154819 -64.007218700803250 -122.310402160075000
-57.785361863394776 -64.110644624533435 -123.183917733822142
-83.991541199178570 -62.106644255070982 -124.431013222353272
-62.632877041015625 -65.530257071252677 -129.237497158369706
-76.815933643023712 -61.998740519474765 -125.406933198716615
-83.896681795836272 -64.333595912792475 -128.166121682729226
-81.476583324382148 -62.711656735065418 -127.479945494561207
-51.393545472717520 -65.863976468140621 -132.278241171751148
-85.697475801987338 -63.904516996056742 -132.013314876843424
-60.969572410590452 -61.569379173414859 -129.019033215586148
-71.774089883190186 -66.717944630914900 -133.264391768574626
-63.756605405533008 -59.628929784913403 -134.752378043851820
-81.295242888615817 -64.739093513103242 -136.582275295148861
-90.616160014894533 -64.912632492917226 -134.829144498001796
-76.356549357084774 -64.917467089956645 -136.615998800475751
-62.273061694075388 -66.897181689157392 -136.157190953844804
-74.355295164826060 -64.971427669719603 -136.558430334601866
-60.909667374505723 -63.595008162503909 -139.303399369969952
-77.417226297521580 -67.057821049878470 -137.470650482120050
-84.789695238247518 -64.813525554972813 -137.212326823491509
-54.305646457259790 -64.424556328109333 -139.212728469080758
26.520586363537092 -62.743699194297712 -139.905961967519858
-92.522390926986262 -63.785082554887175 -140.407944595354536
-95.355538548158478 -64.663198632787058 -140.543827469328960
-87.245626378969277 -66.222331606522516 -137.684760118104123
26.109921717926039 -63.580050809201367 -140.709659645578455
-48.816657326611484 -61.805787288634512 -138.637094630270013
19.519458512983480 -64.154482885873051 -146.557145321610591
-90.770375304992228 -63.992109023417875 -144.815281435613201
13.756541322371877 -64.014624769121625 -149.528984847369486
21.482441211901577 -64.877731766135753 -148.102286488902450
-99.111272709202893 -63.575181762837346 -153.600465003126573
13.633420403745516 -65.052241009511377 -150.762395248823111
17.398173115287427 -65.218032719864382 -147.039347888171932
19.551093505074974 -64.405797487146501 -153.230934058881616
-95.227932380512328 -62.872471328150063 -159.748484968302165
-104.415901286039301 -63.119579335898791 -160.631869207630530
-98.258723392177217 -65.620557404707682 -162.811306461942763
-99.233157153011916 -64.517239635259656 -173.568814823725035
-102.097572780049347 -62.210161028485722 -170.645799342618602
-107.128785983445979 -64.561450265785098 -166.224206911173326
-101.887940104287352 -66.742122197222230 -176.186714210088127
-141.344900240031819 -67.323515636622730 -175.747162992392646
-103.441322675570390 -65.743915474468622 -177.711250692000192
-152.582834047825401 -65.852313087023489 -180.587008734613789
-110.699737549714925 -62.944355091930362 -179.219279702416571
-140.470622603033263 -61.999388095091312 -176.886015769440462
-139.668729530746020 -65.766245499089891 -188.139498476067473
-147.166957801517214 -64.424077369768057 -189.264202289066532
-107.130353346411937 -65.509934511519191 -188.612440207875807
-112.562816672473318 -63.852133588933725 -188.006489195235702
-106.968592159281670 -64.772100291432452 -195.641431849107192
-144.177201882809271 -66.008383046154790 -193.262601236226203
-122.965029959901514 -66.809453797009610 -195.589740410981392
-111.822501276106649 -64.611442889957914 -191.710147335965445
-133.173091288411001 -65.560663187862104 -198.072249608404206
-111.188828629937788 -62.761399458001137 -197.648695322777002
-112.940535647093142 -63.844883949208004 -196.239622773342376
-144.408900874863463 -65.569375739146935 -198.895487987568032
-141.264025336524128 -63.702458493317536 -197.520823191796893
-122.126881116363506 -64.320348462761572 -197.318330020236800
-154.690657872773699 -67.977590820764902 -197.127380956647954
-114.696754566590045 -64.782296729008010 -196.501882719246964
-144.098839242895281 -66.981156284198661 -200.791403359620119
-117.523745105959890 -61.962259144930258 -200.642979285479555
-124.182192997158722 -64.076589117230412 -201.740447123506016
-132.917388696581583 -66.724430917486117 -205.510389060117433
-116.065685524403477 -63.116239453070357 -204.112146142083077
-143.369350254915872 -65.094378331943815 -206.988637495716745
-129.732604720533118 -64.559500089197797 -205.525699063458177
-125.979507175229756 -63.493259919594522 -207.410448954874255
-123.127075010795906 -63.621598715204172 -206.061564185894355
-114.890465604899987 -65.711325024690410 -205.352305518843082
-146.560457300792592 -65.184510796298085 -218.054659285009024
-151.718417825213862 -67.067409239295870 -224.119177393261793
-145.972851136853848 -66.599516320565712 -224.205477148569116
-129.382118398914685 -66.599483345585071 -224.052273941871618
-153.223644127903015 -66.085143525429160 -227.581699923479363
-133.902899630145498 -64.257077371142088 -227.387215271244372
-154.044422169141001 -68.147254150749234 -229.542664993532327
-132.840461725932016 -66.578908370415320 -226.754993861473196
-112.594901083940272 -63.783760350257786 -229.013804350518456
-115.884645382731762 -64.097844864991075 -229.637099769828865
-147.369758675098353 -65.134648892730866 -227.978256356434116
-111.448668410954227 -64.735417300266960 -231.820039000332628
-121.982858641872340 -63.913430541335906 -229.836141677346575
-115.242316766797686 -63.364556883636006 -231.515573382904137
-115.815436686023901 -66.619429246985263 -233.453436997433357
-123.548531525935800 -64.475317008364257 -228.280381336675077
-125.188852806618328 -64.595861305680174 -234.657480913533448
-131.938785692727862 -64.030811025814586 -234.381760623258003
-125.825278119396842 -66.495445305796352 -233.466507901898041
-128.112353754981513 -63.782285323011287 -232.949696691639389
-116.212971027418661 -66.226998357282341 -233.514832420495054
-141.952578242835415 -67.407662197368566 -234.072768185626273
-154.283482836434814 -66.472861223523395 -234.835888468840153
2.582542402213099 -63.299784786875335 -236.238408489438996
-149.921405790293875 -66.249869448830609 -237.511612572208094
-146.312059856679127 -67.219717619868391 -236.022692312949403
8.759458233988074 -66.768825865814890 -235.324378504058529
