-11.865186691284 -72.869720458984 -271.833496093750 2.234351158142
-4.663131237030 -72.443969726563 -267.404907226563 5.274006843567
-8.874119758606 -74.356750488281 -278.699340820313 2.033323764801
-2.768651962280 -69.119270324707 -279.189666748047 2.432048559189
-65.084007263184 -75.329895019531 -246.431701660156 1.662784099579
-5.238903999329 -85.119766235352 -264.611755371094 1.179360389709
-8.691521644592 -80.928932189941 -262.338012695313 2.239275455475
45.874134063721 -63.989967346191 -96.622665405273 2.679214715958
9.490118026733 -84.637084960938 -273.402801513672 2.503627777100
-71.177482604980 -57.912658691406 -101.587852478027 2.025875806808
47.893749237061 -73.455078125000 -104.406547546387 2.993209123611
-89.695091247559 -73.950668334961 -99.294036865234 3.414674758911
103.350563049316 -78.090744018555 -170.895736694336 4.227612018585
-67.578681945801 -59.660495758057 -45.371139526367 2.166947841644
-67.219932556152 -79.086051940918 -204.970016479492 1.713515162468
-53.704051971436 -81.084419250488 -184.617675781250 2.045205116272
8.358713150024 -82.864181518555 -275.751861572266 0.860453307629
13.782987594604 -81.354446411133 -276.032897949219 3.268188238144
66.338500976563 -69.802917480469 -240.100708007813 1.180754542351
24.522405624390 -73.054450988770 -272.960937500000 4.044549942017
-136.415023803711 -82.904113769531 -288.225372314453 2.314270734787
-147.183853149414 -82.801445007324 -280.954650878906 3.027216196060
17.279891967773 -73.660285949707 -179.198333740234 1.430067658424
4.135684013367 -74.379722595215 -160.623672485352 1.903444290161
20.903532028198 -79.175422668457 -168.503982543945 2.344127893448
24.998096466064 -76.133636474609 -167.350234985352 3.119492292404
-158.320846557617 -70.928817749023 -275.706237792969 2.333776235580
-153.496841430664 -78.393196105957 -276.719207763672 2.387919425964
-67.388900756836 -73.759292602539 -92.306854248047 2.525078058243
-153.152465820313 -83.176284790039 -279.542724609375 3.274930715561
-157.904251098633 -71.689025878906 -281.896057128906 2.229984045029
-60.774841308594 -75.961425781250 -65.632125854492 2.630005359650
33.171451568604 -67.845703125000 -140.030822753906 2.174988508224
48.371658325195 -66.240890502930 -92.737609863281 0.502866268158
-66.548873901367 -77.203826904297 -75.648063659668 4.692681312561
56.076019287109 -63.461753845215 -99.121177673340 2.071537256241
-84.364143371582 -60.598514556885 -111.163856506348 2.249794244766
24.954437255859 -65.604400634766 -143.582183837891 0.621113836765
89.869369506836 -61.850925445557 -64.698898315430 3.092784166336
-39.331207275391 -75.549163818359 -209.363113403320 2.910138368607
-48.702083587646 -75.397033691406 -158.437316894531 1.689276576042
-18.614936828613 -74.125923156738 -189.747436523438 1.697964310646
-52.360027313232 -55.751377105713 -40.840045928955 4.738743782043
31.187881469727 -75.703521728516 -143.509689331055 2.354790925980
-82.366668701172 -77.992980957031 -252.892013549805 1.895026326180
34.084075927734 -76.361648559570 -144.719589233398 2.120338439941
-35.044223785400 -77.444450378418 -75.602149963379 3.471437454224
-142.348281860352 -77.045829772949 -185.774673461914 1.264465570450
-79.134811401367 -76.826271057129 -76.207626342773 4.174460887909
88.831657409668 -71.485557556152 -91.471305847168 5.395443439484
-48.059139251709 -78.454750061035 -80.973731994629 4.457300186157
-53.348438262939 -76.887855529785 -90.636466979980 1.622164249420
109.173286437988 -69.120887756348 -161.598785400391 2.951959848404
-89.400062561035 -75.557807922363 -92.854698181152 3.368051290512
-49.790615081787 -76.128379821777 -60.516494750977 3.062479496002
51.100788116455 -63.547389984131 -249.380630493164 0.308126002550
-45.770950317383 -76.028671264648 -202.738174438477 3.514318943024
56.340339660645 -58.397117614746 -93.774192810059 2.388381481171
-74.584396362305 -78.812477111816 -100.580177307129 1.659490942955
-30.441366195679 -77.791992187500 -187.836120605469 0.604547858238
-22.912128448486 -78.564964294434 -197.864593505859 2.483874559402
-38.310295104980 -80.813110351563 -186.791961669922 3.705180644989
-24.224813461304 -79.291503906250 -194.318572998047 1.524552583694
5.813751220703 -79.681091308594 -225.228210449219 2.531948328018
-3.270028114319 -80.251625061035 -224.302322387695 1.454779028893
6.441359043121 -79.400032043457 -219.008224487305 2.431920051575
14.273015022278 -77.438117980957 -222.719223022461 2.140385866165
-3.538297891617 -77.385810852051 -229.048370361328 0.963727593422
1.842957973480 -76.037490844727 -227.201400756836 2.326098203659
-50.306110382080 -77.789672851563 -180.625061035156 1.673039197922
-28.080562591553 -82.341209411621 -190.195678710938 1.966639280319
-44.106121063232 -80.267684936523 -166.747955322266 3.175674438477
-92.548255920410 -71.637046813965 -219.710754394531 2.066824674606
-44.986019134521 -71.987037658691 -197.987030029297 3.566053152084
-49.893226623535 -68.138465881348 -48.231746673584 2.062882900238
-48.633300781250 -79.051284790039 -182.085723876953 1.625562310219
-41.066703796387 -80.125442504883 -196.138366699219 1.946869730949
-147.150894165039 -72.166633605957 -199.550384521484 0.857056021690
-56.446887969971 -71.435516357422 -288.766723632813 1.299500465393
-146.671951293945 -80.541252136230 -192.023971557617 2.623499631882
-141.876510620117 -64.729728698730 -201.725418090820 1.260609269142
-127.616424560547 -63.844741821289 -228.433700561523 1.949429035187
-152.817428588867 -61.740585327148 -201.866699218750 2.211966276169
-148.677124023438 -56.064422607422 -203.226318359375 3.957707881927
-88.951118469238 -74.239913940430 -254.859786987305 1.291894316673
31.335767745972 -80.165542602539 -136.911056518555 2.862700939178
-147.086761474609 -76.419715881348 -194.354797363281 2.760787248611
30.557731628418 -78.148719787598 -130.040954589844 1.903015136719
45.464843750000 -69.184295654297 -117.889198303223 2.638559341431
-21.805437088013 -79.459953308105 -221.325866699219 0.959107398987
-138.632019042969 -78.915046691895 -196.806808471680 3.372344732285
32.647354125977 -60.004188537598 -37.289916992188 1.517645001411
110.924407958984 -62.381580352783 -103.820358276367 5.537428379059
-54.340923309326 -76.493721008301 -187.497253417969 2.892162561417
-40.563560485840 -82.076812744141 -197.382186889648 1.519660592079
2.364370107651 -65.260269165039 -278.756011962891 2.131955862045
-137.189453125000 -84.346427917480 -197.322265625000 1.972516417503
17.125858306885 -81.326217651367 -236.085021972656 1.238374948502
39.313735961914 -71.061599731445 -133.747100830078 1.296150684357
-107.802543640137 -73.856559753418 -224.804656982422 2.007228612900
-18.503938674927 -71.683471679688 -193.329772949219 2.004523992538
-44.358390808105 -69.016006469727 -161.857650756836 0.743094444275
-19.208003997803 -79.263671875000 -199.636077880859 1.716661930084
-83.206626892090 -66.228286743164 -120.846900939941 1.292725086212
-68.804191589355 -62.322536468506 -45.428237915039 2.216952800751
-36.922748565674 -74.411804199219 -210.579849243164 3.245404720306
-46.152359008789 -64.573661804199 -156.664932250977 4.140214920044
43.140884399414 -72.863281250000 -123.369773864746 0.969573795795
-149.098724365234 -81.691101074219 -201.286712646484 1.599080920219
-163.883743286133 -66.114479064941 -208.518630981445 1.476002573967
34.841415405273 -69.982940673828 -140.239517211914 1.468376994133
37.268093109131 -75.774520874023 -131.166397094727 2.089400768280
-28.962461471558 -72.930145263672 -213.196090698242 1.136638522148
41.749237060547 -75.683181762695 -118.093101501465 2.543622732162
45.253349304199 -73.271125793457 -119.877822875977 1.833273410797
-95.902709960938 -63.828922271729 -142.172515869141 1.718972086906
0.218361005187 -71.055870056152 -239.330596923828 1.898565411568
-136.697418212891 -78.607124328613 -230.035858154297 1.263644099236
37.490753173828 -79.014022827148 -117.602241516113 1.647321701050
-136.542922973633 -66.164756774902 -230.434143066406 2.296802759171
-146.861541748047 -80.888679504395 -205.513336181641 2.357105493546
-161.559890747070 -64.986404418945 -209.865158081055 2.790141820908
31.002370834351 -69.556015014648 -134.330078125000 1.136077761650
-86.079261779785 -73.338066101074 -246.272338867188 3.240272283554
111.988243103027 -72.697669982910 -187.366012573242 3.019168138504
-147.431228637695 -76.887390136719 -209.528717041016 1.698564767838
-109.491882324219 -70.025070190430 -228.573455810547 2.347369670868
-165.721862792969 -68.547866821289 -212.363998413086 1.808264136314
39.332527160645 -76.279434204102 -113.477447509766 1.316960930824
43.496906280518 -76.418479919434 -119.485008239746 0.865090489388
-122.157615661621 -67.000160217285 -231.412689208984 3.068404674530
-27.245841979980 -71.839645385742 -196.844924926758 1.602373242378
-24.181169509888 -80.278137207031 -194.280044555664 1.763767600060
11.547016143799 -84.245613098145 -225.303131103516 3.124367952347
8.882552146912 -79.543014526367 -227.196060180664 3.033245325089
-23.283281326294 -72.329772949219 -198.833297729492 1.164481520653
-145.523086547852 -80.518783569336 -208.716262817383 2.932846784592
7.637819766998 -81.579460144043 -228.142471313477 3.315466880798
10.151586532593 -77.889503479004 -229.714538574219 2.012545585632
-25.719413757324 -76.476104736328 -193.907409667969 1.671263933182
3.900171995163 -62.113273620605 -236.722518920898 2.302024841309
-94.774147033691 -63.224708557129 -141.539260864258 1.049096226692
-2.272042989731 -78.104034423828 -222.202133178711 1.066893100739
14.323094367981 -83.733512878418 -203.897964477539 4.342000961304
-4.024648189545 -77.952590942383 -245.677917480469 1.014582395554
-152.401321411133 -81.968025207520 -234.061111450195 2.775334596634
-111.121681213379 -67.361183166504 -181.953918457031 1.693311810493
14.538591384888 -85.266799926758 -236.182449340820 2.512165546417
5.002256870270 -77.909080505371 -233.805526733398 1.411455154419
32.891296386719 -68.098754882813 -118.392387390137 3.625705957413
-23.752670288086 -73.200355529785 -69.737022399902 4.352668285370
-66.621322631836 -77.158348083496 -162.036895751953 1.332797288895
10.582683563232 -82.442993164063 -240.033981323242 2.285116434097
5.939166069031 -77.423065185547 -243.731155395508 0.888708889484
-56.732753753662 -72.163978576660 -149.327651977539 3.499257087708
-48.538295745850 -81.829200744629 -146.440765380859 3.787137746811
-57.633796691895 -78.655395507813 -174.679321289063 1.294498205185
14.503214836121 -81.623672485352 -244.664505004883 1.984074234962
7.523557186127 -79.931518554688 -243.673446655273 2.965362787247
-88.298660278320 -57.081233978271 -132.694641113281 6.855853080750
34.783161163330 -73.000358581543 -260.184631347656 3.859467983246
-42.336868286133 -78.516342163086 -77.479354858398 3.261802196503
2.376277923584 -83.927291870117 -248.946044921875 2.680384874344
1.711006999016 -64.395484924316 -270.867767333984 2.617795944214
-84.831085205078 -72.022880554199 -109.428596496582 1.833322644234
-23.769243240356 -81.033699035645 -282.779052734375 5.447809696198
9.147950172424 -81.060752868652 -247.661865234375 1.592691540718
-28.596508026123 -81.100830078125 -288.232635498047 3.638337612152
-40.572307586670 -73.955009460449 -62.708309173584 3.447045087814
-69.274963378906 -72.309585571289 -54.741596221924 1.991076707840
88.740013122559 -77.777061462402 -210.218032836914 2.989760637283
-136.059585571289 -79.350791931152 -254.675338745117 2.254669666290
-97.922996520996 -53.730686187744 -101.264305114746 2.345431089401
115.689315795898 -71.116668701172 -123.665695190430 1.664172530174
19.466775894165 -67.311546325684 -28.736572265625 3.529108762741
-8.517555236816 -79.488281250000 -253.569091796875 0.825653791428
-69.909996032715 -68.240684509277 -48.989513397217 3.532009124756
94.397499084473 -76.125717163086 -210.803756713867 1.146104693413
48.603092193604 -65.267707824707 -102.542480468750 1.863379359245
-73.179840087891 -55.255424499512 -104.695564270020 1.610866665840
-165.940765380859 -73.186134338379 -291.861419677734 2.067504644394
-30.367660522461 -79.041938781738 -179.927398681641 1.247598171234
-36.478778839111 -79.815696716309 -173.223388671875 2.557688713074
-155.249801635742 -84.245666503906 -291.305847167969 1.189883708954
-138.259841918945 -84.762794494629 -291.844177246094 1.696255683899
-147.958251953125 -82.815139770508 -281.412322998047 3.242677927017
-153.556716918945 -81.016998291016 -299.922912597656 1.179272770882
-152.016006469727 -67.287223815918 -305.283355712891 1.735677957535
-95.606330871582 -66.569625854492 -89.165931701660 2.154675960541
-84.966163635254 -69.973892211914 -103.687057495117 2.626923561096
-55.633972167969 -75.925239562988 -69.207832336426 5.486561298370
-81.191413879395 -76.028053283691 -105.913879394531 1.869929790497
-49.221866607666 -78.283035278320 -70.511840820313 2.216678619385
-94.390060424805 -70.407127380371 -111.904197692871 3.169932126999
-73.750679016113 -76.395935058594 -70.306488037109 3.030159473419
-44.034721374512 -77.774497985840 -239.176910400391 2.297627687454
73.432502746582 -59.304031372070 -107.714447021484 1.062362074852
-2.025166988373 -77.988388061523 -285.615875244141 2.299289941788
70.288208007813 -57.601295471191 -104.452575683594 1.891522765160
-143.968170166016 -75.530982971191 -290.036071777344 2.061689853668
-129.824829101563 -77.224624633789 -253.166137695313 4.704627037048
-153.726913452148 -80.943443298340 -283.011779785156 1.178569674492
-153.945175170898 -72.166168212891 -285.390716552734 2.554818868637
-141.929641723633 -74.912719726563 -294.991912841797 3.731418848038
-146.439987182617 -66.444168090820 -287.089721679688 2.178879737854
-157.349548339844 -64.979194641113 -292.156768798828 2.119324922562
64.080757141113 -56.051570892334 -82.505729675293 0.725360691547
-40.080852508545 -74.113441467285 -68.053321838379 4.957483768463
-74.412170410156 -74.642494201660 -96.868461608887 4.014863967896
-91.885086059570 -75.667724609375 -214.376342773438 1.821902513504
-110.344924926758 -68.652923583984 -260.965759277344 1.384582042694
-44.108062744141 -73.857055664063 -205.404464721680 4.539422035217
-46.517498016357 -77.885871887207 -156.694732666016 1.547756433487
-54.452743530273 -67.363029479980 -151.304168701172 1.307312369347
-61.498477935791 -77.888542175293 -171.050415039063 1.062537550926
-148.367996215820 -72.366416931152 -210.106979370117 3.012911081314
35.250404357910 -79.264984130859 -128.056655883789 2.894050121307
33.453987121582 -74.967903137207 -141.177856445313 2.217471599579
-53.920230865479 -80.397758483887 -291.354278564453 3.894830226898
-150.486526489258 -66.925582885742 -215.708511352539 1.400930762291
-126.059646606445 -67.364891052246 -233.791717529297 1.027585744858
38.422126770020 -68.391952514648 -117.773803710938 1.101527690887
-107.192436218262 -70.305213928223 -261.204315185547 1.099584937096
-91.402153015137 -65.921249389648 -119.936599731445 0.855632364750
33.617149353027 -74.230735778809 -145.700851440430 2.318683624268
16.734294891357 -71.017265319824 -231.095932006836 1.144500970840
-36.511493682861 -79.156143188477 -209.375671386719 1.032200217247
-16.420272827148 -70.826118469238 -200.532104492188 0.830985784531
-19.344793319702 -77.407135009766 -192.432617187500 2.019126176834
-144.536544799805 -74.585815429688 -181.470825195313 0.786512553692
-40.498886108398 -81.716156005859 -287.685516357422 4.981605052948
-16.833213806152 -63.126159667969 -68.094078063965 3.619238853455
41.572547912598 -71.891860961914 -121.347213745117 1.757704734802
-34.527233123779 -70.639244079590 -79.849777221680 2.255414962769
-155.162933349609 -69.220252990723 -204.057907104492 2.332918882370
-145.427902221680 -57.562751770020 -202.391952514648 3.340921640396
33.166885375977 -75.151504516602 -142.073013305664 2.327010631561
26.727056503296 -77.817245483398 -145.452117919922 1.052506327629
29.560003280640 -76.431121826172 -143.795715332031 2.739469289780
27.098022460938 -71.975265502930 -139.128692626953 1.954753875732
31.797718048096 -80.639999389648 -138.403671264648 1.252595424652
-15.897317886353 -79.052719116211 -171.897201538086 2.578832864761
-10.382080078125 -77.767768859863 -174.653091430664 2.063310146332
-94.578956604004 -67.539154052734 -99.257476806641 3.533617258072
-36.073009490967 -75.771942138672 -68.109237670898 2.634787082672
-64.332122802734 -69.883171081543 -158.313781738281 2.226016044617
-30.287839889526 -69.624816894531 -190.837921142578 1.879763007164
-61.499168395996 -79.642059326172 -174.983993530273 2.166891336441
36.993988037109 -67.913131713867 -248.361709594727 3.833768129349
1.196648001671 -72.857215881348 -227.288452148438 1.103379607201
-18.327075958252 -72.295677185059 -207.463668823242 1.505345582962
-63.696712493896 -68.112869262695 -160.697372436523 4.129562377930
35.505718231201 -67.258003234863 -256.871948242188 1.414271235466
1.262981057167 -78.198051452637 -230.308395385742 1.351893663406
-34.249412536621 -78.404922485352 -203.913513183594 1.192280292511
-59.048236846924 -83.114570617676 -179.909378051758 5.210129737854
-12.945520401001 -66.170104980469 -209.950958251953 1.507389068604
-40.072605133057 -77.440490722656 -171.149444580078 1.826781988144
-30.728618621826 -78.164367675781 -181.794937133789 0.625005602837
-91.795043945313 -57.786933898926 -134.499938964844 5.857169151306
-21.449262619019 -58.372814178467 -66.843605041504 3.549489736557
-38.639995574951 -79.750518798828 -175.299972534180 3.019605159760
-30.770681381226 -80.237571716309 -179.363235473633 2.078990697861
-29.220745086670 -58.488960266113 -67.630538940430 3.726173400879
-45.412990570068 -82.048225402832 -194.212554931641 0.843392670155
-52.705867767334 -82.159278869629 -185.558197021484 1.552379727364
-62.372394561768 -63.234146118164 -48.323497772217 5.062155723572
58.908489227295 -68.979682922363 -235.317199707031 3.529390811920
-27.530717849731 -79.095199584961 -177.090682983398 1.186998486519
-34.157238006592 -78.560585021973 -171.446304321289 0.874298155308
44.381557464600 -77.307838439941 -105.290702819824 0.920330464840
52.210018157959 -71.582580566406 -243.769714355469 1.191062450409
27.879571914673 -75.135383605957 -129.939437866211 1.272662281990
31.843536376953 -71.578277587891 -127.881141662598 3.009793043137
-58.383449554443 -71.663131713867 -179.703338623047 2.008992910385
-36.253715515137 -76.672134399414 -190.002792358398 4.072842597961
-17.619335174561 -80.531036376953 -212.308364868164 2.483296632767
-64.417304992676 -79.065238952637 -161.775299072266 1.496809363365
-165.140731811523 -70.555778503418 -208.610198974609 2.103238582611
-35.360294342041 -72.954895019531 -60.521957397461 3.224493980408
34.061653137207 -79.121925354004 -124.883697509766 2.273357152939
-147.373184204102 -72.102432250977 -192.071594238281 0.631983101368
-47.873798370361 -75.838470458984 -288.742675781250 1.038381218910
-147.924041748047 -79.038261413574 -202.080459594727 3.190210580826
-145.015777587891 -67.024688720703 -194.715225219727 2.266891717911
-80.954704284668 -70.116798400879 -251.500198364258 2.280554771423
-109.418472290039 -65.096527099609 -227.231185913086 1.898849248886
-154.438247680664 -64.856048583984 -192.117706298828 2.985886812210
-49.207817077637 -78.329093933105 -201.826751708984 2.017863512039
-144.580734252930 -77.338645935059 -204.638366699219 0.911349236965
-79.560470581055 -61.869335174561 -47.473705291748 1.847308993340
78.735122680664 -60.497653961182 -105.127258300781 1.130263090134
-75.902816772461 -83.225212097168 -213.745956420898 2.084899425507
-83.102958679199 -62.603160858154 -56.586307525635 5.011877059937
10.892870903015 -82.486183166504 -218.791320800781 1.647940635681
9.628597259521 -76.837135314941 -217.050445556641 1.374986171722
-26.013521194458 -58.500885009766 -69.470664978027 4.401365756989
-25.263244628906 -80.666671752930 -183.221099853516 1.242361783981
-41.498661041260 -77.191787719727 -166.782196044922 2.536700248718
10.776992797852 -80.598861694336 -225.038406372070 2.608156681061
5.671080112457 -78.273452758789 -222.844802856445 2.119729757309
-2.555917978287 -76.465209960938 -228.904006958008 2.057017087936
-45.058277130127 -80.406120300293 -159.730545043945 3.712066888809
-86.503654479980 -69.508598327637 -111.665443420410 1.521943330765
38.562435150146 -71.571189880371 -255.937393188477 1.330500364304
-88.611129760742 -70.166542053223 -252.396850585938 0.857430756092
13.361646652222 -79.891967773438 -222.398040771484 2.130493640900
-137.294906616211 -80.466606140137 -228.797485351563 2.680092573166
23.005939483643 -75.452072143555 -187.962844848633 2.061979770660
37.689720153809 -53.531665802002 -22.332971572876 4.083260536194
9.837526321411 -77.119522094727 -209.632995605469 1.791177511215
9.330449104309 -80.553680419922 -207.958068847656 2.008279800415
-152.658355712891 -74.374176025391 -250.807388305664 2.321571350098
-145.194183349609 -80.967445373535 -229.598007202148 1.572010993958
-146.754440307617 -81.901893615723 -230.088348388672 0.337662070990
-110.555351257324 -63.416728973389 -179.423019409180 1.011463403702
21.649618148804 -69.586418151855 -189.270690917969 1.715673089027
-19.734762191772 -78.804855346680 -206.940902709961 2.315843343735
-63.537712097168 -74.826538085938 -164.393081665039 2.600333213806
11.160075187683 -81.934463500977 -240.730972290039 2.160760164261
9.540718078613 -79.118164062500 -246.326980590820 1.011525034904
-50.173614501953 -75.231475830078 -149.407440185547 1.154441237450
-144.197113037109 -74.380973815918 -223.200790405273 1.345916032791
-152.003631591797 -84.326515197754 -245.670028686523 2.453960418701
-112.700103759766 -68.459854125977 -193.802749633789 1.990753412247
-89.358406066895 -76.875259399414 -287.516448974609 2.845318555832
-161.489608764648 -70.970794677734 -243.018875122070 2.922168970108
-154.634613037109 -64.634780883789 -228.631195068359 1.912689805031
-151.007232666016 -69.036476135254 -227.577178955078 2.683918237686
-3.890232086182 -77.316505432129 -237.580017089844 2.193796157837
-3.303570032120 -72.740898132324 -217.164306640625 0.839761376381
-74.039093017578 -71.586448669434 -147.859420776367 1.586913824081
-155.647766113281 -74.935638427734 -227.542144775391 3.347801446915
-151.315307617188 -83.688644409180 -245.089462280273 2.474574089050
-12.267034530640 -70.396423339844 -220.931716918945 1.326194286346
-146.995376586914 -65.626510620117 -228.963775634766 1.814915060997
-112.619308471680 -65.133293151855 -196.233352661133 1.025657057762
-142.573760986328 -62.317626953125 -226.322158813477 1.905948519707
5.815701961517 -77.272644042969 -238.907135009766 1.563936591148
-26.566471099854 -77.063163757324 -212.702896118164 1.208177447319
5.401241779327 -81.688858032227 -247.189376831055 2.462880134583
-58.990760803223 -79.091384887695 -172.702178955078 1.577048420906
11.180614471436 -79.490089416504 -248.659774780273 1.298058986664
-30.292613983154 -75.895118713379 -207.320556640625 1.786415457726
32.873161315918 -64.121734619141 -252.657562255859 3.239466428757
36.962238311768 -65.375167846680 -131.466751098633 3.632891654968
-126.054130554199 -74.652534484863 -282.672729492188 2.120133638382
-145.598327636719 -76.700561523438 -271.374542236328 2.281453847885
-85.927673339844 -72.324592590332 -212.410354614258 3.037226438522
-154.184173583984 -82.083984375000 -254.063339233398 2.238795280457
-151.392547607422 -79.393821716309 -257.221252441406 2.741849184036
86.735946655273 -72.886764526367 -216.584442138672 0.941741228104
-73.322303771973 -71.356872558594 -57.939617156982 5.100829601288
-158.826126098633 -72.884216308594 -255.933181762695 2.928611993790
-166.026565551758 -69.926200866699 -249.665344238281 0.630347132683
-146.203720092773 -73.119956970215 -271.674835205078 4.506052970886
-129.672637939453 -70.012535095215 -285.942443847656 3.092180967331
-125.134986877441 -71.387054443359 -287.522583007813 1.463670015335
-151.323379516602 -66.272117614746 -270.707244873047 3.338699817657
-150.176589965820 -67.639968872070 -267.380310058594 1.764713287354
-141.778808593750 -84.575408935547 -260.059082031250 1.242418408394
-139.703414916992 -79.699279785156 -258.537353515625 2.165563583374
-151.358825683594 -85.453483581543 -258.262603759766 1.774723052979
-153.806640625000 -76.879890441895 -251.869506835938 3.116379022598
-159.926895141602 -67.853637695313 -248.411422729492 0.363858968019
93.839157104492 -63.013122558594 -104.612319946289 2.403615236282
-168.629959106445 -69.140274047852 -251.598922729492 2.754482746124
-47.705360412598 -73.595077514648 -186.172882080078 2.945218324661
-44.466571807861 -77.432785034180 -187.212982177734 1.482498288155
58.742134094238 -75.819168090820 -236.879577636719 4.791694164276
-96.272880554199 -69.130165100098 -85.487159729004 2.050912857056
19.261867523193 -82.666542053223 -253.030593872070 4.274299144745
20.321266174316 -77.465156555176 -249.167434692383 2.358741044998
-128.257537841797 -72.300613403320 -296.056884765625 3.149512290955
22.385751724243 -76.722160339355 -163.063796997070 1.399259328842
29.058431625366 -84.513816833496 -149.909561157227 4.240729808807
25.621212005615 -76.260787963867 -151.697296142578 2.530468940735
84.697334289551 -72.482978820801 -96.769447326660 1.975860595703
-154.777786254883 -71.933776855469 -268.991607666016 3.454910039902
-148.540008544922 -65.206237792969 -271.200500488281 2.553977966309
-55.356056213379 -60.460369110107 -85.939285278320 3.620011568069
-163.378097534180 -72.121650695801 -260.603363037109 1.848057389259
-154.812332153320 -81.822906494141 -260.350921630859 1.203892469406
-160.732757568359 -73.839035034180 -261.739715576172 1.770727515221
-107.084457397461 -76.789054870605 -290.672821044922 2.500785350800
-165.271697998047 -73.664054870605 -265.301391601563 2.169780254364
-149.408370971680 -78.120223999023 -252.198043823242 1.322327971458
-145.398010253906 -82.763595581055 -253.902893066406 1.187314748764
25.077089309692 -80.491470336914 -152.075256347656 1.551826834679
25.651990890503 -75.975593566895 -154.045715332031 2.533575773239
21.716844558716 -75.113586425781 -163.671890258789 1.697029352188
-153.169555664063 -82.983383178711 -259.143463134766 0.510285139084
12.336662292480 -81.214317321777 -265.838378906250 3.182314157486
70.093101501465 -66.586914062500 -77.823875427246 3.363376140594
-56.324554443359 -73.058670043945 -65.914909362793 6.296827316284
-79.882499694824 -68.917182922363 -100.091201782227 1.373556971550
-47.713813781738 -67.882476806641 -82.364547729492 2.630498886108
-156.490844726563 -76.731513977051 -249.768798828125 4.147243976593
-70.484535217285 -73.579437255859 -66.119918823242 5.512939453125
-51.180435180664 -78.251937866211 -249.919494628906 3.104440927505
85.356437683105 -72.052230834961 -221.515213012695 0.643519878387
71.057777404785 -58.463764190674 -105.917610168457 2.800404548645
-115.308509826660 -75.217170715332 -292.520629882813 1.817705273628
-140.485290527344 -67.846710205078 -259.073577880859 2.799023151398
-150.862792968750 -63.719829559326 -257.798065185547 1.695263743401
-42.951316833496 -79.061195373535 -238.473937988281 2.263522386551
-129.553543090820 -72.381149291992 -222.167358398438 3.024493455887
-157.448715209961 -69.648986816406 -198.556289672852 3.379456043243
-34.481784820557 -76.405456542969 -73.804748535156 4.202435970306
-154.242553710938 -65.759506225586 -196.193786621094 2.822085618973
-124.833595275879 -68.469505310059 -227.686447143555 2.862668514252
-145.133514404297 -62.393550872803 -195.895904541016 2.206793308258
-144.717407226563 -59.345378875732 -200.875915527344 1.792678594589
-30.613958358765 -77.357719421387 -75.410720825195 2.868525981903
14.112581253052 -80.229255676270 -227.018676757813 1.657725095749
-166.397705078125 -78.543594360352 -261.057556152344 4.451415061951
-152.569595336914 -79.551300048828 -280.637420654297 2.298036098480
-134.952178955078 -79.565238952637 -292.754516601563 2.857851505280
82.299789428711 -74.985671997070 -82.128654479980 3.227322578430
70.300674438477 -74.742530822754 -89.220886230469 2.126978397369
25.462511062622 -75.104499816895 -167.272247314453 3.294028997421
-82.031082153320 -77.513198852539 -207.946517944336 3.039756536484
0.836045980453 -75.334541320801 -157.104721069336 3.331852912903
16.434339523315 -73.086151123047 -173.422729492188 2.753601551056
-45.622440338135 -79.297203063965 -244.772613525391 2.064249277115
-84.680221557617 -77.446159362793 -80.031105041504 3.359493732452
-62.902999877930 -69.197601318359 -131.860107421875 2.129846572876
-38.083709716797 -76.337882995605 -82.659515380859 2.661370515823
5.611917018890 -70.134559631348 -198.862228393555 2.803660869598
-19.602729797363 -73.962440490723 -242.485733032227 0.854344189167
-84.377967834473 -79.368919372559 -97.193588256836 2.462534427643
45.769985198975 -65.519020080566 -245.405029296875 2.819150209427
-75.112052917480 -74.513793945313 -103.831909179688 3.045435428619
-52.604862213135 -64.205627441406 -47.248771667480 3.370979547501
-110.554016113281 -67.341613769531 -257.576263427734 1.143761992455
-162.733413696289 -75.356483459473 -287.102111816406 1.574290871620
40.286308288574 -76.245147705078 -116.188575744629 1.605121135712
27.895763397217 -67.926551818848 -136.328933715820 2.326562881470
-84.968772888184 -70.662513732910 -256.710601806641 1.446903944016
-24.787769317627 -65.122322082520 -74.760818481445 3.128731250763
-141.027053833008 -65.605186462402 -195.178878784180 1.972566485405
-157.915954589844 -66.611656188965 -207.704757690430 1.863175630569
-150.310501098633 -60.094810485840 -196.184097290039 1.295884132385
43.749561309814 -76.770896911621 -120.829589843750 1.313741803169
41.148300170898 -77.706779479980 -116.167503356934 1.230173945427
52.940597534180 -72.452140808105 -96.917617797852 2.420222997665
29.886634826660 -80.120254516602 -144.127929687500 2.519517660141
24.650827407837 -72.396156311035 -145.750381469727 0.730433344841
-89.837562561035 -70.922111511230 -250.005310058594 2.822837591171
43.430015563965 -69.075790405273 -258.022644042969 2.610694408417
-51.017166137695 -75.888854980469 -149.708633422852 0.941925168037
-42.732929229736 -77.444763183594 -158.315841674805 1.600520372391
-16.113626480103 -71.027458190918 -203.296234130859 2.538903474808
-33.718986511230 -79.912628173828 -208.026458740234 1.629464626312
-52.965881347656 -81.908790588379 -158.628173828125 5.756853103638
-61.351444244385 -76.491172790527 -173.031265258789 1.781837344170
-150.440826416016 -75.220237731934 -187.875976562500 2.614306926727
-16.262561798096 -59.565998077393 -69.413093566895 5.558226108551
-41.660137176514 -82.027519226074 -160.440383911133 2.459933519363
23.332536697388 -79.285812377930 -159.395202636719 1.827308058739
30.388080596924 -76.271034240723 -160.067703247070 2.006511449814
28.123703002930 -76.391258239746 -147.851119995117 1.908783435822
-60.541210174561 -77.262977600098 -250.230667114258 1.498991370201
-95.058387756348 -75.420478820801 -215.236206054688 1.780672311783
25.114408493042 -77.118782043457 -164.366897583008 0.954995095730
27.301553726196 -77.747962951660 -164.348968505859 1.225181341171
21.346763610840 -77.136543273926 -152.455764770508 2.689841985703
-4.869462966919 -78.689117431641 -171.466430664063 0.820734560490
27.700130462646 -77.385375976563 -163.206848144531 1.321014761925
23.189374923706 -77.735702514648 -162.279525756836 0.619695723057
-27.247003555298 -80.761016845703 -185.559707641602 1.981600999832
-43.494468688965 -78.518806457520 -165.260498046875 2.059806108475
-27.936870574951 -81.110008239746 -171.578338623047 4.194982528687
-33.719520568848 -77.710777282715 -161.446334838867 2.151791095734
-23.629383087158 -75.218727111816 -180.388473510742 1.959335803986
59.942363739014 -75.261779785156 -237.421524047852 4.080839633942
92.028129577637 -75.086112976074 -205.577102661133 1.232368588448
-96.395286560059 -67.338699340820 -77.614669799805 1.244086384773
-35.696826934814 -61.599559783936 -49.725250244141 3.489168167114
-59.951293945313 -76.745330810547 -168.503890991211 1.887847661972
7.681396007538 -82.619453430176 -233.439636230469 2.951327323914
-130.834838867188 -65.007019042969 -230.800857543945 2.147684812546
33.900726318359 -69.935806274414 -114.490913391113 1.994725584984
-25.533622741699 -72.469070434570 -190.895156860352 1.146033406258
-57.177108764648 -77.958213806152 -169.654144287109 1.279919624329
-24.297876358032 -67.639747619629 -191.692428588867 2.066121816635
10.156186103821 -70.067794799805 -221.534683227539 1.573497176170
-81.500320434570 -63.546615600586 -133.375244140625 3.368909835815
-28.151348114014 -71.997093200684 -199.535522460938 2.233171224594
-58.473281860352 -72.249435424805 -168.269058227539 2.383427858353
-24.069477081299 -79.746841430664 -193.427566528320 2.067602157593
-25.953929901123 -65.054138183594 -202.457809448242 4.714117050171
-10.318980216980 -77.066482543945 -208.395935058594 0.554103255272
-135.132247924805 -78.316085815430 -199.040237426758 1.641752362251
14.533924102783 -71.113708496094 -183.517807006836 1.875515580177
-18.129358291626 -83.026939392090 -218.085784912109 4.333162307739
-136.913177490234 -76.266326904297 -198.440795898438 2.042792797089
16.595325469971 -79.336257934570 -228.603256225586 1.647964715958
-18.283506393433 -79.422698974609 -196.772506713867 0.846606254578
-40.396266937256 -76.439208984375 -152.502044677734 1.731821060181
-43.172847747803 -73.745300292969 -155.402282714844 2.968966007233
-91.402465820313 -63.644855499268 -117.050033569336 2.219111919403
-102.487960815430 -75.052146911621 -255.261291503906 2.721026420593
-152.892105102539 -80.569908142090 -199.411300659180 1.336859226227
-162.749130249023 -71.183166503906 -197.715957641602 1.557470560074
93.795387268066 -57.363891601563 -60.408069610596 2.030882358551
57.275913238525 -67.831367492676 -84.762557983398 0.846793174744
75.349563598633 -68.032447814941 -62.713775634766 0.838670551777
-27.687326431274 -66.041252136230 -177.576461791992 3.441517353058
75.268257141113 -67.526596069336 -67.974082946777 2.096618652344
-118.569351196289 -75.735176086426 -259.931457519531 3.455475091934
-29.435092926025 -71.876380920410 -173.812088012695 2.049800395966
45.561790466309 -67.090194702148 -99.191268920898 1.340783715248
-157.688888549805 -79.059761047363 -299.813110351563 4.177067279816
37.481513977051 -73.159629821777 -108.904998779297 1.291369557381
51.186935424805 -73.528961181641 -96.917961120605 1.333944320679
69.954971313477 -65.934387207031 -74.321220397949 2.974811553955
-139.761383056641 -75.673431396484 -285.048889160156 3.042576789856
-35.361255645752 -70.446769714355 -178.021972656250 1.654556751251
44.082408905029 -72.061271667480 -104.744079589844 1.769797563553
52.761070251465 -67.136360168457 -88.147239685059 1.365560054779
-50.241813659668 -78.459869384766 -199.486694335938 1.240264058113
-155.155670166016 -78.535804748535 -297.992858886719 3.028696298599
-154.216171264648 -73.578742980957 -293.663726806641 0.698720216751
68.856483459473 -68.387504577637 -76.958862304688 1.072638154030
-150.881774902344 -70.845428466797 -294.078430175781 1.799197196960
-34.495796203613 -68.431854248047 -173.558822631836 1.882762789726
-26.913467407227 -69.811927795410 -183.310638427734 0.956512689590
-139.930511474609 -72.346694946289 -285.447296142578 0.834636807442
-148.676208496094 -69.548362731934 -284.834808349609 2.500690698624
-155.031585693359 -69.650100708008 -294.503265380859 1.160068750381
-153.743743896484 -65.981285095215 -284.291961669922 0.956073224545
26.940902709961 -67.857147216797 -264.808685302734 1.487434625626
-53.172595977783 -82.375579833984 -204.120147705078 1.428914904594
-158.517395019531 -72.871849060059 -239.302078247070 1.512698769569
18.773059844971 -81.759719848633 -201.306381225586 4.311250209808
19.300350189209 -83.564407348633 -238.764099121094 2.575227499008
-14.401152610779 -79.379257202148 -207.445602416992 1.897793173790
32.809688568115 -74.015052795410 -260.499755859375 3.876416921616
47.187477111816 -69.110244750977 -116.467399597168 2.680404901505
-35.409122467041 -80.630073547363 -208.225006103516 2.317892074585
100.033134460449 -77.302085876465 -202.385131835938 2.718553066254
19.137256622314 -85.093902587891 -243.450958251953 3.596045732498
-87.586273193359 -65.045967102051 -121.903388977051 2.783771753311
-13.371633529663 -81.788276672363 -215.723922729492 4.020497798920
12.167272567749 -78.673309326172 -210.766632080078 1.781337976456
-8.637939453125 -78.863685607910 -226.054519653320 2.917051553726
17.964540481567 -79.012351989746 -186.099472045898 1.507937073708
-146.394195556641 -74.341407775879 -215.568771362305 1.965125679970
-158.127441406250 -67.734405517578 -218.302963256836 2.106214284897
-68.566184997559 -54.369926452637 -120.556945800781 1.818749308586
-93.942680358887 -74.277496337891 -286.979003906250 2.057069778442
-142.697509765625 -70.631362915039 -236.053543090820 0.391376912594
-145.257843017578 -67.361389160156 -236.124938964844 1.213629603386
-120.322868347168 -66.046173095703 -204.636260986328 0.772864520550
14.954769134521 -80.010246276855 -184.557373046875 3.093481302261
20.266399383545 -76.741310119629 -183.287185668945 0.967890620232
-14.030434608459 -77.156639099121 -216.192794799805 1.665093779564
-153.457489013672 -83.365097045898 -223.950698852539 2.680011034012
-164.378952026367 -66.254753112793 -223.413482666016 2.131096601486
-5.520409107208 -79.872016906738 -220.613754272461 2.071138858795
-161.295959472656 -73.231094360352 -218.045486450195 3.818950653076
-6.314394950867 -79.059143066406 -227.816833496094 2.089805364609
-9.160203933716 -64.949958801270 -247.258514404297 1.636846899986
-146.411148071289 -81.709739685059 -225.937484741211 1.345660328865
-151.622558593750 -78.227134704590 -223.571334838867 1.683040022850
-163.853958129883 -66.496810913086 -224.424209594727 2.960955381393
-118.175537109375 -72.665039062500 -203.814117431641 3.728659868240
30.720676422119 -77.896308898926 -183.193298339844 4.040481090546
-162.164901733398 -74.857978820801 -230.932006835938 1.501967787743
-101.620147705078 -73.129562377930 -292.005523681641 1.470923900604
-148.057678222656 -71.503486633301 -248.354553222656 3.610853672028
-154.115829467773 -75.992019653320 -229.160766601563 2.692855596542
-152.042877197266 -83.464752197266 -235.532806396484 3.334076642990
-166.188629150391 -69.940223693848 -238.497863769531 1.557220220566
-130.565460205078 -68.350265502930 -206.986099243164 3.220256090164
-154.498870849609 -71.783386230469 -199.012878417969 0.964846134186
-153.677124023438 -76.160812377930 -199.190414428711 1.174896001816
17.327201843262 -78.348007202148 -236.123062133789 2.257777690887
8.135391235352 -81.814277648926 -236.726150512695 2.042871236801
-62.150268554688 -76.321067810059 -170.907302856445 1.795724391937
-29.992038726807 -78.904159545898 -210.903579711914 1.332095503807
-20.573638916016 -79.341484069824 -207.301879882813 2.718425989151
-47.322071075439 -83.302368164063 -240.155059814453 5.120395183563
97.635551452637 -65.784690856934 -82.166145324707 3.812000751495
-36.465927124023 -81.125221252441 -240.373580932617 1.935215950012
16.168088912964 -70.733222961426 -199.653976440430 2.357844829559
-55.874164581299 -63.006790161133 -123.318077087402 1.962432622910
-158.676177978516 -75.969863891602 -282.240142822266 4.260186195374
-128.999221801758 -76.240776062012 -256.478576660156 2.804108142853
-153.929641723633 -76.574249267578 -287.974182128906 1.329324483871
-155.973129272461 -78.360717773438 -280.969512939453 4.382779598236
-149.428970336914 -77.011024475098 -293.029144287109 2.950813055038
-154.330276489258 -66.387840270996 -286.487640380859 2.468657970428
-147.655166625977 -69.319297790527 -304.295989990234 2.637453556061
-123.057884216309 -70.662643432617 -255.969757080078 0.529540121555
77.015083312988 -60.282234191895 -60.432914733887 1.965312242508
94.193550109863 -68.007781982422 -67.326934814453 1.666816353798
-117.666282653809 -73.036010742188 -263.976440429688 2.556864738464
-60.064826965332 -71.763160705566 -62.005683898926 5.760711193085
-116.433509826660 -72.717498779297 -260.702636718750 1.902185559273
-46.559780120850 -73.207443237305 -59.176582336426 3.286791563034
-83.294281005859 -76.846694946289 -70.169265747070 3.813612699509
-65.879142761230 -62.050014495850 -101.790641784668 2.300046920776
-85.690948486328 -73.442947387695 -75.725807189941 3.820356607437
11.556638717651 -77.142517089844 -289.908020019531 1.820427060127
-27.157131195068 -75.895355224609 -70.596389770508 1.643689870834
-39.140956878662 -71.259895324707 -83.249443054199 3.329458475113
45.783267974854 -78.947059631348 -107.682876586914 2.591466665268
52.603557586670 -69.523864746094 -247.106781005859 0.894099354744
13.865853309631 -69.935813903809 -237.355392456055 2.036205768585
-91.161201477051 -64.832626342773 -133.722686767578 2.052694320679
31.506059646606 -76.873695373535 -121.164131164551 1.426141381264
38.040203094482 -73.065315246582 -116.558006286621 2.105220079422
-17.755903244019 -79.905357360840 -200.281616210938 2.592605352402
-81.611526489258 -71.390350341797 -255.589981079102 0.954483985901
38.845539093018 -78.517005920410 -126.000541687012 2.008010625839
15.195933341980 -76.531600952148 -231.923217773438 1.400601387024
34.124763488770 -68.480834960938 -146.371704101563 2.370991230011
-31.537694931030 -75.280769348145 -169.786666870117 2.285562992096
-36.238914489746 -74.093284606934 -164.660858154297 2.266986131668
-28.243949890137 -78.862365722656 -172.374771118164 2.733614444733
-19.738645553589 -74.811119079590 -181.147445678711 1.090921044350
-0.241753995419 -77.526351928711 -164.974029541016 1.650992393494
18.943157196045 -71.879203796387 -167.871932983398 1.321928143501
27.274810791016 -74.244819641113 -175.300155639648 1.094965934753
23.915243148804 -79.122817993164 -177.747467041016 2.179342746735
-158.605255126953 -71.652267456055 -220.744598388672 3.168351888657
-152.313385009766 -80.657066345215 -224.080657958984 1.495537996292
18.488334655762 -79.064743041992 -182.290145874023 0.365747153759
18.188402175903 -69.377357482910 -196.727661132813 1.258729219437
-57.074455261230 -68.244262695313 -130.815231323242 2.746953010559
12.781565666199 -78.544288635254 -190.458068847656 1.993115305901
15.792111396790 -79.189796447754 -195.280014038086 1.976434588432
-7.124725818634 -82.376480102539 -219.791564941406 3.302809953690
43.030136108398 -69.596405029297 -117.411178588867 0.395164132118
-33.798969268799 -76.853950500488 -203.030105590820 2.106297492981
-27.575679779053 -75.481414794922 -218.620391845703 1.754252076149
-63.972541809082 -77.281082153320 -176.869110107422 2.753124713898
38.355960845947 -68.261466979980 -127.779731750488 2.539973020554
11.223560333252 -74.646141052246 -193.410247802734 1.591735839844
-22.389026641846 -74.607078552246 -225.148971557617 1.845060229301
-55.679565429688 -73.116851806641 -137.040359497070 1.896634459496
12.906042098999 -80.222282409668 -200.747863769531 2.104232311249
6.254477977753 -77.712692260742 -200.560455322266 2.730359554291
39.278793334961 -55.130378723145 -22.150867462158 2.070019006729
12.111298561096 -76.010963439941 -205.651184082031 2.367089748383
5.649713039398 -75.180915832520 -206.157836914063 1.487678170204
-30.938028335571 -78.334854125977 -238.165252685547 2.236692667007
10.513343811035 -82.509208679199 -210.889312744141 4.338219642639
15.101688385010 -78.833534240723 -215.374511718750 1.413123726845
19.862922668457 -64.693977355957 -26.242086410522 2.078480243683
-74.580947875977 -64.350898742676 -48.445926666260 2.408345460892
20.183736801147 -60.670307159424 -21.937101364136 1.772078633308
-74.953292846680 -78.029975891113 -214.608871459961 1.364216208458
-101.914688110352 -73.020896911621 -283.576751708984 3.147232770920
-69.164779663086 -69.726898193359 -249.545700073242 2.540125608444
-151.502090454102 -78.206153869629 -229.128692626953 1.142233729362
-6.745509147644 -81.082885742188 -215.903854370117 1.756008028984
-103.125579833984 -71.313667297363 -286.877105712891 2.325861692429
-159.798324584961 -72.737182617188 -230.755279541016 2.341495752335
-148.834533691406 -65.968070983887 -242.802154541016 3.589100360870
-149.284698486328 -62.072879791260 -247.391403198242 1.654009222984
-21.157945632935 -73.807983398438 -180.473800659180 1.552841663361
6.697223186493 -79.610839843750 -220.051971435547 1.348243474960
8.856966972351 -80.091033935547 -215.761978149414 1.372403144836
-125.455886840820 -65.091911315918 -203.195617675781 1.814746379852
-154.279861450195 -74.694763183594 -219.718246459961 2.530633926392
-159.265716552734 -67.273765563965 -222.473968505859 1.334307432175
5.699707031250 -79.591072082520 -224.857055664063 2.852444887161
-13.729433059692 -74.666290283203 -247.646194458008 3.357288360596
-161.097442626953 -74.211456298828 -235.606903076172 1.138280153275
-153.440628051758 -80.773094177246 -231.674530029297 1.400352835655
-15.059964179993 -73.242645263672 -240.150146484375 1.747412085533
106.891853332520 -72.641075134277 -113.763038635254 0.899421930313
-29.253803253174 -83.639839172363 -239.849716186523 3.509631872177
38.035125732422 -58.931022644043 -19.850259780884 4.004329204559
-26.997358322144 -79.281227111816 -241.424911499023 2.458613395691
111.898826599121 -66.737869262695 -141.748153686523 3.330641269684
-52.602169036865 -81.951965332031 -247.482788085938 3.655581235886
-39.219890594482 -78.544403076172 -246.703323364258 1.441127777100
-86.827873229980 -58.793666839600 -52.998100280762 4.410070419312
-85.256515502930 -64.941810607910 -55.426826477051 1.867616176605
110.722785949707 -71.356246948242 -122.244712829590 0.883023023605
-72.713562011719 -76.797286987305 -210.037231445313 0.971613347530
-46.102027893066 -72.891578674316 -245.020965576172 2.951884031296
-86.895462036133 -73.680580139160 -213.761001586914 1.472346425056
-57.562213897705 -81.655364990234 -243.690704345703 3.384772300720
-51.256015777588 -79.670921325684 -245.154479980469 0.806695938110
-150.290023803711 -85.133560180664 -267.126312255859 2.027268171310
-128.738662719727 -80.934730529785 -284.126800537109 5.353933811188
83.259704589844 -69.889595031738 -216.500946044922 2.260453939438
-108.479766845703 -71.633094787598 -292.014068603516 1.694522261620
-151.812194824219 -65.790687561035 -258.029205322266 2.454037904739
-149.061691284180 -66.529853820801 -260.018585205078 2.238960266113
-22.858371734619 -64.656539916992 -57.832115173340 4.108146190643
34.524330139160 -65.026237487793 -118.008209228516 5.333459377289
-80.697402954102 -63.212856292725 -131.371719360352 2.850559234619
-5.119338989258 -75.976585388184 -248.317794799805 2.648092269897
20.918510437012 -66.881225585938 -31.954853057861 3.992272853851
111.977973937988 -69.870948791504 -124.968353271484 1.988730549812
-10.553356170654 -82.103858947754 -252.661605834961 3.836309194565
-12.094635009766 -78.422660827637 -252.309829711914 3.501654624939
77.036102294922 -70.040519714355 -229.678573608398 1.211166262627
67.782669067383 -57.147354125977 -72.458190917969 3.154358863831
-71.530357360840 -59.274913787842 -94.874786376953 2.897870302200
16.634241104126 -74.075744628906 -166.470443725586 2.356185674667
-158.070251464844 -70.763839721680 -265.894958496094 1.362377166748
-150.146972656250 -78.575775146484 -262.246276855469 1.587771534920
89.706489562988 -71.505256652832 -88.151718139648 5.444769382477
74.279624938965 -72.516128540039 -221.241592407227 4.543583869934
-12.398640632629 -80.571556091309 -261.929412841797 3.241255998611
-10.011007308960 -79.903999328613 -272.876831054688 1.995288848877
-2.693027019501 -67.248306274414 -257.231262207031 3.121366262436
-90.143630981445 -72.440017700195 -212.521926879883 2.100725650787
-83.775833129883 -58.571487426758 -53.118358612061 4.990055561066
87.349174499512 -76.194938659668 -72.806297302246 2.733319520950
83.072715759277 -69.913894653320 -75.946281433105 4.352657794952
17.266122817993 -79.803833007813 -279.613037109375 3.285260438919
