-63.730274200439 -74.731445312500 -94.908454895020 1.740662693977
46.700904846191 -76.576087951660 -107.552352905273 1.942192435265
85.956008911133 -73.580665588379 -72.504264831543 0.980461120605
-48.355556488037 -73.305030822754 -139.561462402344 1.081497788429
12.819645881653 -76.029518127441 -208.844467163086 1.407156229019
-46.605422973633 -75.055000305176 -147.900711059570 2.193659543991
-168.967025756836 -67.901962280273 -237.664199829102 2.814367532730
-135.900482177734 -65.924392700195 -202.322402954102 2.646878242493
-99.184890747070 -66.236602783203 -254.343841552734 3.022574424744
-162.976806640625 -67.315811157227 -196.064544677734 2.442944288254
-40.272682189941 -77.837379455566 -149.448928833008 1.284450173378
47.744113922119 -60.319595336914 -115.972740173340 2.512570381165
-60.728309631348 -72.354850769043 -163.231445312500 1.763343572617
-17.499753952026 -78.341300964355 -206.558929443359 2.245921373367
-120.683486938477 -73.717353820801 -226.993667602539 2.445823669434
-124.068389892578 -69.023490905762 -232.935470581055 1.871150255203
-67.334815979004 -72.890357971191 -154.500946044922 1.028125047684
21.499370574951 -75.371612548828 -154.410781860352 2.471309185028
-69.547409057617 -77.698783874512 -161.743240356445 2.226796388626
-17.863492965698 -75.208267211914 -211.144561767578 1.669868469238
-10.990552902222 -79.050422668457 -204.210693359375 2.739832639694
109.673881530762 -74.444488525391 -167.944503784180 1.333963632584
-55.168304443359 -74.972503662109 -169.579513549805 4.049314022064
-24.596443176270 -77.095390319824 -200.673324584961 2.373523712158
7.028389930725 -71.221641540527 -227.342620849609 1.711676359177
-80.727760314941 -63.319889068604 -133.028289794922 3.096162557602
109.990127563477 -77.421203613281 -176.634887695313 0.659313142300
-68.393852233887 -74.483444213867 -168.136489868164 3.726193189621
110.557960510254 -76.554542541504 -171.767288208008 2.128772735596
-16.769454956055 -75.368568420410 -175.323944091797 2.974666833878
-31.946365356445 -72.295173645020 -160.729156494141 1.201856255531
112.141281127930 -76.476486206055 -183.725921630859 1.936662435532
21.226907730103 -77.712638854980 -188.908142089844 1.691660404205
14.363859176636 -79.756240844727 -196.205551147461 1.464561104774
-48.785724639893 -78.053054809570 -289.913848876953 3.045275211334
-144.871688842773 -73.378875732422 -191.892333984375 2.119760036469
11.722942352295 -64.159667968750 -240.908767700195 2.637545585632
-25.304489135742 -65.445610046387 -75.673576354980 2.848479509354
-25.217624664307 -66.509696960449 -70.364578247070 2.195811748505
-72.714149475098 -67.366004943848 -115.873680114746 2.393862009048
106.009910583496 -75.055656433105 -194.212371826172 1.879273295403
-150.549621582031 -69.542404174805 -213.894729614258 1.773364424706
-138.762298583984 -74.873451232910 -197.999450683594 2.200137138367
-153.106674194336 -64.513092041016 -211.227066040039 2.603497266769
-124.705184936523 -61.921985626221 -226.822189331055 2.226659297943
-146.871673583984 -58.492603302002 -213.665161132813 3.379522323608
42.877857208252 -64.003242492676 -116.299461364746 3.934782028198
-106.666145324707 -69.305389404297 -261.450561523438 0.546834409237
-88.896705627441 -63.120891571045 -117.619827270508 1.466305017471
60.939311981201 -73.766151428223 -245.296035766602 3.525905847549
-49.667026519775 -79.214981079102 -196.985412597656 2.855090618134
9.377467155457 -75.213241577148 -199.451019287109 2.204241037369
-104.155426025391 -63.242515563965 -171.565750122070 1.445142626762
21.497732162476 -76.224151611328 -194.374984741211 3.462415218353
45.462093353271 -62.389377593994 -22.886400222778 2.483400583267
-102.307815551758 -61.614032745361 -161.812683105469 1.190692186356
-12.409367561340 -76.412628173828 -198.120834350586 2.565529346466
7.071569919586 -76.138793945313 -224.979156494141 1.727542757988
-20.764741897583 -79.110076904297 -201.050949096680 0.406786024570
-130.932907104492 -70.412384033203 -201.135437011719 2.910882472992
-123.359771728516 -68.654541015625 -203.943725585938 0.602678775787
16.952131271362 -78.197814941406 -202.338745117188 1.429339170456
95.687965393066 -78.122077941895 -202.521072387695 1.698292851448
100.984306335449 -80.609893798828 -207.915344238281 4.623878002167
-70.995124816895 -79.358932495117 -203.936355590820 2.532155990601
-60.527538299561 -74.001617431641 -159.530334472656 2.822698116302
-16.038366317749 -78.299285888672 -207.536178588867 2.173744916916
-153.022659301758 -70.536026000977 -230.897644042969 2.664416790009
-75.452964782715 -80.385032653809 -288.795806884766 3.111898899078
-144.846649169922 -75.841789245605 -213.754272460938 1.770592451096
47.463539123535 -57.894649505615 -42.380352020264 3.725213527679
-28.699369430542 -77.198036193848 -216.388916015625 1.550876140594
-73.930900573730 -72.882553100586 -143.339172363281 0.914892196655
-0.739750981331 -74.799331665039 -219.562057495117 2.330909490585
-3.490080118179 -65.189270019531 -236.701553344727 1.299799442291
8.124283790588 -76.940872192383 -223.207351684570 1.096882343292
-37.745964050293 -77.565353393555 -242.199661254883 1.287250638008
-21.335990905762 -78.395515441895 -224.563613891602 2.118408441544
17.082523345947 -65.371620178223 -203.265701293945 3.418672084808
-59.687370300293 -65.758529663086 -128.317031860352 1.087419748306
-149.985076904297 -79.391212463379 -227.544067382813 1.275096297264
-159.109588623047 -66.921493530273 -222.788574218750 1.178886532784
-141.331527709961 -76.952583312988 -229.460830688477 1.689608573914
-131.076614379883 -62.842620849609 -197.431411743164 0.787903010845
-6.185650825500 -73.910507202148 -235.011779785156 0.593899488449
-8.339509963989 -69.893768310547 -232.999633789063 2.590205907822
-149.438751220703 -77.674087524414 -233.651031494141 0.774018883705
-103.557662963867 -65.576248168945 -184.805984497070 3.538249254227
-158.569976806641 -67.689537048340 -235.766021728516 1.772228240967
-70.363319396973 -73.318817138672 -289.162933349609 2.441166639328
-55.813968658447 -77.620307922363 -243.595977783203 1.520841956139
-78.497863769531 -67.527992248535 -138.189529418945 1.809880137444
-0.429206013680 -82.631484985352 -245.557601928711 4.311818599701
108.051208496094 -72.604888916016 -155.049987792969 3.300888061523
19.661041259766 -77.932075500488 -255.424255371094 0.844605743885
109.747100830078 -68.585220336914 -151.522644042969 3.231052160263
-51.185653686523 -73.400764465332 -53.790904998779 1.471034646034
-91.470001220703 -73.454345703125 -95.014175415039 2.843476295471
19.574018478394 -77.899299621582 -269.022583007813 1.136273384094
15.980511665344 -76.006866455078 -271.052124023438 4.241178989410
-84.031196594238 -76.791877746582 -253.136306762695 2.593041658401
-44.500846862793 -79.131813049316 -284.997650146484 2.598138093948
-73.452140808105 -77.016090393066 -247.762298583984 2.628391504288
-116.505729675293 -66.099777221680 -229.067214965820 0.698976337910
-41.202625274658 -77.261672973633 -284.529083251953 2.458500623703
-41.410133361816 -82.299156188965 -289.584442138672 5.946124553680
-23.776519775391 -74.302734375000 -67.015304565430 2.445424795151
43.289993286133 -65.623542785645 -255.870651245117 1.120324969292
114.708770751953 -71.782737731934 -152.268661499023 1.758510112762
-11.113353729248 -80.576957702637 -287.981628417969 3.794843673706
117.700210571289 -71.478279113770 -156.384262084961 2.001285076141
-15.697337150574 -81.301689147949 -287.275634765625 3.913971424103
-32.168197631836 -77.486602783203 -290.521789550781 2.272690773010
-149.141540527344 -75.458618164063 -275.449310302734 2.120630741119
80.438186645508 -76.521186828613 -230.762725830078 1.739117980003
-82.562721252441 -73.075912475586 -60.725772857666 1.965424895287
-134.269378662109 -76.584686279297 -287.788513183594 2.153707265854
70.833114624023 -65.649162292480 -103.775260925293 1.876708626747
112.434951782227 -70.504165649414 -164.227935791016 0.765009403229
-11.663380622864 -81.517257690430 -283.952056884766 6.193110942841
-4.745257854462 -78.242820739746 -291.404663085938 0.930417180061
23.713594436646 -65.099555969238 -272.738220214844 1.837965607643
23.059133529663 -59.971714019775 -271.612762451172 2.215881586075
-66.409629821777 -65.925132751465 -51.503265380859 4.891152858734
97.460037231445 -72.345123291016 -212.720733642578 2.777473926544
-56.333038330078 -75.245521545410 -287.171600341797 2.527846097946
-144.611694335938 -72.307540893555 -201.099777221680 2.377677202225
-110.429695129395 -66.348556518555 -224.390853881836 0.925351321697
7.231818199158 -77.284851074219 -290.569549560547 1.283630490303
-85.943962097168 -75.553215026855 -77.119903564453 3.391265869141
-112.101295471191 -73.311889648438 -288.609832763672 1.460851192474
86.625289916992 -72.780235290527 -219.051818847656 1.596049666405
-129.440704345703 -73.944244384766 -285.808197021484 2.594399213791
-145.643035888672 -77.105773925781 -273.800659179688 2.451829910278
-131.033935546875 -78.031143188477 -288.670654296875 1.505308151245
-87.138099670410 -80.145050048828 -213.443359375000 1.769445180893
-142.303070068359 -64.076553344727 -256.289764404297 1.455074429512
-76.662734985352 -75.245239257813 -57.852951049805 2.892741441727
82.610107421875 -79.591766357422 -226.060913085938 4.415973663330
-53.575572967529 -61.407321929932 -88.884078979492 3.351928472519
15.948789596558 -78.192817687988 -290.247894287109 1.578723669052
-79.096176147461 -73.080650329590 -66.065513610840 3.995900154114
-87.169090270996 -71.152191162109 -82.701812744141 4.220479965210
28.698474884033 -71.360267639160 -257.649993896484 2.056560993195
49.306446075439 -69.827690124512 -108.745880126953 1.314128756523
59.600635528564 -67.508216857910 -94.495506286621 1.160562992096
86.680648803711 -77.981040954590 -214.504592895508 3.291113615036
20.990766525269 -64.683853149414 -258.285888671875 3.133301258087
-34.075866699219 -56.537937164307 -46.936683654785 3.558046579361
-72.000968933105 -64.692977905273 -51.333591461182 5.067818164825
14.776098251343 -63.344558715820 -285.512268066406 2.460762023926
79.038108825684 -72.537422180176 -91.970657348633 4.171637535095
18.457557678223 -77.603820800781 -273.675262451172 1.221743702888
-91.006889343262 -76.327568054199 -86.550155639648 3.543512105942
38.757976531982 -68.146369934082 -112.975769042969 2.584217309952
48.990146636963 -69.515701293945 -88.569160461426 1.708360791206
53.198246002197 -71.298423767090 -91.850242614746 1.099205970764
25.085529327393 -73.498512268066 -149.597167968750 2.665620565414
-142.683654785156 -73.384902954102 -253.429153442383 1.826120257378
-150.862564086914 -74.270812988281 -275.944335937500 1.146522879601
-150.503997802734 -78.049118041992 -266.417053222656 2.744181156158
74.839286804199 -78.539230346680 -93.679618835449 3.210563421249
-155.203979492188 -70.949951171875 -269.824096679688 4.331064701080
-146.976867675781 -68.025497436523 -254.545730590820 1.893252849579
-110.886772155762 -69.333671569824 -286.576171875000 3.897221088409
29.534347534180 -62.488498687744 -153.955261230469 5.961484432220
-114.056823730469 -68.610588073730 -286.765411376953 1.690014481544
-50.450416564941 -58.943416595459 -81.194282531738 2.690387487411
-150.130554199219 -63.108169555664 -251.525207519531 1.316649436951
72.659408569336 -71.963958740234 -234.325515747070 0.993681669235
-72.262939453125 -69.589981079102 -49.936717987061 1.278065085411
-78.715095520020 -66.601631164551 -96.745864868164 3.355747222900
-83.245330810547 -73.167541503906 -106.954689025879 1.496465444565
110.446723937988 -75.494819641113 -133.877365112305 1.591203093529
113.159507751465 -77.305816650391 -138.829528808594 1.408157944679
9.280195236206 -77.350601196289 -195.866790771484 2.756323337555
-51.107414245605 -75.925361633301 -135.126800537109 1.947987914085
-78.912452697754 -73.357246398926 -208.947662353516 1.241723656654
110.002525329590 -80.694145202637 -133.326278686523 4.425929069519
110.698768615723 -80.530357360840 -138.716812133789 4.342355728149
-50.967990875244 -71.588302612305 -142.428039550781 3.324201345444
116.942756652832 -75.157104492188 -149.958770751953 2.100934505463
116.766563415527 -78.137329101563 -144.823608398438 3.911299705505
-56.421173095703 -77.837875366211 -137.904891967773 2.215905666351
-62.935810089111 -75.517829895020 -252.225463867188 1.583614349365
-38.933364868164 -71.509803771973 -145.212219238281 3.909925460815
113.707481384277 -79.361434936523 -143.456192016602 3.706506490707
109.922172546387 -74.589904785156 -153.966949462891 2.168196439743
72.606048583984 -59.663818359375 -62.781578063965 2.212506294250
28.644023895264 -65.910758972168 -261.362091064453 1.978372454643
113.818687438965 -77.113395690918 -165.026382446289 2.294306516647
0.012447999790 -75.012283325195 -169.549606323242 1.282519221306
-41.215984344482 -62.441997528076 -78.686401367188 1.149236202240
-100.625465393066 -73.464019775391 -224.048187255859 0.760366022587
114.601219177246 -78.275405883789 -167.705383300781 1.237565636635
44.838687896729 -63.492359161377 -94.119590759277 4.639479637146
49.164714813232 -66.057312011719 -101.496589660645 2.083172559738
-84.406883239746 -62.988037109375 -110.914939880371 1.768955826759
-52.391769409180 -57.442863464355 -75.838150024414 3.020830154419
102.626548767090 -77.538604736328 -180.376724243164 2.017295360565
103.650489807129 -78.298973083496 -183.447586059570 1.608011245728
104.770904541016 -73.948272705078 -186.367919921875 1.128422617912
105.188667297363 -79.444023132324 -186.118255615234 3.575807332993
105.651268005371 -77.760437011719 -189.119461059570 0.881382942200
-153.814407348633 -76.148864746094 -234.877441406250 3.103228330612
12.672831535339 -74.753952026367 -194.132720947266 1.580517172813
-145.092788696289 -60.991092681885 -236.687515258789 1.690808057785
-142.705902099609 -75.129142761230 -202.267745971680 2.321895599365
-63.689395904541 -78.276641845703 -284.235992431641 3.700560092926
-33.296222686768 -60.335102081299 -79.886550903320 3.682863712311
103.183578491211 -77.971916198730 -195.078994750977 1.392803430557
-156.497085571289 -69.256759643555 -202.754608154297 1.728993654251
-27.859024047852 -71.431709289551 -80.144050598145 2.649013757706
-152.930541992188 -76.732734680176 -200.621963500977 1.641303062439
-32.552268981934 -67.620735168457 -77.114044189453 1.227031946182
-78.220741271973 -67.671768188477 -125.883758544922 1.925530314445
-76.784782409668 -59.434955596924 -124.290893554688 2.382216453552
-61.835605621338 -78.446594238281 -289.237945556641 2.586995601654
-147.105239868164 -74.981994628906 -203.495742797852 2.900846242905
112.742980957031 -72.133575439453 -136.357589721680 2.025588750839
115.495002746582 -72.232398986816 -134.752593994141 2.433771371841
-74.803016662598 -75.757148742676 -210.227813720703 0.808649718761
97.729331970215 -77.106323242188 -213.190139770508 3.549702405930
17.383392333984 -63.709690093994 -150.156585693359 1.279121875763
-53.754413604736 -69.076324462891 -89.925018310547 2.727075099945
-77.103797912598 -74.636627197266 -211.873001098633 2.154943943024
-127.385498046875 -74.165718078613 -228.403778076172 1.747356772423
-71.907249450684 -83.346046447754 -289.789276123047 7.472574234009
-146.933975219727 -76.599708557129 -217.986938476563 1.882930994034
-152.980484008789 -65.919540405273 -193.873199462891 1.594338297844
-142.799118041992 -59.893524169922 -196.437744140625 1.264367818832
-148.698318481445 -57.945827484131 -192.572280883789 3.741653442383
-7.479763031006 -55.550399780273 -56.279270172119 2.180610418320
13.844785690308 -77.702819824219 -217.824203491211 2.297078132629
-75.944564819336 -68.227401733398 -55.679080963135 5.847281932831
87.749755859375 -76.442489624023 -217.881301879883 1.917445063591
-17.770339965820 -77.711540222168 -217.955215454102 1.897167563438
-15.029075622559 -76.256149291992 -229.942291259766 2.185488224030
51.090602874756 -66.580184936523 -31.890960693359 3.706901788712
15.604328155518 -81.030426025391 -229.540573120117 1.720190405846
-135.610092163086 -77.274490356445 -223.864517211914 3.324313402176
-8.167757987976 -73.448204040527 -230.818344116211 2.064233303070
-150.674301147461 -70.598983764648 -215.189559936523 2.278071880341
-7.203349113464 -70.506317138672 -234.638549804688 1.687037706375
-155.606079101563 -71.821472167969 -213.786163330078 2.573915481567
-89.749725341797 -76.829536437988 -287.280700683594 2.870399951935
-146.270019531250 -76.155929565430 -234.688461303711 0.564172327518
-96.746215820313 -76.587318420410 -286.779052734375 4.005651950836
-147.173797607422 -75.590896606445 -235.416259765625 1.271006345749
-62.603408813477 -74.345443725586 -246.648391723633 1.801108360291
-45.353263854980 -79.959716796875 -244.290634155273 1.993156671524
-48.141807556152 -69.949966430664 -82.287071228027 2.403732776642
-80.263526916504 -76.041557312012 -216.953994750977 1.858464956284
-50.834011077881 -76.845626831055 -247.018844604492 1.413633227348
-6.266383171082 -70.055091857910 -262.326324462891 3.141758918762
-12.462283134460 -75.964637756348 -253.140335083008 2.200651407242
-16.173543930054 -76.972534179688 -256.860168457031 3.119851589203
115.427597045898 -69.120285034180 -119.289299011230 1.189145207405
29.072290420532 -60.965476989746 -32.788391113281 2.193815231323
-146.634140014648 -71.468925476074 -266.443969726563 1.508981943130
-140.807540893555 -69.172088623047 -261.199676513672 1.630988717079
-84.040588378906 -62.143272399902 -50.429080963135 0.626633286476
-14.492935180664 -74.148452758789 -273.590789794922 3.584642410278
25.937835693359 -56.544586181641 -27.658182144165 2.035499811172
-135.676086425781 -76.159446716309 -286.936340332031 0.550033390522
-150.468719482422 -78.482223510742 -278.648437500000 1.024830341339
33.120067596436 -67.108131408691 -14.083138465881 1.768521904945
24.548412322998 -63.148044586182 -18.905593872070 2.459908962250
5.539684772491 -81.893394470215 -286.381317138672 4.014920711517
-112.301521301270 -71.432632446289 -229.399124145508 1.076645374298
-81.016510009766 -74.139823913574 -254.840927124023 1.058564782143
-140.591369628906 -76.895080566406 -203.154479980469 1.956202268600
-58.164619445801 -78.313148498535 -287.189605712891 2.179041147232
-124.489479064941 -74.840942382813 -228.420104980469 1.397659301758
-154.589004516602 -72.207054138184 -194.682662963867 2.098739862442
-69.287857055664 -76.124908447266 -286.673492431641 1.092787027359
-8.444127082825 -60.252265930176 -59.230266571045 1.356712222099
-123.066123962402 -73.810401916504 -251.587539672852 3.123475074768
-144.894073486328 -74.979583740234 -300.175201416016 1.645816206932
-150.440109252930 -77.191566467285 -297.310028076172 1.463868856430
-151.464782714844 -78.128692626953 -284.812835693359 1.371467232704
-130.037704467773 -66.861534118652 -257.274749755859 2.844599246979
-156.261596679688 -68.494575500488 -283.728088378906 2.885792493820
98.407127380371 -65.329444885254 -68.720001220703 0.478242188692
-1.269245982170 -78.980712890625 -294.760162353516 4.359144210815
73.517173767090 -69.708511352539 -103.956886291504 0.957132756710
77.382278442383 -66.567947387695 -108.529945373535 1.797851204872
-149.474014282227 -77.543182373047 -308.104278564453 2.310454845428
68.733688354492 -59.507286071777 -70.642608642578 3.390864372253
-2.024971961975 -74.275161743164 -170.267761230469 2.373552799225
-154.854110717773 -77.431999206543 -312.569030761719 2.888804912567
-157.202880859375 -73.001770019531 -309.299957275391 1.171016573906
88.958328247070 -74.959358215332 -210.941070556641 1.424121141434
-68.993888854980 -73.470642089844 -60.005828857422 3.147872447968
-0.959653973579 -70.920661926270 -240.137466430664 1.497556447983
-35.146347045898 -69.293922424316 -57.343139648438 4.825728893280
-86.640129089355 -75.244995117188 -74.926643371582 1.980249404907
71.645217895508 -72.849548339844 -93.782646179199 1.502219080925
-135.063751220703 -72.765983581543 -252.154479980469 2.730666875839
-32.698776245117 -68.833610534668 -80.040946960449 2.780531883240
25.735868453979 -69.319587707520 -19.314361572266 2.877263307571
30.197599411011 -66.950225830078 -13.795333862305 2.248369693756
75.210868835449 -72.010894775391 -85.990310668945 4.017596244812
66.604400634766 -61.758708953857 -73.767166137695 2.777165651321
-2.888662099838 -67.712471008301 -276.801086425781 1.990782260895
90.956466674805 -61.298889160156 -64.749816894531 3.289711952209
-80.098464965820 -74.873085021973 -99.299629211426 1.766443014145
17.228479385376 -68.522659301758 -142.139968872070 2.833389282227
-92.831077575684 -74.513969421387 -103.749748229980 1.805946588516
-82.933341979980 -74.898551940918 -105.057395935059 3.275952577591
106.919845581055 -69.608680725098 -172.607208251953 0.851196229458
-95.207077026367 -72.615554809570 -110.735427856445 1.779302716255
-94.181312561035 -68.720115661621 -118.252098083496 1.901382327080
11.094696044922 -70.847259521484 -190.104248046875 1.694426417351
111.074279785156 -74.779518127441 -114.074760437012 2.998691082001
112.324325561523 -75.583557128906 -123.411071777344 2.775166749954
-15.624465942383 -70.724792480469 -251.481277465820 0.983929097652
-97.499046325684 -55.895202636719 -67.520446777344 0.783835470676
112.822692871094 -75.787811279297 -132.006927490234 0.444327175617
10.810535430908 -74.527519226074 -201.458419799805 1.581256508827
-53.040344238281 -71.994140625000 -132.956848144531 1.419476270676
-46.573535919189 -70.836410522461 -139.494689941406 1.148540735245
110.622047424316 -75.533355712891 -145.175979614258 1.866078257561
-52.475345611572 -74.058937072754 -142.562805175781 2.642594099045
1.072337031364 -63.572097778320 -284.631713867188 0.687133073807
-16.645437240601 -76.374031066895 -285.518951416016 2.505254030228
19.965124130249 -72.629264831543 -251.699005126953 0.985198318958
-96.860496520996 -57.678684234619 -109.271057128906 3.941213607788
-18.439197540283 -77.828842163086 -287.525451660156 1.074003696442
117.048751831055 -74.201499938965 -157.180755615234 1.202484011650
18.267253875732 -69.145866394043 -170.557723999023 1.912739634514
93.268531799316 -75.117958068848 -201.489578247070 2.590384244919
-122.240921020508 -74.713058471680 -254.814682006836 2.798309564590
-49.540885925293 -76.335136413574 -184.714370727539 1.302267432213
101.524047851563 -75.797233581543 -189.783279418945 1.250021934509
-46.249637603760 -69.171325683594 -155.940246582031 2.911704063416
-19.501119613647 -71.697128295898 -196.711486816406 2.477266073227
-44.006702423096 -68.381332397461 -149.808120727539 1.577966690063
4.361741065979 -57.918342590332 -243.863143920898 2.104915380478
96.635993957520 -77.070388793945 -198.978149414063 1.347573399544
-80.772972106934 -54.882678985596 -122.294677734375 2.772105932236
-71.564064025879 -78.390617370605 -290.581298828125 4.135014057159
-145.773178100586 -69.302665710449 -211.393371582031 3.532871961594
-148.657394409180 -75.664855957031 -196.688110351563 1.969101905823
-155.525756835938 -65.983406066895 -194.232818603516 1.500275611877
-149.221664428711 -58.980937957764 -211.897064208984 1.896663784981
-136.328536987305 -73.713172912598 -199.526214599609 2.275988101959
104.426010131836 -75.781211853027 -201.447799682617 3.421647310257
-12.532400131226 -74.116325378418 -219.301712036133 1.027701139450
-43.199882507324 -71.010169982910 -161.987991333008 0.593593358994
-51.339996337891 -71.476066589355 -155.388702392578 2.060206413269
-17.991661071777 -71.872406005859 -189.116470336914 2.708665132523
-83.533409118652 -69.102516174316 -119.440139770508 2.185714960098
-52.103683471680 -64.959068298340 -148.345199584961 3.747707605362
-73.222145080566 -69.903152465820 -129.113235473633 2.465736389160
-91.011314392090 -77.583595275879 -250.272720336914 3.999753952026
16.079429626465 -72.635978698730 -219.308242797852 1.791799664497
-7.493630886078 -75.286323547363 -220.786178588867 2.702876806259
-73.738533020020 -64.478866577148 -145.965408325195 4.177982330322
-5.268022060394 -68.584434509277 -221.148330688477 2.185945034027
-50.513816833496 -67.199638366699 -126.011466979980 3.933275461197
-56.156951904297 -66.924789428711 -124.571540832520 1.374580144882
15.895525932312 -75.052650451660 -206.756134033203 2.066673755646
-157.787429809570 -74.001342773438 -225.846786499023 1.992482066154
-152.744583129883 -74.561698913574 -225.930221557617 2.433559179306
-160.053924560547 -72.425369262695 -248.840713500977 1.549659609795
-83.999267578125 -76.860282897949 -286.580017089844 2.371834993362
-146.857788085938 -79.450126647949 -229.413970947266 2.026326417923
-126.203079223633 -63.144527435303 -193.216384887695 3.404386758804
-9.536857604980 -71.643997192383 -235.788085937500 2.128373146057
-4.449182987213 -73.778205871582 -234.705551147461 1.585231304169
2.353302955627 -77.398719787598 -231.100906372070 1.753979682922
-32.261119842529 -61.125984191895 -47.371597290039 2.520329713821
-60.325527191162 -63.201309204102 -125.548477172852 3.065371751785
-16.974407196045 -71.900001525879 -237.076690673828 1.553193092346
-39.147125244141 -74.643699645996 -236.903625488281 4.735914230347
-17.539215087891 -74.992759704590 -243.473815917969 1.814631223679
-17.294166564941 -76.218467712402 -268.814697265625 3.458727598190
-78.409286499023 -75.732788085938 -286.364349365234 2.126851320267
-118.031417846680 -70.418785095215 -199.678710937500 3.855366230011
-156.304931640625 -72.936164855957 -233.567474365234 2.303291797638
-153.592575073242 -70.565376281738 -233.545883178711 1.739178180695
-144.188552856445 -67.076126098633 -233.193099975586 2.083541393280
-76.218544006348 -75.669685363770 -287.060577392578 0.754202365875
-2.356684923172 -73.242187500000 -231.949111938477 2.255993127823
-154.137649536133 -72.720191955566 -213.298461914063 3.819923639297
-154.211273193359 -67.209129333496 -217.088729858398 2.764231681824
-146.430191040039 -63.729831695557 -216.882888793945 2.560897350311
-89.269615173340 -75.823303222656 -285.733764648438 2.334156990051
-61.059051513672 -61.262577056885 -131.322891235352 1.518417239189
-149.611709594727 -76.704032897949 -225.161621093750 1.563524484634
-81.069023132324 -78.012748718262 -284.800079345703 2.928491115570
-107.093238830566 -67.995147705078 -198.926666259766 3.279705524445
92.255706787109 -72.965950012207 -202.833923339844 1.818457365036
-58.347934722900 -69.225479125977 -47.596015930176 1.823767781258
22.865970611572 -60.825702667236 -247.816131591797 2.771233081818
25.352354049683 -76.334396362305 -259.867523193359 3.084053993225
-38.755668640137 -65.447486877441 -51.736648559570 5.379554748535
-43.315925598145 -71.460403442383 -52.975708007813 1.876496672630
85.674331665039 -72.747192382813 -71.155632019043 0.703968703747
56.908306121826 -70.403144836426 -102.884193420410 0.653505563736
-73.698257446289 -61.288349151611 -100.777664184570 1.235877394676
76.459838867188 -73.415016174316 -77.582588195801 2.958250045776
100.982460021973 -71.670097351074 -86.037811279297 2.686485767365
-78.750564575195 -55.324031829834 -46.917861938477 2.903780221939
101.161026000977 -69.967521667480 -89.416496276855 0.565290033817
68.157455444336 -70.189620971680 -98.415763854980 1.913834810257
74.492744445801 -76.566795349121 -96.413764953613 2.067506551743
67.371917724609 -69.197624206543 -86.826377868652 1.331638932228
7.482024192810 -70.581581115723 -293.251708984375 2.359622001648
68.472061157227 -64.568695068359 -77.496604919434 3.986822128296
8.541577339172 -65.546630859375 -290.413299560547 2.206033706665
73.912513732910 -68.288085937500 -96.888427734375 2.649847030640
24.540773391724 -69.779747009277 -169.910888671875 1.420222401619
-165.169174194336 -74.439270019531 -269.691040039063 2.212511539459
9.508595466614 -73.124816894531 -151.997238159180 2.309170246124
-66.989219665527 -73.975494384766 -99.524787902832 2.964141607285
25.246210098267 -66.202896118164 -169.333175659180 2.429260015488
-159.505996704102 -77.844009399414 -273.826904296875 2.840177059174
68.314315795898 -75.918952941895 -236.030715942383 1.566691756248
68.416130065918 -69.867050170898 -77.271392822266 0.944237649441
91.166740417480 -73.879394531250 -100.318405151367 1.159016251564
40.872688293457 -68.244911193848 -39.620845794678 1.234796643257
108.474731445313 -73.514213562012 -104.515693664551 2.721166372299
111.535171508789 -75.566566467285 -116.601989746094 3.104816436768
30.801322937012 -65.506164550781 -22.475570678711 3.809911966324
-56.449604034424 -67.401657104492 -141.782943725586 2.151893615723
116.204208374023 -73.391448974609 -142.967697143555 1.129835367203
-13.322046279907 -73.425865173340 -239.989059448242 0.442156195641
-100.877861022949 -66.112121582031 -161.072082519531 1.779131770134
-45.197971343994 -72.998855590820 -140.044235229492 1.369539618492
-99.962188720703 -73.511528015137 -286.154174804688 0.633809804916
-97.085052490234 -68.742347717285 -288.278686523438 0.771848440170
-148.218917846680 -59.969860076904 -241.732681274414 4.064772129059
-42.821502685547 -72.011413574219 -147.450546264648 1.541212916374
109.177062988281 -70.534248352051 -149.641601562500 3.303099632263
-57.322635650635 -71.578773498535 -142.574752807617 0.859881758690
106.862648010254 -63.896903991699 -100.164390563965 2.394183635712
45.827243804932 -61.469062805176 -34.688236236572 0.316453158855
110.277023315430 -76.610267639160 -147.961990356445 2.132884979248
36.797706604004 -74.518402099609 -162.935546875000 4.637725830078
0.640552997589 -71.492492675781 -242.012298583984 2.027556419373
-29.073945999146 -73.626800537109 -210.047302246094 0.676497459412
-46.044998168945 -70.367546081543 -156.871749877930 2.557824373245
108.389411926270 -78.447929382324 -161.865814208984 2.744344234467
-42.146732330322 -70.611518859863 -156.066528320313 2.428402900696
-58.494125366211 -71.003692626953 -176.190750122070 2.370551347733
-68.042205810547 -70.196754455566 -164.191986083984 2.440048456192
112.969863891602 -75.280227661133 -172.762634277344 0.350345760584
-32.174148559570 -73.976470947266 -169.248657226563 3.037721157074
-37.409595489502 -69.684486389160 -167.195983886719 1.144060373306
-28.370056152344 -73.334609985352 -173.047424316406 1.432248950005
-28.300863265991 -68.134819030762 -177.536727905273 1.450374484062
-36.790786743164 -70.000129699707 -171.115905761719 2.425372123718
105.614913940430 -74.925430297852 -178.604614257813 2.266863822937
-80.797714233398 -61.138973236084 -114.592956542969 0.624849796295
47.785049438477 -68.102729797363 -250.561935424805 1.217152357101
-36.538162231445 -70.694114685059 -290.787750244141 1.168986082077
-144.793746948242 -74.812164306641 -180.224487304688 2.040253400803
-144.459365844727 -65.873497009277 -185.014053344727 2.561767816544
-152.405776977539 -65.315383911133 -182.800765991211 2.599288225174
26.751260757446 -63.491905212402 -258.094909667969 1.482369065285
19.391946792603 -73.016380310059 -257.776458740234 3.634841918945
-53.762248992920 -76.938957214355 -181.616775512695 1.738972663879
-148.242950439453 -71.302688598633 -245.725601196289 2.795230150223
-115.792076110840 -71.966163635254 -197.586776733398 1.996800661087
24.791887283325 -73.704116821289 -183.850814819336 2.564505577087
-32.872798919678 -69.511734008789 -184.367797851563 2.383235454559
-13.337739944458 -70.637153625488 -225.716537475586 2.152726173401
20.910091400146 -72.371513366699 -190.235336303711 2.007721662521
64.321807861328 -61.383018493652 -86.921112060547 2.391330242157
-44.371681213379 -67.827705383301 -48.294601440430 1.690631031990
20.268278121948 -74.743568420410 -261.399353027344 2.624440908432
96.465705871582 -77.663246154785 -193.793273925781 4.629538059235
-53.796867370605 -71.592613220215 -285.847595214844 1.869921445847
-139.638885498047 -70.789688110352 -198.085998535156 1.362963318825
-148.902847290039 -65.346321105957 -197.499023437500 1.527857542038
-152.569717407227 -60.201644897461 -195.785202026367 1.589965581894
-96.200782775879 -76.724639892578 -216.616821289063 2.790724754333
-35.586803436279 -74.896369934082 -202.299468994141 2.407019376755
-63.592449188232 -67.469589233398 -47.705501556396 3.056206703186
92.013229370117 -72.653892517090 -208.065399169922 1.475709795952
-29.489931106567 -77.907020568848 -213.013229370117 1.776962995529
-59.785961151123 -70.944717407227 -167.003555297852 2.004436254501
-20.173759460449 -76.493049621582 -203.080017089844 2.374468326569
10.054671287537 -77.554718017578 -239.691070556641 1.690990209579
62.872489929199 -72.752738952637 -244.629287719727 2.429025888443
98.759468078613 -72.145629882813 -210.277038574219 1.788756132126
10.075657844543 -75.121513366699 -210.053833007813 1.959049820900
-57.394916534424 -70.889053344727 -169.409927368164 4.240454196930
-32.285804748535 -74.096412658691 -210.706863403320 1.910897970200
-23.520093917847 -71.588272094727 -206.818511962891 3.372801065445
9.467217445374 -67.324981689453 -240.143005371094 1.015803813934
53.508422851563 -76.294380187988 -244.010269165039 3.787985086441
-36.296241760254 -59.690879821777 -81.862922668457 4.203259468079
16.359207153320 -75.578109741211 -279.517333984375 1.193401932716
20.063741683960 -73.016479492188 -277.367004394531 1.746008872986
89.208625793457 -73.947135925293 -211.203109741211 1.522539854050
53.960178375244 -74.556274414063 -251.376068115234 4.055500507355
87.993606567383 -75.811065673828 -215.552307128906 2.629320383072
19.068641662598 -71.506019592285 -182.566925048828 2.035169363022
-16.218017578125 -73.215606689453 -217.677230834961 2.728786706924
-30.741540908813 -74.516349792480 -218.602355957031 2.126523733139
-151.398010253906 -75.032409667969 -220.358612060547 2.819558382034
-151.834075927734 -65.798027038574 -220.953598022461 3.098551750183
80.205123901367 -77.376098632813 -222.050247192383 2.540194034576
99.759368896484 -56.398029327393 -106.207389831543 2.695199966431
71.628662109375 -72.911926269531 -228.781417846680 2.192483186722
-71.828247070313 -69.869621276855 -147.509445190430 1.780892491341
-151.035812377930 -71.913726806641 -229.431777954102 1.744290590286
-10.291033744812 -71.318634033203 -217.382217407227 1.744404196739
-153.979019165039 -67.649200439453 -230.535385131836 1.676989912987
-7.183197021484 -72.763023376465 -216.406234741211 2.532581567764
-142.031661987305 -61.833793640137 -227.594573974609 1.409759998322
-14.503727912903 -72.376213073730 -228.195266723633 1.491798281670
50.396728515625 -67.289062500000 -28.882740020752 1.986648201942
-111.115493774414 -71.704704284668 -194.554977416992 2.606599569321
-143.293762207031 -65.374580383301 -228.899673461914 1.732391595840
-154.518844604492 -65.206077575684 -229.402603149414 2.671003341675
-14.687923431396 -73.039375305176 -235.297531127930 1.910048127174
-11.704217910767 -66.186828613281 -203.598968505859 2.242962360382
-14.379614830017 -66.196403503418 -204.950637817383 0.961956977844
15.846634864807 -74.349113464355 -238.084884643555 2.241345167160
-46.000396728516 -63.728958129883 -134.021057128906 3.795272350311
-33.949855804443 -73.853851318359 -238.759765625000 1.682194232941
65.940383911133 -73.484085083008 -241.280593872070 1.813568592072
1.560922980309 -69.124244689941 -293.638977050781 2.087600469589
3.504877090454 -62.365707397461 -291.951263427734 0.760683238506
-107.428398132324 -59.809528350830 -180.590316772461 2.471817255020
-56.621685028076 -75.572578430176 -244.860214233398 2.224451780319
-52.466224670410 -65.658073425293 -49.670906066895 3.971593618393
-83.300949096680 -74.239997863770 -248.152908325195 2.728668212891
-103.887763977051 -70.312858581543 -226.561370849609 2.213695287704
-12.422891616821 -75.697151184082 -251.684783935547 1.576351881027
-96.885581970215 -74.731933593750 -256.559722900391 1.825010895729
-20.025157928467 -77.393653869629 -257.561889648438 5.706293106079
-124.804199218750 -76.914726257324 -259.191345214844 1.349921822548
-126.696609497070 -68.886222839355 -260.379119873047 2.553677320480
-131.574874877930 -73.713989257813 -264.143524169922 1.245429754257
22.065612792969 -77.620529174805 -266.093841552734 1.132435441017
-14.281122207642 -76.085418701172 -268.431365966797 1.694548368454
-14.710002899170 -67.482299804688 -272.359924316406 2.797093153000
26.775510787964 -55.122200012207 -33.369682312012 1.752740859985
-168.762573242188 -80.737602233887 -280.541870117188 7.391620159149
67.844169616699 -74.424842834473 -242.284774780273 1.584011077881
-171.576766967773 -73.084472656250 -279.731903076172 4.081575870514
-150.896713256836 -71.181861877441 -278.483398437500 2.137157917023
-158.006942749023 -77.305297851563 -278.264923095703 4.054257869720
-147.273239135742 -69.570251464844 -279.480285644531 2.734408140182
-0.372687011957 -72.914932250977 -165.568496704102 0.976861000061
-159.819396972656 -73.002372741699 -210.968734741211 2.673910856247
-143.191528320313 -69.667694091797 -195.412017822266 1.741561889648
-52.785678863525 -73.531822204590 -287.664642333984 1.870662212372
28.522159576416 -69.571762084961 -135.589462280273 1.873894214630
-50.153911590576 -70.757759094238 -288.053833007813 1.724243283272
-114.802093505859 -66.915687561035 -229.974639892578 1.776857256889
-148.670639038086 -59.663028717041 -197.921737670898 1.951303601265
-151.241134643555 -58.516357421875 -195.911605834961 2.686386585236
-86.371444702148 -71.289733886719 -111.474792480469 0.871622741222
-24.283908843994 -71.647819519043 -287.499389648438 1.542356610298
-20.031143188477 -74.933197021484 -284.074279785156 4.341284751892
-100.406150817871 -76.185943603516 -286.257690429688 1.325482606888
-112.988243103027 -65.259376525879 -195.666503906250 1.260316729546
83.567741394043 -70.847984313965 -223.447570800781 1.867786884308
17.215236663818 -78.085960388184 -290.699249267578 2.516080141068
17.595571517944 -72.527267456055 -282.496398925781 1.254979491234
-144.480773925781 -71.625114440918 -202.799026489258 1.440678119659
-60.643394470215 -76.114303588867 -289.369598388672 1.081438660622
-141.084686279297 -69.138999938965 -202.369644165039 1.507631897926
-153.869995117188 -67.910903930664 -201.585601806641 0.430007904768
-151.721115112305 -59.961563110352 -202.872390747070 1.384770154953
-143.024353027344 -70.923408508301 -242.450668334961 2.070459365845
-100.865470886230 -76.457321166992 -292.174255371094 3.156263589859
-101.393951416016 -74.247467041016 -285.328094482422 1.088543295860
-45.050312042236 -69.369911193848 -143.570632934570 1.496527433395
106.689254760742 -74.009742736816 -177.834533691406 1.220125913620
-24.052225112915 -73.582595825195 -291.256774902344 2.151051282883
0.004920000210 -78.323272705078 -294.815032958984 4.024284362793
69.067634582520 -68.541786193848 -240.576995849609 2.830635070801
29.855888366699 -57.091892242432 -13.894940376282 2.781401157379
28.550703048706 -54.409217834473 -18.135549545288 2.778142452240
-28.931985855103 -68.881546020508 -52.907829284668 1.852301001549
-133.163131713867 -75.846153259277 -226.705902099609 0.917262852192
-19.463535308838 -70.850791931152 -66.934677124023 2.611932992935
81.101852416992 -69.016998291016 -66.932014465332 2.544003009796
80.504684448242 -64.719757080078 -66.572517395020 4.824942111969
68.055198669434 -77.839057922363 -236.971313476563 3.097440481186
-89.464950561523 -69.263175964355 -67.911758422852 2.461369752884
67.613586425781 -69.511405944824 -89.490913391113 1.485873937607
81.420867919922 -69.441505432129 -71.777862548828 4.077183246613
78.485626220703 -71.165519714355 -76.194938659668 3.755157470703
68.882003784180 -71.053306579590 -72.743736267090 2.319192171097
41.168083190918 -71.520606994629 -104.579513549805 0.893545925617
98.417663574219 -69.622291564941 -78.248283386230 2.827132463455
28.970722198486 -61.623252868652 -134.482696533203 1.993438482285
29.260364532471 -59.033142089844 -137.546051025391 1.093246459961
-135.192993164063 -78.208465576172 -252.657180786133 3.528102159500
-40.634872436523 -68.593688964844 -79.596435546875 1.793022274971
-64.996818542480 -68.048774719238 -90.789665222168 1.842795133591
-67.057533264160 -68.149009704590 -91.103218078613 3.452500343323
54.976425170898 -71.087203979492 -98.703521728516 1.943995118141
92.806945800781 -68.446632385254 -67.730323791504 3.085563421249
98.843238830566 -69.588363647461 -75.273857116699 2.730671167374
25.260951995850 -72.824737548828 -144.689147949219 0.758833765984
68.138282775879 -70.804435729980 -233.002471923828 2.229427337646
8.303286552429 -71.988174438477 -294.643829345703 3.803100109100
65.876678466797 -58.993694305420 -77.068046569824 1.694982886314
3.432511091232 -66.768516540527 -289.670776367188 3.017345666885
92.268333435059 -71.640136718750 -102.286811828613 1.674314737320
-90.907257080078 -69.172065734863 -102.926155090332 4.962054252625
7.501638889313 -62.238136291504 -265.369781494141 2.129000186920
56.139282226563 -68.720054626465 -102.366516113281 2.412923336029
-60.685234069824 -58.459747314453 -85.442062377930 1.047620534897
91.465415954590 -72.467658996582 -102.747596740723 1.957974314690
41.965206146240 -67.093780517578 -36.384265899658 2.534412622452
110.160972595215 -72.992614746094 -106.840087890625 2.107818841934
52.065105438232 -65.139602661133 -21.550733566284 3.668230533600
-15.878260612488 -71.567985534668 -230.239456176758 1.613541483879
26.635822296143 -69.441856384277 -191.020324707031 3.100310802460
-97.230697631836 -68.755439758301 -107.089675903320 2.167382717133
38.672882080078 -65.772178649902 -36.462741851807 1.905107021332
111.437530517578 -72.111099243164 -109.615211486816 1.664575576782
-59.516239166260 -66.353981018066 -137.141052246094 1.413315773010
105.783164978027 -72.763282775879 -110.790779113770 1.620893478394
32.529323577881 -69.118003845215 -36.146850585938 1.588053941727
105.773406982422 -70.639213562012 -117.566635131836 1.835208296776
-52.319175720215 -64.373306274414 -86.986091613770 1.925733447075
108.552520751953 -72.233894348145 -124.690704345703 1.802754282951
110.618179321289 -72.320915222168 -123.827346801758 1.191840291023
108.958763122559 -75.823028564453 -130.049484252930 1.732530832291
112.291824340820 -72.277893066406 -131.162124633789 1.428059220314
-21.163501739502 -68.321655273438 -75.211112976074 2.542129993439
38.217037200928 -71.222656250000 -135.261474609375 1.579977989197
-22.582035064697 -65.214157104492 -73.447158813477 3.603401660919
-77.243034362793 -58.737789154053 -116.947059631348 1.865742206573
34.125659942627 -70.829742431641 -134.119628906250 2.154384851456
-165.024917602539 -74.634765625000 -219.842895507813 1.771607279778
8.309683799744 -72.797523498535 -198.028564453125 2.548062324524
-52.607551574707 -69.688987731934 -133.986938476563 2.626095533371
9.644612312317 -76.895751953125 -222.854400634766 1.076503276825
-77.870880126953 -65.634674072266 -137.513198852539 0.628102719784
-45.439090728760 -70.690238952637 -145.079147338867 1.100063681602
8.825387001038 -69.912597656250 -229.243392944336 1.411283969879
-29.714923858643 -75.065124511719 -197.411544799805 2.309319972992
32.419506072998 -69.555145263672 -254.696136474609 1.343333840370
-23.667257308960 -70.188339233398 -195.642852783203 2.052501440048
-74.305122375488 -68.753166198730 -149.563812255859 2.119007349014
1.437904953957 -69.060928344727 -222.533035278320 2.335698843002
29.383258819580 -72.510147094727 -157.123474121094 2.349626779556
23.558788299561 -68.602653503418 -152.100494384766 1.124557971954
29.197710037231 -66.366058349609 -161.005416870117 2.736550331116
-11.588916778564 -72.904571533203 -209.093612670898 2.559029817581
-65.379119873047 -70.906028747559 -153.647933959961 2.720565557480
-35.619541168213 -70.796081542969 -157.517410278320 3.322449922562
111.301620483398 -72.460258483887 -158.175689697266 0.993430733681
-48.656509399414 -68.529983520508 -154.573318481445 2.329576969147
-46.234497070313 -61.911899566650 -152.042327880859 6.669903278351
-80.195281982422 -66.302215576172 -117.640647888184 2.170539379120
19.149959564209 -72.298683166504 -247.325653076172 0.343471884727
101.323051452637 -73.169425964355 -191.807754516602 1.432344794273
-17.010192871094 -70.991950988770 -211.532699584961 1.645640254021
108.365196228027 -77.272254943848 -186.478942871094 3.311083316803
-70.441879272461 -68.859664916992 -158.619033813477 4.027489662170
-18.511259078979 -70.627311706543 -214.203735351563 2.383327007294
31.988618850708 -73.279602050781 -154.469726562500 1.709822058678
20.966333389282 -75.025077819824 -168.656417846680 2.385942697525
13.837245941162 -69.622329711914 -155.531127929688 1.912352919579
-64.015335083008 -76.396270751953 -162.409957885742 1.772078156471
-66.530868530273 -68.716239929199 -163.529434204102 4.083182811737
-13.891905784607 -76.160575866699 -211.417541503906 2.102338075638
18.795850753784 -70.467544555664 -246.579696655273 1.370401263237
-39.514114379883 -71.636283874512 -163.304504394531 2.589510917664
19.532947540283 -64.281311035156 -178.951797485352 2.600798368454
1.776062965393 -76.322372436523 -164.618667602539 1.912489533424
-23.202356338501 -76.380035400391 -179.402114868164 0.635665893555
-27.376897811890 -68.087669372559 -165.972061157227 4.342561244965
-34.478378295898 -72.484527587891 -170.721984863281 3.019503355026
-32.899589538574 -69.296928405762 -169.649322509766 3.341485738754
14.698678016663 -71.891654968262 -152.404022216797 0.732315957546
0.638806998730 -71.119331359863 -165.197555541992 1.392003178596
16.028398513794 -68.870285034180 -151.705184936523 2.414502143860
110.882614135742 -74.232070922852 -174.496643066406 1.262894392014
109.310379028320 -70.550178527832 -171.153152465820 1.344873666763
112.142715454102 -70.930046081543 -169.607315063477 1.253119230270
46.827739715576 -69.192176818848 -253.559585571289 1.072621703148
14.379802703857 -68.843124389648 -215.560928344727 0.869150936604
-27.541528701782 -70.873443603516 -182.238861083984 2.545617580414
-37.418842315674 -74.615539550781 -172.965728759766 1.373997807503
-26.344631195068 -67.614891052246 -184.902725219727 1.830879449844
-38.585529327393 -67.307518005371 -165.623168945313 3.187558889389
21.212011337280 -67.184638977051 -172.427505493164 2.083088874817
18.886793136597 -67.831245422363 -165.737594604492 2.849207878113
112.547500610352 -73.579391479492 -175.051986694336 1.295789837837
-34.827507019043 -70.255836486816 -185.712417602539 2.012054443359
-38.418483734131 -74.839653015137 -177.606796264648 1.123330116272
-39.845756530762 -66.668411254883 -170.868255615234 2.250024557114
-68.290588378906 -68.224098205566 -142.163864135742 1.646423339844
-31.778987884521 -64.466506958008 -180.614349365234 4.581706047058
-37.065750122070 -76.262603759766 -286.182922363281 1.934261798859
-31.642728805542 -77.713851928711 -283.801452636719 2.537118196487
-143.879043579102 -72.654251098633 -176.324707031250 1.224617600441
-139.098678588867 -67.285575866699 -175.903335571289 2.716553688049
-151.090560913086 -65.314178466797 -175.116577148438 1.962846159935
-152.466506958008 -62.400436401367 -178.072601318359 0.889844894409
-80.292236328125 -63.253250122070 -102.770668029785 2.213050127029
-150.302261352539 -60.282062530518 -170.688339233398 5.624942779541
3.058799028397 -68.443885803223 -260.904754638672 4.279128551483
-21.140008926392 -71.822883605957 -185.014526367188 2.030980110168
-42.226554870605 -68.445907592773 -164.042587280273 3.770104408264
-27.187599182129 -72.677650451660 -183.123306274414 3.318316698074
42.710605621338 -73.678520202637 -254.845947265625 3.491877317429
11.852460861206 -73.828140258789 -217.749221801758 3.582785129547
-73.449218750000 -68.666236877441 -132.794494628906 1.713533639908
-78.851341247559 -69.777626037598 -138.292587280273 1.215476274490
-31.242927551270 -71.567443847656 -187.469604492188 1.088232874870
-40.708217620850 -70.843818664551 -174.668807983398 2.515754461288
-147.095474243164 -72.669250488281 -180.573852539063 2.386847257614
-151.917816162109 -63.010868072510 -181.746185302734 1.564060688019
-142.550827026367 -62.353538513184 -181.045547485352 0.494533270597
