-150.075698852539 -66.261314392090 -273.536468505859 2.397663593292
-155.162887573242 -60.496875762939 -269.737060546875 6.344024181366
-144.700714111328 -77.093528747559 -260.152099609375 1.610408902168
89.900909423828 -77.135780334473 -98.232879638672 2.401749610901
-68.764045715332 -78.510398864746 -103.606559753418 2.983431100845
-49.224132537842 -80.256942749023 -70.760902404785 0.590718090534
-80.901878356934 -79.063880920410 -107.749870300293 1.979338884354
46.887508392334 -70.381484985352 -99.845329284668 1.840951204300
52.054496765137 -68.681571960449 -92.565361022949 1.209448456764
-37.608066558838 -73.009704589844 -176.323913574219 2.649928569794
-153.208892822266 -72.219154357910 -293.800415039063 2.271652936935
-146.000106811523 -73.125595092773 -306.511413574219 3.703431844711
-148.314971923828 -76.711105346680 -303.459045410156 2.419797182083
70.246269226074 -69.766197204590 -70.313011169434 1.017450809479
64.229804992676 -66.873161315918 -79.486267089844 1.450900793076
57.845798492432 -67.585861206055 -87.247001647949 2.236133098602
35.559326171875 -69.899055480957 -110.678016662598 3.092543363571
-37.242061614990 -69.709754943848 -180.040191650391 2.489842653275
-122.059700012207 -65.172721862793 -264.971679687500 3.064568758011
-153.286499023438 -67.340660095215 -297.322906494141 2.137732982635
79.365730285645 -70.120498657227 -67.014060974121 0.737131118774
-30.557245254517 -64.561645507813 -178.744628906250 4.801986217499
-111.475090026855 -66.136154174805 -258.573364257813 0.662707567215
-117.146949768066 -64.042221069336 -262.088989257813 1.808535933495
46.306400299072 -66.295356750488 -98.273765563965 1.839890599251
60.505641937256 -67.995414733887 -83.389358520508 1.451142191887
84.615104675293 -65.904174804688 -61.748878479004 1.786456227303
-154.177536010742 -61.763977050781 -288.295867919922 2.139944076538
-149.383590698242 -62.831039428711 -295.574615478516 0.828733325005
-149.750701904297 -62.475162506104 -297.479553222656 1.492894053459
-14.376852035522 -81.061172485352 -181.395599365234 1.849835872650
-37.814727783203 -78.580146789551 -164.846160888672 1.622186422348
-16.425962448120 -81.844017028809 -181.780609130859 2.002488613129
15.114926338196 -77.892555236816 -219.471557617188 1.943984508514
-148.233993530273 -81.231506347656 -190.707489013672 2.948047399521
-40.088466644287 -75.811477661133 -156.499694824219 2.357567071915
-59.484592437744 -73.367904663086 -175.587554931641 0.496770709753
-11.501880645752 -78.570648193359 -212.949874877930 1.568833112717
22.053342819214 -81.517341613770 -246.592147827148 2.349579811096
-32.466800689697 -80.736579895020 -193.158065795898 2.262535333633
-3.514317035675 -66.557884216309 -236.225891113281 0.668319165707
-93.878967285156 -66.608718872070 -147.771774291992 2.269161939621
-42.798831939697 -73.446495056152 -200.838821411133 1.098039031029
-46.350856781006 -79.260093688965 -189.343521118164 1.332809567451
-45.666011810303 -80.132118225098 -194.258255004883 0.681325137615
-92.681861877441 -71.562492370605 -220.752349853516 1.710626006126
-43.143878936768 -75.573471069336 -58.126525878906 1.441874146461
12.465417861938 -75.378433227539 -251.228042602539 4.063943862915
-125.900321960449 -72.225555419922 -229.556198120117 2.346500158310
-149.402435302734 -71.090965270996 -200.962524414063 1.206729531288
-32.008617401123 -79.133361816406 -72.236473083496 2.142263412476
-152.622131347656 -75.873390197754 -191.902755737305 3.175180912018
-156.887145996094 -67.774208068848 -199.947204589844 2.870721101761
-129.827148437500 -64.696784973145 -224.919570922852 1.950055241585
-140.117111206055 -65.490982055664 -201.394317626953 1.322421431541
-144.947586059570 -57.725677490234 -199.461380004883 3.161532402039
-68.902336120605 -72.283699035645 -156.121841430664 1.433932185173
13.643695831299 -79.873825073242 -247.761169433594 2.205689907074
-70.628662109375 -68.919685363770 -149.924575805664 1.013842105865
-9.508850097656 -68.504196166992 -217.623397827148 0.821109116077
-70.906044006348 -72.121925354004 -251.260147094727 1.759116649628
-10.360445022583 -80.881263732910 -216.151702880859 1.810515284538
-87.771842956543 -59.965572357178 -118.765106201172 0.659499764442
-41.532093048096 -73.273544311523 -289.763458251953 1.490469813347
-22.979667663574 -70.941558837891 -64.188995361328 4.544864177704
-141.291290283203 -68.445907592773 -185.257919311523 2.234257698059
-145.533401489258 -59.207721710205 -184.281539916992 1.807754516602
-17.971290588379 -78.423835754395 -204.420730590820 1.342591285706
-149.888046264648 -69.616065979004 -191.178619384766 2.979831218719
-152.186416625977 -80.848327636719 -202.635879516602 0.968600749969
-155.196533203125 -66.196060180664 -190.516494750977 3.048956632614
-162.158920288086 -63.770111083984 -201.828002929688 1.557647466660
-148.946411132813 -57.682044982910 -194.117599487305 3.037196159363
-116.499900817871 -70.339324951172 -229.325363159180 1.504859328270
33.951549530029 -73.977043151855 -140.886306762695 1.504799962044
-52.368770599365 -77.373359680176 -192.903121948242 2.391587495804
-49.513874053955 -78.010826110840 -197.936096191406 2.664259910583
-145.787979125977 -84.312889099121 -205.448318481445 1.657415986061
-147.158767700195 -79.557083129883 -204.657623291016 2.019990444183
-148.017318725586 -80.421173095703 -209.744918823242 1.739224672318
-12.746402740479 -62.205871582031 -58.732040405273 3.393480300903
-49.442794799805 -74.400840759277 -287.060211181641 2.302031755447
-83.028083801270 -69.122863769531 -251.211822509766 1.357721567154
-106.213127136230 -69.397247314453 -230.370544433594 2.409918069839
-143.568145751953 -82.761116027832 -201.753585815430 0.666276156902
-146.713027954102 -66.040222167969 -191.887725830078 2.609979391098
-29.549509048462 -62.534881591797 -76.995254516602 4.244626998901
-151.025421142578 -63.310997009277 -191.281799316406 3.810642242432
-34.547943115234 -58.103954315186 -71.089622497559 2.323608160019
-37.435630798340 -77.305068969727 -199.249206542969 1.948025226593
-54.042480468750 -74.335273742676 -187.960861206055 2.544412136078
77.338668823242 -78.378028869629 -73.989128112793 4.099546909332
96.551696777344 -68.718032836914 -70.526512145996 0.365571200848
47.079891204834 -72.084777832031 -250.066741943359 1.687504291534
-70.851066589355 -78.080680847168 -75.043006896973 2.724075794220
7.280002117157 -80.099151611328 -279.808410644531 2.977883100510
10.337551116943 -76.443786621094 -281.437011718750 2.330915212631
-67.583541870117 -82.203422546387 -210.955413818359 1.767529487610
-88.648506164551 -73.219879150391 -87.438705444336 3.201316833496
-82.876564025879 -81.427803039551 -84.575454711914 1.828034877777
-102.361312866211 -69.272773742676 -225.472061157227 1.627787113190
-57.435333251953 -68.068298339844 -49.028495788574 1.195807695389
99.820396423340 -70.889129638672 -200.442733764648 1.395819425583
-117.077705383301 -61.778560638428 -203.275390625000 2.548988819122
-146.207641601563 -76.135101318359 -227.392684936523 1.760390996933
-148.202453613281 -75.112281799316 -218.276062011719 1.648871302605
14.300960540771 -77.893898010254 -189.333236694336 1.574743628502
-165.126098632813 -65.834121704102 -217.201950073242 2.631959676743
-10.966486930847 -62.823657989502 -248.021728515625 3.071268081665
-70.000717163086 -56.499309539795 -119.458869934082 1.937471151352
-147.574691772461 -78.492439270020 -219.365066528320 2.790098905563
21.803808212280 -69.670417785645 -200.634811401367 1.008624792099
-30.750532150269 -76.194595336914 -243.923492431641 2.374242305756
99.914199829102 -68.595489501953 -84.473487854004 0.840706765652
-5.001222133636 -71.573547363281 -245.078643798828 1.399227619171
-147.461181640625 -76.616973876953 -219.697845458984 1.642941355705
-114.481117248535 -61.667789459229 -202.039916992188 2.076439857483
-164.853561401367 -69.741966247559 -231.399658203125 1.880666255951
-154.996261596680 -78.135398864746 -231.351135253906 0.739941537380
-99.315231323242 -71.607162475586 -293.279083251953 2.662450075150
-153.548171997070 -70.553665161133 -250.161773681641 2.849269866943
-141.883621215820 -79.953811645508 -231.343429565430 1.805971384048
-153.188415527344 -67.388977050781 -249.071166992188 2.196436405182
3.493763923645 -78.356513977051 -247.436492919922 1.448271274567
11.718139648438 -77.396934509277 -241.783050537109 1.594405293465
7.432178974152 -78.092658996582 -239.490936279297 1.087205171585
-34.264842987061 -63.321750640869 -54.256851196289 6.868470668793
-28.294595718384 -81.529319763184 -216.790054321289 3.301222801208
-60.828136444092 -79.065132141113 -169.355178833008 1.439913153648
10.485875129700 -84.143249511719 -240.564727783203 3.257505416870
-13.864892005920 -71.754470825195 -207.097473144531 2.656312465668
34.507278442383 -80.898475646973 -119.275024414063 2.176711082458
35.398674011230 -74.641075134277 -112.611663818359 2.670562744141
9.516277313232 -83.004379272461 -246.710128784180 2.750485897064
13.401601791382 -83.169921875000 -239.488037109375 2.324421882629
-98.530433654785 -68.066314697266 -150.677322387695 1.807361364365
2.036497116089 -65.969177246094 -239.958206176758 0.782290041447
-147.187911987305 -77.436042785645 -210.804534912109 0.897924661636
-161.989807128906 -64.606361389160 -212.610504150391 3.153365612030
46.645206451416 -78.519042968750 -116.840431213379 0.936441898346
-134.894454956055 -66.949806213379 -230.232742309570 2.319485187531
34.605857849121 -80.236343383789 -125.452224731445 1.110369324684
-135.523742675781 -78.751502990723 -229.360397338867 1.590583682060
13.655508041382 -83.829994201660 -247.082168579102 1.235427379608
-95.338951110840 -65.929733276367 -143.527755737305 0.501784741879
3.253093957901 -65.866493225098 -236.163787841797 0.218319937587
-3.698307991028 -78.861106872559 -226.955612182617 1.442425966263
-69.747917175293 -72.377914428711 -160.012176513672 1.422931075096
-19.107355117798 -75.766639709473 -214.527160644531 2.143542289734
100.285820007324 -78.144760131836 -193.626480102539 2.447703838348
19.757146835327 -76.991470336914 -249.182022094727 2.986254930496
33.876899719238 -71.706993103027 -135.703948974609 1.562740206718
-79.413101196289 -59.802928924561 -116.183151245117 2.024521827698
17.774824142456 -83.110031127930 -243.151443481445 2.579543113708
-83.442985534668 -62.705211639404 -128.738143920898 3.121459722519
5.944862842560 -71.765151977539 -288.685699462891 0.995032012463
-3.899610042572 -80.644996643066 -258.309020996094 2.840756177902
-167.186431884766 -74.768035888672 -276.850494384766 0.681909024715
94.457481384277 -75.743667602539 -83.787780761719 1.426425457001
-147.236221313477 -71.692359924316 -259.277648925781 1.938782572746
79.494445800781 -73.682273864746 -99.987525939941 0.620229780674
80.893638610840 -70.868309020996 -105.097526550293 1.732441544533
-156.961349487305 -66.778564453125 -260.174346923828 3.065559864044
23.068077087402 -77.087417602539 -153.049224853516 1.494772911072
-141.321441650391 -79.331626892090 -260.668243408203 2.019572734833
33.952911376953 -75.618774414063 -152.400833129883 2.144752025604
86.461730957031 -78.100257873535 -92.240333557129 1.533590912819
-65.793220520020 -75.356056213379 -245.240310668945 2.373159646988
21.665554046631 -77.061767578125 -162.217025756836 1.485285401344
-150.425201416016 -80.041709899902 -263.100311279297 1.496786236763
-163.609710693359 -69.786064147949 -266.553619384766 2.114035367966
-149.429412841797 -78.173393249512 -264.292968750000 0.650674879551
-114.727287292480 -73.705139160156 -290.518829345703 1.436969757080
-156.452667236328 -62.292304992676 -262.367706298828 1.696753025055
-158.023590087891 -74.125099182129 -249.019134521484 1.666959524155
85.700729370117 -77.278709411621 -223.881759643555 1.304287672043
-152.885971069336 -81.741981506348 -257.073608398438 1.250403165817
-48.652252197266 -78.318977355957 -83.662033081055 1.857069849968
-8.693268775940 -84.743125915527 -261.141571044922 2.732144832611
20.422540664673 -61.153438568115 -39.424152374268 4.739137172699
-11.852358818054 -70.234443664551 -273.561157226563 0.929332017899
-4.655128955841 -69.994361877441 -269.110839843750 3.040240526199
-8.860329627991 -71.538536071777 -280.463684082031 1.372895717621
-2.715481996536 -66.334335327148 -280.788391113281 1.806937336922
-65.132339477539 -73.054183959961 -248.325515747070 2.006299972534
-5.329442977905 -82.743095397949 -266.697479248047 2.057599544525
-8.754980087280 -78.596275329590 -264.305175781250 2.835905075073
45.643756866455 -67.006706237793 -98.075294494629 1.258777856827
9.418128967285 -82.108360290527 -275.447692871094 1.773537158966
-71.350860595703 -59.913776397705 -103.036521911621 0.883151352406
47.607021331787 -76.250549316406 -106.134628295898 2.004711866379
-89.990447998047 -75.874816894531 -101.249961853027 3.474461317062
103.144531250000 -79.316230773926 -172.647384643555 5.266343593597
-67.863616943359 -63.361885070801 -46.891399383545 2.183843135834
-67.368644714355 -78.027557373047 -206.997482299805 1.204366087914
-53.903594970703 -80.731674194336 -186.693038940430 1.331070542336
8.303975105286 -80.257919311523 -277.744598388672 1.493809342384
13.739739418030 -78.780868530273 -277.972198486328 2.064520835876
66.316093444824 -68.695861816406 -241.631317138672 0.887339890003
24.534790039063 -70.656150817871 -274.637878417969 3.759830713272
-136.444000244141 -78.849525451660 -290.435546875000 1.663659334183
-147.224487304688 -78.883354187012 -283.181488037109 1.066915750504
17.123645782471 -74.000411987305 -180.946151733398 1.264868140221
3.941941976547 -75.174957275391 -162.421325683594 2.161906242371
20.687683105469 -79.858413696289 -170.415328979492 2.414666891098
24.802579879761 -76.882881164551 -169.165191650391 1.802608609200
-158.282638549805 -67.089805603027 -277.598724365234 4.888237953186
-153.512145996094 -74.556373596191 -278.826263427734 3.515333175659
-67.695739746094 -76.057540893555 -94.226013183594 2.941842317581
-153.198181152344 -79.255676269531 -281.790527343750 1.975087046623
-157.860824584961 -67.668403625488 -283.807800292969 3.563292264938
-61.144905090332 -79.102302551270 -67.618644714355 1.707001447678
32.989044189453 -69.473312377930 -141.598464965820 1.655810832977
48.117763519287 -69.390861511230 -94.255210876465 1.790171027184
-66.910392761230 -80.002853393555 -77.675987243652 3.751262664795
55.853630065918 -66.480209350586 -100.541320800781 1.890558123589
-84.540191650391 -62.215080261230 -112.708496093750 1.881777405739
24.795057296753 -67.066169738770 -145.094055175781 1.787308692932
89.597557067871 -66.146705627441 -66.034591674805 2.516639947891
-39.446891784668 -74.568923950195 -211.240509033203 4.449535369873
-48.905643463135 -75.863906860352 -160.347213745117 1.983619809151
-18.755090713501 -73.884658813477 -191.559417724609 1.299903988838
-52.624465942383 -59.702751159668 -42.222530364990 2.474080562592
30.953573226929 -77.209060668945 -145.312957763672 2.041954755783
-82.422859191895 -75.395057678223 -254.888778686523 1.133160471916
33.846939086914 -77.852378845215 -146.537490844727 1.799580574036
-35.408515930176 -80.479064941406 -77.588989257813 0.665468871593
-142.513381958008 -76.001205444336 -187.864990234375 1.563906192780
-79.492187500000 -79.515197753906 -78.243331909180 1.834183573723
88.535614013672 -74.971702575684 -93.083740234375 2.137223243713
-48.421104431152 -81.232101440430 -83.008224487305 2.048850297928
-53.681728363037 -79.338813781738 -92.628074645996 1.536844611168
109.017059326172 -70.670806884766 -163.078384399414 1.599502325058
-89.718589782715 -77.675186157227 -94.860923767090 2.232576847076
-50.171199798584 -79.503234863281 -62.493431091309 2.510809421539
51.141307830811 -62.053562164307 -250.744064331055 2.330067634583
-45.901603698730 -75.197624206543 -204.642669677734 4.527625083923
56.145988464355 -61.579177856445 -95.045410156250 2.149033546448
-74.913856506348 -80.808418273926 -102.657241821289 1.583220958710
-30.611614227295 -77.517959594727 -189.776306152344 2.045425415039
-23.070726394653 -78.047889709473 -199.811813354492 2.656888246536
-38.504470825195 -80.510231018066 -188.834686279297 2.190932512283
-24.394958496094 -78.869941711426 -196.291015625000 0.751621127129
5.694038867950 -78.562164306641 -227.152496337891 0.484034985304
-3.395314931870 -79.092445373535 -226.257919311523 1.174944877625
6.312801837921 -78.471160888672 -220.925949096680 1.480075716972
14.165232658386 -76.457893371582 -224.564834594727 2.687408447266
-3.634083032608 -76.084632873535 -230.916885375977 0.871728181839
1.753743052483 -74.831985473633 -229.022323608398 2.194492578506
-50.488407135010 -77.582664489746 -182.598831176758 2.000185728073
-28.280357360840 -82.012321472168 -192.266754150391 2.439632892609
-44.331233978271 -80.518928527832 -168.792221069336 3.499728202820
-92.615348815918 -69.954643249512 -221.548507690430 1.385947346687
-45.095161437988 -71.305236816406 -199.772018432617 2.953737735748
-50.236305236816 -71.882202148438 -49.976245880127 2.685994863510
-48.822406768799 -78.812622070313 -184.093856811523 0.574304997921
-41.239330291748 -79.524017333984 -198.160659790039 1.341679334641
-147.255661010742 -70.678298950195 -201.496551513672 1.149499416351
-56.392486572266 -67.964996337891 -290.512420654297 3.319973707199
-146.851791381836 -79.276695251465 -194.222290039063 1.871629834175
-141.922653198242 -63.219352722168 -203.440948486328 1.363330006599
-127.609634399414 -61.645378112793 -230.089126586914 3.322832822800
-152.840927124023 -60.146030426025 -203.509872436523 1.614109158516
-148.656417846680 -54.462841033936 -204.693420410156 5.285955905914
-88.975936889648 -71.536178588867 -256.753936767578 1.266757130623
31.056917190552 -81.866607666016 -138.849975585938 1.803179383278
-147.232055664063 -75.084602355957 -196.429901123047 2.733376979828
30.281763076782 -80.049560546875 -131.924041748047 1.669562101364
45.233379364014 -71.562156677246 -119.487754821777 1.776607751846
-21.929553985596 -78.251930236816 -223.287612915039 2.160249471664
-138.791702270508 -77.568611145020 -198.942214965820 2.026059389114
32.342800140381 -64.691566467285 -38.670455932617 2.053691148758
110.716644287109 -65.668540954590 -105.122192382813 3.373233318329
-54.501480102539 -76.052635192871 -189.435516357422 2.079031944275
-40.748439788818 -81.441162109375 -199.461303710938 1.224996924400
2.445144891739 -62.528240203857 -280.232055664063 1.730864286423
-137.388412475586 -82.992813110352 -199.617065429688 0.973365604877
17.012693405151 -79.967300415039 -238.036163330078 2.104328870773
39.096374511719 -72.920524597168 -135.403961181641 2.311357498169
-107.876663208008 -71.907936096191 -226.729660034180 2.309841632843
-18.619768142700 -71.337486267090 -195.067214965820 1.998531103134
-44.508930206299 -69.416328430176 -163.569244384766 2.355267524719
-19.368768692017 -78.721061706543 -201.597640991211 1.221769571304
-83.407333374023 -67.562416076660 -122.553199768066 2.737231731415
-69.108665466309 -66.011856079102 -47.029666900635 1.080070734024
-37.027965545654 -73.413772583008 -212.419128417969 4.146844387054
-46.279129028320 -65.117393493652 -158.249206542969 4.464122772217
42.891910552979 -75.058891296387 -125.079063415527 1.744927644730
-149.270751953125 -80.132080078125 -203.518875122070 2.040391445160
-163.927581787109 -64.237434387207 -210.306121826172 2.413622617722
34.643535614014 -71.615737915039 -141.868194580078 1.548528552055
37.011444091797 -77.692871093750 -132.967956542969 0.803818106651
-29.052373886108 -71.914093017578 -214.977859497070 2.148231983185
41.470214843750 -78.024269104004 -119.890899658203 2.293123483658
44.995178222656 -75.586257934570 -121.597579956055 0.679985404015
-96.047935485840 -64.434600830078 -143.817276000977 1.366557836533
0.187262997031 -69.479370117188 -241.000183105469 1.800795316696
-136.796630859375 -76.285545349121 -232.144332885742 1.895193696022
37.186382293701 -81.336486816406 -119.506027221680 1.422525405884
-136.549499511719 -63.838325500488 -232.171478271484 1.818630337715
-147.020309448242 -79.220794677734 -207.716278076172 3.002377510071
-161.593109130859 -63.087074279785 -211.614868164063 4.137276649475
30.797399520874 -71.336463928223 -135.954544067383 1.286022543907
-86.112548828125 -70.911880493164 -248.139053344727 2.283934354782
111.850677490234 -73.499404907227 -188.936401367188 3.279118537903
-147.553359985352 -75.097557067871 -211.611526489258 1.312108039856
-109.531036376953 -67.953445434570 -230.385192871094 1.854853153229
-165.776885986328 -66.541481018066 -214.225097656250 1.865483760834
39.041080474854 -78.739738464355 -115.298759460449 1.743810534477
43.214843750000 -78.730766296387 -121.301414489746 1.468757271767
-122.169075012207 -64.751182556152 -233.152450561523 2.482695341110
-27.356410980225 -71.323875427246 -198.598846435547 2.267652511597
-24.358673095703 -79.857582092285 -196.281845092773 0.615482687950
11.393542289734 -83.164947509766 -227.354583740234 1.449386835098
8.767219543457 -78.388366699219 -229.110656738281 2.545114755630
-23.394100189209 -71.784027099609 -200.594879150391 2.506863355637
-145.673538208008 -78.765632629395 -210.904708862305 1.458975791931
7.509137153625 -80.386405944824 -230.119232177734 2.753899097443
10.052850723267 -76.670066833496 -231.576797485352 2.104739427567
-25.869434356689 -76.056991577148 -195.798446655273 1.442517876625
3.930470943451 -60.646053314209 -238.121170043945 2.295181274414
-94.916046142578 -63.857925415039 -143.164581298828 1.084555983543
-2.385171890259 -77.015838623047 -224.093170166016 1.682615876198
14.135801315308 -83.311264038086 -205.939437866211 3.411786079407
-4.095455169678 -76.152244567871 -247.556671142578 1.941737174988
-152.517852783203 -79.408172607422 -236.292007446289 2.628876447678
-111.222831726074 -66.667175292969 -183.709533691406 1.650258779526
14.396556854248 -83.883880615234 -238.254913330078 1.685699343681
4.910696983337 -76.529495239258 -235.674423217773 0.890522956848
32.669097900391 -70.368621826172 -119.977638244629 2.111141204834
-24.096212387085 -76.495635986328 -71.582725524902 1.505729436874
-66.831062316895 -77.383911132813 -164.025115966797 1.081313967705
10.468379974365 -80.917266845703 -242.026641845703 0.761030316353
5.868569850922 -75.755050659180 -245.579727172852 1.666968941689
-56.928161621094 -72.843963623047 -151.157562255859 3.510730504990
-48.810417175293 -82.651565551758 -148.547393798828 5.088166713715
-57.832698822021 -78.570564270020 -176.692749023438 1.754260301590
14.402968406677 -79.989585876465 -246.624694824219 1.763621568680
7.434278964996 -78.275833129883 -245.594360351563 1.274712443352
-88.410865783691 -58.028934478760 -134.130920410156 6.295392990112
34.773250579834 -71.058929443359 -261.849914550781 3.626188755035
-42.705577850342 -81.440299987793 -79.508468627930 2.401028394699
2.266869068146 -82.074401855469 -250.991546630859 1.966857790947
1.784363031387 -61.893947601318 -272.322570800781 2.215060710907
-85.094573974609 -73.682273864746 -111.315116882324 1.668099045753
-23.797204971313 -77.980041503906 -284.763336181641 2.089927911758
9.057272911072 -79.297821044922 -249.612152099609 2.987720251083
-28.615266799927 -77.848815917969 -290.223907470703 2.832541227341
-40.933261871338 -77.334167480469 -64.605384826660 1.983720541000
-69.636886596680 -75.713310241699 -56.637172698975 1.213420033455
88.605651855469 -77.722877502441 -211.965209960938 1.535488247871
-136.121124267578 -76.299758911133 -256.794036865234 1.966620564461
-98.065261840820 -55.544483184814 -102.629493713379 2.473195075989
115.451660156250 -73.843887329102 -125.211669921875 1.156195163727
19.093618392944 -72.152198791504 -30.358842849731 1.728563547134
-8.585745811462 -77.418762207031 -255.496963500977 2.547213554382
-70.251922607422 -71.812927246094 -50.767387390137 0.900405645370
94.276199340820 -76.096946716309 -212.492797851563 1.804302811623
48.373569488525 -68.127838134766 -104.026359558105 1.775862693787
-73.328071594238 -57.150344848633 -106.066741943359 3.248854160309
-165.890701293945 -68.808227539063 -293.825653076172 3.515112161636
-30.561010360718 -79.003417968750 -181.908233642578 0.915190815926
-36.689422607422 -79.931022644043 -175.239624023438 2.526512861252
-155.282745361328 -79.958610534668 -293.583465576172 2.020109176636
-138.296142578125 -80.585830688477 -294.110931396484 2.431252956390
-147.998168945313 -78.877655029297 -283.640563964844 1.069699645042
-153.550735473633 -76.487411499023 -302.097930908203 1.567429780960
-151.899230957031 -62.615909576416 -307.044525146484 3.705385923386
-95.864730834961 -68.754936218262 -90.915504455566 0.805907070637
-85.224578857422 -71.804252624512 -105.515289306641 2.177707672119
-55.997650146484 -78.997871398926 -71.183799743652 3.881407976151
-81.490760803223 -77.817314147949 -107.915725708008 1.244317770004
-49.600868225098 -81.363410949707 -72.547653198242 1.382413625717
-94.636993408203 -71.922447204590 -113.756118774414 2.838953256607
-74.115386962891 -79.300872802734 -72.323753356934 2.713128089905
-44.114444732666 -75.870262145996 -241.114532470703 1.630406618118
73.255393981934 -62.197608947754 -108.980293273926 1.348289847374
-2.026285886765 -75.013404846191 -287.474853515625 1.727205395699
70.118057250977 -60.569435119629 -105.673957824707 2.376945734024
-143.939270019531 -71.369766235352 -292.037322998047 1.886046409607
-129.873474121094 -74.265914916992 -255.212600708008 3.587556123734
-153.750030517578 -76.916297912598 -285.192382812500 1.707977175713
-153.899261474609 -68.070678710938 -287.309051513672 2.242500782013
-141.887542724609 -70.619354248047 -296.969421386719 2.544428110123
-146.349029541016 -62.356601715088 -288.825347900391 2.993206739426
-157.238571166992 -60.660255432129 -293.863189697266 4.475917339325
63.883762359619 -59.627925872803 -83.700218200684 1.632005214691
-40.433616638184 -77.336990356445 -69.951988220215 3.468856573105
-74.717330932617 -76.752227783203 -98.822669982910 1.894101142883
-91.991333007813 -74.147232055664 -216.335556030273 2.062704324722
-110.317131042480 -65.610839843750 -262.723510742188 2.744443416595
-44.218044281006 -72.959983825684 -207.240524291992 5.422052860260
-46.742565155029 -78.419723510742 -158.676208496094 1.609793782234
-54.609279632568 -68.003364562988 -152.986663818359 2.728429794312
-61.697963714600 -77.883407592773 -173.048522949219 0.979372501373
-148.455688476563 -70.554527282715 -212.056259155273 1.997123003006
34.962574005127 -81.259300231934 -129.966690063477 2.416732549667
33.220962524414 -76.560096740723 -142.956771850586 2.053920745850
-53.927589416504 -76.864746093750 -293.361999511719 2.826437950134
-150.524139404297 -64.933662414551 -217.496429443359 3.773738384247
-126.069519042969 -65.015869140625 -235.547271728516 1.766557455063
38.196517944336 -70.721237182617 -119.359588623047 1.759603142738
-107.176521301270 -67.278694152832 -263.006347656250 1.601024627686
-91.601951599121 -67.221679687500 -121.646705627441 1.579135179520
33.397491455078 -75.689773559570 -147.455535888672 1.977684497833
16.688568115234 -69.808891296387 -232.742721557617 1.126015067101
-36.653884887695 -78.194801330566 -211.356216430664 2.455522298813
-16.517202377319 -70.281532287598 -202.237609863281 1.525785565376
-19.504463195801 -77.078926086426 -194.342285156250 2.231296777725
-144.690948486328 -73.654258728027 -183.493118286133 1.246545910835
-40.522804260254 -78.391616821289 -289.713592529297 2.138072729111
-17.105400085449 -66.526580810547 -69.629737854004 1.732817411423
41.327251434326 -74.136505126953 -123.030860900879 1.154079914093
-34.833812713623 -73.554397583008 -81.631164550781 3.593728065491
-155.237792968750 -67.539466857910 -205.926544189453 3.491533279419
-145.419830322266 -56.009483337402 -203.899078369141 4.111510276794
32.934078216553 -76.714813232422 -143.857452392578 1.896020889282
26.480663299561 -79.230751037598 -147.324340820313 1.587614297867
29.320867538452 -77.915679931641 -145.623031616211 3.142704963684
26.883699417114 -73.582618713379 -140.829101562500 0.477312922478
31.517963409424 -82.299819946289 -140.355361938477 1.912271976471
-16.105245590210 -79.360984802246 -173.859771728516 2.309354066849
-10.575841903687 -78.035583496094 -176.567687988281 1.588970661163
-94.826866149902 -69.431083679199 -101.029869079590 3.522859573364
-36.438049316406 -79.022850036621 -70.051155090332 1.215151429176
-64.494705200195 -70.240074157715 -160.083374023438 2.121496438980
-30.392486572266 -69.266372680664 -192.533187866211 2.068102836609
-61.704715728760 -79.518943786621 -177.032592773438 2.899199008942
37.000873565674 -66.342666625977 -249.877288818359 2.208023309708
1.131103038788 -71.645805358887 -229.015563964844 3.101251363754
-18.422658920288 -71.529762268066 -209.212783813477 1.442301988602
-63.842052459717 -68.404342651367 -162.412200927734 4.063933372498
35.532409667969 -65.423309326172 -258.366485595703 1.235283017159
1.163264989853 -76.894668579102 -232.193206787109 2.497719287872
-34.395896911621 -77.623443603516 -205.870635986328 1.107388019562
-59.270877838135 -82.861343383789 -182.055496215820 4.852712631226
-12.991638183594 -65.373031616211 -211.508209228516 2.363174915314
-40.269229888916 -77.591979980469 -173.101348876953 1.150670647621
-30.912200927734 -78.067955017090 -183.749343872070 0.995230555534
-91.909202575684 -58.654529571533 -135.961791992188 4.289380550385
-21.688385009766 -61.778388977051 -68.245269775391 3.169039964676
-38.846454620361 -79.787956237793 -177.316650390625 2.924109458923
-30.973842620850 -80.212295532227 -181.380569458008 2.105191946030
-29.459119796753 -61.813240051270 -69.047210693359 0.660272657871
-45.603076934814 -81.470924377441 -196.299652099609 1.418948292732
-52.911735534668 -81.785438537598 -187.663635253906 1.669523477554
-62.678714752197 -66.884643554688 -49.940944671631 4.299130916595
58.883995056152 -67.960220336914 -236.836791992188 3.410562515259
-27.729516983032 -79.162246704102 -179.070022583008 1.688154935837
-34.361789703369 -78.746704101563 -173.422378540039 1.157418727875
44.068012237549 -80.049041748047 -107.138565063477 2.803195953369
52.181301116943 -70.260330200195 -245.373352050781 1.805404186249
27.625766754150 -77.020744323730 -131.736877441406 2.401207447052
31.612293243408 -73.556098937988 -129.567443847656 2.653582334518
-58.521862030029 -71.426383972168 -181.507339477539 2.076956272125
-36.411724090576 -76.290870666504 -191.917556762695 4.085909366608
-17.767295837402 -79.622215270996 -214.299621582031 3.581854343414
-64.641662597656 -79.314086914063 -163.817077636719 1.745092391968
-165.217193603516 -68.664566040039 -210.531906127930 0.649373233318
-35.717842102051 -76.438415527344 -62.382228851318 2.308194398880
33.769348144531 -81.201972961426 -126.792709350586 2.334918022156
-147.490570068359 -70.835220336914 -194.019515991211 2.242487668991
-47.852222442627 -72.430358886719 -290.606445312500 3.175752162933
-148.075119018555 -77.465591430664 -204.231430053711 1.844686746597
-145.091079711914 -65.698669433594 -196.507064819336 2.629732131958
-80.955177307129 -67.574546813965 -253.260742187500 2.674249410629
-109.423568725586 -63.067741394043 -228.896560668945 3.647086381912
-154.501815795898 -63.538330078125 -193.860534667969 2.974210739136
-49.356964111328 -77.498535156250 -203.805465698242 2.875570535660
-144.714859008789 -75.715454101563 -206.732421875000 2.107227563858
-79.857696533203 -65.417945861816 -49.077201843262 2.754540443420
78.544509887695 -63.507160186768 -106.421691894531 2.495576620102
-76.066474914551 -81.838806152344 -215.906143188477 2.909044742584
-83.389526367188 -65.853668212891 -58.213035583496 4.390928745270
10.741002082825 -81.595420837402 -220.794265747070 2.134163379669
9.515452384949 -75.991485595703 -218.887771606445 0.504292726517
-26.248851776123 -61.794208526611 -70.881965637207 2.900646924973
-25.462974548340 -80.567253112793 -185.241058349609 1.853854775429
-41.701061248779 -77.462852478027 -168.730804443359 2.285991430283
10.650023460388 -79.522071838379 -226.982513427734 1.653603315353
5.557594776154 -77.225112915039 -224.728408813477 2.935933589935
-2.645180940628 -75.176063537598 -230.743652343750 2.068015336990
-45.296684265137 -80.859222412109 -161.783523559570 3.201688766479
-86.744598388672 -71.090118408203 -113.478614807129 2.808954954147
38.555526733398 -69.785034179688 -257.556182861328 1.287901520729
-88.610176086426 -67.540611267090 -254.170211791992 2.214251041412
13.235196113586 -78.913375854492 -224.318298339844 1.137374758720
-137.410003662109 -78.176589965820 -230.962829589844 0.688285291195
22.851650238037 -75.572898864746 -189.751358032227 1.885763049126
37.406627655029 -58.705062866211 -23.519594192505 4.250036239624
9.709286689758 -76.496215820313 -211.481719970703 0.805934369564
9.173913002014 -79.974868774414 -209.910644531250 2.801676988602
-152.689422607422 -71.317230224609 -252.804946899414 1.612822055817
-145.311355590820 -78.594596862793 -231.790039062500 2.519885778427
-146.877609252930 -79.502395629883 -232.310379028320 1.895546078682
-110.631805419922 -62.804172515869 -181.061370849609 1.476283431053
21.541002273560 -69.660972595215 -190.885940551758 2.122418642044
-19.879316329956 -78.040977478027 -208.886352539063 2.839608907700
-63.726184844971 -75.005958557129 -166.306045532227 1.037649869919
11.050735473633 -80.392517089844 -242.707305908203 0.412187486887
9.462043762207 -77.398826599121 -248.219390869141 1.920007944107
-50.391735076904 -75.956428527832 -151.318664550781 0.704155206680
-144.276870727539 -72.209175109863 -225.197875976563 1.970731973648
-152.117248535156 -81.422760009766 -247.965408325195 0.989872336388
-112.788558959961 -67.400688171387 -195.588256835938 1.867120981216
-89.345436096191 -73.194625854492 -289.475219726563 2.577826261520
-161.508926391602 -68.081733703613 -244.932022094727 1.201663613319
-154.632537841797 -62.228210449219 -230.351470947266 1.303440928459
-151.039627075195 -66.686203002930 -229.423507690430 1.779621601105
-3.970537900925 -75.758636474609 -239.443206787109 2.690393924713
-3.385873079300 -71.797607421875 -218.899353027344 1.704860687256
-74.232307434082 -72.181716918945 -149.699295043945 1.656567454338
-155.723663330078 -72.549110412598 -229.571380615234 1.505053400993
-151.425262451172 -80.807594299316 -247.365051269531 1.018623232841
-12.325151443481 -69.275352478027 -222.608963012695 3.140129327774
-147.000259399414 -63.266384124756 -230.701751708984 1.663278222084
-112.678916931152 -64.003906250000 -197.918533325195 1.610497713089
-142.558944702148 -60.070621490479 -227.955932617188 0.972804486752
5.737764835358 -75.747459411621 -240.753570556641 1.324820995331
-26.687856674194 -76.077682495117 -214.604370117188 0.404690444469
5.305204868317 -79.911842346191 -249.164337158203 2.670904397964
-59.196311950684 -79.055137634277 -174.731552124023 1.361863136292
11.103233337402 -77.713294982910 -250.559722900391 3.106847763062
-30.414695739746 -75.042778015137 -209.195312500000 1.099067330360
32.915714263916 -62.394462585449 -254.064575195313 2.580025672913
36.782966613770 -67.287200927734 -132.958786010742 2.975644588470
-126.032165527344 -70.844276428223 -284.623657226563 1.089473724365
-145.610733032227 -73.082466125488 -273.421447753906 3.074441909790
-86.012840270996 -70.908538818359 -214.261703491211 1.738877534866
-154.266448974609 -78.915084838867 -256.291503906250 1.956744551659
-151.449493408203 -76.152900695801 -259.363586425781 2.457254409790
86.648933410645 -72.630363464355 -218.186141967773 0.964411258698
-73.671463012695 -74.635704040527 -59.811584472656 3.087937831879
-158.837020874023 -69.629432678223 -257.893524169922 2.697090387344
-166.026382446289 -66.805938720703 -251.551376342773 1.449866056442
-146.189117431641 -69.490104675293 -273.615875244141 1.769015192986
-129.610549926758 -66.082160949707 -287.759185791016 1.464527964592
-125.080413818359 -67.442726135254 -289.372650146484 1.621782183647
-151.259735107422 -62.636230468750 -272.452484130859 3.979639291763
-150.128921508789 -64.111053466797 -269.166046142578 3.357557535172
-141.869338989258 -81.319030761719 -262.339813232422 2.722909927368
-139.760650634766 -76.505950927734 -260.670318603516 1.264360189438
-151.458709716797 -82.178939819336 -260.584960937500 2.011381387711
-153.854324340820 -73.781593322754 -253.943008422852 0.761312842369
-159.913757324219 -64.817062377930 -250.226913452148 3.336952209473
93.628608703613 -66.149124145508 -105.958793640137 1.489629149437
-168.620498657227 -65.943428039551 -253.464660644531 4.259931087494
-47.847015380859 -73.244155883789 -188.015213012695 2.789990186691
-44.634853363037 -77.073165893555 -189.164215087891 1.749202847481
58.669845581055 -74.748718261719 -238.602508544922 2.901197195053
-96.556632995605 -71.418876647949 -87.315681457520 1.394652962685
19.168441772461 -80.818183898926 -255.010848999023 2.317791700363
20.259471893311 -75.742187500000 -250.992797851563 2.657210826874
-128.194671630859 -68.078445434570 -297.935119628906 4.705161571503
22.178449630737 -77.579360961914 -164.902191162109 2.282446384430
28.770305633545 -85.808753967285 -151.975753784180 5.348107337952
25.397300720215 -77.480796813965 -153.522064208984 1.717770814896
84.403327941895 -75.780105590820 -98.415580749512 1.737029910088
-154.758880615234 -68.320632934570 -270.911590576172 4.169605255127
-148.467697143555 -61.576862335205 -272.909515380859 3.524770259857
-55.576145172119 -63.044033050537 -87.446594238281 0.795563757420
-163.375030517578 -68.694274902344 -262.545867919922 0.840506911278
-154.881637573242 -78.462196350098 -262.569488525391 3.246048688889
-160.740463256836 -70.396682739258 -263.728820800781 2.018003463745
-107.064796447754 -72.882614135742 -292.654785156250 2.202734708786
-165.271743774414 -70.081947326660 -267.290679931641 2.246910810471
-149.464767456055 -75.044265747070 -254.301620483398 2.249475479126
-145.485855102539 -79.664505004883 -256.137908935547 3.135594367981
24.822593688965 -81.694190979004 -154.026733398438 1.394604325294
25.434301376343 -77.126029968262 -155.860870361328 1.412582516670
21.522512435913 -75.948455810547 -165.463119506836 2.319656133652
-153.249603271484 -79.670303344727 -261.394622802734 1.746414065361
12.276621818542 -78.933677673340 -267.780273437500 4.021718025208
69.809875488281 -70.342468261719 -79.325134277344 1.408261895180
-56.672801971436 -76.225593566895 -67.807991027832 3.959394931793
-80.139549255371 -70.892944335938 -101.881767272949 1.034956216812
-47.995231628418 -70.625953674316 -84.082885742188 1.479325056076
-156.541046142578 -73.675888061523 -251.842941284180 3.634083032608
-70.835861206055 -76.634681701660 -68.050117492676 2.734930276871
-51.244647979736 -75.974380493164 -251.877517700195 3.937472581863
85.284278869629 -71.639106750488 -223.091979980469 1.131464004517
70.883796691895 -61.393589019775 -107.162857055664 2.072483301163
-115.273757934570 -71.195266723633 -294.467529296875 2.643549919128
-140.453994750977 -64.637184143066 -260.854309082031 2.292506456375
-150.802932739258 -60.473052978516 -259.472320556641 2.667320728302
-43.041812896729 -77.185348510742 -240.448562622070 0.918355762959
-129.620758056641 -70.349990844727 -224.082885742188 1.415050387383
-157.536315917969 -68.114860534668 -200.443649291992 2.111883401871
-34.841567993164 -79.498275756836 -75.760574340820 2.252002477646
-154.305648803711 -64.321418762207 -197.961410522461 1.809980273247
-124.862365722656 -66.310920715332 -229.475738525391 2.189028978348
-145.172531127930 -61.033668518066 -197.549407958984 1.133169531822
-144.725189208984 -57.841709136963 -202.435760498047 2.912832736969
-30.978073120117 -80.431022644043 -77.388275146484 1.177254438400
13.991717338562 -79.118469238281 -228.945770263672 0.728616535664
-166.441207885742 -75.077209472656 -263.195861816406 0.592592597008
-152.586608886719 -75.604133605957 -282.775817871094 1.259565591812
-134.948577880859 -75.388214111328 -294.860931396484 1.880370259285
81.961700439453 -78.699844360352 -83.859550476074 2.291803598404
69.977157592773 -78.156333923340 -90.959754943848 3.545007228851
25.274450302124 -75.860000610352 -169.055862426758 2.605797767639
-82.162521362305 -76.256629943848 -209.948486328125 1.127008080482
0.629175007343 -76.209594726563 -158.937438964844 2.061652421951
16.272235870361 -73.592277526855 -175.157287597656 1.918209075928
-45.703563690186 -77.213790893555 -246.755554199219 1.399183154106
-85.035324096680 -79.979682922363 -82.092079162598 2.587632417679
-63.106929779053 -70.353332519531 -133.618865966797 1.781908750534
-38.427364349365 -79.140220642090 -84.614898681641 1.619800686836
5.516530990601 -69.803901672363 -200.514099121094 2.448298692703
-19.649196624756 -72.143173217773 -244.270889282227 2.216059923172
-84.717201232910 -81.392623901367 -99.303741455078 2.266475915909
45.789123535156 -64.103019714355 -246.837142944336 2.301937341690
-75.404045104980 -76.410995483398 -105.780250549316 4.162719249725
-52.920524597168 -67.960327148438 -48.880680084229 1.983854055405
-110.522468566895 -64.399551391602 -259.296752929688 2.757015705109
-162.707809448242 -71.143157958984 -289.128234863281 2.525732755661
39.999835968018 -78.631813049316 -118.006202697754 1.546203017235
27.706424713135 -69.625129699707 -137.908721923828 2.638281583786
-84.964019775391 -67.934967041016 -258.491210937500 3.529448032379
-25.062786102295 -68.264083862305 -76.365173339844 2.084466457367
-141.091186523438 -64.295684814453 -196.922119140625 0.750272631645
-157.965072631836 -64.803009033203 -209.498275756836 3.041343688965
-150.331878662109 -58.688922882080 -197.776916503906 2.715141296387
43.467243194580 -79.044845581055 -122.655509948730 1.221873044968
40.850967407227 -80.099800109863 -118.027366638184 2.148209810257
52.648006439209 -75.508674621582 -98.611419677734 1.715207099915
29.620811462402 -81.595619201660 -146.064514160156 2.174605846405
24.445074081421 -73.787895202637 -147.464111328125 1.494785189629
-89.846351623535 -68.357925415039 -251.804138183594 2.783190250397
43.445064544678 -67.264907836914 -259.558685302734 2.124708890915
-51.239593505859 -76.598251342773 -151.640609741211 0.410392314196
-42.952003479004 -77.958686828613 -160.277664184570 1.863455653191
-16.207206726074 -70.402725219727 -205.006027221680 1.993445634842
-33.869419097900 -79.011878967285 -210.025863647461 1.614928126335
-53.217094421387 -82.335205078125 -160.738540649414 6.472913265228
-61.537139892578 -76.428794860840 -174.986633300781 0.831333696842
-150.588531494141 -74.053695678711 -189.923355102539 2.394950628281
-16.506145477295 -62.933059692383 -70.841209411621 4.177998065948
-41.909381866455 -82.483993530273 -162.536148071289 2.309807538986
23.099834442139 -80.258110046387 -161.310165405273 1.727782726288
30.178627014160 -77.277198791504 -161.881744384766 1.669590234756
27.892011642456 -77.744369506836 -149.677627563477 1.216923236847
-60.597301483154 -74.906997680664 -252.173431396484 3.212032556534
-95.161209106445 -73.850891113281 -217.192535400391 1.756891965866
24.906379699707 -77.957275390625 -166.212356567383 1.603751301765
27.088781356812 -78.602966308594 -166.209838867188 1.509655714035
21.117834091187 -78.301765441895 -154.312835693359 2.934946060181
-5.075778961182 -79.092407226563 -173.401443481445 2.165694236755
27.488023757935 -78.277526855469 -165.056808471680 1.818572878838
22.973184585571 -78.621765136719 -164.147247314453 1.032461524010
-27.443273544312 -80.577148437500 -187.584472656250 1.291854262352
-43.709281921387 -78.819732666016 -167.252395629883 3.262818336487
-28.160207748413 -81.337257385254 -173.620773315430 4.053372859955
-33.935337066650 -78.198387145996 -163.400878906250 2.446232557297
-23.793872833252 -75.218391418457 -182.244873046875 1.980323910713
59.875110626221 -74.184371948242 -239.125762939453 2.381759643555
91.905418395996 -75.195877075195 -207.241119384766 1.612514138222
-96.679603576660 -69.861816406250 -79.393508911133 1.907355070114
-35.989383697510 -65.407485961914 -51.252498626709 3.811175107956
-60.146842956543 -76.828079223633 -170.466705322266 1.328685164452
7.554313182831 -81.268470764160 -235.444961547852 2.211245775223
-130.832382202148 -62.712669372559 -232.494781494141 3.614736557007
33.658084869385 -72.328514099121 -116.131088256836 2.276954889297
-25.659320831299 -72.142944335938 -192.667861938477 0.749159455299
-57.379684448242 -78.026779174805 -171.648330688477 0.731397747993
-24.386529922485 -67.301338195801 -193.319000244141 1.935945749283
10.100904464722 -69.095703125000 -223.167510986328 0.265124022961
-81.659301757813 -64.521568298340 -134.993453979492 2.458630800247
-28.258337020874 -71.394378662109 -201.294326782227 3.525693655014
-58.636066436768 -72.352294921875 -170.095764160156 2.440274477005
-24.244554519653 -79.352752685547 -195.413757324219 0.457513272762
-26.004558563232 -64.384010314941 -204.005065917969 5.861236095428
-10.448411941528 -76.330116271973 -210.274520874023 2.019843578339
-135.283691406250 -76.929435729980 -201.151443481445 1.466546297073
14.404145240784 -71.305953979492 -185.192031860352 0.989393413067
-18.285617828369 -81.941078186035 -220.149627685547 3.174291372299
-137.050476074219 -74.885253906250 -200.493927001953 1.593135356903
16.483764648438 -78.197166442871 -230.499237060547 2.351595401764
-18.450492858887 -78.972175598145 -198.738677978516 1.446456432343
-40.618171691895 -77.144142150879 -154.432907104492 0.778315782547
-43.369686126709 -74.344474792480 -157.255828857422 3.297256946564
-91.590499877930 -65.032333374023 -118.693603515625 2.188208341599
-102.517684936523 -72.235382080078 -257.200195312500 1.172592043877
-153.059036254883 -79.039054870605 -201.616699218750 1.484531998634
-162.849395751953 -69.633918762207 -199.657531738281 1.944634199142
93.549095153809 -61.818782806396 -61.605964660645 1.526831984520
56.996028900146 -71.284339904785 -86.317451477051 1.843337535858
75.029022216797 -72.276435852051 -64.256782531738 4.630993366241
-27.788816452026 -66.098815917969 -179.166870117188 3.617432832718
74.960670471191 -71.613548278809 -69.499801635742 0.831800878048
-118.595458984375 -72.659393310547 -261.913269042969 0.379594951868
-29.586244583130 -72.030303955078 -175.580718994141 2.172481060028
45.313018798828 -70.026657104492 -100.735603332520 1.948935866356
-157.668518066406 -74.503631591797 -301.936187744141 2.638171911240
37.205158233643 -75.743820190430 -110.638229370117 1.788548111916
50.886440277100 -76.571929931641 -98.646530151367 1.640980243683
69.670433044434 -69.793533325195 -75.804809570313 2.077332973480
-139.742385864258 -71.691970825195 -287.050170898438 1.644412517548
-35.494293212891 -70.431907653809 -179.755218505859 1.985737562180
43.806682586670 -74.819000244141 -106.436325073242 2.710268974304
52.492385864258 -70.455268859863 -89.686828613281 1.987763881683
-50.395999908447 -77.691253662109 -201.471923828125 2.574768304825
-155.134689331055 -74.052978515625 -300.097229003906 1.861026883125
-154.166183471680 -69.234176635742 -295.620910644531 1.172251939774
68.558479309082 -72.158775329590 -78.516059875488 1.024424076080
-150.810958862305 -66.514595031738 -295.948883056641 2.276180505753
-34.621795654297 -68.557304382324 -175.232681274414 1.661512374878
-27.032789230347 -69.702682495117 -185.009658813477 1.068931698799
-139.886245727539 -68.353675842285 -287.349548339844 2.353668451309
-148.612075805664 -65.509857177734 -286.667358398438 0.509560465813
-154.951080322266 -65.276313781738 -296.344268798828 3.071766614914
-153.654067993164 -61.922935485840 -286.026214599609 0.463459730148
26.977327346802 -65.722084045410 -266.330688476563 1.230331778526
-53.347507476807 -81.445327758789 -206.224472045898 1.309972763062
-158.557357788086 -70.114700317383 -241.268981933594 2.186599969864
18.595678329468 -81.448677062988 -203.283386230469 4.228354930878
19.175281524658 -82.140823364258 -240.777404785156 1.910784602165
-14.549220085144 -78.639747619629 -209.399780273438 2.381922721863
32.792888641357 -72.049079895020 -262.198150634766 3.241717338562
