36.498073577881 -77.646263122559 -131.380249023438 0.898378133774
-27.368236541748 -74.652503967285 -76.287864685059 2.295039892197
-154.840301513672 -74.774894714355 -197.414657592773 1.840054631233
-157.473876953125 -61.114715576172 -200.673843383789 2.178710699081
34.156486511230 -78.096893310547 -144.067260742188 0.572827041149
-28.585103988647 -76.082031250000 -219.224441528320 1.685164570808
-51.378726959229 -76.164985656738 -146.522476196289 1.284132838249
32.255825042725 -76.379753112793 -151.662094116211 1.223010897636
-92.099266052246 -67.855453491211 -256.454071044922 0.868005216122
42.061660766602 -67.595085144043 -256.440216064453 1.342332005501
-55.990192413330 -76.136604309082 -152.221069335938 3.691886425018
-42.581501007080 -75.801841735840 -161.701034545898 2.525759220123
-47.066040039063 -79.610939025879 -153.284027099609 1.589069604874
-50.360919952393 -73.766273498535 -160.035797119141 1.153941869736
-14.814511299133 -76.807617187500 -198.535614013672 1.826828122139
32.001525878906 -76.306137084961 -154.210937500000 0.924069046974
-167.695022583008 -69.053230285645 -246.907363891602 1.134231328964
30.122520446777 -79.883834838867 -153.033508300781 2.239080905914
-40.641487121582 -78.954605102539 -153.455291748047 1.283539175987
-22.910518646240 -71.594604492188 -197.966400146484 1.054617047310
-50.464019775391 -64.017295837402 -45.740634918213 1.004243254662
20.746749877930 -59.649017333984 -250.110382080078 0.930162727833
-49.050678253174 -75.663948059082 -156.977416992188 1.913221120834
-28.963068008423 -75.943786621094 -211.251815795898 1.858776807785
-54.782489776611 -57.593086242676 -47.762683868408 4.662090778351
4.593488216400 -75.920654296875 -247.381698608398 2.809074640274
-0.001170999953 -75.316062927246 -225.395050048828 1.987651467323
-68.725830078125 -77.558914184570 -158.933441162109 1.472677111626
-12.859092712402 -74.850914001465 -212.617996215820 3.225868940353
18.514890670776 -76.817893981934 -244.741744995117 2.177512407303
-32.943244934082 -79.960594177246 -194.233673095703 2.548532009125
-55.841991424561 -74.065826416016 -154.121032714844 3.846715450287
-46.135570526123 -75.179794311523 -164.239120483398 1.329525947571
-21.676534652710 -77.586715698242 -191.922851562500 2.158516645432
-89.415924072266 -68.085289001465 -260.532318115234 4.767378807068
14.589748382568 -75.728813171387 -225.660964965820 2.906257867813
86.369834899902 -81.834251403809 -85.610862731934 3.745579957962
93.861045837402 -76.827842712402 -89.008193969727 1.944922685623
-4.239030838013 -79.553329467773 -168.519348144531 0.540616512299
-3.992605924606 -79.375061035156 -169.356964111328 1.112075924873
-45.747055053711 -75.931587219238 -167.403518676758 2.038786411285
-26.225923538208 -74.410064697266 -186.169754028320 2.897367000580
31.199449539185 -74.492538452148 -130.043472290039 2.295320272446
-53.521175384521 -77.389038085938 -188.769088745117 1.261370539665
-44.784091949463 -74.591651916504 -202.546997070313 2.092015981674
-30.462091445923 -75.491493225098 -171.104598999023 2.145997762680
-34.669418334961 -78.875419616699 -172.466720581055 1.146502137184
-26.492622375488 -75.524887084961 -183.033752441406 2.513124704361
24.380451202393 -82.883964538574 -183.003021240234 4.140468597412
18.886037826538 -77.597908020020 -175.546752929688 1.677555203438
-151.901168823242 -75.745208740234 -304.323333740234 3.162135124207
-152.965820312500 -73.989242553711 -299.100189208984 2.462716102600
-30.912727355957 -76.438461303711 -175.435897827148 3.439874887466
-46.447040557861 -76.386062622070 -194.799636840820 0.844918489456
-46.560348510742 -79.245925903320 -197.115615844727 0.557876765728
-67.358215332031 -76.309471130371 -211.467178344727 2.302809476852
34.197284698486 -77.145210266113 -112.070114135742 4.139576435089
-69.683212280273 -77.967895507813 -215.135437011719 2.527914762497
46.760841369629 -79.059577941895 -101.193115234375 1.184409856796
41.222644805908 -75.410934448242 -103.109230041504 2.448781013489
-39.190788269043 -76.295692443848 -181.502014160156 3.908794403076
-158.774017333984 -66.943405151367 -306.554870605469 5.153594017029
-154.856811523438 -64.420280456543 -295.423675537109 2.110131740570
-147.873092651367 -63.567047119141 -307.978393554688 4.612270832062
-158.302978515625 -61.064723968506 -294.320281982422 4.805799007416
-57.908634185791 -77.081916809082 -175.941894531250 1.111537098885
34.631526947021 -65.656967163086 -259.546539306641 2.258762121201
31.432159423828 -68.321708679199 -131.955261230469 2.593442201614
-11.139888763428 -72.522575378418 -175.403244018555 3.090379238129
-11.131328582764 -76.512458801270 -176.078903198242 1.424436450005
82.701156616211 -75.188613891602 -70.769561767578 0.967382371426
-161.767715454102 -69.017410278320 -297.666290283203 4.565948486328
-147.314865112305 -72.425781250000 -285.576385498047 2.536462545395
-149.911193847656 -77.445007324219 -304.811798095703 3.257948398590
-39.133769989014 -76.627967834473 -176.776046752930 2.384176015854
-34.143913269043 -78.639976501465 -182.229949951172 1.119922637939
-135.690063476563 -73.673225402832 -294.553771972656 1.827175855637
-153.500518798828 -75.681686401367 -294.060882568359 1.679270029068
-159.627456665039 -64.544563293457 -304.782653808594 7.561703205109
-129.774658203125 -65.572990417480 -260.767669677734 2.507524490356
-154.430389404297 -61.408626556396 -291.561248779297 2.576071739197
-46.148017883301 -75.416481018066 -174.404281616211 4.341106891632
-0.081269003451 -77.107666015625 -235.928909301758 1.463923096657
-51.896148681641 -75.356903076172 -186.595245361328 2.058152675629
24.206897735596 -76.239356994629 -178.682693481445 2.081305980682
-57.314914703369 -76.288246154785 -179.488662719727 1.497766971588
-2.207592964172 -77.972915649414 -237.906417846680 1.194108366966
-35.412937164307 -73.941452026367 -201.384567260742 2.270795822144
31.673748016357 -72.393463134766 -127.068824768066 3.286905050278
-76.475639343262 -77.712272644043 -146.592727661133 4.267458438873
-33.345012664795 -72.422943115234 -185.542541503906 0.827626049519
-41.413337707520 -76.885131835938 -178.655319213867 3.087473154068
-28.962455749512 -79.684265136719 -184.799209594727 1.038285017014
-40.463771820068 -74.211463928223 -171.084747314453 1.267741680145
-91.707000732422 -65.132705688477 -132.134063720703 1.170435547829
-51.336860656738 -73.312805175781 -55.555187225342 2.608146190643
-38.212215423584 -71.842887878418 -204.807556152344 1.650969624519
-60.534557342529 -76.593673706055 -185.509216308594 3.616796255112
1.172796964645 -64.655097961426 -235.844665527344 1.847498059273
-93.134269714355 -63.193191528320 -143.875030517578 1.572588920593
-34.756069183350 -78.596801757813 -184.809677124023 2.713635683060
-38.803874969482 -77.913375854492 -181.216537475586 4.628967761993
-26.034221649170 -74.301132202148 -192.901428222656 2.071325540543
-32.574626922607 -76.977119445801 -188.107696533203 1.288534641266
-65.181930541992 -73.290290832520 -159.364471435547 1.536076545715
-9.676533699036 -74.085632324219 -212.492111206055 2.306045532227
-25.056364059448 -79.099273681641 -196.036239624023 0.755079686642
104.274665832520 -68.790191650391 -107.262763977051 1.615047216415
34.871520996094 -69.142181396484 -41.881195068359 1.029056787491
7.092950820923 -71.138908386230 -203.666488647461 3.161065101624
13.264573097229 -77.031860351563 -195.894958496094 1.529779195786
-91.220451354980 -61.995452880859 -124.940765380859 2.101441621780
-69.803443908691 -70.609199523926 -286.350036621094 2.925654172897
-126.365737915039 -73.511093139648 -233.860916137695 2.329084157944
-157.368103027344 -73.701705932617 -197.581649780273 3.445309638977
-158.663681030273 -65.518318176270 -198.483489990234 1.405360102654
-16.422344207764 -72.770080566406 -230.171325683594 1.603196144104
20.522691726685 -74.241920471191 -195.568267822266 1.725198268890
-33.339469909668 -79.108108520508 -245.222732543945 2.642979621887
-120.625152587891 -66.923767089844 -205.727813720703 1.737370371819
-72.150619506836 -77.026542663574 -293.012268066406 5.020647525787
-148.904388427734 -70.278305053711 -226.397598266602 2.801650285721
-50.861652374268 -73.730392456055 -139.152740478516 0.823778748512
11.919619560242 -77.481628417969 -207.954696655273 1.180345773697
18.364158630371 -75.713600158691 -202.439773559570 2.061242818832
-152.015777587891 -76.831481933594 -205.866195678711 1.851294875145
-158.825027465820 -63.879367828369 -207.498413085938 3.367625951767
13.214672088623 -71.115760803223 -230.349533081055 1.529273509979
-48.886028289795 -71.500869750977 -167.043960571289 4.422793388367
-25.601659774780 -75.998329162598 -203.199890136719 2.939537286758
-20.880010604858 -70.607337951660 -195.546081542969 2.258213520050
-29.294904708862 -65.353111267090 -192.570220947266 3.855972528458
-125.857513427734 -74.228538513184 -235.973541259766 1.957953095436
-127.568206787109 -65.373649597168 -237.113403320313 3.512887954712
-116.470947265625 -68.749702453613 -227.703842163086 1.825549244881
-76.684005737305 -64.060806274414 -133.165466308594 1.109570860863
-10.069135665894 -81.174430847168 -212.310440063477 2.682387113571
-71.010604858398 -74.867774963379 -154.722808837891 2.149427890778
-16.625610351563 -79.505088806152 -209.789505004883 1.866208910942
17.498794555664 -76.363708496094 -240.573974609375 0.499994844198
-127.062263488770 -71.737777709961 -204.039382934570 2.598375082016
-150.271835327148 -67.655632019043 -230.855422973633 1.997761964798
-146.484786987305 -61.765014648438 -229.360229492188 1.861109018326
16.003229141235 -74.211242675781 -209.052871704102 2.412458896637
-116.650337219238 -67.152976989746 -194.987182617188 2.635162115097
6.559968948364 -76.374755859375 -210.140029907227 1.877400279045
-26.186227798462 -77.724517822266 -241.937576293945 1.590265274048
-5.601146221161 -75.653480529785 -230.160293579102 0.952208697796
31.807600021362 -73.961090087891 -163.361129760742 0.697262287140
16.535734176636 -77.010757446289 -207.048614501953 0.550922632217
-35.432376861572 -73.339073181152 -216.110229492188 3.989969015121
-64.413764953613 -78.232307434082 -171.054000854492 1.922898292542
14.225072860718 -78.159660339355 -216.094772338867 1.588120222092
-160.332778930664 -70.183998107910 -230.589584350586 3.304684638977
-124.330749511719 -69.409355163574 -201.490966796875 2.271181583405
-5.467158794403 -76.987380981445 -220.150695800781 1.369947910309
-74.520416259766 -75.882141113281 -154.357879638672 3.402807474136
-152.141006469727 -74.574630737305 -238.769515991211 2.220329046249
-130.898941040039 -67.637619018555 -199.440231323242 3.413432121277
-128.282348632813 -69.403381347656 -198.662277221680 4.599553585052
-7.724090099335 -81.967651367188 -219.975921630859 3.003864049911
-153.888824462891 -72.830696105957 -232.172454833984 1.044553756714
-74.078491210938 -75.869186401367 -154.727615356445 3.431105852127
-160.483642578125 -67.987327575684 -231.327102661133 2.797827720642
-122.553245544434 -60.802597045898 -195.749588012695 1.516234755516
-29.249471664429 -75.062934875488 -217.578765869141 2.249446630478
-21.142885208130 -75.165069580078 -221.821762084961 1.195343375206
-73.398231506348 -71.317886352539 -158.462585449219 2.850041627884
-13.948524475098 -77.374458312988 -219.111495971680 0.563270270824
19.871086120605 -77.512840270996 -186.154541015625 1.593369722366
-17.668371200562 -75.521118164063 -220.320068359375 2.076764106750
-78.239913940430 -73.647575378418 -286.195129394531 2.815631389618
-140.030364990234 -73.140281677246 -229.058914184570 0.662085473537
-110.411140441895 -67.677185058594 -204.631774902344 1.877509593964
15.426166534424 -76.703613281250 -189.975158691406 1.640903830528
-17.003749847412 -74.442352294922 -221.573623657227 1.784832715988
-8.631800651550 -76.890426635742 -221.924026489258 2.262408971786
18.349292755127 -75.883247375488 -245.795272827148 1.361331820488
-34.469104766846 -77.244270324707 -64.094604492188 3.354289770126
-167.062530517578 -65.330680847168 -207.977600097656 2.522080659866
-0.566618978977 -81.854003906250 -226.325653076172 2.218564033508
-24.700395584106 -74.406417846680 -244.722763061523 3.119361400604
-7.282398223877 -75.187400817871 -230.653106689453 1.227400422096
32.753746032715 -64.974403381348 -13.463380813599 1.313292384148
-56.976009368896 -63.793895721436 -124.254699707031 2.307633876801
0.003250000067 -72.619270324707 -242.498352050781 1.385776162148
-19.508932113647 -73.686538696289 -71.874053955078 2.370734691620
-43.106075286865 -75.916557312012 -291.990661621094 1.586360454559
-155.832321166992 -69.994018554688 -206.655044555664 2.844803094864
-31.620721817017 -75.598594665527 -81.771263122559 3.009078979492
-152.993438720703 -63.255882263184 -208.725570678711 3.019441127777
-147.030624389648 -58.210079193115 -211.036560058594 3.031971693039
20.361616134644 -76.048423767090 -229.874816894531 2.556270122528
-144.498138427734 -69.446731567383 -236.720657348633 1.010339498520
-88.561584472656 -67.852096557617 -290.167999267578 1.990788221359
-146.777008056641 -65.117469787598 -236.591567993164 2.126572370529
-152.128204345703 -62.218284606934 -236.331222534180 1.275791645050
-160.461013793945 -68.532135009766 -222.862457275391 1.761093497276
-8.695601463318 -75.366790771484 -232.899276733398 0.884740829468
-73.751594543457 -63.239208221436 -121.912239074707 2.387901782990
-134.706985473633 -65.093322753906 -226.852233886719 0.959699094296
-3.521646976471 -78.610870361328 -241.552627563477 4.518017292023
-145.054580688477 -72.921089172363 -246.488586425781 3.757533073425
9.071462631226 -76.781562805176 -207.579055786133 1.752724051476
-21.141086578369 -77.724266052246 -238.961196899414 1.697024822235
3.724869966507 -77.569129943848 -217.869720458984 4.253254413605
-51.660526275635 -77.726875305176 -248.229980468750 1.932331442833
-48.212387084961 -80.989646911621 -247.038024902344 1.858792304993
-153.155410766602 -75.953300476074 -251.753128051758 2.853382825851
-158.073867797852 -68.679908752441 -248.769912719727 1.288824200630
-111.319000244141 -65.916755676270 -195.555633544922 1.124641895294
-154.269989013672 -73.826187133789 -270.767944335938 3.230700492859
-160.454803466797 -64.873916625977 -268.893859863281 4.282699108124
-83.718978881836 -72.610336303711 -63.153530120850 3.356486320496
81.929786682129 -77.593055725098 -226.464981079102 2.856162786484
-64.171241760254 -68.586746215820 -93.892341613770 1.945152521133
18.664869308472 -74.127128601074 -155.353881835938 2.881936550140
-129.276138305664 -75.578361511230 -296.559997558594 3.656119585037
-155.650299072266 -71.734413146973 -271.557861328125 3.248938083649
-148.327377319336 -74.422470092773 -276.523376464844 2.723654270172
-158.169540405273 -66.455253601074 -272.888427734375 2.689496994019
-109.825500488281 -67.313812255859 -292.301116943359 2.520328283310
24.305749893188 -68.998458862305 -150.907089233398 0.834890127182
-152.723739624023 -61.221549987793 -259.578765869141 2.019951105118
75.149612426758 -67.924987792969 -234.038085937500 1.250085115433
17.202753067017 -64.145553588867 -25.545843124390 2.028391599655
-11.466490745544 -65.312850952148 -260.164367675781 3.271393537521
-10.614218711853 -78.539588928223 -276.673461914063 3.059037208557
-7.530004978180 -76.408576965332 -282.366821289063 4.089690685272
4.679318904877 -79.963600158691 -285.054046630859 2.011463642120
-71.918670654297 -64.585136413574 -113.397460937500 3.061695575714
-165.194503784180 -71.114471435547 -292.647155761719 1.478213787079
-157.154159545898 -77.295570373535 -290.166137695313 2.736076354980
-145.211090087891 -74.124679565430 -308.415588378906 3.889603376389
-115.168693542480 -69.209495544434 -258.403717041016 1.911103963852
-114.360565185547 -71.654769897461 -263.034240722656 1.227332234383
97.467582702637 -74.353141784668 -199.063903808594 0.624884486198
-26.826358795166 -76.732276916504 -287.068298339844 0.906163215637
-23.685325622559 -75.527610778809 -290.545166015625 2.653289079666
7.888726234436 -64.070960998535 -273.025024414063 3.796700239182
-38.018173217773 -76.818321228027 -293.228271484375 3.339269161224
-31.864490509033 -77.730300903320 -291.009490966797 2.232690572739
113.940963745117 -70.760597229004 -156.676544189453 1.665260910988
-11.429042816162 -75.567695617676 -288.707946777344 1.535370588303
-19.668228149414 -74.792388916016 -290.751037597656 1.455200433731
12.822643280029 -75.723007202148 -295.573638916016 1.243429422379
-102.737701416016 -72.875000000000 -224.720260620117 1.204365372658
-52.488655090332 -76.277366638184 -62.387729644775 2.435142517090
15.009661674500 -74.765670776367 -280.728881835938 3.060588598251
-67.267868041992 -75.376251220703 -61.893054962158 2.269598484039
109.713134765625 -74.474014282227 -161.605499267578 1.787341952324
-4.111573219299 -73.021690368652 -284.394287109375 2.527043819427
-55.357677459717 -73.843910217285 -59.131259918213 2.691063165665
-7.945559978485 -75.847923278809 -289.587280273438 2.393466949463
22.751312255859 -62.697521209717 -269.553253173828 2.606384754181
-42.734138488770 -81.092155456543 -64.932624816895 1.010853290558
94.638557434082 -78.021102905273 -197.846771240234 3.668261528015
-80.032737731934 -68.793350219727 -104.572395324707 2.588101625443
-162.738372802734 -67.185157775879 -293.945251464844 4.516998291016
-147.469161987305 -72.657417297363 -306.016235351563 3.983297824860
74.224060058594 -77.027328491211 -233.147476196289 3.015560626984
-88.395492553711 -76.746170043945 -70.728080749512 3.242361068726
-14.306645393372 -65.525001525879 -256.459320068359 3.050262689590
64.611000061035 -67.106468200684 -103.084259033203 4.392121791840
-20.321670532227 -63.085620880127 -57.256633758545 4.039609432220
-25.253143310547 -71.155181884766 -61.240188598633 3.318302631378
-25.347570419312 -77.508026123047 -73.253143310547 2.107903003693
-26.727865219116 -76.883460998535 -76.960861206055 1.390830993652
17.321290969849 -75.694404602051 -250.402847290039 1.602409482002
107.706878662109 -69.264717102051 -191.678527832031 2.751632928848
29.940986633301 -68.353012084961 -42.294120788574 2.271254062653
102.757125854492 -71.012107849121 -109.965148925781 1.701061367989
-60.452941894531 -70.049728393555 -140.459594726563 1.550027728081
7.661630153656 -71.809661865234 -206.166091918945 2.084633111954
-38.687725067139 -76.442291259766 -83.575202941895 2.158946752548
-92.401222229004 -72.671424865723 -218.566482543945 2.366756439209
81.416694641113 -79.432632446289 -80.849380493164 1.012375831604
96.661209106445 -67.798828125000 -101.279357910156 2.429640769958
-6.518048763275 -66.385864257813 -274.570983886719 2.285778045654
-119.557861328125 -73.430541992188 -292.733673095703 1.373297095299
-143.698410034180 -73.582801818848 -266.778228759766 2.426096439362
-95.589866638184 -63.793781280518 -61.852649688721 1.853213548660
79.008369445801 -79.212722778320 -85.835906982422 3.398249864578
74.762992858887 -78.821289062500 -88.302040100098 3.226747512817
65.136215209961 -69.995628356934 -97.184661865234 3.071105241776
-45.813259124756 -75.965454101563 -86.674781799316 3.270885944366
74.920967102051 -77.792961120605 -87.979644775391 2.148524522781
-16.712032318115 -77.829734802246 -269.565551757813 3.912235975266
12.841460227966 -77.214012145996 -294.245971679688 1.862357378006
82.752319335938 -77.117843627930 -91.010826110840 2.380237340927
-62.832595825195 -62.076419830322 -88.898559570313 1.300636172295
76.467948913574 -79.636924743652 -88.702323913574 3.799369335175
70.174537658691 -76.891151428223 -84.933242797852 2.013525247574
-98.348747253418 -64.501876831055 -63.880073547363 3.597258090973
26.394140243530 -62.359775543213 -43.660129547119 4.338294506073
85.956443786621 -80.536933898926 -89.956291198730 1.878776788712
75.622917175293 -75.735771179199 -96.824455261230 1.950564861298
-7.938697814941 -73.868804931641 -277.244323730469 1.650173306465
-92.276191711426 -70.002929687500 -64.228050231934 2.794385433197
-67.102523803711 -76.510017395020 -98.214584350586 1.896278619766
43.543434143066 -78.444786071777 -108.799880981445 1.288975477219
82.130569458008 -76.575042724609 -72.941246032715 1.717373013496
-50.871013641357 -73.912040710449 -142.510147094727 2.900594711304
11.609444618225 -74.965545654297 -210.664733886719 2.561219930649
-48.967628479004 -75.437957763672 -150.859817504883 1.835537791252
-169.563079833984 -65.320671081543 -242.704223632813 4.451666831970
-137.172470092773 -64.451843261719 -206.698059082031 5.419822216034
-99.469093322754 -63.473327636719 -257.999725341797 2.702204704285
-164.368270874023 -65.907676696777 -200.997787475586 2.092725276947
-42.616065979004 -78.201728820801 -152.363647460938 2.262896776199
44.803833007813 -61.966186523438 -116.745468139648 2.277891635895
-62.785045623779 -72.259124755859 -166.376022338867 2.393344402313
-18.755966186523 -77.218742370605 -209.021759033203 1.582209825516
-121.513031005859 -71.620956420898 -231.281478881836 1.321801185608
-124.767326354980 -66.751312255859 -237.154388427734 2.339655160904
-69.559272766113 -73.009246826172 -157.791061401367 1.642112612724
19.247812271118 -75.846038818359 -156.078323364258 1.990343928337
-71.649436950684 -77.606941223145 -165.204559326172 5.130138874054
-19.021024703979 -73.958816528320 -213.524978637695 2.314413309097
-12.295396804810 -78.018386840820 -206.570556640625 1.228122949600
107.667922973633 -74.896835327148 -167.899917602539 1.618238568306
-57.113620758057 -74.722572326660 -172.687133789063 2.449220657349
-25.959671020508 -76.107597351074 -203.240097045898 3.114503622055
6.190003871918 -69.625518798828 -229.129547119141 2.272460699081
-83.327636718750 -63.982238769531 -136.320495605469 3.308929443359
108.140174865723 -77.633605957031 -176.661819458008 2.241670131683
-70.362602233887 -74.220855712891 -171.483200073242 5.443600654602
108.617721557617 -76.903999328613 -171.762145996094 1.331218361855
-18.613439559937 -75.112831115723 -177.708190917969 1.021144628525
-34.056236267090 -72.383285522461 -163.325500488281 1.323871970177
110.429924011230 -76.501968383789 -183.681716918945 2.078861474991
19.627668380737 -77.232192993164 -190.626205444336 2.046247482300
12.898543357849 -79.046081542969 -198.106765747070 1.576946735382
-48.439411163330 -74.503532409668 -292.917297363281 3.721699714661
-146.367416381836 -72.155769348145 -196.651123046875 0.378537714481
11.167767524719 -62.210285186768 -242.403091430664 1.347955822945
-29.020103454590 -67.912231445313 -78.001815795898 2.664422273636
-29.038558959961 -69.122894287109 -72.723632812500 2.179838895798
-75.657905578613 -68.532554626465 -119.135047912598 2.512151241302
104.505363464355 -74.767608642578 -194.239639282227 0.788175821304
-151.609832763672 -67.690422058105 -218.642959594727 3.946796417236
-140.147445678711 -73.505416870117 -202.679870605469 1.876887679100
-154.200088500977 -62.726566314697 -215.886199951172 4.721809864044
-125.496475219727 -59.818885803223 -230.860015869141 4.574755191803
-147.898788452148 -56.665920257568 -218.037490844727 4.247663974762
39.932014465332 -65.619987487793 -117.266662597656 3.301860809326
-106.823501586914 -66.314811706543 -265.329833984375 3.809258699417
-91.789306640625 -64.176368713379 -121.070762634277 1.311545133591
60.425605773926 -71.887977600098 -246.116867065430 2.389741659164
-51.103435516357 -78.228324890137 -200.090301513672 1.517754435539
7.990924835205 -74.395339965820 -201.319519042969 1.348133206367
-106.012901306152 -62.747066497803 -175.280105590820 2.123115777969
20.008235931396 -75.594360351563 -196.043594360352 2.375889301300
40.733188629150 -66.597267150879 -23.812467575073 2.466410875320
-104.346717834473 -61.395973205566 -165.452270507813 1.572827339172
-13.821398735046 -75.544174194336 -200.438110351563 1.545550584793
6.170935153961 -74.606216430664 -226.902770996094 2.092683553696
-22.128429412842 -78.126342773438 -203.600357055664 2.049112081528
-132.244079589844 -68.990669250488 -205.541473388672 1.468029379845
-124.612541198730 -67.186119079590 -208.155303955078 2.932236909866
15.609118461609 -77.329170227051 -204.144058227539 1.187992453575
94.333816528320 -77.562202453613 -202.825088500977 1.469028949738
99.723815917969 -79.921157836914 -208.184371948242 4.154754638672
-72.294944763184 -78.095222473145 -207.447387695313 0.889548182487
-62.660850524902 -74.008277893066 -162.718780517578 2.286625623703
-17.276000976563 -77.155570983887 -209.969467163086 0.955722749233
-153.760360717773 -68.204154968262 -235.710861206055 1.101604223251
-75.131072998047 -76.759208679199 -292.372192382813 3.747944355011
-145.932403564453 -74.013961791992 -218.568435668945 1.635213136673
43.122959136963 -61.573806762695 -43.132831573486 3.813476085663
-29.761341094971 -75.759765625000 -219.027770996094 2.193428039551
-76.367752075195 -73.283462524414 -146.760971069336 2.004772186279
-1.737975955009 -73.385772705078 -221.600357055664 1.943503379822
-4.126471996307 -63.295066833496 -238.516403198242 1.108265042305
7.186758995056 -75.461112976074 -225.134124755859 1.732324242592
-38.313415527344 -75.377960205078 -245.006347656250 1.796861410141
-22.247011184692 -76.760322570801 -227.090820312500 1.984141945839
15.801568984985 -64.482887268066 -204.712814331055 4.329180717468
-62.389842987061 -66.633911132813 -131.278839111328 1.019393324852
-150.818161010742 -77.160629272461 -232.546569824219 2.049486875534
-159.988861083984 -64.790756225586 -227.622177124023 2.580601692200
-142.121124267578 -74.704490661621 -234.229965209961 1.350787878036
-132.432495117188 -61.525592803955 -201.632644653320 2.237758874893
-6.884027957916 -72.048843383789 -237.120422363281 1.553408861160
-9.062111854553 -68.080665588379 -235.039199829102 2.091963768005
-150.149093627930 -75.277671813965 -238.592132568359 1.924314618111
-105.169883728027 -64.716560363770 -188.566101074219 2.620037555695
-159.203598022461 -65.202194213867 -240.603286743164 1.634238481522
-70.010932922363 -69.705886840820 -292.446502685547 3.085428476334
-56.351463317871 -75.322319030762 -246.747421264648 2.530871391296
-81.013908386230 -68.055030822754 -141.552902221680 3.316771030426
-0.956947982311 -80.498077392578 -247.792205810547 2.298961400986
105.805084228516 -73.407653808594 -154.992645263672 4.771808147430
19.334617614746 -75.608016967773 -257.140625000000 2.129182100296
107.447029113770 -69.493736267090 -151.323684692383 4.246283531189
-55.342761993408 -76.365585327148 -56.844570159912 1.353542208672
-94.830566406250 -75.119949340820 -98.813026428223 4.310594558716
19.508029937744 -75.199302673340 -270.732055664063 2.097738981247
15.960594177246 -73.237228393555 -272.776458740234 5.197643280029
-84.377868652344 -74.118240356445 -256.796661376953 1.790407299995
-44.253181457520 -75.734733581543 -287.952148437500 2.790188789368
-73.904457092285 -74.532966613770 -251.230453491211 1.335915207863
-117.270042419434 -63.965713500977 -233.063354492188 1.627184152603
-40.958087921143 -73.891410827637 -287.369293212891 1.241646647453
-41.086196899414 -78.786468505859 -292.565246582031 2.957791566849
-27.688781738281 -77.011154174805 -69.564620971680 0.806439161301
43.010196685791 -63.386116027832 -256.796051025391 1.665179491043
112.410987854004 -72.689178466797 -152.063369750977 0.783278882504
-10.819876670837 -77.229949951172 -290.338775634766 1.237614512444
115.481697082520 -72.283081054688 -156.111251831055 1.583540201187
-15.419013023376 -77.955627441406 -289.740539550781 2.389070272446
-31.811429977417 -73.986724853516 -293.192810058594 1.206775546074
-149.044158935547 -71.909706115723 -280.299804687500 4.125261783600
79.633071899414 -75.121078491211 -231.296813964844 1.216526746750
-86.580024719238 -75.724266052246 -64.363929748535 3.530291318893
-133.942504882813 -72.753776550293 -292.380035400391 2.424253225327
67.636550903320 -67.722602844238 -104.262863159180 3.305418491364
110.370948791504 -71.071708679199 -164.023773193359 1.652038455009
-11.450184822083 -78.278999328613 -286.348022460938 2.207804441452
-4.379389762878 -74.827545166016 -293.574005126953 3.295935869217
23.762197494507 -62.318408966064 -274.012298583984 1.314845442772
23.104042053223 -57.221042633057 -272.757934570313 1.810590863228
-70.581809997559 -68.895378112793 -54.641056060791 4.462863445282
96.320762634277 -71.512825012207 -212.825271606445 1.892369747162
-56.028083801270 -71.742752075195 -290.242523193359 1.445272326469
-145.927520751953 -70.831558227539 -205.818756103516 1.277189373970
-111.285530090332 -64.367774963379 -228.280838012695 2.148510932922
7.582746982574 -73.940750122070 -292.484802246094 2.271660327911
-89.655364990234 -77.734291076660 -80.881774902344 1.950243473053
-111.751579284668 -69.547904968262 -292.688201904297 1.849491119385
85.607757568359 -71.729713439941 -219.371109008789 1.609727978706
-129.143524169922 -70.188301086426 -290.235778808594 3.085590839386
-145.583572387695 -73.615699768066 -278.631072998047 2.438838481903
-130.695800781250 -74.188194274902 -293.240142822266 3.025752067566
-88.255592346191 -78.554107666016 -217.278137207031 1.440769910812
-142.534408569336 -61.088542938232 -260.705688476563 2.010421037674
-80.743644714355 -77.995613098145 -61.440471649170 3.801826953888
81.703964233398 -78.328987121582 -226.641326904297 2.886441469193
-57.019001007080 -63.397956848145 -91.631294250488 4.622788906097
16.288774490356 -74.891983032227 -292.022521972656 0.470616072416
-83.011932373047 -75.595321655273 -69.634780883789 3.157466173172
-90.758193969727 -73.175918579102 -86.361984252930 1.900307893753
28.435667037964 -69.013313293457 -259.011047363281 1.903975129128
46.194656372070 -71.676429748535 -109.756248474121 2.325416088104
56.222133636475 -69.792495727539 -95.253692626953 1.610437393188
85.558082580566 -77.054321289063 -214.969421386719 2.260986328125
20.764669418335 -62.291217803955 -259.608459472656 4.907536029816
-38.309120178223 -59.766830444336 -49.201484680176 3.445612192154
-76.171073913574 -67.646110534668 -54.543815612793 5.634387969971
15.076981544495 -60.175636291504 -286.900695800781 0.761304438114
75.590217590332 -74.966949462891 -92.499465942383 1.412836551666
18.481863021851 -74.770980834961 -275.395172119141 3.471965312958
-94.539497375488 -78.227691650391 -90.424545288086 2.981707096100
35.734966278076 -69.836891174316 -114.138015747070 0.839666306973
45.493270874023 -71.920616149902 -89.588310241699 3.645791530609
49.757217407227 -73.628784179688 -92.836784362793 1.878859639168
22.747623443604 -74.120918273926 -151.147262573242 1.316423058510
-143.001861572266 -70.470764160156 -258.111694335938 2.652379274368
-150.751281738281 -70.701828002930 -280.794403076172 2.300849437714
-150.588226318359 -74.743255615234 -271.370330810547 1.999132871628
71.404151916504 -80.902481079102 -94.453605651855 6.253640174866
-155.197555541992 -67.534019470215 -274.668334960938 4.083366870880
-147.254348754883 -65.065498352051 -259.160980224609 1.756081700325
-110.562461853027 -65.632247924805 -290.522399902344 3.298020124435
27.317087173462 -63.012542724609 -155.113296508789 5.580788612366
-113.725791931152 -64.891586303711 -290.751861572266 1.919530749321
-54.033115386963 -61.159866333008 -83.818107604980 3.321876049042
-150.448257446289 -60.220947265625 -256.066009521484 1.565283179283
71.939712524414 -70.436210632324 -234.879486083984 1.139501214027
-76.476669311523 -72.578742980957 -53.288326263428 3.170925617218
-82.021232604980 -68.272903442383 -100.111129760742 3.392256259918
-86.377891540527 -74.536216735840 -110.582267761230 1.349982500076
107.784866333008 -76.890830993652 -133.866394042969 3.774918317795
110.585670471191 -78.575149536133 -138.814254760742 2.424380540848
7.817673206329 -76.630485534668 -197.798355102539 3.927026033401
-53.716297149658 -76.642883300781 -138.202941894531 2.228051662445
-80.094093322754 -71.925903320313 -212.440399169922 1.753626823425
107.312225341797 -82.101585388184 -133.468063354492 7.279432773590
108.112091064453 -81.791740417480 -138.837768554688 6.283885002136
-53.422145843506 -72.106391906738 -145.377304077148 2.563958644867
114.588676452637 -76.134941101074 -149.805679321289 2.211981773376
114.303909301758 -79.255142211914 -144.759307861328 3.664932966232
-58.982486724854 -78.456733703613 -141.133605957031 3.973227024078
-63.299503326416 -72.953910827637 -255.449401855469 5.376915931702
-41.336231231689 -71.998985290527 -147.928619384766 1.295072913170
111.215003967285 -80.504348754883 -143.484802246094 4.684424877167
107.648094177246 -75.429267883301 -153.929565429688 3.346553325653
68.645126342773 -62.878971099854 -63.092826843262 2.439822673798
28.471124649048 -63.463172912598 -262.571197509766 0.592368006706
111.746856689453 -77.661827087402 -164.978439331055 2.123918056488
-1.944012999535 -74.983062744141 -171.607727050781 3.255606412888
-44.860530853271 -64.763160705566 -81.232711791992 1.511014819145
-101.514312744141 -71.529006958008 -227.948745727539 2.617153644562
112.576507568359 -78.752502441406 -167.673217773438 1.559787511826
41.469665527344 -65.729759216309 -95.047843933105 3.693123102188
45.927219390869 -68.107192993164 -102.409332275391 1.500311017036
-87.428222656250 -64.246658325195 -114.280494689941 1.153184175491
-56.071445465088 -59.800106048584 -78.460411071777 1.826364874840
100.849212646484 -77.618263244629 -180.544982910156 3.197100400925
101.929115295410 -78.297592163086 -183.615676879883 2.225422620773
103.120254516602 -73.872383117676 -186.392532348633 1.585286378860
103.514167785645 -79.374557495117 -186.287261962891 2.851695060730
104.039947509766 -77.610572814941 -189.231338500977 0.792886972427
-154.495178222656 -73.701728820801 -239.858932495117 3.381537199020
11.185449600220 -74.096260070801 -195.928756713867 1.148954629898
-145.688156127930 -58.534610748291 -241.082153320313 5.028944015503
-144.009475708008 -73.627403259277 -207.027908325195 2.519248485565
-63.449726104736 -74.824470520020 -287.532592773438 1.750648260117
-36.912010192871 -62.655494689941 -82.223052978516 3.021744012833
101.686073303223 -77.647529602051 -195.240341186523 1.153183460236
-157.768432617188 -67.688896179199 -207.614456176758 2.080328226089
-31.509271621704 -73.762336730957 -82.684173583984 4.710763931274
-154.269226074219 -75.235076904297 -205.622131347656 3.003459930420
-36.246456146240 -70.017837524414 -79.639701843262 2.422249317169
-80.972908020020 -68.539756774902 -129.252777099609 1.377104759216
-79.539230346680 -60.355873107910 -127.405380249023 1.662806034088
-61.501125335693 -74.863578796387 -292.501129150391 3.038554191589
-148.383972167969 -73.428855895996 -208.334899902344 2.558431386948
110.139778137207 -73.471534729004 -136.208419799805 2.187105655670
112.860221862793 -73.625617980957 -134.554672241211 1.474151849747
-75.969223022461 -74.305892944336 -213.708023071289 1.340689778328
96.582542419434 -76.260276794434 -213.421127319336 2.966935634613
15.091491699219 -64.289764404297 -151.581939697266 1.965043544769
-57.204391479492 -71.034507751465 -92.887428283691 3.086440086365
-78.234207153320 -73.131195068359 -215.365066528320 1.535844326019
-128.188339233398 -72.003479003906 -232.830810546875 1.827734827995
-71.577247619629 -79.705764770508 -293.379577636719 6.633938312531
-147.940933227539 -74.646354675293 -222.859451293945 2.275148868561
-154.410980224609 -64.612304687500 -198.578689575195 2.415153980255
-144.161605834961 -58.558372497559 -200.781066894531 2.735042810440
-150.126953125000 -56.694694519043 -196.976165771484 4.354845523834
-11.535792350769 -58.627605438232 -58.005065917969 3.039165735245
12.800499916077 -76.394248962402 -219.666213989258 1.914723277092
-80.042961120605 -71.043411254883 -59.059810638428 2.007333755493
86.696945190430 -75.427352905273 -218.281280517578 1.449730038643
-18.806171417236 -76.273361206055 -220.399322509766 2.075165987015
-15.830932617188 -74.498359680176 -232.287139892578 1.988835096359
46.518516540527 -70.560150146484 -32.820831298828 2.356618642807
14.772485733032 -79.403953552246 -231.434616088867 1.950083732605
-136.509017944336 -75.203651428223 -228.536804199219 1.649258017540
-8.944435119629 -71.694648742676 -232.954299926758 1.618420004845
-151.713348388672 -68.710327148438 -219.968688964844 2.880264520645
-7.896911144257 -68.652236938477 -236.672531127930 1.587598085403
-156.675292968750 -69.951454162598 -218.693832397461 2.225468873978
-89.441841125488 -73.189971923828 -291.031707763672 1.697786211967
-146.955856323242 -73.744071960449 -239.526596069336 1.889364004135
-96.445777893066 -72.933822631836 -290.656829833984 2.289624214172
-147.843582153320 -73.155555725098 -240.255554199219 2.407902479172
-63.069869995117 -71.937362670898 -249.836685180664 0.992817640305
-45.887527465820 -77.683319091797 -247.307296752930 1.493617057800
-51.742073059082 -72.141151428223 -85.171127319336 2.142819643021
-81.300933837891 -74.382637023926 -220.542266845703 4.382300376892
-51.304248809814 -74.473236083984 -250.052078247070 2.525826215744
-6.428551197052 -67.440132141113 -264.314300537109 2.554452180862
-12.819551467896 -73.576416015625 -255.415145874023 1.752851366997
-16.462388992310 -74.466392517090 -259.231445312500 2.914645910263
112.507583618164 -70.941566467285 -119.015213012695 1.535436749458
24.540958404541 -64.835098266602 -33.981483459473 3.204600334167
-146.695831298828 -68.180305480957 -271.141296386719 3.713407278061
-140.962783813477 -66.052429199219 -265.725433349609 3.725626945496
-88.216926574707 -65.074401855469 -53.798431396484 2.030277729034
-14.452070236206 -71.187980651855 -275.842407226563 2.875727176666
21.324174880981 -60.545139312744 -28.791425704956 2.849214315414
-135.363800048828 -72.346633911133 -291.543365478516 1.595104694366
-150.320312500000 -74.838485717773 -283.606109619141 1.474454164505
28.208671569824 -71.508163452148 -15.379837036133 1.000289082527
19.744640350342 -67.382247924805 -20.253103256226 2.979443073273
5.794828891754 -78.656440734863 -288.458770751953 2.458559751511
-113.078712463379 -69.304077148438 -233.462707519531 0.727436125278
-81.321952819824 -71.432151794434 -258.369476318359 2.399780273438
-141.884475708008 -75.376586914063 -207.922790527344 3.769449949265
-57.869583129883 -74.801391601563 -290.380340576172 1.798056721687
-125.294883728027 -72.689537048340 -232.810684204102 1.493618845940
-156.025421142578 -70.868606567383 -199.592437744141 2.783764839172
-68.993026733398 -72.583930969238 -290.015747070313 1.828625559807
-12.459738731384 -63.242286682129 -61.102970123291 3.653666734695
-123.424751281738 -71.025146484375 -255.909408569336 0.814820051193
-144.322540283203 -70.764816284180 -304.917572021484 1.756193518639
-149.930023193359 -73.032981872559 -302.220855712891 4.297766208649
-151.196960449219 -74.310844421387 -289.776214599609 1.421604394913
-130.262130737305 -63.894107818604 -261.533691406250 2.392395734787
-155.980331420898 -64.691329956055 -288.516601562500 1.386027932167
94.535415649414 -68.481185913086 -68.693550109863 2.464601516724
-0.842355012894 -75.486320495605 -296.881866455078 5.471516132355
70.309547424316 -71.786056518555 -104.505699157715 3.964561462402
74.272315979004 -68.535797119141 -108.915611267090 4.236813545227
-148.758697509766 -73.090156555176 -313.000396728516 0.678441107273
64.924522399902 -62.489933013916 -71.018806457520 1.507143378258
-3.964751958847 -74.218276977539 -172.343872070313 1.907767295837
-154.051910400391 -72.834243774414 -317.561981201172 5.012549400330
-156.447509765625 -68.486679077148 -314.216766357422 3.548116922379
87.777565002441 -74.141311645508 -211.280868530273 1.740749239922
-73.028900146484 -76.192794799805 -63.396980285645 3.108914852142
-1.550565958023 -68.939407348633 -242.060928344727 2.346956968307
-39.224292755127 -72.226135253906 -59.975688934326 3.052908420563
-90.392318725586 -77.484008789063 -78.694473266602 3.534778833389
68.232330322266 -75.199440002441 -94.459831237793 3.694665908813
-135.405654907227 -69.917663574219 -256.675506591797 0.787402808666
-36.341102600098 -71.148811340332 -82.601333618164 4.733330726624
20.918363571167 -73.544830322266 -20.809938430786 2.565175771713
25.281793594360 -71.346618652344 -15.143464088440 1.775978326797
71.651046752930 -74.590560913086 -86.580780029297 2.143026590347
62.847663879395 -64.645690917969 -74.244491577148 2.612017869949
-2.766288995743 -64.712066650391 -278.651733398438 2.357218980789
87.024101257324 -64.532165527344 -64.755859375000 1.934630632401
-83.384056091309 -76.465087890625 -102.918846130371 3.474259376526
14.766511917114 -69.321670532227 -143.706085205078 2.659759044647
-96.027832031250 -75.932449340820 -107.598922729492 3.573083400726
-86.108261108398 -76.320205688477 -108.728042602539 2.505877971649
105.020385742188 -69.923149108887 -172.478515625000 2.244681119919
-98.263084411621 -73.832351684570 -114.573333740234 5.908965587616
-97.080169677734 -69.734886169434 -121.958351135254 3.386606216431
9.544002532959 -70.296066284180 -191.824432373047 3.196630001068
108.035705566406 -76.725288391113 -114.043220520020 2.826628208160
109.461456298828 -77.276107788086 -123.372726440430 3.181608200073
-15.994780540466 -68.371833801270 -253.672119140625 3.170953750610
-101.324058532715 -58.303039550781 -70.963356018066 3.825217247009
110.123565673828 -77.244842529297 -131.959899902344 2.821700811386
9.464520454407 -73.660148620605 -203.279510498047 1.829622149467
-55.676811218262 -72.765426635742 -135.962158203125 2.715256690979
-49.082073211670 -71.453330993652 -142.341110229492 2.671318292618
108.176300048828 -76.617958068848 -145.156372070313 3.512170553207
-54.935176849365 -74.566329956055 -145.609115600586 1.801912784576
1.358170032501 -60.372798919678 -286.287841796875 3.137444496155
-16.383525848389 -73.074630737305 -287.866455078125 2.218038797379
19.585664749146 -70.411392211914 -253.264862060547 3.168070793152
-99.892593383789 -58.935153961182 -112.727622985840 4.077973842621
-18.143568038940 -74.466308593750 -289.946258544922 2.439109325409
114.836196899414 -74.980644226074 -156.995117187500 1.341844439507
16.346920013428 -69.163825988770 -172.105270385742 1.939733505249
91.905479431152 -74.578094482422 -201.757049560547 3.032180070877
-122.541053771973 -71.841598510742 -259.144012451172 3.180524587631
-51.202262878418 -75.689048767090 -187.744033813477 1.494036436081
99.932998657227 -75.613357543945 -189.918991088867 1.015565633774
-48.437675476074 -69.335937500000 -158.725112915039 1.229229927063
-20.922487258911 -70.841178894043 -199.033996582031 2.277161598206
-46.309814453125 -68.724563598633 -152.531860351563 1.822528362274
3.886089086533 -55.860446929932 -245.323120117188 1.722992658615
95.217483520508 -76.612556457520 -199.236999511719 2.786286115646
-83.549140930176 -55.844615936279 -125.360160827637 5.398004055023
-71.201835632324 -74.731750488281 -294.027404785156 3.019618749619
-146.881347656250 -67.538902282715 -216.045425415039 2.432833433151
-150.068496704102 -74.293304443359 -201.579574584961 2.520995378494
-156.949096679688 -64.656066894531 -198.988342285156 2.720089673996
-150.283843994141 -57.193538665771 -216.328643798828 4.381420135498
-137.680892944336 -72.313125610352 -204.127288818359 3.176349878311
103.057754516602 -75.286712646484 -201.521224975586 2.919144868851
-13.531017303467 -72.663223266602 -221.545776367188 0.349083304405
-45.279087066650 -71.019165039063 -164.762298583984 1.345653176308
-53.545593261719 -71.634727478027 -158.334625244141 3.028631448746
-19.559307098389 -71.232192993164 -191.419372558594 2.274083137512
-86.412857055664 -70.126762390137 -122.953582763672 1.223161935806
-54.421436309814 -65.311767578125 -151.129165649414 2.812536001205
-75.921142578125 -70.700988769531 -132.447052001953 1.791797876358
-91.414222717285 -74.960929870605 -254.089508056641 0.782728672028
15.080644607544 -71.297294616699 -220.966552734375 2.251453161240
-8.468829154968 -73.811851501465 -222.965866088867 2.169140815735
-76.096092224121 -64.811271667480 -149.149337768555 5.345045089722
-6.213540077209 -67.111427307129 -223.099853515625 1.143812417984
-53.267139434814 -68.174697875977 -128.839828491211 1.097938776016
-58.935821533203 -67.917243957520 -127.500541687012 1.301505804062
14.648143768311 -74.059005737305 -208.491958618164 3.387752056122
-158.632904052734 -71.788642883301 -230.849548339844 3.604163885117
-153.591339111328 -72.366577148438 -230.852432250977 1.614062428474
-160.453353881836 -69.569129943848 -253.830001831055 1.611241698265
-83.705993652344 -73.262977600098 -290.222778320313 1.118737339973
-147.655868530273 -77.180335998535 -234.357513427734 1.505665183067
-127.641609191895 -61.963230133057 -197.335571289063 2.722603797913
-10.211904525757 -69.748413085938 -237.897338867188 2.250701427460
-5.153295040131 -71.931968688965 -236.777648925781 1.273198962212
1.566388010979 -75.677757263184 -233.145782470703 2.641261339188
-36.502250671387 -64.348304748535 -49.728652954102 2.620562553406
-63.072036743164 -64.151611328125 -128.453186035156 1.332764267921
-17.624265670776 -69.939086914063 -239.333908081055 1.684967517853
-39.805591583252 -72.598136901855 -239.659072875977 3.881522655487
-18.077203750610 -72.851692199707 -245.823822021484 3.982788801193
-17.351354598999 -73.377944946289 -271.179687500000 3.810861825943
-78.117301940918 -72.164154052734 -289.869567871094 2.328831434250
-119.372940063477 -69.088722229004 -203.840103149414 3.395739316940
-156.999206542969 -70.516532897949 -238.508132934570 2.035467624664
-154.279586791992 -68.158073425293 -238.369262695313 2.166484832764
-144.872024536133 -64.717399597168 -237.741012573242 2.656536102295
-75.913421630859 -72.090576171875 -290.521942138672 2.020033359528
-3.112102985382 -71.480644226074 -233.968078613281 1.513166666031
-155.219573974609 -70.869140625000 -218.203338623047 1.182327032089
-155.201583862305 -65.255241394043 -221.840240478516 3.276481151581
-147.413894653320 -61.813987731934 -221.390029907227 1.063871502876
-88.987960815430 -72.228767395020 -289.448608398438 2.982201337814
-63.688182830811 -62.051216125488 -134.184616088867 2.497851610184
-150.481185913086 -74.541793823242 -230.083953857422 1.856212496758
-80.814353942871 -74.475837707520 -288.419921875000 1.704428315163
-108.442848205566 -66.730384826660 -202.813110351563 1.908590912819
90.926017761230 -72.385757446289 -203.060317993164 2.683160781860
-62.607837677002 -72.334495544434 -50.673923492432 1.155856728554
22.452440261841 -58.731227874756 -249.002075195313 2.220809936523
25.115432739258 -73.910919189453 -261.428802490234 1.667062759399
-42.926956176758 -68.521682739258 -54.334568023682 4.306436061859
-47.483417510986 -74.479858398438 -55.826263427734 1.373242616653
81.826004028320 -75.778022766113 -71.575653076172 1.315651893616
53.680885314941 -72.443862915039 -103.769073486328 1.728122591972
-76.909797668457 -62.870315551758 -103.897994995117 1.903328776360
72.733978271484 -76.231346130371 -78.192909240723 1.944926023483
97.419845581055 -74.351287841797 -86.128143310547 0.766897380352
-82.971534729004 -58.375885009766 -49.999633789063 3.710691690445
97.668937683105 -72.556755065918 -89.454368591309 1.444369435310
64.843109130859 -72.398674011230 -99.083068847656 5.410163879395
71.116828918457 -78.853912353516 -97.138183593750 4.593714714050
63.839298248291 -71.724052429199 -87.487716674805 1.037425756454
7.907422065735 -67.166999816895 -294.975067138672 1.652317047119
64.776649475098 -67.359008789063 -78.014076232910 2.100906372070
8.929845809937 -62.216632843018 -291.978668212891 2.678081512451
70.574417114258 -70.563003540039 -97.394371032715 0.745141088963
22.604679107666 -69.840332031250 -171.356903076172 1.829119086266
-165.175476074219 -70.985939025879 -274.821685791016 1.459291458130
7.220870018005 -73.618995666504 -153.832214355469 1.595567226410
-70.269874572754 -75.613868713379 -102.869430541992 1.428878307343
23.311288833618 -66.283645629883 -170.667022705078 1.818672180176
-159.445968627930 -74.297676086426 -278.941680908203 3.927358150482
67.614410400391 -74.325248718262 -236.775985717773 1.013892292976
