-91.500228881836 -75.517829895020 -218.186111450195 1.628880262375
-40.743736267090 -72.738746643066 -55.910697937012 1.997862815857
13.506643295288 -75.691795349121 -249.375946044922 2.196910858154
-124.717643737793 -77.857124328613 -226.703414916992 2.562045574188
-148.054153442383 -76.912818908691 -197.967544555664 0.435157805681
-29.560447692871 -76.220573425293 -70.002128601074 1.425070047379
-151.003768920898 -81.567382812500 -188.750579833984 1.330034255981
-155.667877197266 -73.892425537109 -196.987182617188 2.872117996216
-128.934097290039 -70.373954772949 -222.250961303711 1.899101972580
-139.021942138672 -70.934379577637 -198.631622314453 2.190632820129
-144.169525146484 -63.331226348877 -196.881195068359 2.779708862305
-67.277961730957 -73.366172790527 -153.752120971680 0.661706864834
14.900858879089 -80.031318664551 -245.792556762695 2.060313940048
-69.105995178223 -69.903106689453 -147.639144897461 0.658146440983
-8.517192840576 -68.806358337402 -215.806060791016 0.956851363182
-69.926025390625 -76.016639709473 -248.837860107422 1.475299715996
-8.824603080750 -81.161308288574 -213.977478027344 1.616118907928
-86.409423828125 -60.803409576416 -116.610710144043 2.076940059662
-40.789134979248 -77.010047912598 -287.525268554688 2.490904092789
-20.839105606079 -67.421798706055 -62.262023925781 4.512491226196
-139.959213256836 -73.473373413086 -182.409133911133 2.758196353912
-144.588912963867 -64.401466369629 -181.661285400391 3.185928344727
-16.455297470093 -78.697471618652 -202.260772705078 1.584287762642
-148.537124633789 -75.180358886719 -188.225814819336 1.517748951912
-150.426162719727 -86.824546813965 -199.341537475586 4.119896888733
-153.983520507813 -71.973640441895 -187.618698120117 2.947854280472
-161.119857788086 -70.173675537109 -198.938735961914 2.879377126694
-148.130523681641 -63.306056976318 -191.509201049805 2.462266683578
-115.405921936035 -75.563575744629 -226.600814819336 2.319567441940
35.653373718262 -70.208938598633 -139.292434692383 2.335071802139
-50.787914276123 -78.793800354004 -190.504592895508 2.348716497421
-47.942081451416 -79.452171325684 -195.540023803711 1.846563935280
-143.903381347656 -90.090637207031 -202.105422973633 6.743700981140
-145.472534179688 -85.377304077148 -201.438949584961 2.556301116943
-146.327224731445 -86.422843933105 -206.492736816406 3.594927549362
-10.955445289612 -58.102439880371 -57.136295318604 2.884479999542
-48.625549316406 -78.397697448730 -284.728363037109 1.961941599846
-82.165473937988 -73.540138244629 -248.778228759766 2.644287109375
-105.176567077637 -74.211471557617 -227.753982543945 1.487448692322
-141.727722167969 -88.339843750000 -198.473907470703 5.115857124329
-145.524017333984 -71.493415832520 -189.061172485352 2.394904851913
-27.851095199585 -59.675067901611 -75.248756408691 5.492094039917
-149.945877075195 -68.935432434082 -188.498580932617 1.489473104477
-32.996070861816 -55.295219421387 -69.431541442871 3.303344249725
-35.914577484131 -78.266906738281 -196.968536376953 1.967392802238
-52.557769775391 -75.689933776855 -185.637283325195 1.443647146225
79.638404846191 -70.826171875000 -72.644279479980 2.691251516342
98.440048217773 -60.255706787109 -69.609565734863 3.006904840469
47.954002380371 -70.884513854980 -248.583511352539 1.587251067162
-68.430152893066 -76.915802001953 -72.528640747070 4.267071723938
8.337589263916 -81.447586059570 -277.768951416016 1.521977782249
11.223728179932 -77.712608337402 -279.524749755859 1.049395918846
-65.901313781738 -84.787315368652 -208.291305541992 2.475263118744
-86.503456115723 -73.180046081543 -84.915306091309 3.635805368423
-80.363983154297 -81.047424316406 -81.866561889648 0.859983742237
-101.300872802734 -73.781578063965 -222.891769409180 1.222068190575
-55.283943176270 -65.595886230469 -46.915733337402 3.378620862961
100.926223754883 -66.006309509277 -199.433959960938 5.137083053589
-116.177124023438 -66.292564392090 -200.800140380859 1.943712472916
-144.822586059570 -82.570526123047 -224.268692016602 2.192467451096
-146.798324584961 -81.373413085938 -215.169143676758 0.535010218620
15.864771842957 -76.351654052734 -187.451248168945 1.912112355232
-164.098556518555 -72.802742004395 -214.223968505859 1.638602495193
-10.422553062439 -64.066940307617 -246.340621948242 2.780698537827
-68.809280395508 -56.599372863770 -117.543601989746 0.652578115463
-146.032775878906 -84.753341674805 -216.166885375977 1.666287899017
22.930080413818 -68.141136169434 -199.040588378906 2.848490476608
-29.583902359009 -78.151252746582 -241.708038330078 1.455952644348
101.700340270996 -60.388732910156 -83.580696105957 4.389256000519
-4.066048145294 -72.464973449707 -243.198242187500 1.781162619591
-146.002441406250 -82.885047912598 -216.553573608398 1.017284870148
-113.579483032227 -66.035163879395 -199.588973999023 1.912415742874
-163.753234863281 -77.100509643555 -228.306945800781 4.307956218719
-153.543228149414 -85.058563232422 -228.098907470703 2.146765708923
-98.612716674805 -77.925140380859 -290.627471923828 2.765946865082
-152.549697875977 -77.963806152344 -247.127761840820 1.701001286507
-140.364639282227 -86.311882019043 -228.143875122070 2.812941789627
-152.319366455078 -74.756652832031 -246.130172729492 2.350356817245
4.697371006012 -78.942092895508 -245.430358886719 0.514606237411
12.910546302795 -77.469032287598 -239.871902465820 2.637326955795
8.674056053162 -78.281990051270 -237.527008056641 1.794750094414
-32.375228881836 -60.011604309082 -52.460445404053 5.229499340057
-26.718036651611 -82.596054077148 -214.454696655273 2.894419908524
-59.008075714111 -80.171432495117 -166.851699829102 1.604291796684
11.978425025940 -84.224311828613 -238.453140258789 1.812181591988
-12.658261299133 -71.937545776367 -205.157974243164 1.486206173897
36.652126312256 -76.478073120117 -117.498802185059 1.740623116493
37.317737579346 -69.999832153320 -111.022727966309 1.867642164230
10.919366836548 -83.304626464844 -244.620437622070 2.039835453033
14.856657981873 -83.096359252930 -237.427658081055 1.144249081612
-97.023048400879 -70.269248962402 -148.194061279297 1.908917903900
2.757816076279 -66.419479370117 -238.294769287109 1.370894789696
-145.634384155273 -83.436470031738 -207.643066406250 2.295334577560
-160.987304687500 -71.310523986816 -209.694229125977 3.687034130096
48.692298889160 -73.511405944824 -115.229141235352 1.919668912888
-133.935165405273 -72.993583679199 -227.457702636719 1.387519955635
36.680564880371 -75.989593505859 -123.692871093750 1.327046036720
-134.049301147461 -84.781562805176 -226.246292114258 2.302502155304
15.087742805481 -83.962257385254 -245.001815795898 2.274479389191
-93.878654479980 -67.793754577637 -141.133483886719 2.190387248993
3.994326114655 -66.156021118164 -234.514572143555 1.378295421600
-2.328480005264 -79.167655944824 -224.886901855469 0.975871980190
-68.144821166992 -73.608001708984 -157.631378173828 0.739506363869
-17.772724151611 -76.382125854492 -212.429092407227 0.575207054615
101.749740600586 -73.037002563477 -192.418746948242 0.812555551529
20.874704360962 -76.931289672852 -247.343032836914 2.002658128738
35.515773773193 -67.796615600586 -134.176071166992 1.709735512733
-78.048301696777 -60.208461761475 -114.100898742676 0.863416373730
19.198518753052 -82.953933715820 -241.125930786133 2.786448240280
-82.033622741699 -63.639484405518 -126.536186218262 1.083828926086
6.584852218628 -73.436325073242 -286.867950439453 1.510870575905
-2.663384914398 -81.856193542480 -256.174591064453 2.025182723999
-166.172668457031 -83.522293090820 -273.577117919922 8.317839622498
96.561531066895 -67.741806030273 -82.649353027344 3.496979951859
-146.255935668945 -79.091453552246 -256.257568359375 3.167135715485
81.415031433105 -66.789154052734 -98.781608581543 3.757438659668
82.657264709473 -64.065338134766 -103.980262756348 1.992981433868
-156.189620971680 -74.627037048340 -257.215850830078 1.372861266136
24.832597732544 -74.130516052246 -151.275482177734 1.919836282730
-140.026855468750 -86.506683349609 -257.478057861328 2.374461650848
35.648120880127 -72.178359985352 -150.755477905273 1.605591177940
88.618171691895 -70.680419921875 -90.967933654785 6.361968517303
-64.638221740723 -78.854667663574 -242.769607543945 4.130906105042
23.368700027466 -74.427749633789 -160.428894042969 2.721633195877
-149.107696533203 -87.676002502441 -259.816619873047 3.208323955536
-162.744888305664 -78.098495483398 -263.454315185547 3.517280578613
-148.201385498047 -85.801635742188 -261.069610595703 1.430311799049
-113.901115417480 -80.602310180664 -287.686492919922 4.956982135773
-155.889526367188 -70.187774658203 -259.539428710938 0.475360482931
-156.859237670898 -81.689712524414 -245.848846435547 6.024068355560
86.937896728516 -73.664642333984 -222.569580078125 1.149150848389
-151.452331542969 -89.306877136230 -253.724807739258 4.170270442963
-46.300117492676 -76.448562622070 -81.313568115234 3.883915185928
-7.294873237610 -86.235649108887 -258.851654052734 4.567152023315
22.266302108765 -55.075428009033 -38.130149841309 3.077018022537
-11.159772872925 -72.237663269043 -271.651916503906 2.764732360840
-3.949839115143 -71.561660766602 -267.267517089844 4.727926731110
-8.160765647888 -73.609466552734 -278.538269042969 1.825815320015
-2.248264074326 -68.157913208008 -279.059173583984 1.885632514954
-64.097923278809 -76.615913391113 -245.923965454102 1.072484493256
-4.057789802551 -84.253196716309 -264.488586425781 1.905994892120
-7.642730236053 -80.190277099609 -262.187591552734 2.411929845810
47.321685791016 -61.519660949707 -96.790412902832 2.663566112518
10.589586257935 -83.237457275391 -273.370178222656 2.675777673721
-69.900619506836 -59.596645355225 -101.020881652832 2.436702489853
49.627361297607 -70.897918701172 -104.599899291992 1.105763316154
-87.822494506836 -76.284759521484 -98.634681701660 2.685538768768
104.797195434570 -73.483169555664 -171.438262939453 1.505236983299
-65.890800476074 -61.281806945801 -44.830078125000 1.833225131035
-65.840019226074 -80.494377136230 -204.455123901367 1.058762669563
-52.134796142578 -82.035530090332 -184.189849853516 1.349902868271
9.381299018860 -81.503082275391 -275.709655761719 1.562214851379
14.746694564819 -79.801361083984 -276.022247314453 2.381855487823
67.082504272461 -66.433296203613 -240.400634765625 2.712678909302
25.203676223755 -71.128890991211 -273.005340576172 3.571303844452
-135.374862670898 -86.668968200684 -287.284881591797 1.005476236343
-146.094894409180 -86.957305908203 -279.947357177734 3.143007993698
18.573308944702 -72.101951599121 -179.200561523438 2.693068265915
5.579259872437 -73.309539794922 -160.545745849609 1.943486690521
22.457212448120 -77.497535705566 -168.536621093750 0.849409282207
26.448339462280 -74.313636779785 -167.404037475586 2.490105628967
-157.613327026367 -75.493812561035 -274.613372802734 2.223042488098
-152.533798217773 -82.780990600586 -275.666687011719 2.769280672073
-65.493934631348 -75.309677124023 -91.785743713379 1.821075201035
-152.037490844727 -87.545509338379 -278.498992919922 2.948350667953
-157.208694458008 -76.231460571289 -280.806701660156 4.365221023560
-58.639308929443 -77.306991577148 -65.155670166016 2.071589469910
34.492877960205 -65.772895812988 -140.124282836914 3.338839292526
49.921772003174 -63.685062408447 -92.924079895020 2.107497453690
-64.428070068359 -78.741836547852 -75.137321472168 4.189184188843
57.482570648193 -60.626590728760 -99.351417541504 2.667202711105
-83.043190002441 -62.737762451172 -110.518646240234 0.729599893093
26.179447174072 -63.820590972900 -143.621459960938 2.010250091553
91.411880493164 -57.857379913330 -65.137207031250 5.292155265808
-38.122436523438 -75.964271545410 -209.016189575195 1.858029246330
-47.174381256104 -76.204956054688 -158.033081054688 1.366057991982
-17.347578048706 -73.829429626465 -189.527435302734 2.256102323532
-50.792499542236 -56.840103149414 -40.388011932373 5.251187801361
32.767814636230 -73.692085266113 -143.601760864258 2.103327751160
-81.315185546875 -79.883384704590 -252.280670166016 3.388510465622
35.677928924561 -74.245529174805 -144.830535888672 3.204173088074
-32.935073852539 -77.863685607910 -75.287178039551 3.077133178711
-140.872009277344 -81.145729064941 -184.791275024414 4.579340457916
-77.022720336914 -78.810760498047 -75.618270874023 2.902585029602
90.549568176270 -67.491241455078 -91.916114807129 8.186306953430
-45.939231872559 -79.329162597656 -80.579330444336 4.458099365234
-51.341094970703 -77.939689636230 -90.206863403320 1.811402201653
110.355796813965 -64.323165893555 -162.165069580078 5.651711463928
-87.430366516113 -77.888000488281 -92.199546813965 2.758390426636
-47.624328613281 -77.089828491211 -60.108509063721 2.118958234787
51.574630737305 -60.711849212646 -249.577087402344 3.117871522903
-44.499568939209 -76.679939270020 -202.352111816406 2.858988761902
57.600337982178 -55.562061309814 -93.999092102051 4.358671665192
-72.557060241699 -80.605430603027 -100.021331787109 2.095582008362
-29.024229049683 -77.915374755859 -187.547912597656 0.953564703465
-21.535112380981 -78.408691406250 -197.623977661133 1.975276589394
-36.774269104004 -81.215225219727 -186.459197998047 3.363486051559
-22.798994064331 -79.185569763184 -194.070892333984 0.984468042850
7.040717124939 -78.471878051758 -225.166793823242 2.610338449478
-2.011116981506 -79.365692138672 -224.185363769531 0.790807485580
7.696807861328 -78.176040649414 -218.950439453125 2.543042659760
15.430534362793 -75.932899475098 -222.707199096680 1.197693347931
-2.410608053207 -76.505630493164 -228.925659179688 2.012823104858
2.930825948715 -74.969253540039 -227.110214233398 1.203000426292
-48.831077575684 -78.626914978027 -180.213775634766 1.242205142975
-26.518207550049 -82.375106811523 -189.928436279297 1.680691123009
-42.460430145264 -80.899551391602 -166.378875732422 2.475253820419
-91.508438110352 -73.932075500488 -219.028015136719 1.633175134659
-43.828941345215 -72.618583679199 -197.600265502930 3.462894439697
-47.933746337891 -69.123077392578 -47.812194824219 2.191702127457
-47.123699188232 -79.826606750488 -181.686553955078 2.782514095306
-39.611701965332 -80.614860534668 -195.787353515625 0.828168272972
-145.930801391602 -76.423919677734 -198.530090332031 2.431425809860
-55.869224548340 -72.367439270020 -288.306243896484 0.799895584583
-145.107818603516 -84.785110473633 -191.018524169922 1.329175591469
-140.937438964844 -68.801864624023 -200.727386474609 2.198281288147
-126.884948730469 -67.379631042480 -227.522354125977 2.444228887558
-151.978240966797 -66.202934265137 -200.796615600586 1.929232716560
-148.050628662109 -60.381736755371 -202.173965454102 1.120691299438
-88.040885925293 -76.364173889160 -254.202316284180 2.060398340225
33.115242004395 -78.153808593750 -137.010421752930 2.517295122147
-145.683242797852 -80.678161621094 -193.340957641602 1.349274992943
32.309043884277 -76.173980712891 -130.132827758789 2.579141855240
46.964164733887 -66.700195312500 -118.061241149902 4.849876403809
-20.543979644775 -79.236183166504 -221.092895507813 1.364766716957
-137.160751342773 -82.868820190430 -195.848846435547 2.132559299469
34.332782745361 -58.075946807861 -37.371231079102 1.450912952423
112.227592468262 -57.593990325928 -104.389228820801 9.944850921631
-52.952220916748 -77.466949462891 -187.058975219727 1.767948746681
-39.047382354736 -82.545669555664 -197.037002563477 0.931708574295
2.747136116028 -64.119590759277 -278.651947021484 2.045933961868
-135.529525756836 -88.244941711426 -196.380844116211 6.047562122345
18.336027145386 -79.701507568359 -236.095870971680 2.330937385559
40.784599304199 -68.776054382324 -133.883300781250 2.582354307175
-106.705841064453 -76.685844421387 -224.030303955078 4.689815521240
-17.345745086670 -71.380363464355 -193.106964111328 1.752520442009
-43.081413269043 -69.669692993164 -161.471374511719 1.052021980286
-17.819662094116 -78.973350524902 -199.419372558594 1.416046857834
-81.747077941895 -68.311477661133 -120.216560363770 2.641033887863
-67.021369934082 -63.985618591309 -44.883293151855 1.068445444107
-35.763523101807 -74.740669250488 -210.246261596680 2.645101547241
-44.999473571777 -65.299972534180 -156.261398315430 2.896917581558
44.738071441650 -70.452926635742 -123.532432556152 1.906072497368
-147.550079345703 -86.009498596191 -200.267623901367 3.793849945068
-162.923660278320 -70.959175109863 -207.385894775391 3.935711860657
36.236324310303 -67.849227905273 -140.346328735352 2.405406236649
38.923725128174 -73.561676025391 -131.296539306641 1.809060215950
-27.877357482910 -72.974205017090 -212.909744262695 0.940329074860
43.480411529541 -73.326675415039 -118.251182556152 1.048576474190
46.885463714600 -70.789611816406 -120.054229736328 1.888097882271
-94.653350830078 -66.339324951172 -141.459625244141 1.542119026184
1.054640054703 -70.034172058105 -239.222122192383 1.535489320755
-135.445968627930 -82.453254699707 -229.088790893555 1.713117718697
39.346004486084 -76.807205200195 -117.738578796387 1.561381697655
-135.735778808594 -70.012786865234 -229.470626831055 3.103011131287
-145.369262695313 -85.123168945313 -204.506912231445 2.436617612839
-160.649780273438 -69.747711181641 -208.745223999023 2.918920516968
32.421546936035 -67.565849304199 -134.412582397461 2.147569417953
-85.149238586426 -75.371032714844 -245.631591796875 4.579305648804
113.134872436523 -67.767387390137 -187.954223632813 5.866617679596
-146.105712890625 -81.139892578125 -208.513076782227 2.811615705490
-108.553657531738 -72.912322998047 -227.783187866211 1.425892233849
-164.698226928711 -73.451766967773 -211.223190307617 0.608626782894
41.115280151367 -74.013801574707 -113.621459960938 2.997402906418
45.244350433350 -73.997817993164 -119.654930114746 2.000545501709
-121.336280822754 -70.335708618164 -230.539566040039 1.658432841301
-26.098390579224 -71.842704772949 -196.568038940430 1.304896354675
-22.720109939575 -80.170074462891 -194.034027099609 0.711435735226
12.931827545166 -82.829849243164 -225.283660888672 2.509911537170
10.090323448181 -78.222602844238 -227.153457641602 2.330410003662
-22.133430480957 -72.189476013184 -198.581634521484 1.138712286949
-144.064819335938 -84.702201843262 -207.717559814453 3.672416925430
8.912780761719 -80.300842285156 -228.094970703125 2.150595903397
11.284094810486 -76.522109985352 -229.677429199219 3.045440196991
-24.390001296997 -76.425498962402 -193.646530151367 1.672787666321
4.432890892029 -60.969562530518 -236.624420166016 3.416065692902
-93.543014526367 -65.696159362793 -140.832534790039 2.632588386536
-1.076897025108 -77.186492919922 -222.088424682617 1.558070540428
15.821684837341 -82.244720458984 -203.895431518555 3.468397855759
-2.980439901352 -77.069732666016 -245.552642822266 1.733821749687
-151.045501708984 -86.364906311035 -233.021255493164 3.211646795273
-109.985633850098 -70.362899780273 -181.150741577148 2.592329502106
15.889725685120 -83.731353759766 -236.182754516602 2.327620983124
6.113243103027 -76.719703674316 -233.736419677734 0.375213027000
34.357109069824 -66.061218261719 -118.484901428223 4.391008853912
-21.764875411987 -73.228233337402 -69.486282348633 3.278671026230
-65.041938781738 -78.597206115723 -161.523880004883 1.806332707405
11.812074661255 -81.045257568359 -240.005706787109 2.243300914764
6.970263004303 -76.189033508301 -243.666992187500 0.729767084122
-55.257678985596 -73.269836425781 -148.869247436523 1.923810839653
-46.707389831543 -82.641380310059 -146.046783447266 4.642180442810
-56.086112976074 -79.759284973145 -174.223907470703 1.675177454948
15.672034263611 -80.081794738770 -244.659317016602 3.024107933044
8.643035888672 -78.639709472656 -243.622619628906 2.050511121750
-87.234565734863 -59.337047576904 -132.019668579102 4.351422786713
35.535682678223 -70.725540161133 -260.292877197266 2.935648679733
-40.196655273438 -79.191642761230 -77.120597839355 3.945638179779
3.608006000519 -82.809524536133 -248.868774414063 1.571217060089
2.112792015076 -63.287849426270 -270.758605957031 1.613455414772
-83.093414306641 -74.173538208008 -108.796508789063 3.064032554626
-22.834667205811 -80.806289672852 -282.534851074219 5.396939754486
10.281537055969 -79.705856323242 -247.622604370117 1.592283010483
-27.690490722656 -81.038360595703 -287.958496093750 4.476070404053
-38.502864837646 -74.587921142578 -62.354419708252 2.418901443481
-67.195487976074 -73.972106933594 -54.207515716553 0.861472427845
89.939270019531 -73.642166137695 -210.668685913086 0.722595810890
-134.936126708984 -83.144783020020 -253.732788085938 3.383000135422
-96.775184631348 -56.367378234863 -100.525581359863 2.907590389252
117.175483703613 -66.130996704102 -124.275955200195 4.593294620514
21.473636627197 -65.856788635254 -28.746519088745 4.479873657227
-7.465221881866 -78.754692077637 -253.417938232422 0.949293613434
-67.938606262207 -69.935104370117 -48.445919036865 2.349225044250
95.530799865723 -71.790283203125 -211.287170410156 1.946286678314
50.057235717773 -62.692729949951 -102.728820800781 1.706834197044
-72.015419006348 -57.008529663086 -104.112396240234 2.401495456696
-165.249114990234 -78.001251220703 -290.724121093750 3.283002138138
-28.856775283813 -79.171234130859 -179.641571044922 1.689651608467
-34.894557952881 -80.169387817383 -172.900863647461 1.778000473976
-154.169021606445 -88.674835205078 -290.250335693359 3.401480197906
-137.175094604492 -88.587715148926 -290.894775390625 2.267736911774
-146.871154785156 -86.997947692871 -280.400238037109 2.582242250443
-152.645492553711 -85.377929687500 -298.873229980469 1.637764096260
-151.626693725586 -71.595802307129 -304.223907470703 3.901257038116
-93.928627014160 -69.130210876465 -88.459785461426 3.107162475586
-83.265274047852 -72.137405395508 -103.051383972168 4.005764007568
-53.525409698486 -77.084068298340 -68.763137817383 3.558752775192
-79.291961669922 -78.051086425781 -105.310043334961 1.822475910187
-47.041919708252 -79.211158752441 -70.110191345215 2.109564542770
-92.719009399414 -72.895309448242 -111.210502624512 0.789143145084
-71.620498657227 -78.196464538574 -69.750045776367 2.157859802246
-42.930198669434 -78.320091247559 -238.803314208984 1.873862981796
74.626472473145 -55.845073699951 -108.046363830566 3.403480291367
-1.230563998222 -76.987464904785 -285.502258300781 1.455623149872
71.444160461426 -54.258903503418 -104.762672424316 2.020040988922
-143.196151733398 -79.566558837891 -289.038391113281 1.636463522911
-128.771469116211 -80.800354003906 -252.259323120117 6.991970062256
-152.712509155273 -85.330390930176 -281.961273193359 3.446384906769
-153.257080078125 -76.563598632813 -284.326507568359 2.109238624573
-141.211868286133 -78.870460510254 -294.005920410156 3.278102636337
-145.970535278320 -70.576721191406 -286.064056396484 2.557322978973
-156.956665039063 -69.494079589844 -291.061279296875 1.168501973152
65.322875976563 -52.956420898438 -82.775596618652 1.539941430092
-38.039505004883 -74.722511291504 -67.702598571777 4.263198852539
-72.509788513184 -76.436332702637 -96.304931640625 5.065031051636
-90.669273376465 -77.942947387695 -213.703475952148 2.710373640060
-109.657272338867 -71.533172607422 -260.167633056641 1.436135053635
-42.931518554688 -74.447509765625 -205.025619506836 3.583623647690
-44.891971588135 -78.616714477539 -156.307571411133 2.265496730804
-53.161937713623 -68.388626098633 -150.853164672852 0.802385210991
-59.952827453613 -79.134414672852 -170.570022583008 0.872491240501
-147.205978393555 -76.654365539551 -209.079193115234 2.252307891846
37.050697326660 -77.125244140625 -128.179229736328 3.597907066345
35.020904541016 -72.879211425781 -141.283004760742 1.380870819092
-53.042217254639 -81.231262207031 -290.921966552734 4.473692417145
-149.551284790039 -71.285591125488 -214.659866333008 1.764903545380
-125.237701416016 -70.835960388184 -232.894851684570 1.809689164162
39.898616790771 -66.158561706543 -117.901046752930 3.026904582977
-106.449668884277 -73.072196960449 -260.428039550781 1.017299532890
-89.942489624023 -68.296714782715 -119.254997253418 2.412334203720
35.129524230957 -72.131385803223 -145.805892944336 2.347691059113
17.609926223755 -69.418846130371 -231.090026855469 2.212418794632
-35.176582336426 -79.468833923340 -209.051284790039 2.262228012085
-15.338878631592 -70.441078186035 -200.320877075195 1.411856174469
-17.977256774902 -77.131324768066 -192.212615966797 1.976135373116
-143.119277954102 -78.770042419434 -180.470489501953 5.065204143524
-39.559867858887 -82.076583862305 -287.338409423828 5.138161659241
-15.197287559509 -62.916633605957 -67.872192382813 2.287842512131
43.148910522461 -69.540191650391 -121.498825073242 0.975671947002
-32.686550140381 -71.039413452148 -79.528404235840 3.158935785294
-154.070388793945 -73.758583068848 -202.983688354492 2.544561862946
-144.745117187500 -61.764732360840 -201.361862182617 1.282996892929
34.734909057617 -73.071838378906 -142.176635742188 0.964452207088
28.372787475586 -75.960578918457 -145.519439697266 3.002975940704
31.165035247803 -74.476684570313 -143.878707885742 3.612640619278
28.575635910034 -70.116569519043 -139.190277099609 1.707273840904
33.584407806396 -78.609809875488 -138.506546020508 2.390012502670
-14.345275878906 -78.677642822266 -171.701309204102 1.379984140396
-8.896460533142 -77.194419860840 -174.489562988281 2.001772165298
-92.930572509766 -70.050750732422 -98.558853149414 3.296252727509
-33.975742340088 -76.237586975098 -67.785697937012 1.732837319374
-62.989234924316 -71.249717712402 -157.804870605469 1.541643738747
-29.179498672485 -69.744361877441 -190.539184570313 1.247028350830
-59.915851593018 -80.882225036621 -174.505966186523 1.448506593704
37.638355255127 -65.576942443848 -248.476776123047 1.927274227142
2.171492099762 -71.813835144043 -227.188812255859 1.981779336929
-17.235589981079 -71.969253540039 -207.242523193359 2.285333871841
-62.431972503662 -69.455169677734 -160.189880371094 2.972615003586
36.074615478516 -64.965049743652 -256.976684570313 0.555844008923
2.408509969711 -77.145385742188 -230.216583251953 1.550111055374
-32.908508300781 -78.644195556641 -203.602218627930 0.905360341072
-57.374015808105 -84.259704589844 -179.451324462891 4.833177566528
-12.090534210205 -65.653526306152 -209.754577636719 1.858453273773
-38.557411193848 -77.925735473633 -170.801345825195 1.302278757095
-29.260322570801 -78.304824829102 -181.505584716797 0.926855683327
-90.714904785156 -60.164329528809 -133.804229736328 4.756858825684
-19.971265792847 -58.331672668457 -66.586463928223 3.397009611130
-37.069660186768 -80.178550720215 -174.963897705078 2.905859947205
-29.213563919067 -80.381080627441 -179.076583862305 1.283390998840
-27.738489151001 -58.722770690918 -67.325332641602 3.931528568268
-43.874870300293 -82.693023681641 -193.837295532227 1.305015206337
-51.104984283447 -83.073158264160 -185.138031005859 2.055403470993
-60.579483032227 -64.664855957031 -47.819667816162 4.642631053925
59.657989501953 -65.880035400391 -235.569976806641 3.735116004944
-26.002058029175 -79.127067565918 -176.822570800781 1.390293121338
-32.607978820801 -78.834732055664 -171.136459350586 2.470660924911
46.248699188232 -74.871917724609 -105.467643737793 2.362002849579
53.003456115723 -68.709190368652 -243.984405517578 0.955987811089
29.526285171509 -73.257759094238 -130.010467529297 1.543900489807
33.374259948730 -69.564567565918 -127.971832275391 0.837827980518
-57.114902496338 -72.792129516602 -179.233383178711 2.010604858398
-34.886093139648 -77.000053405762 -189.676925659180 2.721184253693
-16.266225814819 -80.168579101563 -212.103042602539 1.299537181854
-62.770023345947 -80.424942016602 -161.278640747070 0.742831051350
-164.022735595703 -75.442199707031 -207.475860595703 3.882162332535
-33.316082000732 -73.405952453613 -60.199047088623 1.587201118469
35.877464294434 -77.028228759766 -124.998764038086 0.676356256008
-146.108474731445 -76.376457214355 -191.049972534180 2.556202173233
-47.145252227783 -76.463226318359 -288.341552734375 1.080928683281
-146.475296020508 -83.315689086914 -201.064926147461 1.400001049042
-143.949386596680 -71.215103149414 -193.701080322266 0.301019310951
-80.175048828125 -71.963684082031 -250.886611938477 2.222140789032
-108.646873474121 -67.985855102539 -226.434509277344 1.734103918076
-153.426483154297 -69.385467529297 -191.042129516602 1.553130030632
-47.846843719482 -79.102020263672 -201.422607421875 1.642708897591
-143.210479736328 -81.495414733887 -203.641143798828 1.062894344330
-77.799522399902 -63.912227630615 -46.861362457275 1.263859391212
79.984191894531 -56.852699279785 -105.493789672852 2.890791177750
-74.425163269043 -84.928901672363 -213.182815551758 3.375788688660
-81.370597839355 -64.760643005371 -55.952831268311 4.563844680786
12.256340980530 -81.102432250977 -218.765472412109 1.786550402641
10.803226470947 -75.503890991211 -217.008880615234 2.816831350327
-24.544427871704 -58.618637084961 -69.185333251953 4.614068984985
-23.718582153320 -80.609809875488 -182.969131469727 1.859076619148
-39.964076995850 -77.732971191406 -166.424987792969 1.147702574730
12.034499168396 -79.213058471680 -225.009078979492 1.873081922531
6.863060951233 -77.073005676270 -222.780578613281 1.756286263466
-1.460646033287 -75.550888061523 -228.786087036133 2.741568326950
-43.363201141357 -81.079978942871 -159.355895996094 3.067403793335
-84.868141174316 -71.717597961426 -111.019416809082 1.069985389709
39.288303375244 -69.168075561523 -256.067169189453 1.486981391907
-87.830329895020 -72.284202575684 -251.735824584961 1.953058838844
14.608877182007 -78.417945861816 -222.383804321289 1.747227549553
-135.969329833984 -84.334236145020 -227.849349975586 1.158549904823
24.304471969604 -73.678955078125 -188.002914428711 1.997439980507
39.235561370850 -51.446079254150 -22.436815261841 3.550872325897
11.068395614624 -75.787422180176 -209.593276977539 1.366329312325
10.694027900696 -79.239395141602 -207.920043945313 0.983716070652
-151.676620483398 -78.765258789063 -249.754974365234 1.621924877167
-143.850692749023 -85.114311218262 -228.601562500000 2.711421728134
-145.379821777344 -86.102989196777 -229.083511352539 2.479414463043
-109.543884277344 -66.403800964355 -178.617904663086 0.932679951191
22.732627868652 -67.863632202148 -189.294113159180 1.914560317993
-18.408016204834 -78.524925231934 -206.720153808594 2.836777687073
-62.057834625244 -76.154594421387 -163.895904541016 2.279641866684
12.366683006287 -80.515731811523 -240.705566406250 1.513004779816
10.613429069519 -77.752113342285 -246.287475585938 0.917670845985
-48.594402313232 -76.102394104004 -148.994018554688 1.794949412346
-143.048110961914 -78.504119873047 -222.201431274414 2.233041048050
-150.636901855469 -88.694122314453 -244.635711669922 4.566831588745
-111.598075866699 -71.502960205078 -192.991104125977 1.231185436249
-88.558425903320 -78.973854064941 -286.859466552734 4.300931930542
-160.574279785156 -75.686782836914 -241.907073974609 1.687518358231
-153.858764648438 -69.128303527832 -227.553344726563 1.454638123512
-150.070877075195 -73.399658203125 -226.528015136719 1.881789803505
-2.818088054657 -76.438812255859 -237.454849243164 1.198810696602
-2.266663074493 -71.869308471680 -217.036788940430 1.034012198448
-72.564094543457 -73.308914184570 -147.292892456055 1.264051198959
-154.498748779297 -79.459915161133 -226.472457885742 1.193513154984
-149.968048095703 -88.032890319824 -244.058532714844 3.910493850708
-11.331074714661 -69.840148925781 -220.745239257813 1.148770809174
-146.191360473633 -69.847755432129 -227.934692382813 2.225406885147
-111.650611877441 -68.172767639160 -195.417495727539 2.538441181183
-141.873565673828 -66.387069702148 -225.315933227539 2.395980358124
6.871685981750 -76.048767089844 -238.842086791992 1.223139286041
-25.333120346069 -77.020126342773 -212.437210083008 1.390514731407
6.562516212463 -80.467163085938 -247.127761840820 1.885304331779
-57.414360046387 -80.245513916016 -172.238998413086 1.159881711006
12.250885963440 -78.062828063965 -248.630920410156 2.521911859512
-29.064672470093 -75.991462707520 -207.030227661133 1.747056007385
33.358768463135 -61.929203033447 -252.741683959961 3.734688282013
38.247016906738 -63.179397583008 -131.580444335938 4.020621776581
-125.278930664063 -78.061241149902 -281.785095214844 3.723043918610
-144.667114257813 -80.815261840820 -270.368774414063 2.688067436218
-84.822128295898 -74.392700195313 -211.769805908203 1.080724239349
-152.948089599609 -86.520545959473 -253.012176513672 3.347925901413
-150.273498535156 -83.729240417480 -256.183593750000 1.583267450333
87.723121643066 -68.818611145020 -217.015686035156 1.989109635353
-71.294006347656 -73.159942626953 -57.379032135010 3.316603422165
-157.925292968750 -77.489204406738 -254.840316772461 4.635198116302
-165.186904907227 -74.796119689941 -248.523803710938 0.951901733875
-145.401107788086 -77.258064270020 -270.660308837891 1.660697460175
-129.080245971680 -73.548797607422 -285.025787353516 2.401822090149
-124.506614685059 -74.759468078613 -286.635986328125 1.436942577362
-150.754486083984 -70.597465515137 -269.651367187500 3.666314840317
-149.539093017578 -71.927658081055 -266.333526611328 2.399233341217
-140.499801635742 -88.562835693359 -259.088226318359 3.624808788300
-138.589355468750 -83.617881774902 -257.572601318359 1.837001204491
-150.031188964844 -89.782646179199 -257.233581542969 4.223211288452
-152.741836547852 -81.308914184570 -250.813461303711 2.780976295471
-159.156936645508 -72.509750366211 -247.304855346680 1.563064575195
95.170921325684 -58.830871582031 -105.076080322266 3.441712856293
-167.828582763672 -74.100852966309 -250.440093994141 1.686555743217
-46.415599822998 -74.336074829102 -185.771743774414 2.407876253128
-43.049175262451 -78.055137634277 -186.837280273438 2.258759737015
59.724781036377 -72.719276428223 -237.140853881836 1.949408531189
-94.480857849121 -71.717132568359 -84.780532836914 1.349684000015
20.412334442139 -80.945175170898 -253.056228637695 3.158247947693
21.310537338257 -75.714012145996 -249.192428588867 2.733270168304
-127.648040771484 -75.773277282715 -295.152008056641 2.027550458908
23.885372161865 -74.999595642090 -163.102294921875 2.176509857178
30.912523269653 -82.564895629883 -150.000625610352 2.032701730728
27.173379898071 -74.437011718750 -151.755462646484 3.831130266190
86.420227050781 -68.628593444824 -97.189903259277 5.438168048859
-153.994934082031 -76.380241394043 -267.922241210938 2.966010332108
-148.013854980469 -69.432846069336 -270.160400390625 4.756468296051
-53.901237487793 -61.599384307861 -85.474342346191 3.225739002228
-162.530563354492 -76.883255004883 -259.481079101563 3.038800716400
-153.624404907227 -86.274528503418 -259.295379638672 2.822007417679
-159.833084106445 -78.504287719727 -260.636230468750 4.431588649750
-106.295730590820 -79.513404846191 -289.905700683594 5.205842971802
-164.397537231445 -78.486396789551 -264.169433593750 3.713966369629
-148.304458618164 -82.391899108887 -251.171005249023 1.837734341621
-144.142517089844 -86.887939453125 -252.907196044922 3.486270666122
26.777439117432 -78.683906555176 -152.135955810547 1.928923010826
27.179340362549 -74.148139953613 -154.103607177734 2.872175216675
23.155994415283 -73.415069580078 -163.703979492188 2.888857364655
-151.933944702148 -87.377365112305 -258.099761962891 2.120427131653
13.360042572021 -79.724685668945 -265.818756103516 3.021961927414
71.734573364258 -63.277141571045 -78.145866394043 6.355633258820
-54.296730041504 -74.247711181641 -65.461990356445 5.390748977661
-78.199951171875 -70.905082702637 -99.485656738281 1.478492021561
-45.978137969971 -68.749656677246 -81.957473754883 2.708448410034
-155.416442871094 -81.258415222168 -248.695938110352 4.353743553162
-68.430297851563 -75.270706176758 -65.579879760742 4.150331974030
-50.121452331543 -79.038307189941 -249.502029418945 3.716930150986
86.284065246582 -68.027786254883 -221.936630249023 1.281973123550
72.234687805176 -55.091773986816 -106.233657836914 2.960548877716
-114.581787109375 -78.232360839844 -291.700256347656 4.363469123840
-139.794845581055 -71.799934387207 -258.087371826172 2.717399597168
-150.304138183594 -68.045646667480 -256.741729736328 1.422361135483
-41.797428131104 -79.568336486816 -238.108886718750 2.366889476776
-128.478607177734 -75.986808776855 -221.256057739258 4.673615932465
-156.305084228516 -74.274696350098 -197.468597412109 2.812263250351
-32.398651123047 -76.807495117188 -73.491851806641 3.404932260513
-153.224319458008 -70.276603698730 -195.120605468750 1.914374351501
-123.935073852539 -71.903541564941 -226.798858642578 1.639839053154
-144.238830566406 -66.589675903320 -194.874511718750 1.724398255348
-143.962326049805 -63.522789001465 -199.852752685547 1.844638228416
-28.509571075439 -77.619926452637 -75.123115539551 1.143670320511
15.342423439026 -78.722915649414 -227.009475708008 1.452544212341
-165.323074340820 -83.407829284668 -259.925567626953 9.263896942139
-151.590530395508 -83.900825500488 -279.592193603516 1.766149640083
-134.059799194336 -83.274925231934 -291.818359375000 4.428523063660
84.204582214355 -71.232086181641 -82.538032531738 5.012159824371
72.160316467285 -71.406814575195 -89.555343627930 3.111922502518
26.876405715942 -73.268753051758 -167.327484130859 1.638622999191
-80.715972900391 -79.444931030273 -207.337493896484 3.716425418854
2.337652921677 -74.385063171387 -157.007720947266 3.072106122971
17.744016647339 -71.565002441406 -173.419021606445 1.750281691551
-44.497798919678 -79.891624450684 -244.391189575195 1.387306451797
-82.566421508789 -79.622673034668 -79.408142089844 1.325328707695
-61.420063018799 -70.544998168945 -131.359649658203 1.028298735619
-36.055969238281 -76.857429504395 -82.323997497559 0.926296293736
6.664873123169 -68.969596862793 -198.786727905273 2.127130031586
-18.670097351074 -73.639007568359 -242.258300781250 1.463408231735
-82.303352355957 -81.513267517090 -96.574836730957 2.292952537537
46.342132568359 -62.876201629639 -245.571258544922 3.580522060394
-73.257308959961 -76.324371337891 -103.263710021973 3.044862270355
-50.777091979980 -65.290168762207 -46.806915283203 2.688621282578
-109.891601562500 -70.234115600586 -256.775054931641 1.295530796051
-161.937057495117 -80.061943054199 -285.987854003906 4.594451904297
42.050281524658 -73.942474365234 -116.338401794434 2.482444047928
29.246623992920 -66.045372009277 -136.389862060547 2.636061429977
-84.199684143066 -72.645446777344 -256.072753906250 1.318557024002
-23.117467880249 -65.186134338379 -74.492248535156 4.075518131256
-140.016555786133 -69.654312133789 -194.187484741211 2.227724552155
-156.937026977539 -71.245094299316 -206.609741210938 2.689450263977
-149.495864868164 -64.475875854492 -195.127380371094 0.948273241520
45.500946044922 -74.339454650879 -121.001548767090 1.393052339554
42.963733673096 -75.372604370117 -116.324722290039 1.765479326248
54.682121276855 -69.725234985352 -97.141029357910 2.097344636917
31.620344161987 -78.151504516602 -144.218093872070 1.144125699997
26.103593826294 -70.616287231445 -145.797225952148 1.999451518059
-89.014198303223 -73.085655212402 -249.337783813477 3.743494272232
44.051101684570 -66.498954772949 -258.179077148438 1.845268487930
-49.415954589844 -76.788963317871 -149.290908813477 1.035576581955
-41.135654449463 -78.039588928223 -157.951507568359 1.625232815742
-15.042556762695 -70.628143310547 -203.087142944336 1.963811039925
-32.350608825684 -80.127265930176 -207.720489501953 2.082510709763
-51.205429077148 -82.863784790039 -158.206604003906 5.515169620514
-59.867877960205 -77.730377197266 -172.549804687500 1.426243543625
-149.037231445313 -79.606163024902 -186.839767456055 2.110846996307
-14.761633872986 -59.336906433105 -69.189743041992 4.751474857330
-39.914146423340 -82.578857421875 -160.089065551758 2.022227287292
24.945478439331 -77.532333374023 -159.443237304688 2.492280960083
31.885206222534 -74.268127441406 -160.155288696289 1.493654012680
29.702909469604 -74.483070373535 -147.925064086914 3.502385616302
-59.513195037842 -78.381996154785 -249.753753662109 0.934998333454
-93.854660034180 -77.807518005371 -214.543289184570 2.140208482742
26.618190765381 -75.297538757324 -164.422866821289 1.820070147514
28.826362609863 -75.848686218262 -164.419387817383 1.256573081017
22.928060531616 -75.463104248047 -152.488632202148 1.162626504898
-3.334805965424 -77.923194885254 -171.338439941406 1.358168005943
29.218946456909 -75.473518371582 -163.279251098633 1.167273402214
24.729354858398 -75.984886169434 -162.324447631836 1.741686940193
-25.712314605713 -80.771781921387 -185.295516967773 1.963630914688
-41.901966094971 -79.131813049316 -164.892807006836 0.841890096664
-26.301975250244 -81.161514282227 -171.310638427734 4.571936130524
-32.138221740723 -77.981697082520 -161.138229370117 3.331971883774
-22.261486053467 -75.110618591309 -180.139083862305 1.614599466324
60.901058197021 -72.118980407715 -237.689453125000 1.285466432571
93.158721923828 -70.841629028320 -206.044464111328 2.057043552399
-94.617584228516 -69.940414428711 -76.904937744141 2.259013652802
-33.988044738770 -62.082450866699 -49.384582519531 3.619565725327
-58.431320190430 -77.939987182617 -168.031555175781 0.679984390736
8.960145950317 -81.332397460938 -233.393753051758 2.204003334045
-130.074798583984 -68.652664184570 -229.871124267578 4.100246429443
35.455478668213 -67.865859985352 -114.592338562012 2.829660177231
-24.327756881714 -72.417938232422 -190.629898071289 1.737749576569
-55.623069763184 -79.052246093750 -169.200683593750 1.533753395081
-23.269237518311 -67.546844482422 -191.428054809570 1.600862622261
11.062135696411 -68.714813232422 -221.486831665039 1.876672029495
-80.215377807617 -65.556152343750 -132.751480102539 2.028834581375
-27.014530181885 -72.029037475586 -199.253173828125 1.478262066841
-57.112407684326 -73.394729614258 -167.799606323242 2.974371910095
-22.622026443481 -79.636146545410 -193.181518554688 1.416233778000
-25.083278656006 -65.009002685547 -202.179321289063 4.594343185425
-9.069160461426 -76.451591491699 -208.231124877930 1.114759683609
-133.698455810547 -82.143325805664 -198.103118896484 1.246436476707
15.711728096008 -69.649391174316 -183.499359130859 1.725432157516
-16.723415374756 -82.674209594727 -217.880676269531 4.821960926056
-135.547256469727 -80.158813476563 -197.489761352539 1.449702262878
17.781948089600 -77.740455627441 -228.608169555664 2.316592931747
-16.872226715088 -79.102821350098 -196.561828613281 1.443290948868
-38.799877166748 -76.958541870117 -152.150909423828 2.107383966446
-41.688411712646 -74.361511230469 -155.030090332031 2.294604301453
-90.005577087402 -66.025169372559 -116.365310668945 0.572535932064
-101.542602539063 -77.656089782715 -254.520965576172 4.639206886292
-151.369079589844 -85.025917053223 -198.367141723633 3.276899576187
-161.542343139648 -75.997108459473 -196.597564697266 4.931926250458
95.202865600586 -53.238826751709 -60.864543914795 0.915679156780
58.926536560059 -64.967750549316 -85.006645202637 0.495400995016
77.133361816406 -64.552909851074 -63.070705413818 1.779076576233
-26.625020980835 -66.086341857910 -177.289108276367 4.040383815765
77.001274108887 -64.044067382813 -68.329696655273 5.151056289673
-117.618469238281 -78.904212951660 -259.092224121094 5.705607414246
-28.140977859497 -71.984283447266 -173.522140502930 2.527882575989
47.103549957275 -64.626007080078 -99.361358642578 1.092732071877
-156.843765258789 -83.568786621094 -298.735076904297 5.006350994110
39.183292388916 -70.967079162598 -109.033256530762 1.791886925697
52.967823028564 -70.863639831543 -97.131996154785 2.926117658615
71.595252990723 -62.634052276611 -74.641517639160 6.188462257385
-138.955871582031 -79.565414428711 -284.077606201172 2.913730144501
-34.140346527100 -70.761039733887 -177.693176269531 1.479032397270
45.766906738281 -69.639923095703 -104.911834716797 2.123001337051
54.368804931641 -64.429512023926 -88.362274169922 1.284544944763
-48.860900878906 -79.272178649902 -199.076354980469 1.888093590736
-154.319427490234 -82.957359313965 -296.929809570313 2.904341697693
-153.529479980469 -77.975166320801 -292.599670410156 2.537829160690
70.568092346191 -65.121528625488 -77.275726318359 4.715153217316
-150.296859741211 -75.124687194824 -293.031250000000 1.966757774353
-33.319091796875 -68.721923828125 -173.232666015625 1.875085234642
-25.753637313843 -69.820411682129 -183.033248901367 1.476119160652
-139.245498657227 -76.246315002441 -284.470306396484 3.615767955780
-148.081008911133 -73.761009216309 -283.799682617188 2.572389364243
-154.489059448242 -74.076965332031 -293.428649902344 0.661714911461
-153.268493652344 -70.376770019531 -283.220428466797 2.117002964020
27.487039566040 -65.858589172363 -264.860992431641 1.446753263474
-51.679725646973 -83.284034729004 -203.697006225586 1.457642793655
-157.513275146484 -77.485473632813 -238.211456298828 3.565874814987
20.214881896973 -80.117210388184 -201.328750610352 3.213683366776
20.571821212769 -81.857917785645 -238.791503906250 2.141141653061
-13.060635566711 -78.908981323242 -207.258728027344 1.271313786507
33.597541809082 -71.809288024902 -260.597167968750 2.371617794037
48.691932678223 -66.566696166992 -116.650054931641 4.783749103546
-34.015415191650 -80.904045104980 -207.909545898438 1.633284211159
101.257141113281 -72.775718688965 -202.905319213867 1.169789075851
20.433841705322 -83.386718750000 -243.479400634766 2.520214319229
-86.172454833984 -67.284172058105 -121.244194030762 1.118906378746
-11.997998237610 -81.270172119141 -215.546630859375 2.780177593231
13.444703102112 -77.256164550781 -210.743515014648 1.912959098816
-7.435760974884 -78.167175292969 -225.902297973633 2.518661022186
19.404384613037 -77.418197631836 -186.113281250000 1.679907083511
-145.197479248047 -78.551582336426 -214.555892944336 2.422769546509
-157.174728393555 -72.362159729004 -217.207992553711 1.988793969154
-67.535324096680 -55.941082000732 -120.000839233398 0.865862011909
-93.228576660156 -76.541137695313 -286.289978027344 1.879743337631
-141.762908935547 -74.688491821289 -235.057983398438 2.010704994202
-144.438110351563 -71.511413574219 -235.108917236328 1.447264432907
-119.369262695313 -69.348724365234 -203.773727416992 3.542988777161
16.441633224487 -78.524154663086 -184.553955078125 1.068512797356
21.641698837280 -75.070167541504 -183.312164306641 2.635515689850
-12.823723793030 -76.664299011230 -216.004928588867 0.846485614777
-151.988204956055 -87.810516357422 -222.906448364258 5.273274421692
-163.506637573242 -71.099403381348 -222.277557373047 1.993349552155
-4.250461101532 -79.070571899414 -220.482391357422 1.612988710403
-160.144439697266 -77.968193054199 -216.938552856445 5.555930137634
-5.117800235748 -78.277931213379 -227.679260253906 1.353609085083
-8.584131240845 -64.255790710449 -247.083160400391 2.405838966370
-145.017639160156 -85.903656005859 -224.934585571289 2.674096822739
-150.334503173828 -82.611091613770 -222.531295776367 2.027968645096
-162.979705810547 -71.321472167969 -223.291854858398 2.526261091232
-116.983215332031 -75.888130187988 -202.974182128906 6.071705818176
32.130771636963 -75.853340148926 -183.284744262695 5.450693607330
-161.035598754883 -79.609725952148 -229.821701049805 5.996754646301
-100.973220825195 -75.660629272461 -291.267150878906 2.119060516357
-147.165512084961 -75.735900878906 -247.326721191406 1.227756261826
-152.940444946289 -80.459335327148 -228.102020263672 0.620977580547
-150.643371582031 -87.846237182617 -234.497238159180 4.104588508606
-165.278564453125 -74.829032897949 -237.355560302734 2.345205545425
-129.538085937500 -72.012290954590 -206.063201904297 2.772722721100
-153.284240722656 -76.302459716797 -197.946472167969 1.399804830551
-152.308731079102 -80.647735595703 -198.135223388672 0.868499636650
18.431276321411 -76.717987060547 -236.130981445313 1.625497817993
9.364725112915 -80.507736206055 -236.681900024414 1.826836824417
-60.658946990967 -77.591239929199 -170.420684814453 0.920786678791
-28.679861068726 -78.983718872070 -210.619247436523 1.107440114021
-19.229551315308 -79.090576171875 -207.076660156250 2.732892036438
