4.070144176483 -81.299804687500 -244.808181762695 2.435770034790
12.373319625854 -80.076614379883 -239.323318481445 1.717262387276
8.126014709473 -80.700302124023 -236.940322875977 2.445350885391
-30.861474990845 -58.737247467041 -51.829284667969 4.100168704987
-27.237056732178 -83.394836425781 -213.579315185547 4.168755054474
-59.066993713379 -79.190269470215 -165.790740966797 1.859161376953
11.195212364197 -86.774574279785 -237.818374633789 3.791733980179
-12.715314865112 -73.173057556152 -204.504928588867 2.336238384247
37.018306732178 -78.574630737305 -117.134140014648 1.845404148102
37.976562500000 -72.051925659180 -110.739913940430 0.985083639622
10.127400398254 -85.886657714844 -243.988815307617 3.986523151398
14.121593475342 -85.745353698730 -236.825836181641 2.779977798462
-96.542160034180 -67.630981445313 -146.994598388672 2.827061414719
2.659840106964 -68.630592346191 -237.808425903320 1.407966136932
-146.047073364258 -79.623153686523 -205.952865600586 1.539339900017
-160.942108154297 -66.945388793945 -208.043441772461 1.344569802284
49.178672790527 -76.042961120605 -114.981391906738 1.918199181557
-134.102493286133 -69.863868713379 -225.968597412109 1.086212873459
37.020580291748 -78.159332275391 -123.333618164063 1.128769874573
-134.656143188477 -81.624114990234 -224.616897583008 2.522378206253
14.264886856079 -86.707061767578 -244.390609741211 3.262677192688
-93.254989624023 -65.195556640625 -139.985305786133 2.095316171646
3.932735919952 -68.370712280273 -234.040069580078 2.006533622742
-2.810702085495 -81.019561767578 -224.216369628906 2.200284481049
-67.880691528320 -72.177055358887 -156.587127685547 1.089825391769
-18.047483444214 -77.503349304199 -211.688095092773 1.000774860382
101.657104492188 -78.484893798828 -192.528839111328 1.688969492912
20.298021316528 -79.929351806641 -246.854080200195 0.783625602722
36.092582702637 -70.049827575684 -133.904983520508 2.101747751236
-76.952835083008 -57.906715393066 -113.152305603027 1.941039204597
18.438915252686 -85.811355590820 -240.554855346680 3.844988584518
-81.155441284180 -61.327075958252 -125.518798828125 1.966707468033
5.866444110870 -76.350082397461 -286.319915771484 2.216022491455
-3.473500967026 -84.055419921875 -255.467041015625 2.865573644638
-167.049255371094 -79.689399719238 -271.740661621094 4.462602615356
97.466690063477 -71.725326538086 -82.797218322754 2.953771352768
-146.853881835938 -75.820709228516 -254.610076904297 3.258906841278
82.251304626465 -70.382881164551 -98.836662292480 2.433581352234
83.558670043945 -67.768760681152 -104.075500488281 1.856764554977
-156.617248535156 -70.992301940918 -255.553878784180 1.651402592659
25.053060531616 -76.169471740723 -150.855422973633 2.034063339233
-140.920303344727 -83.481613159180 -255.784851074219 2.188954114914
35.938480377197 -74.625083923340 -150.431854248047 1.804292440414
89.357460021973 -74.455146789551 -91.026420593262 3.481072187424
-65.190956115723 -78.538871765137 -241.679046630859 5.113939285278
23.512868881226 -76.516639709473 -159.994552612305 2.270172834396
-150.055694580078 -84.330947875977 -258.047821044922 0.584788024426
-163.344680786133 -74.283370971680 -261.706237792969 1.307503938675
-149.087829589844 -82.507125854492 -259.329040527344 1.242131590843
-114.807693481445 -78.927444458008 -286.237365722656 3.684885978699
-156.165313720703 -66.594902038574 -257.931854248047 2.211441040039
-157.472915649414 -77.892250061035 -244.099746704102 5.677532672882
86.614807128906 -78.896530151367 -222.569107055664 2.205517292023
-152.416625976563 -85.800636291504 -251.921386718750 3.099371671677
-45.609397888184 -74.964447021484 -80.390724182129 3.257174253464
-8.287413597107 -88.285858154297 -258.060607910156 5.829426288605
24.030309677124 -55.721786499023 -37.928913116455 2.442540884018
-11.709437370300 -74.299865722656 -270.999298095703 2.543584823608
-4.447541236877 -73.848449707031 -266.672149658203 6.690627574921
-8.814569473267 -75.864608764648 -277.889099121094 1.886495590210
-2.702917098999 -70.648780822754 -278.514526367188 3.820889472961
-64.588684082031 -76.359008789063 -244.863296508789 1.625955224037
-5.018054008484 -86.493621826172 -263.742431640625 0.972829282284
-8.429165840149 -82.270652770996 -261.465484619141 1.275639891624
48.398303985596 -63.795028686523 -96.677116394043 1.361958742142
9.592853546143 -86.139816284180 -272.734436035156 3.788679599762
-68.693550109863 -57.454505920410 -100.135932922363 2.756927251816
50.289176940918 -73.344131469727 -104.390426635742 1.785151004791
-87.219482421875 -73.418647766113 -97.430908203125 4.803985595703
104.836776733398 -78.803962707520 -171.565658569336 4.178779602051
-64.345146179199 -58.640636444092 -43.957557678223 2.872220277786
-66.177589416504 -79.687904357910 -203.340560913086 2.182041406631
-52.394943237305 -81.515602111816 -183.151748657227 1.787801027298
8.434547424316 -84.387840270996 -275.086059570313 0.853646814823
13.858387947083 -82.895599365234 -275.455108642578 3.785041809082
66.920593261719 -71.120552062988 -240.349655151367 0.866478383541
24.659160614014 -74.593658447266 -272.612060546875 3.770698070526
-136.493179321289 -84.166152954102 -285.618499755859 1.575896382332
-147.163162231445 -83.960716247559 -278.205627441406 1.169796705246
18.674001693726 -74.227226257324 -178.759536743164 2.158534288406
5.778447151184 -74.722610473633 -160.004135131836 2.282760381699
22.426773071289 -79.643104553223 -168.058990478516 2.299600601196
26.544181823730 -76.600753784180 -166.991256713867 2.741386890411
-158.198455810547 -72.005531311035 -272.929870605469 1.607312321663
-153.407501220703 -79.492736816406 -273.931182861328 2.446487426758
-64.821121215820 -73.216117858887 -90.745407104492 2.444350719452
-153.113235473633 -84.305183410645 -276.710174560547 2.177873611450
-157.866897583008 -72.829727172852 -279.116638183594 4.154760837555
-57.855335235596 -75.164810180664 -64.140579223633 4.388748168945
35.104480743408 -68.057586669922 -139.869689941406 2.420427083969
50.941993713379 -66.013046264648 -92.803108215332 1.166673541069
-63.766395568848 -76.493431091309 -74.065101623535 5.597198486328
58.567050933838 -63.319602966309 -99.317283630371 2.229297399521
-82.014320373535 -60.202148437500 -109.506591796875 2.643337965012
26.846284866333 -65.830451965332 -143.333358764648 1.576667308807
92.823272705078 -61.449722290039 -65.368888854980 2.975905895233
-38.341411590576 -76.270668029785 -208.142608642578 1.784005522728
-47.027641296387 -75.575904846191 -157.100082397461 1.510922431946
-17.360223770142 -74.703742980957 -188.821670532227 1.945621967316
-49.057159423828 -54.726512908936 -39.670783996582 6.029174804688
33.054405212402 -75.944999694824 -143.241363525391 2.418429374695
-81.963211059570 -79.041229248047 -251.064071655273 2.544390916824
35.932418823242 -76.623146057129 -144.483184814453 2.126168012619
-32.264686584473 -76.818092346191 -74.438667297363 3.457978963852
-141.036148071289 -77.251190185547 -183.162582397461 4.165215015411
-76.357704162598 -76.087814331055 -74.459877014160 5.140901565552
91.401855468750 -71.353096008301 -92.025367736816 5.041433334351
-45.353042602539 -77.848007202148 -79.624885559082 4.056454181671
-50.767520904541 -76.365203857422 -89.231391906738 1.838510394096
110.806549072266 -69.755744934082 -162.439468383789 1.825036287308
-86.842163085938 -74.961059570313 -90.980041503906 5.529917716980
-46.803909301758 -75.309234619141 -59.171073913574 1.479989647865
51.575695037842 -64.918800354004 -249.487976074219 1.277974009514
-44.692874908447 -76.665550231934 -201.427474975586 2.502743959427
58.915992736816 -58.201618194580 -94.026245117188 2.201465606689
-72.139831542969 -78.333793640137 -98.869667053223 3.591300487518
-29.169235229492 -78.318466186523 -186.714859008789 0.550031423569
-21.777242660522 -79.213500976563 -196.834869384766 1.957256197929
-37.031112670898 -81.307693481445 -185.534652709961 4.309795856476
-23.044069290161 -79.900444030762 -193.264343261719 1.474226832390
6.575915813446 -80.684692382813 -224.567947387695 3.449990749359
-2.496043920517 -81.221412658691 -223.514709472656 2.429532051086
7.287648200989 -80.342124938965 -218.360107421875 2.677065372467
15.073771476746 -78.439033508301 -222.195480346680 1.275472879410
-2.820681095123 -78.403266906738 -228.285720825195 0.747294306755
2.588291883469 -77.050689697266 -226.524826049805 2.537224769592
-48.935352325439 -78.189582824707 -179.238800048828 1.490298390388
-26.851900100708 -82.897743225098 -189.059310913086 1.808184504509
-42.556034088135 -80.543067932129 -165.421417236328 1.523855209351
-91.682395935059 -72.321151733398 -217.815963745117 1.554507493973
-43.833969116211 -72.577964782715 -196.728729248047 3.986827850342
-46.721317291260 -67.194648742676 -46.968162536621 1.214330554008
-47.285514831543 -79.470451354980 -180.708786010742 2.323522329330
-39.910930633545 -80.707649230957 -194.849838256836 0.922562956810
-146.010757446289 -72.499366760254 -196.921783447266 0.408585578203
-56.510559082031 -72.918212890625 -287.347686767578 1.851612210274
-145.452163696289 -80.798324584961 -189.317443847656 1.885439038277
-140.747100830078 -65.099128723145 -199.242965698242 1.464366793633
-126.844505310059 -64.523849487305 -226.147476196289 0.848932743073
-151.681289672852 -62.082229614258 -199.268188476563 1.983187198639
-147.545166015625 -56.431304931641 -200.740951538086 3.842556476593
-88.563896179199 -75.290702819824 -252.981658935547 1.257577061653
33.279464721680 -80.340110778809 -136.600143432617 2.545747756958
-145.887725830078 -76.699592590332 -191.684417724609 2.211220264435
32.598831176758 -78.251502990723 -129.741180419922 1.855884790421
47.690444946289 -69.204078674316 -117.882186889648 2.611434936523
-20.987766265869 -80.349815368652 -220.298507690430 0.729483902454
-137.473037719727 -79.242385864258 -194.223861694336 4.015994071960
35.979103088379 -59.171058654785 -37.216262817383 2.301736116409
113.350013732910 -62.434375762939 -104.761383056641 7.111870765686
-53.058712005615 -76.952705383301 -186.069183349609 1.788651704788
-39.429492950439 -82.672897338867 -196.080322265625 1.376182675362
2.445271015167 -66.799346923828 -278.189025878906 2.953529834747
-136.051361083984 -84.682571411133 -194.703170776367 4.083385467529
17.737089157104 -82.470397949219 -235.557937622070 2.338070154190
41.322326660156 -71.225921630859 -133.636337280273 2.666793823242
-107.009262084961 -74.551383972168 -222.682220458984 3.689513206482
-17.291088104248 -72.298126220703 -192.429885864258 2.574288129807
-42.714004516602 -69.241638183594 -160.643173217773 1.079093694687
-18.099014282227 -79.940109252930 -198.648574829102 1.818553090096
-81.001182556152 -65.933113098145 -119.146369934082 0.678955793381
-65.578086853027 -61.299823760986 -43.971088409424 1.562470674515
-35.946609497070 -75.152191162109 -209.403030395508 2.219286441803
-44.426815032959 -64.741966247559 -155.472442626953 2.981173992157
45.283790588379 -72.932319641113 -123.293350219727 1.644229054451
-148.005950927734 -82.035728454590 -198.534652709961 0.896563708782
-162.846969604492 -66.493789672852 -205.726364135742 2.343739032745
36.766048431396 -70.201301574707 -140.078918457031 2.060096979141
39.299507141113 -75.906875610352 -130.980529785156 0.696154475212
-28.018400192261 -73.718551635742 -212.140609741211 1.619300603867
43.955898284912 -75.694709777832 -117.970031738281 1.457986712456
47.441875457764 -73.310325622559 -119.826026916504 0.633883476257
-93.976150512695 -63.716533660889 -140.323394775391 2.133600473404
0.813764989376 -72.188240051270 -238.681350708008 0.971419692039
-135.983734130859 -79.277336120605 -227.477249145508 2.376001596451
39.695919036865 -79.008956909180 -117.388244628906 1.257594585419
-135.802917480469 -66.840110778809 -228.004425048828 2.405436992645
-145.823654174805 -81.282302856445 -202.798812866211 2.193503141403
-160.538543701172 -65.385696411133 -207.115325927734 2.237435817719
33.007747650146 -69.704048156738 -134.123260498047 2.312367439270
-85.574768066406 -74.309349060059 -244.443084716797 5.157809734344
113.266357421875 -73.601730346680 -188.204269409180 4.610793590546
-146.436965942383 -77.320503234863 -206.846801757813 1.304275393486
-108.739265441895 -70.753875732422 -226.466918945313 2.432996273041
-164.742721557617 -68.961189270020 -209.521759033203 1.557002305984
41.599834442139 -76.237548828125 -113.316581726074 1.347018718719
45.682853698730 -76.448806762695 -119.377647399902 0.403782486916
-121.434219360352 -67.723999023438 -229.166976928711 2.916540145874
-26.079746246338 -72.466560363770 -195.825881958008 1.703419208527
-23.002424240112 -80.886749267578 -193.216354370117 1.795155525208
12.296018600464 -85.265098571777 -224.673080444336 4.356942653656
9.618374824524 -80.574851989746 -226.578018188477 2.466854572296
-22.145484924316 -72.987503051758 -197.862045288086 0.335793167353
-144.527359008789 -80.948562622070 -206.022994995117 0.906693100929
8.355873107910 -82.617454528809 -227.486862182617 3.462033271790
10.857705116272 -78.950431823730 -229.129989624023 1.376948475838
-24.525846481323 -77.077011108398 -192.861938476563 1.794970631599
4.552999973297 -63.229511260986 -236.214126586914 1.662514686584
-92.837654113770 -63.108943939209 -139.711502075195 1.621760010719
-1.464501023293 -79.055274963379 -221.450088500977 1.600087761879
15.360382080078 -84.542961120605 -203.313354492188 5.335488796234
-3.531584024429 -79.137702941895 -244.900619506836 2.481632709503
-151.748748779297 -82.636825561523 -231.257354736328 2.045795917511
-109.736534118652 -67.612022399902 -179.859313964844 0.783434927464
15.138722419739 -86.404808044434 -235.580520629883 3.912330389023
5.653907775879 -78.997764587402 -233.151245117188 1.683071613312
35.114082336426 -68.089988708496 -118.227981567383 2.668754816055
-20.884672164917 -72.544914245605 -68.768875122070 3.045870780945
-64.997993469238 -77.325630187988 -160.441192626953 1.196796417236
11.138688087463 -83.609680175781 -239.407318115234 1.859433531761
6.458772182465 -78.615150451660 -243.092971801758 1.273650646210
-54.927085876465 -72.228912353516 -147.917114257813 2.857290506363
-46.719264984131 -81.886253356934 -145.041824340820 4.329809665680
-56.184772491455 -78.975173950195 -173.186935424805 1.582315802574
14.998802185059 -82.847984313965 -244.098037719727 2.912685155869
8.037403106689 -81.127128601074 -243.030914306641 3.132429361343
-86.228439331055 -56.893299102783 -131.017501831055 6.666254520416
35.090545654297 -74.437263488770 -259.975524902344 5.115592956543
-39.584568023682 -77.889434814453 -76.207008361816 4.447181701660
2.809676885605 -85.162452697754 -248.193084716797 3.898288488388
1.900025010109 -65.852706909180 -270.301971435547 2.843400716782
-82.487014770508 -71.607002258301 -107.648826599121 1.328670024872
-23.780052185059 -82.542678833008 -281.700653076172 7.276012420654
9.605246543884 -82.301185607910 -247.028991699219 2.200964450836
-28.680219650269 -82.652282714844 -287.088134765625 4.978099346161
-37.610343933105 -73.182983398438 -61.508197784424 3.182486772537
-66.199218750000 -71.379699707031 -53.174987792969 2.184491634369
89.700714111328 -78.850692749023 -210.689910888672 3.012614488602
-135.678497314453 -80.273056030273 -252.114212036133 4.384669303894
-95.421585083008 -53.197727203369 -99.496887207031 4.742285251617
117.825927734375 -71.383430480957 -124.578659057617 1.815523386002
22.895929336548 -66.355735778809 -28.413093566895 3.529104471207
-8.133875846863 -80.741439819336 -252.714843750000 1.925790548325
-66.746643066406 -67.250869750977 -47.456703186035 2.829786777496
95.354011535645 -77.220565795898 -211.368148803711 1.470729827881
51.044311523438 -65.140182495117 -102.619613647461 1.556884407997
-70.730651855469 -54.823627471924 -103.243492126465 1.832924365997
-166.040206909180 -74.406455993652 -288.957702636719 2.122890710831
-28.992589950562 -79.488174438477 -178.795501708984 1.058763146400
-35.015148162842 -80.177368164063 -172.002700805664 1.773760318756
-155.370956420898 -85.488410949707 -288.432586669922 2.517173290253
-138.391098022461 -86.056556701660 -289.193115234375 1.510711193085
-147.943664550781 -83.976982116699 -278.652709960938 1.925816774368
-153.785430908203 -82.352027893066 -297.104064941406 2.378417730331
-152.281845092773 -68.681610107422 -302.624389648438 1.866128921509
-92.975463867188 -65.919235229492 -87.300338745117 4.191612720490
-82.539825439453 -69.499420166016 -101.927185058594 2.716444969177
-52.762836456299 -75.178749084473 -67.784996032715 4.661415576935
-78.810722351074 -75.585998535156 -104.142517089844 2.750954627991
-46.374832153320 -77.566871643066 -69.150650024414 2.753942251205
-92.074211120605 -69.990844726563 -110.012535095215 3.821733951569
-70.893798828125 -75.611984252930 -68.636070251465 3.866068840027
-43.450229644775 -78.786216735840 -237.866500854492 2.954846858978
75.817184448242 -59.295993804932 -108.184188842773 1.908378601074
-2.068317890167 -79.584701538086 -284.859344482422 3.575914859772
72.721298217773 -57.551769256592 -104.898033142090 1.344130516052
-144.051132202148 -76.791572570801 -287.402984619141 2.270428419113
-129.418655395508 -78.148391723633 -250.710403442383 6.411008358002
-153.728485107422 -82.106170654297 -280.193786621094 3.869554519653
-153.956298828125 -73.352973937988 -282.658966064453 1.720079660416
-142.077728271484 -76.229171752930 -292.391723632813 0.919728279114
-146.460052490234 -67.668685913086 -284.516601562500 1.328796505928
-157.432846069336 -66.226013183594 -289.451751708984 3.474940776825
66.812881469727 -55.762458801270 -82.886962890625 2.165141105652
-37.191062927246 -73.397041320801 -66.857421875000 5.400650024414
-71.907196044922 -74.126785278320 -95.203300476074 5.810292720795
-90.957969665527 -76.299186706543 -212.450088500977 2.153629541397
-110.023414611816 -69.708679199219 -258.857208251953 2.134469509125
-43.060394287109 -74.525604248047 -204.137802124023 3.297744035721
-44.826213836670 -78.052757263184 -155.361618041992 2.579865455627
-52.661590576172 -67.454429626465 -149.972839355469 1.198106884956
-59.998443603516 -78.161117553711 -169.514602661133 0.831866919994
-147.369903564453 -72.803153991699 -207.458541870117 2.086295843124
37.314849853516 -79.360130310059 -127.808616638184 2.682883024216
35.353466033936 -75.191810607910 -140.947723388672 2.808290958405
-54.041679382324 -81.913040161133 -289.877349853516 4.293653964996
-149.549560546875 -67.413848876953 -213.086380004883 1.635218858719
-125.368736267090 -68.102424621582 -231.489700317383 2.580805778503
40.651947021484 -68.391716003418 -117.680564880371 2.476524114609
-106.878623962402 -71.371757507324 -259.121124267578 1.672358751297
-89.182952880859 -65.594863891602 -118.129562377930 1.491997957230
35.457794189453 -74.501075744629 -145.479766845703 3.536029577255
17.438758850098 -72.110267639160 -230.669433593750 0.570589125156
-35.531311035156 -79.885139465332 -208.156143188477 2.320162296295
-15.302084922791 -71.519607543945 -199.667846679688 1.599277019501
-18.134399414063 -78.010108947754 -191.463226318359 2.124346256256
-143.160186767578 -74.741706848145 -178.855117797852 2.639065504074
-40.575714111328 -83.230087280273 -286.375427246094 6.114376544952
-13.918165206909 -62.473144531250 -67.321556091309 2.092303276062
43.745212554932 -71.936195373535 -121.259979248047 1.814474940300
-31.787414550781 -70.057807922363 -78.762008666992 3.328242301941
-154.075027465820 -69.577461242676 -201.351394653320 1.668342590332
-144.288864135742 -57.929790496826 -199.934936523438 3.356844186783
35.053909301758 -75.383728027344 -141.837036132813 2.487822294235
28.562549591064 -78.066375732422 -145.102233886719 2.536105394363
31.420989990234 -76.671096801758 -143.498138427734 1.382806897163
29.033210754395 -72.161460876465 -138.844238281250 0.714785158634
33.720134735107 -80.830955505371 -138.093917846680 1.173447966576
-14.415865898132 -79.456169128418 -170.960128784180 1.445586323738
-8.934852600098 -78.214088439941 -173.802581787109 2.541378736496
-92.086082458496 -66.994010925293 -97.394325256348 4.879476547241
-33.188564300537 -75.066772460938 -66.950088500977 3.054930448532
-62.640525817871 -70.019165039063 -156.823455810547 3.070383548737
-29.035211563110 -70.182655334473 -189.801559448242 1.938397169113
-60.056385040283 -79.954513549805 -173.429733276367 1.813344359398
37.472770690918 -69.236099243164 -248.235748291016 4.168859481812
1.948971033096 -73.869743347168 -226.635635375977 1.439652204514
-17.305469512939 -73.054405212402 -206.557907104492 2.418908357620
-62.032649993896 -68.274887084961 -159.233276367188 3.977296352386
35.872108459473 -68.663497924805 -256.731506347656 1.751071453094
1.961174011230 -79.241149902344 -229.601593017578 0.948597073555
-33.194232940674 -79.084518432617 -202.732727050781 1.221836090088
-57.680618286133 -83.483451843262 -178.351837158203 4.603696346283
-11.942195892334 -66.968879699707 -209.179382324219 1.396485567093
-38.574760437012 -77.771575927734 -169.905136108398 1.567494869232
-29.376340866089 -78.628654479980 -180.666870117188 1.466048479080
-89.750526428223 -57.607929229736 -132.768524169922 6.883594036102
-18.504899978638 -57.694972991943 -66.057914733887 2.988373279572
-37.203861236572 -80.127494812012 -174.050704956055 3.019935607910
-29.391046524048 -80.676925659180 -178.213821411133 0.998136639595
-26.286512374878 -57.798263549805 -66.739463806152 3.798770189285
-44.235866546631 -82.599098205566 -192.846466064453 1.140000820160
-51.412212371826 -82.602630615234 -184.094543457031 1.477521419525
-59.188064575195 -62.258056640625 -46.942779541016 3.538387537003
59.557559967041 -70.228828430176 -235.475708007813 2.258502721786
-26.117980957031 -79.520217895508 -175.996627807617 1.597398161888
-32.666778564453 -78.910491943359 -170.269760131836 1.966739296913
46.755634307861 -77.196243286133 -105.188133239746 1.228996038437
52.739658355713 -72.899505615234 -243.810760498047 2.125443220139
29.929954528809 -75.230117797852 -129.634521484375 1.403703093529
33.930225372314 -71.662925720215 -127.665878295898 2.466866731644
-56.983974456787 -72.032333374023 -178.271499633789 2.397398471832
-35.007266998291 -77.205093383789 -188.814804077148 2.882569313049
-16.683774948120 -81.340438842773 -211.327423095703 2.322551250458
-62.795532226563 -79.235671997070 -160.189712524414 1.726215720177
-164.116378784180 -70.932403564453 -205.755798339844 2.031941890717
-32.366931915283 -72.174697875977 -59.402156829834 2.472326755524
36.169151306152 -79.181648254395 -124.621650695801 1.306266188622
-146.132492065430 -72.358573913574 -189.441711425781 2.018887281418
-47.949157714844 -77.343681335449 -287.393585205078 1.935384511948
-146.835266113281 -79.394256591797 -199.371063232422 1.836613059044
-143.797851562500 -67.314300537109 -192.168319702148 1.531791925430
-80.512641906738 -71.155136108398 -249.771667480469 1.502721667290
-108.635299682617 -65.812156677246 -225.176086425781 1.223597526550
-153.179061889648 -65.094108581543 -189.467102050781 2.326177120209
-48.123046875000 -78.947357177734 -200.446701049805 2.483968734741
-143.522262573242 -77.729690551758 -201.990707397461 2.131093025208
-76.359657287598 -60.838577270508 -45.876834869385 2.499229669571
81.150993347168 -60.477481842041 -105.656204223633 1.534349441528
-74.987968444824 -83.892723083496 -211.956771850586 2.411118030548
-80.025962829590 -61.655460357666 -54.933216094971 6.094048500061
11.733798027039 -83.437843322754 -218.171386718750 2.968178272247
10.507386207581 -77.768020629883 -216.471420288086 1.301243305206
-23.104312896729 -57.837490081787 -68.622161865234 5.454747200012
-23.936986923218 -81.159980773926 -182.140518188477 2.276018381119
-39.941444396973 -77.474678039551 -165.521942138672 1.871495485306
11.538904190063 -81.613792419434 -224.435287475586 2.727807044983
6.468824863434 -79.252525329590 -222.197311401367 1.158440470695
-1.834110021591 -77.483879089355 -228.163909912109 1.025198101997
-43.414283752441 -80.607635498047 -158.390838623047 3.885857582092
-84.183052062988 -69.111099243164 -109.888603210449 2.067861557007
38.930099487305 -72.975151062012 -255.794067382813 2.787861585617
-88.180511474609 -71.193443298340 -250.565155029297 2.231361865997
14.160548210144 -80.887046813965 -221.837112426758 1.936499714851
-136.569290161133 -81.122528076172 -226.212097167969 1.944882512093
24.277339935303 -76.123336791992 -187.581222534180 1.855939507484
41.238189697266 -52.560428619385 -22.394968032837 1.683945059776
10.815113067627 -77.975578308105 -209.054946899414 1.448633670807
10.321814537048 -81.391174316406 -207.338439941406 2.445564031601
-152.211151123047 -75.212875366211 -248.075241088867 3.096337080002
-144.479843139648 -81.610282897949 -226.901611328125 0.834364831448
-146.048904418945 -82.545471191406 -227.361450195313 1.197041511536
-109.126243591309 -63.643585205078 -177.376586914063 1.568290591240
22.918529510498 -70.267662048340 -188.930526733398 0.353328555822
-18.722581863403 -79.554130554199 -205.949996948242 2.541846990585
-61.940353393555 -75.026161193848 -162.862121582031 2.706125974655
11.707968711853 -83.109817504883 -240.117141723633 2.163171291351
10.020838737488 -80.346191406250 -245.719375610352 1.004204869270
-48.377437591553 -75.314651489258 -148.053451538086 2.705531358719
-143.380249023438 -74.961837768555 -220.585800170898 3.270616292953
-151.512878417969 -85.114227294922 -242.845901489258 2.599210739136
-111.476608276367 -68.826797485352 -191.674148559570 2.112226247787
-89.416084289551 -78.256660461426 -285.601379394531 4.199633598328
-160.928390502930 -71.706848144531 -240.204269409180 3.009055137634
-153.864837646484 -65.243370056152 -225.975036621094 2.928520679474
-150.234848022461 -69.643844604492 -224.924865722656 2.176271438599
-3.286892890930 -78.419715881348 -236.812149047852 2.380679368973
-2.414671897888 -73.638481140137 -216.453842163086 1.028445839882
-72.210639953613 -71.590072631836 -146.223205566406 1.238598346710
-154.889495849609 -75.529869079590 -224.767547607422 3.242406129837
-150.815216064453 -84.472328186035 -242.281143188477 1.624630808830
-11.421888351440 -71.308372497559 -220.124588012695 0.741435170174
-146.233306884766 -66.258918762207 -226.399765014648 2.365692853928
-111.419967651367 -65.525344848633 -194.139404296875 2.171624660492
-141.768218994141 -62.935234069824 -223.851486206055 2.185418844223
6.400437831879 -78.415382385254 -238.269515991211 1.702648401260
-25.626541137695 -77.852767944336 -211.637451171875 1.766128182411
5.863630771637 -82.914405822754 -246.500000000000 2.808201074600
-57.516189575195 -79.387413024902 -171.187438964844 1.699708342552
11.628331184387 -80.746200561523 -248.070022583008 1.249319195747
-29.277133941650 -76.620094299316 -206.217864990234 1.479299902916
33.304336547852 -65.477508544922 -252.514465332031 3.115577936172
39.016128540039 -65.510330200195 -131.382781982422 3.268377780914
-126.037719726563 -75.886405944824 -280.289550781250 4.176196098328
-145.433700561523 -77.767074584961 -268.710327148438 2.080391407013
-84.966217041016 -72.952232360840 -210.598251342773 2.317960739136
-153.800140380859 -82.951255798340 -251.231689453125 3.604455232620
-151.044296264648 -80.300827026367 -254.453979492188 1.439519405365
87.623855590820 -74.019981384277 -217.078445434570 1.173851966858
-70.286674499512 -70.448677062988 -56.328063964844 4.503943443298
-158.443328857422 -73.758537292480 -253.132919311523 3.674322366714
-165.551452636719 -70.717681884766 -246.799697875977 1.819720864296
-146.033950805664 -74.188095092773 -269.039001464844 2.124235391617
-129.687957763672 -71.270172119141 -283.557647705078 3.732497930527
-125.175430297852 -72.672851562500 -285.184326171875 1.123945593834
-151.122711181641 -67.317062377930 -268.072784423828 0.923889040947
-149.934860229492 -68.654106140137 -264.747741699219 2.394589185715
-141.482727050781 -85.536743164063 -257.367309570313 1.858939290047
-139.374694824219 -80.650993347168 -255.923339843750 3.326005220413
-151.039993286133 -86.370819091797 -255.433837890625 1.357760548592
-153.379959106445 -77.726173400879 -249.096282958984 2.792182922363
-159.430252075195 -68.648857116699 -245.648773193359 0.721319973469
96.254119873047 -63.028102874756 -105.317977905273 1.269708037376
-168.178558349609 -69.944465637207 -248.706146240234 1.958789587021
-46.398616790771 -74.058563232422 -184.863433837891 2.715852499008
-43.183856964111 -77.915321350098 -185.907623291016 2.443007946014
59.352840423584 -77.083366394043 -236.965881347656 5.240812778473
-93.599105834961 -68.440460205078 -83.587043762207 1.954096555710
19.642087936401 -83.988571166992 -252.516052246094 4.979764938354
20.766473770142 -78.751060485840 -248.720657348633 1.647918105125
-128.414550781250 -73.664703369141 -293.666259765625 1.665258526802
23.988101959229 -77.138671875000 -162.664443969727 1.133882284164
30.816843032837 -84.814132690430 -149.521987915039 4.215740680695
27.376966476440 -76.570495605469 -151.347595214844 1.706746220589
87.194282531738 -72.393211364746 -97.257217407227 2.815143346786
-154.568176269531 -72.951713562012 -266.253387451172 2.326231718063
-148.343505859375 -66.263725280762 -268.614135742188 2.655361652374
-52.670093536377 -59.885501861572 -84.675498962402 4.142323970795
-163.055603027344 -73.031265258789 -257.749237060547 2.595976591110
-154.511962890625 -82.752403259277 -257.512634277344 2.111854314804
-160.430130004883 -74.767196655273 -258.903350830078 1.726420760155
-107.182609558105 -78.154991149902 -288.520782470703 4.074667453766
-165.016006469727 -74.616249084473 -262.405517578125 2.018544435501
-148.989669799805 -78.981567382813 -249.471038818359 2.359843492508
-145.014389038086 -83.652770996094 -251.182006835938 1.531345963478
26.817049026489 -80.803337097168 -151.675064086914 2.282451629639
27.376955032349 -76.309272766113 -153.698989868164 2.605608224869
23.315193176270 -75.534568786621 -163.279891967773 1.908781528473
-152.856079101563 -83.904953002930 -256.315521240234 2.266000032425
12.549357414246 -82.648002624512 -265.244079589844 2.836083650589
72.860656738281 -66.265777587891 -78.178855895996 5.727167606354
-53.401866912842 -72.277030944824 -64.512519836426 6.630602359772
-77.405685424805 -68.419860839844 -98.410705566406 1.663404822350
-44.999492645264 -67.291374206543 -81.127937316895 2.256503343582
-156.035354614258 -77.549247741699 -246.961441040039 4.426084995270
-67.564605712891 -72.761856079102 -64.522544860840 5.783171176910
-50.740653991699 -79.353630065918 -248.507003784180 3.493273019791
86.180427551270 -73.231903076172 -221.998550415039 1.289736866951
73.468933105469 -58.431144714355 -106.364372253418 1.265061974525
-115.426689147949 -76.579902648926 -290.274200439453 2.671520948410
-140.133529663086 -68.802429199219 -256.569854736328 2.084028720856
-150.482437133789 -64.634971618652 -255.197631835938 0.825358331203
-42.360771179199 -80.068603515625 -237.165023803711 3.512496471405
-128.719085693359 -72.990905761719 -219.769027709961 4.996765613556
-156.287857055664 -69.944137573242 -195.815567016602 2.007270812988
-31.675533294678 -75.762397766113 -72.659652709961 3.971693515778
-153.040390014648 -66.039459228516 -193.536010742188 1.841130614281
-124.063682556152 -69.148231506348 -225.390441894531 1.820439934731
-143.919631958008 -62.695098876953 -193.394470214844 1.849300742149
-143.562637329102 -59.698818206787 -198.410446166992 1.442712903023
-27.832042694092 -76.741302490234 -74.307487487793 1.351964354515
14.848548889160 -81.273277282715 -226.463699340820 0.503621339798
-166.097381591797 -79.449371337891 -258.097473144531 6.490422725677
-152.535873413086 -80.693084716797 -277.849456787109 1.626096010208
-135.082733154297 -80.877418518066 -290.200622558594 2.250555753708
84.987060546875 -74.740554809570 -82.560867309570 2.855221033096
72.894508361816 -74.537307739258 -89.493873596191 1.505623579025
27.012220382690 -75.572120666504 -166.929992675781 2.869525432587
-81.023292541504 -78.105651855469 -206.134323120117 4.926057338715
2.523906946182 -75.632766723633 -156.431747436523 2.974095106125
17.907495498657 -73.592170715332 -172.979278564453 2.419229745865
-45.116771697998 -80.361450195313 -243.424621582031 1.568688035011
-81.955490112305 -76.731651306152 -78.202224731445 2.068092823029
-60.854801177979 -69.068649291992 -130.399658203125 1.129742503166
-35.395774841309 -75.775146484375 -81.465614318848 1.452960968018
6.752219200134 -70.870216369629 -198.300323486328 1.707347035408
-19.055215835571 -75.073539733887 -241.540939331055 1.389854907990
-81.888465881348 -78.829521179199 -95.346717834473 4.348807811737
46.293720245361 -66.835617065430 -245.421432495117 1.459061741829
-72.700134277344 -74.066978454590 -102.157699584961 1.480288505554
-49.409492492676 -63.244770050049 -45.989116668701 1.249101161957
-110.183662414551 -68.362442016602 -255.478759765625 1.464422464371
-162.774810791016 -76.536926269531 -284.219909667969 1.743858575821
42.517230987549 -76.233367919922 -116.040451049805 2.112568140030
29.878757476807 -68.086654663086 -136.096847534180 1.032740712166
-84.597640991211 -71.742996215820 -254.922012329102 0.730556845665
-21.966522216797 -64.515609741211 -73.860466003418 4.400455474854
-139.812118530273 -65.910285949707 -192.699813842773 3.026994228363
-156.870086669922 -66.998687744141 -204.987457275391 2.861987590790
-149.094146728516 -60.385524749756 -193.636749267578 1.586446285248
45.916545867920 -76.815536499023 -120.721832275391 1.508079886436
43.375705718994 -77.697021484375 -116.016021728516 1.437791824341
55.438602447510 -72.278694152832 -96.980377197266 0.678799450397
31.733739852905 -80.364280700684 -143.797058105469 2.126548528671
26.496315002441 -72.643051147461 -145.427917480469 1.237352252007
-89.376663208008 -71.921379089355 -248.149826049805 4.406559467316
43.775596618652 -70.514129638672 -257.969635009766 3.139682054520
-49.226627349854 -75.972793579102 -148.336608886719 1.782963275909
-41.062629699707 -77.638298034668 -157.037689208984 2.364361763000
-15.033072471619 -71.749839782715 -202.433639526367 2.182672500610
-32.722888946533 -80.635360717773 -206.836822509766 1.405646562576
-51.310180664063 -82.077804565430 -157.167404174805 5.148042201996
-59.874450683594 -76.784355163574 -171.511398315430 1.032008647919
-149.151489257813 -75.425338745117 -185.173812866211 2.022939682007
-13.356201171875 -58.928115844727 -68.684326171875 4.058208465576
-40.030117034912 -82.245277404785 -159.129547119141 2.676559209824
24.977502822876 -79.667449951172 -158.982894897461 2.477855682373
32.031036376953 -76.678588867188 -159.780548095703 2.399109840393
29.930503845215 -76.668594360352 -147.534133911133 2.426502466202
-60.102210998535 -78.342773437500 -248.702850341797 1.559557318687
-94.141876220703 -76.052169799805 -213.269851684570 0.643289148808
26.698007583618 -77.555831909180 -163.999862670898 1.509852528572
28.883586883545 -78.190666198730 -164.004806518555 1.844040393829
23.090509414673 -77.442451477051 -152.039779663086 1.763707995415
-3.382333993912 -79.117790222168 -170.680801391602 1.076632142067
29.298377990723 -77.817558288574 -162.871887207031 2.227359294891
24.799594879150 -78.146347045898 -161.880706787109 1.177163481712
-25.952182769775 -81.272766113281 -184.451278686523 1.734533667564
-41.920021057129 -78.780815124512 -163.960205078125 0.948239266872
-26.455255508423 -81.477806091309 -170.459075927734 4.650717735291
-32.092746734619 -77.960296630859 -160.285736083984 3.010277509689
-22.251394271851 -75.687927246094 -179.385742187500 1.652457833290
60.547103881836 -76.534736633301 -237.529510498047 4.411172389984
93.057647705078 -76.121559143066 -206.121109008789 0.790832757950
-93.611297607422 -66.568763732910 -75.732299804688 2.732033014297
-32.529636383057 -60.709365844727 -48.718257904053 2.576445341110
-58.414321899414 -76.996238708496 -167.000808715820 0.831632614136
8.325713157654 -83.711341857910 -232.773254394531 3.552309989929
-130.097335815430 -65.701477050781 -228.459335327148 1.060078263283
36.171092987061 -69.889999389648 -114.321846008301 1.053789258003
-24.289445877075 -73.040084838867 -189.893463134766 2.529665231705
-55.658920288086 -78.228195190430 -168.175689697266 1.297382354736
-23.052217483521 -68.222442626953 -190.756423950195 0.647486925125
10.991986274719 -71.046043395996 -221.031112670898 1.820561051369
-79.456329345703 -63.383480072021 -131.723129272461 2.036268472672
-27.021673202515 -72.648910522461 -198.502365112305 1.025934696198
-56.921848297119 -72.502174377441 -166.831665039063 3.412235260010
-22.877952575684 -80.347122192383 -192.370910644531 1.194512486458
-24.845996856689 -65.741935729980 -201.524459838867 3.671453714371
-9.322776794434 -77.855903625488 -207.548660278320 1.248647570610
-134.002029418945 -78.675537109375 -196.509948730469 2.233333349228
15.876811027527 -71.717315673828 -183.067596435547 1.974213361740
-17.277631759644 -83.893547058105 -217.071746826172 5.766405582428
-135.769546508789 -76.615020751953 -195.907638549805 1.127102732658
17.312070846558 -80.403099060059 -228.090423583984 2.673701763153
-17.136581420898 -80.072509765625 -195.796173095703 1.398147583008
-38.645606994629 -76.579994201660 -151.266250610352 2.761656522751
-41.453990936279 -73.908248901367 -154.156356811523 2.557635068893
-89.138732910156 -63.289257049561 -115.266616821289 1.709780693054
-102.106925964355 -76.070655822754 -253.193527221680 3.917013168335
-151.770950317383 -80.885360717773 -196.620132446289 1.561914324760
-161.580413818359 -71.455474853516 -194.888732910156 1.796350479126
96.817924499512 -56.929866790771 -61.177001953125 2.223282337189
59.948390960693 -67.546279907227 -84.932212829590 1.202879786491
78.315719604492 -67.571777343750 -63.126556396484 0.483371615410
-26.247858047485 -66.471504211426 -176.613342285156 4.111475467682
78.165115356445 -67.119194030762 -68.390190124512 2.749543666840
-118.251220703125 -76.757972717285 -257.640686035156 3.141331911087
-27.959802627563 -72.263366699219 -172.766601562500 2.216844797134
48.043624877930 -66.920356750488 -99.209556579590 1.422142148018
-157.910751342773 -80.382698059082 -296.958892822266 5.083451747894
39.818298339844 -73.066482543945 -108.751808166504 0.901988863945
53.682357788086 -73.350753784180 -96.946250915527 1.801858782768
72.771209716797 -65.577316284180 -74.681503295898 5.193817138672
-139.778182983398 -76.894622802734 -282.471374511719 4.793680191040
-33.938266754150 -70.860717773438 -176.911102294922 0.922997117043
46.477210998535 -71.943603515625 -104.691078186035 2.624622821808
55.390316009521 -66.873596191406 -88.263038635254 2.001795768738
-49.125877380371 -79.051574707031 -198.091781616211 2.295067071915
-155.352020263672 -79.847068786621 -295.178161621094 2.485572338104
-154.341903686523 -74.848815917969 -290.912780761719 0.752939522266
71.631187438965 -68.054161071777 -77.279045104980 3.751166343689
-151.006408691406 -72.128799438477 -291.399963378906 3.030921220779
-33.007865905762 -68.802879333496 -172.480712890625 1.524611830711
-25.560619354248 -70.302322387695 -182.318634033203 0.867608904839
-139.944168090820 -73.571662902832 -282.901397705078 3.230657815933
-148.673706054688 -70.743797302246 -282.200408935547 2.343081235886
-155.158493041992 -70.926727294922 -291.781341552734 1.317718505859
-153.724411010742 -67.157806396484 -281.626159667969 2.495008707047
27.200061798096 -69.320281982422 -264.546325683594 2.083021640778
-52.128536224365 -83.006294250488 -202.645401000977 2.373515605927
-157.911422729492 -73.578002929688 -236.508422851563 1.951616644859
19.849735260010 -82.554878234863 -200.801864624023 5.109675884247
19.869728088379 -84.741523742676 -238.242935180664 3.596616268158
-13.397704124451 -80.147941589355 -206.520202636719 2.212473392487
33.110443115234 -75.449806213379 -260.253814697266 5.270866394043
49.432182312012 -69.120201110840 -116.484420776367 3.404311180115
-34.417354583740 -81.350250244141 -207.005386352539 1.361602544785
101.099105834961 -78.326446533203 -203.014190673828 2.719921588898
19.639860153198 -86.318122863770 -242.911361694336 4.962247371674
-85.391586303711 -64.749847412109 -120.156105041504 1.655800223351
-12.485505104065 -82.643714904785 -214.786560058594 3.876087665558
13.125473976135 -79.547050476074 -210.203765869141 1.470108509064
-7.883433818817 -79.836959838867 -225.208923339844 3.171212196350
19.252351760864 -79.650962829590 -185.614288330078 2.514079093933
-145.474609375000 -74.838829040527 -212.925857543945 1.347304940224
-157.226623535156 -68.228492736816 -215.569885253906 1.435410976410
-66.328033447266 -54.111736297607 -119.173446655273 1.702687144279
-93.986099243164 -75.641281127930 -285.029113769531 2.778764009476
-142.043701171875 -71.347068786621 -233.495056152344 0.975225925446
-144.596435546875 -68.071128845215 -233.565490722656 1.603790640831
-119.237892150879 -66.502899169922 -202.428634643555 2.715605020523
16.261014938354 -80.625061035156 -184.021926879883 2.836705207825
21.597517013550 -77.357643127441 -182.856384277344 0.979709088802
-13.138742446899 -78.015327453613 -215.293777465820 1.794519543648
-152.672698974609 -83.928253173828 -221.119979858398 3.921560287476
-163.542373657227 -66.784095764160 -220.611038208008 1.376364469528
-4.695751190186 -80.798301696777 -219.800399780273 2.248940229416
-160.405380249023 -73.713768005371 -215.213958740234 3.366309881210
-5.584251880646 -80.056549072266 -227.000106811523 1.385452389717
-8.654764175415 -66.138069152832 -246.544799804688 1.512103080750
-145.649459838867 -82.312072753906 -223.217727661133 1.834892630577
-150.819763183594 -78.791641235352 -220.817642211914 3.500058889389
-163.031600952148 -67.037811279297 -221.626190185547 1.718651771545
-117.096572875977 -73.118804931641 -201.567871093750 4.461440563202
32.049137115479 -78.539672851563 -182.890747070313 5.448901653290
-161.451324462891 -75.469184875488 -228.070434570313 2.537323713303
-101.727378845215 -74.523902893066 -289.963775634766 1.073186516762
-147.570678710938 -72.329757690430 -245.713653564453 2.821368932724
-153.382125854492 -76.606758117676 -226.395675659180 2.128115177155
-151.413909912109 -84.149391174316 -232.718368530273 1.375231385231
-165.563674926758 -70.617782592773 -235.631469726563 1.662867546082
-129.516921997070 -68.803268432617 -204.617477416992 2.347814321518
-153.349853515625 -72.090965270996 -196.289840698242 0.808904469013
-152.541702270508 -76.472160339355 -196.433715820313 0.996815860271
17.945486068726 -79.493278503418 -235.629043579102 2.017283678055
8.737613677979 -82.940826416016 -236.073593139648 1.644717097282
-60.644264221191 -76.590522766113 -169.378768920898 1.807291150093
-29.032329559326 -79.666183471680 -209.773727416992 0.904770493507
-19.567588806152 -80.092147827148 -206.294204711914 2.612298965454
-46.764476776123 -84.314903259277 -238.744125366211 6.183558940887
100.344314575195 -65.581604003906 -82.897560119629 2.348720550537
-35.906730651855 -82.169227600098 -239.130203247070 3.607835054398
17.295257568359 -71.505210876465 -199.227249145508 2.578805446625
-53.696235656738 -62.810230255127 -122.016098022461 2.378318309784
-158.654281616211 -77.111747741699 -279.406707763672 4.715266227722
-128.635070800781 -77.200469970703 -254.043472290039 3.415223360062
-153.986663818359 -77.787101745605 -285.197326660156 1.750922560692
-155.940505981445 -79.496810913086 -278.148071289063 4.469734191895
-149.555358886719 -78.287292480469 -290.307403564453 2.491395711899
-154.341369628906 -67.585075378418 -283.809509277344 2.249136447906
-147.913330078125 -70.715240478516 -301.674835205078 2.820841312408
-122.673255920410 -71.633415222168 -253.671157836914 2.308046102524
80.031417846680 -59.803283691406 -60.947349548340 3.601386308670
97.096099853516 -67.644538879395 -67.991683959961 2.260588407516
-117.395645141602 -74.102478027344 -261.724731445313 1.987237453461
-57.086036682129 -70.931831359863 -60.566963195801 5.757318496704
-116.118247985840 -73.754028320313 -258.471160888672 1.395762801170
-43.547958374023 -72.383514404297 -57.904403686523 3.535143375397
-80.435813903809 -76.035720825195 -68.366447448730 1.980137944221
-63.408962249756 -61.607910156250 -100.367469787598 3.674419164658
-82.898155212402 -72.682197570801 -73.924812316895 4.430482387543
11.456776618958 -78.818923950195 -289.341400146484 1.712654829025
-24.307209014893 -75.239372253418 -69.555038452148 2.954602718353
-36.447910308838 -70.700599670410 -82.093070983887 4.330764293671
48.120941162109 -78.863441467285 -107.582023620605 1.519532680511
53.093624114990 -70.875869750977 -247.173629760742 1.724942088127
14.489341735840 -71.084785461426 -236.900619506836 2.039950370789
-89.124244689941 -64.647033691406 -131.928024291992 1.183048605919
33.669437408447 -76.888893127441 -120.891304016113 2.090552330017
40.274475097656 -73.051437377930 -116.412178039551 2.994179248810
-16.657344818115 -80.592208862305 -199.306930541992 2.682341098785
-81.227523803711 -72.468406677246 -253.839096069336 1.939107060432
40.939147949219 -78.600944519043 -125.808570861816 1.491566300392
15.875399589539 -77.628578186035 -231.419754028320 1.903313517570
35.971000671387 -68.759674072266 -146.215957641602 2.443182945251
-30.016857147217 -75.621025085449 -168.678878784180 1.105127573013
-34.645832061768 -74.368904113770 -163.502944946289 2.369903087616
-26.767271041870 -79.237556457520 -171.274215698242 2.768927097321
-18.370166778564 -75.298492431641 -180.200851440430 2.529525041580
1.335026979446 -77.901527404785 -164.263168334961 0.472352474928
20.493638992310 -72.335609436035 -167.475173950195 2.054371595383
28.718811035156 -74.798927307129 -174.989791870117 1.876535892487
25.314294815063 -79.692520141602 -177.342025756836 2.208370208740
-157.747131347656 -72.169677734375 -217.964828491211 2.514810562134
-151.523544311523 -81.224761962891 -221.292861938477 2.862374305725
19.827083587646 -79.666053771973 -181.811981201172 1.585031509399
19.358100891113 -70.125106811523 -196.342224121094 0.685213744640
-55.010353088379 -68.120376586914 -129.442703247070 1.810325264931
14.012563705444 -79.213310241699 -189.907638549805 2.377589225769
16.956478118896 -79.915863037109 -194.762634277344 3.009071588516
-6.295261859894 -83.289970397949 -218.931304931641 3.857529163361
45.261325836182 -69.604774475098 -117.367424011230 2.442024469376
-32.728027343750 -77.525863647461 -201.871276855469 2.303140878677
-26.711036682129 -76.328521728516 -217.556701660156 1.972344636917
-62.548812866211 -77.606185913086 -175.305541992188 0.837728023529
40.451850891113 -68.362739562988 -127.685523986816 4.029656887054
12.425012588501 -75.341201782227 -192.878280639648 1.704785346985
-21.610246658325 -75.534500122070 -224.162750244141 1.376412749290
-53.711536407471 -73.059700012207 -135.635955810547 1.310388565063
13.994674682617 -80.996109008789 -200.180526733398 3.333056211472
7.352635860443 -78.466911315918 -199.929656982422 2.457822322845
42.825489044189 -54.161468505859 -22.217868804932 1.665686964989
13.144928932190 -76.832725524902 -205.115447998047 2.399560689926
6.679259777069 -75.990531921387 -205.543960571289 2.127346038818
-30.342613220215 -79.371398925781 -237.024673461914 2.055622577667
11.460286140442 -83.379547119141 -210.265167236328 4.414682865143
15.997373580933 -79.761962890625 -214.848663330078 2.138417482376
23.332178115845 -63.714023590088 -25.950958251953 2.713382482529
-71.399971008301 -63.343238830566 -46.890300750732 2.165652751923
23.720975875854 -59.647693634033 -21.691907882690 3.334072828293
-74.036888122559 -78.709083557129 -212.885253906250 0.987953305244
-101.908508300781 -74.328796386719 -281.533355712891 4.373900890350
-68.696601867676 -70.777015686035 -247.979339599609 1.596797585487
-150.773834228516 -78.827453613281 -226.376037597656 2.081329584122
-5.860616207123 -81.957962036133 -215.062408447266 2.768146276474
-103.159225463867 -72.651954650879 -284.834442138672 1.967231631279
-159.077194213867 -73.353057861328 -227.947052001953 1.131278753281
-148.258850097656 -66.736152648926 -240.208068847656 3.672935962677
