98.304397583008 -70.264846801758 -208.387756347656 2.623273611069
9.662623405457 -74.192016601563 -209.353942871094 1.537435054779
-58.368423461914 -71.159362792969 -169.545684814453 3.443771362305
-32.695514678955 -73.612709045410 -210.546585083008 1.892077326775
-24.008415222168 -71.056732177734 -206.515594482422 2.906714677811
9.357683181763 -66.049674987793 -239.356002807617 0.951609671116
53.539836883545 -74.501228332520 -242.753250122070 2.940809249878
-38.523281097412 -60.764793395996 -81.607322692871 2.757088184357
16.846027374268 -73.765678405762 -278.730346679688 1.818526268005
20.494504928589 -71.189971923828 -276.502380371094 0.959027230740
88.786407470703 -72.157463073730 -209.458969116211 1.681234598160
54.067649841309 -72.672012329102 -250.091873168945 1.899489283562
87.647872924805 -73.983093261719 -213.844955444336 1.330502033234
18.260620117188 -70.803497314453 -181.712142944336 0.723543465137
-16.549682617188 -72.478218078613 -217.296447753906 2.356293678284
-31.045093536377 -73.923355102539 -218.425643920898 1.759525895119
-151.656143188477 -75.709922790527 -221.758773803711 2.756334304810
-152.184677124023 -66.474388122559 -222.252197265625 2.407965898514
79.961280822754 -75.554977416992 -220.461471557617 2.130694389343
97.791175842285 -55.730518341064 -104.138206481934 1.804403901100
71.424392700195 -71.104110717773 -227.251510620117 1.136799931526
-73.093185424805 -70.551673889160 -147.824645996094 1.872060656548
-151.210845947266 -72.481224060059 -230.789657592773 2.825623273849
-10.647934913635 -70.521522521973 -216.902297973633 1.999534130096
-154.185668945313 -68.235771179199 -231.881942749023 0.531887054443
-7.537450790405 -71.943931579590 -215.902740478516 2.452844619751
-142.341049194336 -62.327774047852 -228.718536376953 0.770406067371
-14.709108352661 -71.497077941895 -227.780822753906 2.162742137909
47.556583404541 -68.056373596191 -27.594457626343 3.274744033813
-111.748229980469 -72.254539489746 -195.395904541016 3.023847818375
-143.547714233398 -65.866294860840 -230.080947875977 1.864886760712
-154.766540527344 -65.812042236328 -230.728012084961 2.673642635345
-14.794489860535 -72.078735351563 -234.892089843750 2.341020107269
-12.294359207153 -65.567337036133 -203.080001831055 2.570419311523
-14.951840400696 -65.589660644531 -204.466400146484 1.873010873795
15.785881996155 -73.028816223145 -237.296615600586 1.765062212944
-47.509601593018 -64.293769836426 -133.930740356445 2.251985311508
-34.000190734863 -73.058586120605 -238.614089965820 2.352443933487
65.904319763184 -71.590301513672 -239.829498291016 0.876107513905
2.161920070648 -67.305168151855 -292.967651367188 0.617895007133
4.010485172272 -60.546501159668 -291.176483154297 1.625920414925
-108.370841979980 -60.485385894775 -181.247344970703 1.370396494865
-56.571472167969 -74.948081970215 -245.028778076172 2.781789064407
-55.041347503662 -67.282272338867 -49.699989318848 2.134044647217
-83.218940734863 -73.862510681152 -248.652923583984 2.406630516052
-104.123886108398 -70.409706115723 -227.287170410156 1.654600977898
-12.289608001709 -74.519523620605 -251.278198242188 1.372093558311
-96.687881469727 -74.401054382324 -257.241058349609 1.789706349373
-19.796588897705 -76.228157043457 -257.273071289063 5.664743423462
-124.544898986816 -76.851440429688 -260.261138916016 1.804433703423
-126.508850097656 -68.830245971680 -261.380249023438 1.910567402840
-131.285476684570 -73.665412902832 -265.263610839844 1.239792704582
22.400680541992 -75.904388427734 -265.258300781250 1.970322251320
-13.927397727966 -74.730987548828 -268.050933837891 1.529351234436
-14.398921012878 -66.087417602539 -271.884674072266 4.216642856598
23.864549636841 -56.091140747070 -32.247142791748 2.905961513519
-168.180191040039 -80.893547058105 -282.225189208984 6.929387092590
67.831001281738 -72.498779296875 -240.819641113281 1.048183441162
-171.087493896484 -73.281013488770 -281.363220214844 4.123309135437
-150.447128295898 -71.171997070313 -279.823516845703 2.515159845352
-157.492706298828 -77.373313903809 -279.768707275391 5.507832050323
-146.828811645508 -69.510108947754 -280.754364013672 1.929297327995
-1.381860971451 -72.619873046875 -164.985809326172 1.179857254028
-160.219451904297 -73.880516052246 -212.456420898438 2.879743814468
-143.830749511719 -70.550987243652 -196.646865844727 2.349873304367
-52.206153869629 -72.363929748535 -287.753051757813 0.927567541599
27.085985183716 -69.319923400879 -134.596298217773 2.664734125137
-49.599853515625 -69.557479858398 -288.075744628906 2.926241159439
-115.029510498047 -67.089691162109 -230.802627563477 1.842094182968
-149.385299682617 -60.576751708984 -199.111480712891 1.622983098030
-151.993789672852 -59.481334686279 -197.121810913086 1.654654979706
-88.083602905273 -72.550354003906 -112.001327514648 2.569369792938
-23.731019973755 -70.177093505859 -287.194824218750 1.240508317947
-19.487375259399 -73.456764221191 -283.752990722656 5.702578067780
-99.809196472168 -75.543838500977 -286.997222900391 1.467822313309
-113.676330566406 -65.817016601563 -196.456863403320 0.657355725765
83.270591735840 -68.975288391113 -221.739059448242 2.070060968399
17.873353958130 -76.132751464844 -289.928527832031 2.447700262070
18.087524414063 -70.667007446289 -281.657440185547 0.980197668076
-145.003311157227 -72.435218811035 -204.072250366211 2.101731777191
-60.012741088867 -75.010154724121 -289.590026855469 1.774104952812
-141.640228271484 -69.918113708496 -203.569854736328 2.093744993210
-154.447143554688 -68.836204528809 -202.938186645508 1.464008808136
-152.368255615234 -60.849761962891 -204.104553222656 0.832706212997
-143.043365478516 -71.252426147461 -243.690750122070 2.532696247101
-100.189201354980 -75.750625610352 -292.921997070313 3.371913909912
-100.829879760742 -73.627098083496 -286.058135986328 1.459602475166
-46.375282287598 -69.811714172363 -143.531936645508 1.475375175476
105.834907531738 -72.424804687500 -175.868560791016 1.750785112381
-23.429916381836 -72.065032958984 -290.971069335938 1.505384683609
0.721139013767 -76.505874633789 -294.270538330078 3.274176120758
68.968414306641 -66.623420715332 -239.027938842773 2.187590122223
26.714721679688 -58.256290435791 -12.758102416992 2.342079639435
25.435295104980 -55.538127899170 -16.983936309814 1.625747561455
-31.433729171753 -70.215484619141 -52.667366027832 2.572499752045
-133.333175659180 -76.253890991211 -227.877090454102 1.592382907867
-21.764366149902 -71.918449401855 -66.591636657715 3.194076776505
78.766769409180 -69.008728027344 -65.258163452148 2.827009439468
78.118415832520 -64.722640991211 -64.856636047363 3.354170799255
68.010528564453 -75.972694396973 -235.543853759766 1.511093139648
-91.760452270508 -71.068672180176 -68.461685180664 1.781561732292
65.576705932617 -69.382530212402 -87.995010375977 1.132580041885
79.152839660645 -69.372863769531 -70.104049682617 2.846485376358
76.293685913086 -71.076210021973 -74.578674316406 2.296007871628
66.645706176758 -71.107307434082 -71.251747131348 4.650138378143
39.351352691650 -71.497306823730 -103.448989868164 1.360266327858
96.232620239258 -69.295761108398 -76.354248046875 3.105550289154
27.433946609497 -61.380611419678 -133.391632080078 1.187296152115
27.734943389893 -58.751758575439 -136.420700073242 1.295739293098
-135.002441406250 -78.332916259766 -253.878265380859 2.978474140167
-42.793899536133 -69.739524841309 -79.500968933105 1.641249418259
-67.013946533203 -69.323951721191 -91.003410339355 3.751673221588
-69.069236755371 -69.442543029785 -91.344909667969 5.590950965881
53.077251434326 -70.985183715820 -97.389060974121 2.740842580795
90.474304199219 -68.303802490234 -65.897308349609 2.175597190857
96.619415283203 -69.292213439941 -73.374343872070 3.097527980804
23.977893829346 -72.500541687012 -143.774795532227 1.346437931061
67.966072082520 -68.984672546387 -231.492919921875 2.098035573959
8.947364807129 -70.084793090820 -293.917785644531 2.092352867126
63.565700531006 -59.030605316162 -75.474617004395 2.189785957336
3.956501960754 -64.976310729980 -288.948364257813 3.746097564697
90.416061401367 -71.096900939941 -100.492614746094 2.767026662827
-92.751991271973 -70.581871032715 -103.488479614258 2.841089725494
7.662501811981 -60.688293457031 -264.545501708984 1.334821462631
54.261493682861 -68.562889099121 -101.008888244629 0.376353770494
-62.876007080078 -59.752788543701 -85.489212036133 2.051658391953
89.628189086914 -71.927497863770 -100.973388671875 1.838373780251
39.220882415771 -67.863258361816 -35.202369689941 1.945324540138
108.379554748535 -72.204269409180 -104.827896118164 2.252647161484
49.106845855713 -65.975425720215 -20.216901779175 1.309379339218
-16.065855026245 -70.679664611816 -229.833221435547 0.792598307133
25.913337707520 -68.559349060059 -190.041778564453 3.081193923950
-99.025360107422 -70.184082031250 -107.728874206543 3.903030872345
35.915695190430 -66.576133728027 -35.308372497559 2.644829034805
109.682151794434 -71.276618957520 -107.575744628906 2.240217208862
-60.954795837402 -67.026458740234 -137.256713867188 1.287027239799
104.050827026367 -71.975418090820 -108.832336425781 1.381342530251
29.805250167847 -69.990997314453 -35.111347198486 0.858853936195
104.105400085449 -69.772171020508 -115.582641601563 2.354438543320
-54.427047729492 -65.557945251465 -86.992683410645 2.015582799911
106.993301391602 -71.253257751465 -122.687942504883 1.573246359825
109.048469543457 -71.328300476074 -121.798828125000 1.319875955582
107.507537841797 -74.774665832520 -128.082260131836 2.917230606079
110.816001892090 -71.181243896484 -129.110198974609 0.556764721870
-23.384807586670 -69.310646057129 -74.859603881836 1.530495643616
36.793170928955 -70.870712280273 -134.161270141602 1.931860923767
-24.859611511230 -66.239425659180 -73.078338623047 2.603170633316
-79.022140502930 -59.838054656982 -117.208259582520 1.653910398483
32.683383941650 -70.535041809082 -133.068313598633 1.930568575859
-165.292068481445 -75.464210510254 -221.415969848633 3.208764076233
7.716601848602 -72.028419494629 -197.326522827148 2.080486059189
-54.051574707031 -70.324150085449 -134.051803588867 1.808239221573
9.415968894958 -75.820343017578 -222.178756713867 1.393697738647
-79.309829711914 -66.499298095703 -137.859466552734 1.330012559891
-46.730224609375 -71.118316650391 -145.060607910156 0.334886878729
8.603466987610 -68.771820068359 -228.496429443359 1.560908675194
-30.285942077637 -74.709899902344 -197.231048583984 2.658418416977
32.518585205078 -67.863052368164 -253.633911132813 2.091312170029
-24.314868927002 -69.789779663086 -195.327301025391 1.737317681313
-75.555335998535 -69.437736511230 -149.897994995117 2.412719011307
1.121256947517 -68.078102111816 -221.873397827148 3.220980882645
28.256549835205 -71.995872497559 -156.149902343750 2.810326337814
22.325727462769 -68.210182189941 -151.158203125000 2.128235101700
28.054409027100 -65.808959960938 -159.962387084961 2.936109781265
-12.035310745239 -72.218475341797 -208.650253295898 2.736643552780
-66.554573059082 -71.446853637695 -153.890243530273 2.230321168900
-36.750518798828 -70.973022460938 -157.370346069336 2.532375574112
110.176277160645 -71.056991577148 -156.134674072266 2.367870807648
-49.848190307617 -68.881286621094 -154.570159912109 1.928122997284
-47.530986785889 -62.267841339111 -151.931243896484 5.802073955536
-81.882934570313 -67.424972534180 -118.027954101563 2.595635175705
19.185651779175 -70.834785461426 -246.469177246094 1.356541514397
100.640548706055 -71.477943420410 -189.899780273438 2.415097475052
-17.445117950439 -70.335472106934 -211.137359619141 2.421594619751
107.657485961914 -75.567466735840 -184.527679443359 1.690033674240
-71.574707031250 -69.396560668945 -158.902770996094 4.081567287445
-18.915483474731 -69.955574035645 -213.823318481445 3.053532600403
30.835666656494 -72.768508911133 -153.471557617188 2.261519432068
20.016845703125 -74.465133666992 -167.819885253906 1.997904777527
12.660874366760 -69.293479919434 -154.726730346680 1.542381525040
-65.018402099609 -76.818923950195 -162.696884155273 2.063123703003
-67.602485656738 -69.153640747070 -163.759826660156 3.493613243103
-14.272665977478 -75.471427917480 -211.041595458984 2.084985256195
18.802101135254 -69.016433715820 -245.706695556641 0.865311145782
-40.560791015625 -71.786834716797 -163.217025756836 3.090321063995
18.599832534790 -63.617176055908 -178.007705688477 3.778043031693
0.791314005852 -76.015037536621 -164.047683715820 2.273956537247
-23.992277145386 -76.166412353516 -179.154815673828 0.621012389660
-28.429412841797 -68.077468872070 -165.684951782227 4.142418861389
-35.420909881592 -72.493995666504 -170.577636718750 3.145871162415
-33.890773773193 -69.302497863770 -169.447601318359 3.881109476089
13.506484985352 -71.590011596680 -151.615203857422 2.024908781052
-0.394780993462 -70.818031311035 -164.580917358398 1.368674516678
14.794215202332 -68.563003540039 -150.864120483398 2.525432348251
109.987037658691 -72.641418457031 -172.479141235352 1.864281415939
108.331947326660 -69.016082763672 -169.113922119141 1.889539361000
111.148071289063 -69.383743286133 -167.535842895508 1.711606979370
46.906173706055 -67.359291076660 -252.305709838867 0.317080050707
13.969037055969 -67.803695678711 -214.731307983398 1.059438467026
-28.354011535645 -70.673645019531 -181.983734130859 2.677065610886
-38.308895111084 -74.629852294922 -172.884048461914 0.895716726780
-27.158294677734 -67.371414184570 -184.593811035156 1.418709754944
-39.649414062500 -67.421455383301 -165.473022460938 3.374592065811
20.226028442383 -66.578781127930 -171.496231079102 2.942647218704
17.821886062622 -67.328735351563 -164.845108032227 4.180549621582
111.651763916016 -71.964492797852 -173.005157470703 1.509256720543
-35.600860595703 -70.093299865723 -185.544479370117 2.680987834930
-39.246109008789 -74.810134887695 -177.540039062500 0.535444736481
-40.848758697510 -66.734329223633 -170.726303100586 2.194634437561
-69.642829895020 -68.931266784668 -142.414718627930 2.270983934402
-32.681346893311 -64.331939697266 -180.340332031250 5.115415573120
-36.477935791016 -74.943542480469 -286.098541259766 2.327194213867
-31.070650100708 -76.364532470703 -283.663665771484 2.893287897110
-144.731918334961 -73.768646240234 -177.606063842773 1.693232417107
-140.015914916992 -68.354438781738 -177.060211181641 1.597111344337
-152.037643432617 -66.520866394043 -176.406860351563 2.711421728134
-153.406890869141 -63.587501525879 -179.346542358398 1.329606890678
-82.204727172852 -64.552032470703 -103.126121520996 2.070157289505
-151.361175537109 -61.532939910889 -171.910644531250 4.543814182281
3.230062007904 -66.993232727051 -260.211029052734 4.013536453247
-21.907302856445 -71.521873474121 -184.686645507813 1.584192633629
-43.297950744629 -68.617225646973 -163.953292846680 3.041356325150
-27.969146728516 -72.463447570801 -182.884384155273 3.221190690994
42.854900360107 -71.874023437500 -253.697540283203 1.985731124878
11.524375915527 -72.789436340332 -217.010009765625 3.179572582245
-74.916755676270 -69.538574218750 -133.119079589844 1.638672828674
-80.235137939453 -70.643074035645 -138.699569702148 1.925742387772
-31.979896545410 -71.345748901367 -187.269943237305 1.169618129730
-41.616767883301 -70.873809814453 -174.585952758789 2.667769432068
-147.892913818359 -73.768173217773 -181.896621704102 1.825209617615
-152.804290771484 -64.148849487305 -183.019515991211 2.293820381165
-143.454788208008 -63.399589538574 -182.189376831055 1.945154428482
-18.130676269531 -64.849403381348 -62.456035614014 4.649524688721
51.173744201660 -70.089904785156 -250.661331176758 2.184263944626
-32.275043487549 -72.750877380371 -187.043182373047 2.252999782562
-31.164232254028 -71.946136474609 -184.700622558594 2.355898618698
98.050186157227 -72.081382751465 -189.374298095703 2.312431812286
-53.129383087158 -71.891769409180 -135.813980102539 1.799121260643
7.349994182587 -70.114807128906 -191.658203125000 4.892086982727
25.865032196045 -72.730079650879 -186.194015502930 1.774816393852
102.319152832031 -69.763153076172 -195.877059936523 3.490952730179
-132.307418823242 -73.710136413574 -197.391952514648 1.324047565460
-125.401550292969 -74.413085937500 -199.389297485352 2.601333856583
-154.230636596680 -66.554092407227 -223.182342529297 2.475599288940
-106.981361389160 -68.155075073242 -193.656265258789 1.004173755646
-21.453313827515 -73.039939880371 -208.912139892578 1.905951619148
-68.202445983887 -70.496421813965 -169.495025634766 4.427999973297
12.778261184692 -74.506202697754 -243.172454833984 1.093347430229
99.701103210449 -70.071182250977 -202.953903198242 2.008019685745
-64.059013366699 -70.952102661133 -288.970458984375 1.029789090157
-146.185653686523 -73.572067260742 -210.634338378906 0.821493923664
-149.274917602539 -59.919281005859 -206.674545288086 1.484204411507
19.012485504150 -73.219734191895 -211.062606811523 0.781967759132
87.663551330566 -70.490608215332 -217.538040161133 1.765751600266
14.073493957520 -74.545669555664 -209.352203369141 3.349056005478
102.534332275391 -59.358264923096 -82.801132202148 3.500360727310
-70.114585876465 -71.435653686523 -155.141235351563 1.957110881805
-12.450626373291 -73.757591247559 -216.590637207031 1.974322915077
-98.167709350586 -70.873725891113 -215.744644165039 1.975515127182
-139.709960937500 -70.422805786133 -253.305648803711 2.423901557922
-79.631622314453 -66.445854187012 -139.119522094727 1.985759973526
1.530102968216 -74.113380432129 -224.446823120117 1.516028642654
-24.801959991455 -72.653854370117 -223.179229736328 1.815861463547
-118.337051391602 -73.540435791016 -291.316253662109 1.987065553665
-152.007476806641 -66.702468872070 -263.221343994141 2.163611888885
82.962509155273 -69.606567382813 -226.143295288086 1.254901289940
-22.409275054932 -72.628105163574 -219.601470947266 0.838638901711
12.089862823486 -70.035957336426 -187.531631469727 3.065589666367
-119.651725769043 -64.271469116211 -196.808273315430 3.940453290939
-4.332840919495 -74.205078125000 -225.536849975586 3.627811193466
-7.054585933685 -65.829765319824 -226.803344726563 3.337720870972
81.194061279297 -71.925209045410 -226.721649169922 1.444908618927
-138.846343994141 -69.531387329102 -230.241561889648 3.381442785263
8.138669013977 -71.476654052734 -237.751632690430 2.442641973495
15.552676200867 -72.613891601563 -229.003906250000 0.977271437645
-76.083900451660 -71.220649719238 -286.195922851563 1.215752840042
-144.026199340820 -67.171211242676 -216.455093383789 1.676526427269
-150.241806030273 -64.206878662109 -218.588775634766 2.836712121964
-158.132156372070 -71.540428161621 -234.544052124023 1.600810050964
46.362575531006 -64.250083923340 -17.774911880493 1.052357077599
-143.968414306641 -69.823295593262 -235.760116577148 1.248997330666
-15.775875091553 -72.986831665039 -234.969589233398 1.873377084732
-164.565490722656 -74.907905578613 -235.033874511719 1.428076624870
7.007795810699 -72.934822082520 -214.863052368164 1.815504193306
-92.744247436523 -73.597747802734 -289.687622070313 1.317680001259
-157.540084838867 -75.718696594238 -241.218917846680 2.279205560684
-156.566329956055 -67.149353027344 -237.662185668945 2.028822183609
44.819423675537 -61.692741394043 -15.336451530457 2.236054182053
23.641445159912 -59.692596435547 -140.291290283203 1.776534438133
57.010402679443 -76.251136779785 -242.278976440430 2.038907289505
11.986665725708 -68.871818542480 -203.699096679688 1.954379081726
-59.956069946289 -66.278373718262 -134.535324096680 1.038406729698
-24.181779861450 -69.529052734375 -236.910156250000 4.169217586517
22.190427780151 -64.275535583496 -14.448817253113 3.604942560196
27.433723449707 -62.625453948975 -12.875720024109 2.323711633682
-95.403945922852 -69.930358886719 -74.645011901855 3.130947113037
65.982749938965 -73.649993896484 -238.847076416016 1.272150635719
-153.959091186523 -73.457748413086 -244.382934570313 3.047008752823
-7.640470981598 -74.940567016602 -236.066116333008 1.619335889816
-10.652687072754 -62.950290679932 -239.554840087891 3.829168796539
-21.524877548218 -76.047508239746 -242.289230346680 1.995532512665
-132.176315307617 -67.694786071777 -203.307022094727 1.131608963013
-167.982986450195 -72.407890319824 -234.579360961914 1.768684267998
-163.003448486328 -70.050964355469 -245.082260131836 1.930740714073
5.708147048950 -76.858573913574 -242.512008666992 0.746225059032
-168.240097045898 -72.128318786621 -241.996704101563 2.974272489548
-43.618461608887 -74.968917846680 -287.966613769531 2.058554410934
-143.801177978516 -68.786041259766 -190.167678833008 2.830630779266
-149.049133300781 -62.083412170410 -187.318923950195 0.772719085217
-1.772562980652 -71.577980041504 -241.353866577148 1.152922153473
20.272441864014 -72.112335205078 -243.028350830078 2.544497013092
-5.876014232635 -74.023910522461 -241.783279418945 1.277562856674
-99.924003601074 -67.847251892090 -149.586318969727 2.866244077682
-8.627022743225 -72.092567443848 -241.937194824219 1.850089550018
-142.415039062500 -65.022750854492 -195.229492187500 1.531781077385
-152.552963256836 -70.520751953125 -245.553833007813 2.816961288452
-148.262359619141 -64.948684692383 -243.842422485352 2.134920835495
-149.350524902344 -58.955131530762 -241.173095703125 4.245170116425
-160.129821777344 -72.304946899414 -243.604370117188 3.742236852646
-79.219993591309 -76.582260131836 -247.532775878906 3.054964780807
-59.897758483887 -74.489166259766 -245.574691772461 1.194886207581
-100.368377685547 -68.743400573730 -214.677871704102 4.147585868835
-97.884506225586 -71.931945800781 -256.590148925781 1.169844269753
-13.136856079102 -76.603126525879 -256.537994384766 1.501148462296
-59.985626220703 -76.461639404297 -285.323211669922 2.707242012024
-144.370574951172 -71.912780761719 -200.445190429688 2.513282060623
-142.921173095703 -66.476898193359 -206.240554809570 1.822861909866
-154.352905273438 -64.748840332031 -206.733566284180 2.874820947647
-92.174568176270 -72.561203002930 -250.811355590820 1.832137346268
-82.359642028809 -73.908920288086 -285.153686523438 1.623112559319
-149.347381591797 -64.961669921875 -224.933471679688 2.214177131653
-127.795478820801 -59.608886718750 -202.898880004883 3.924151420593
-97.237327575684 -73.898651123047 -285.741882324219 2.400622129440
-92.934020996094 -70.090774536133 -290.425354003906 2.373982429504
-145.354202270508 -70.461067199707 -238.983795166016 2.410865783691
-115.992980957031 -63.244026184082 -204.121429443359 1.735545635223
-148.404968261719 -62.463935852051 -235.077178955078 0.915976047516
43.990211486816 -68.841598510742 -18.070928573608 1.832426786423
14.596632003784 -75.052566528320 -283.670318603516 2.220718860626
-105.396179199219 -70.360542297363 -169.176376342773 2.173776388168
12.142181396484 -67.843460083008 -286.510437011719 2.880316734314
-83.560913085938 -75.003524780273 -288.472015380859 2.104226589203
-112.096855163574 -66.534667968750 -195.374755859375 1.723936438560
-139.175781250000 -70.377883911133 -222.942459106445 2.472071409225
-152.181533813477 -60.793842315674 -226.063705444336 0.838458120823
-128.425933837891 -61.546482086182 -201.857238769531 3.400443553925
-149.761795043945 -59.163753509521 -221.187728881836 2.355950593948
-146.248214721680 -75.738914489746 -224.857910156250 2.450635433197
-79.951736450195 -73.925971984863 -288.152130126953 1.975436329842
-150.423828125000 -59.132835388184 -222.107635498047 2.352512598038
-137.808441162109 -75.479858398438 -296.180084228516 3.803155183792
-153.869323730469 -65.917465209961 -284.300933837891 0.967114627361
1.577191948891 -73.557723999023 -288.939239501953 1.906656742096
0.928337991238 -62.851715087891 -286.709625244141 2.320183277130
98.163963317871 -57.466487884521 -106.060501098633 2.437667608261
67.943550109863 -69.657264709473 -90.388351440430 2.237326622009
-10.099970817566 -70.738220214844 -277.636871337891 1.401254177094
16.337394714355 -75.905395507813 -294.046020507813 1.226881504059
-107.533149719238 -60.189628601074 -167.249435424805 3.340409755707
26.094430923462 -69.113876342773 -17.461029052734 1.788581252098
-64.396697998047 -59.650188446045 -111.064987182617 1.756047368050
21.088712692261 -69.531608581543 -23.185277938843 2.383461475372
-11.052405357361 -69.419685363770 -253.620513916016 1.901636600494
21.397506713867 -68.996131896973 -25.086017608643 1.790673017502
-70.346351623535 -70.542503356934 -48.009925842285 3.070729732513
109.101852416992 -72.885528564453 -116.085144042969 2.640118122101
32.783740997314 -65.169342041016 -35.098392486572 2.808116912842
115.525360107422 -68.835029602051 -119.848747253418 1.106427550316
26.036252975464 -66.363044738770 -27.299346923828 3.191549539566
107.936210632324 -70.578079223633 -121.903335571289 1.800200939178
28.267717361450 -70.410224914551 -35.687591552734 1.157058119774
109.810569763184 -69.475021362305 -113.542411804199 1.754364728928
-35.682964324951 -70.022491455078 -50.640224456787 1.645313858986
1.457890987396 -67.911323547363 -261.980438232422 2.605917692184
2.220854997635 -66.256149291992 -263.497924804688 2.732141017914
67.974174499512 -61.425247192383 -59.835937500000 2.723788499832
95.868560791016 -69.054977416992 -74.123229980469 3.487434625626
-46.391704559326 -71.047080993652 -80.636970520020 3.992448806763
103.014396667480 -69.271133422852 -89.907768249512 1.371946811676
-60.410606384277 -68.742172241211 -91.130615234375 1.139356613159
-13.273794174194 -75.710525512695 -274.691558837891 1.746045470238
101.454055786133 -69.213157653809 -98.051506042480 1.764116525650
8.549146652222 -71.143013000488 -292.520263671875 3.180082559586
79.589813232422 -71.206253051758 -101.421493530273 0.480974912643
103.265701293945 -71.550933837891 -100.987007141113 2.828761100769
29.830348968506 -64.534324645996 -39.666297912598 1.665322422981
108.826629638672 -67.944328308105 -111.479362487793 2.374758243561
30.206254959106 -70.104591369629 -125.731285095215 1.844823479652
30.886556625366 -72.093109130859 -121.607017517090 2.838138580322
28.112514495850 -70.950202941895 -131.008071899414 1.269537210464
13.557358741760 -72.763526916504 -224.769393920898 1.816280603409
-80.414436340332 -70.275070190430 -130.499404907227 2.111109495163
11.529880523682 -72.867889404297 -215.991851806641 2.991969108582
-103.792816162109 -68.817291259766 -171.290481567383 1.150239586830
-63.575653076172 -72.920288085938 -137.546020507813 4.173329353333
-1.809205055237 -72.447242736816 -220.571273803711 0.913847684860
-74.396728515625 -71.264106750488 -145.772293090820 1.632992029190
35.277019500732 -68.273498535156 -258.647430419922 0.657251477242
-72.409202575684 -71.168869018555 -140.514587402344 1.771831750870
-46.039936065674 -76.281333923340 -141.354354858398 1.437396764755
27.088356018066 -70.876029968262 -140.814392089844 1.435824632645
41.344497680664 -63.736701965332 -253.499679565430 2.370994806290
-8.551321029663 -70.595802307129 -209.061294555664 0.894450247288
-69.788612365723 -74.227386474609 -148.711151123047 1.546212553978
-9.464008331299 -71.089210510254 -210.800415039063 1.669592380524
11.392189025879 -69.045272827148 -151.160751342773 1.362855434418
23.266677856445 -67.933387756348 -166.173828125000 1.031520247459
6.636390209198 -65.445404052734 -150.821105957031 4.762551307678
24.827924728394 -70.247817993164 -171.833938598633 0.988248586655
69.046493530273 -65.909210205078 -89.890274047852 3.146753549576
106.443931579590 -75.471847534180 -162.671539306641 3.068870544434
108.376594543457 -72.549133300781 -166.318740844727 2.268034219742
109.781547546387 -69.740623474121 -172.175628662109 1.777277469635
-46.165580749512 -72.343704223633 -165.381805419922 1.752695918083
-24.372051239014 -67.728401184082 -187.699539184570 1.399743556976
-21.798603057861 -66.252967834473 -189.901519775391 0.999637365341
-44.239433288574 -71.914321899414 -172.037475585938 2.786613702774
-20.427558898926 -67.965675354004 -188.851531982422 2.712050676346
-45.348037719727 -69.475250244141 -164.782913208008 2.496859073639
28.111267089844 -76.030395507813 -171.765838623047 1.121999144554
109.834602355957 -72.953926086426 -179.792846679688 2.078373670578
23.328313827515 -73.175781250000 -170.554046630859 3.310840368271
23.190168380737 -66.582069396973 -183.959548950195 2.664940595627
24.604721069336 -72.727691650391 -179.913406372070 1.977463603020
23.055610656738 -70.122512817383 -175.815551757813 2.977534294128
14.058732986450 -75.876510620117 -179.425765991211 2.039135456085
-153.926330566406 -69.592773437500 -187.893646240234 2.607522726059
-148.525421142578 -66.237991333008 -193.332550048828 1.217456698418
-146.586807250977 -62.362312316895 -188.311553955078 1.066004037857
-156.437164306641 -73.338394165039 -196.459701538086 2.580880403519
-150.730957031250 -70.463829040527 -192.948608398438 1.850139260292
-29.134437561035 -63.299118041992 -75.437355041504 4.384978294373
-151.248672485352 -66.723983764648 -192.377334594727 1.600422024727
-146.864196777344 -61.208312988281 -192.051376342773 2.011667966843
-115.654396057129 -72.266387939453 -228.698593139648 1.544911503792
41.655849456787 -65.015190124512 -29.810756683350 2.491062879562
21.070110321045 -69.234008789063 -194.642608642578 1.106674551964
-136.763839721680 -71.771644592285 -197.979232788086 2.115864038467
-150.816955566406 -69.482254028320 -209.167663574219 3.719660282135
-152.833694458008 -68.577949523926 -206.619476318359 1.919635295868
-138.187103271484 -74.253921508789 -232.478088378906 1.938847780228
-164.892120361328 -71.256530761719 -207.784072875977 3.142041683197
-163.867385864258 -74.174987792969 -209.505310058594 1.743437290192
-168.091903686523 -72.932205200195 -227.866302490234 2.817166090012
-27.280838012695 -71.607643127441 -218.199172973633 1.357925534248
18.038053512573 -71.622543334961 -214.463043212891 2.043754100800
-75.785705566406 -69.742958068848 -141.204574584961 1.739581465721
6.836424827576 -70.605598449707 -219.693695068359 2.732939481735
33.408031463623 -55.545078277588 -123.720748901367 1.774023056030
-26.791978836060 -66.818527221680 -52.846061706543 3.643330335617
-165.121505737305 -74.238700866699 -220.278808593750 1.557363152504
-98.727920532227 -61.686393737793 -162.927719116211 1.808582305908
-12.889030456543 -71.466590881348 -218.659194946289 1.483476161957
-157.317871093750 -74.198303222656 -223.007812500000 3.844808101654
-152.512237548828 -65.998985290527 -218.990783691406 3.394722223282
-147.394271850586 -64.968650817871 -220.066253662109 1.822396636009
-14.869628906250 -73.612625122070 -227.207183837891 1.299789667130
20.214733123779 -66.864517211914 -191.650650024414 2.551633358002
-82.558250427246 -54.281982421875 -120.423645019531 3.382945060730
-118.020568847656 -73.792617797852 -227.145614624023 1.747700929642
-134.453308105469 -67.695365905762 -231.037719726563 2.107403039932
-159.458511352539 -73.055679321289 -193.749420166016 2.931270837784
17.953266143799 -70.065246582031 -237.806488037109 2.312794685364
-7.918048858643 -78.389045715332 -243.078063964844 4.565100193024
-96.337135314941 -62.511150360107 -149.770263671875 1.382663369179
-64.329605102539 -69.639259338379 -250.896865844727 2.395356893539
-9.580488204956 -69.435806274414 -248.470687866211 2.226639270782
82.390830993652 -70.007469177246 -220.259902954102 1.219121932983
14.242970466614 -70.565719604492 -286.134094238281 2.144863128662
-135.075485229492 -70.943374633789 -285.164642333984 1.126928925514
-136.256103515625 -69.010185241699 -293.042388916016 1.358847022057
-153.092544555664 -61.909610748291 -283.815856933594 2.289120674133
-76.208786010742 -74.094589233398 -282.049987792969 4.242446422577
-78.569137573242 -71.610267639160 -287.743774414063 2.405308961868
-145.394149780273 -68.330978393555 -218.155380249023 1.726664781570
-151.812240600586 -62.404182434082 -219.147262573242 2.173122644424
-66.541099548340 -75.101539611816 -287.304992675781 2.445340633392
-146.146347045898 -69.792098999023 -206.887619018555 2.140632152557
-146.123016357422 -59.714328765869 -211.007049560547 2.898441076279
-31.360418319702 -74.873840332031 -286.985351562500 1.903948664665
-31.841032028198 -74.227188110352 -287.881988525391 1.787317156792
-140.919815063477 -70.044685363770 -175.731826782227 1.383493781090
-150.371398925781 -64.682113647461 -178.943023681641 2.217617511749
-150.195114135742 -61.136734008789 -182.379074096680 1.200464963913
34.120582580566 -69.318748474121 -9.640974998474 3.095319747925
32.014038085938 -70.203887939453 -11.691537857056 1.698164463043
-58.748474121094 -60.292789459229 -120.868713378906 1.836973428726
104.162223815918 -60.821250915527 -95.763122558594 1.381013393402
39.874885559082 -70.055313110352 -16.095937728882 2.335195064545
104.340293884277 -57.778388977051 -88.519134521484 2.100392341614
40.494449615479 -70.522422790527 -9.760438919067 3.955292463303
33.799800872803 -71.240356445313 -13.928784370422 0.876291930676
-54.766452789307 -60.464305877686 -115.125968933105 2.011370658875
38.486965179443 -73.581047058105 -18.625373840332 2.435051679611
42.627300262451 -68.724220275879 -20.121997833252 1.581331729889
41.726966857910 -66.097358703613 -18.417114257813 2.086402416229
103.449172973633 -68.090713500977 -88.457374572754 1.822810530663
-66.890617370605 -64.793724060059 -121.475830078125 1.888137459755
45.026363372803 -69.880393981934 -32.242206573486 1.614342927933
43.942180633545 -67.902809143066 -28.904172897339 2.622553348541
46.056701660156 -71.107604980469 -35.855789184570 2.055426120758
-15.482691764832 -69.971061706543 -61.388038635254 2.764840602875
67.938934326172 -71.898628234863 -83.300201416016 0.693004906178
-54.899963378906 -72.470947265625 -89.238594055176 2.219980478287
22.955364227295 -65.025848388672 -39.051513671875 2.228890180588
105.323646545410 -70.275276184082 -99.151260375977 1.082844257355
-57.888641357422 -67.451705932617 -142.088714599609 1.902408599854
10.654877662659 -69.163146972656 -203.118652343750 2.597835779190
103.551185607910 -71.575325012207 -108.850669860840 1.098911285400
29.295482635498 -71.222534179688 -158.518280029297 1.569702506065
16.813570022583 -74.068412780762 -152.936126708984 2.452848196030
18.135797500610 -66.006622314453 -146.020217895508 1.895999431610
4.941835880280 -72.821319580078 -162.400146484375 1.180875301361
108.702308654785 -66.634628295898 -167.753433227539 3.180913686752
110.824401855469 -72.815162658691 -165.075195312500 1.982057571411
17.201053619385 -69.107299804688 -169.956130981445 2.298595905304
103.620452880859 -72.920143127441 -182.653427124023 1.054940462112
-153.293991088867 -75.123191833496 -183.810623168945 4.199230194092
-151.845718383789 -69.449295043945 -184.825531005859 1.951287865639
-93.964263916016 -62.744503021240 -144.793762207031 1.441637039185
-133.255477905273 -70.681137084961 -199.250167846680 1.740931391716
-121.250663757324 -73.182579040527 -193.378356933594 2.606969833374
-140.213104248047 -72.869941711426 -204.310806274414 2.564292907715
-159.657867431641 -68.297981262207 -206.629028320313 1.530452966690
-156.448532104492 -71.381042480469 -209.710769653320 3.347660779953
-149.059158325195 -64.515335083008 -207.360229492188 1.786785364151
-148.024627685547 -65.283363342285 -207.019027709961 2.568477153778
12.839073181152 -68.027587890625 -193.803436279297 1.876714944839
-73.710121154785 -71.404472351074 -148.424194335938 1.562330961227
-5.018503189087 -69.890129089355 -222.147644042969 2.817333936691
-10.878273010254 -69.639190673828 -221.181152343750 1.709123969078
-49.994091033936 -64.481361389160 -147.451171875000 3.026009559631
-25.254367828369 -73.272232055664 -221.807998657227 2.396297216415
-137.629058837891 -70.564125061035 -226.385894775391 3.087249040604
30.389764785767 -62.352203369141 -258.190002441406 0.969859004021
-26.589721679688 -57.431346893311 -44.485271453857 2.928962469101
7.020602226257 -73.320770263672 -227.529190063477 1.949440002441
44.407901763916 -58.438037872314 -114.030883789063 1.688621640205
42.996440887451 -58.968360900879 -24.941392898560 1.799819946289
-13.027538299561 -70.350379943848 -245.954925537109 1.136955380440
-147.397079467773 -73.000503540039 -281.037536621094 2.146282911301
-138.814941406250 -68.521713256836 -285.724792480469 2.844307899475
-0.934665977955 -73.998184204102 -291.468933105469 1.725617289543
91.519660949707 -66.074493408203 -104.262176513672 2.010210037231
-99.887878417969 -71.439720153809 -291.912475585938 1.564420580864
-153.551925659180 -70.854286193848 -243.335433959961 2.900261402130
-48.546901702881 -70.392570495605 -48.805961608887 1.660669684410
-30.788743972778 -67.872062683105 -54.337753295898 2.751126289368
38.344398498535 -69.181823730469 -114.115257263184 1.420816302299
-24.841505050659 -73.404182434082 -56.882816314697 1.244314074516
-97.709182739258 -67.605049133301 -70.888412475586 3.439833402634
98.482299804688 -67.775505065918 -79.404052734375 4.208802700043
17.104858398438 -62.684986114502 -276.269775390625 4.946588039398
15.726951599121 -65.636772155762 -283.257843017578 2.148881673813
-43.011703491211 -69.353004455566 -77.645065307617 1.892478466034
-94.976387023926 -70.218620300293 -220.814941406250 1.344548821449
-99.931983947754 -60.900764465332 -89.973075866699 2.901828289032
101.442741394043 -66.732299804688 -98.305198669434 1.054864525795
107.676704406738 -66.344467163086 -100.703308105469 1.611732721329
45.793254852295 -63.608577728271 -31.326097488403 2.667468547821
67.815048217773 -68.220680236816 -100.035011291504 2.708067655563
-97.242332458496 -68.151687622070 -102.259757995605 0.643393337727
108.709312438965 -64.145751953125 -111.031204223633 2.566851377487
31.880308151245 -68.355682373047 -36.798057556152 1.188485145569
-146.400970458984 -62.826271057129 -183.293319702148 1.702727794647
-27.904142379761 -59.851894378662 -62.156314849854 3.525817394257
-24.610492706299 -59.371417999268 -64.465217590332 2.069713830948
-90.650062561035 -73.729797363281 -115.111587524414 2.192421913147
48.168846130371 -67.673858642578 -255.519561767578 1.954068422318
33.775039672852 -66.400177001953 -114.819892883301 4.676798343658
-84.502136230469 -68.764678955078 -120.533065795898 1.584421515465
-44.349483489990 -71.095901489258 -148.053146362305 0.537513256073
-78.825294494629 -72.451599121094 -116.726173400879 1.690957665443
-46.568462371826 -65.282424926758 -152.930343627930 3.923555135727
-81.991554260254 -66.913429260254 -123.136695861816 2.331594228745
-58.300586700439 -59.751468658447 -43.389049530029 2.484413146973
28.775659561157 -65.840530395508 -142.192153930664 2.710674285889
15.533087730408 -68.635757446289 -150.871002197266 2.391549825668
13.439281463623 -64.360450744629 -152.545486450195 3.015530109406
24.282350540161 -68.306701660156 -155.384872436523 1.426578760147
-41.182498931885 -71.806671142578 -160.005477905273 2.238970041275
21.393417358398 -71.734756469727 -157.580902099609 2.471091985703
105.234352111816 -71.038047790527 -184.269119262695 2.522342681885
-112.317176818848 -70.573936462402 -195.250213623047 2.310918331146
-165.897583007813 -72.515701293945 -198.522735595703 2.542817831039
8.644462585449 -71.043899536133 -209.178466796875 1.255021333694
-100.224372863770 -73.260856628418 -217.694198608398 2.335470199585
-73.453506469727 -71.672775268555 -245.916259765625 2.735026121140
110.271179199219 -70.106201171875 -164.206726074219 1.026679277420
100.254730224609 -62.499717712402 -71.891128540039 1.301135182381
-9.985705375671 -74.205123901367 -226.033493041992 1.815292358398
-4.952220916748 -72.694526672363 -227.575012207031 1.949128866196
3.397459030151 -63.581504821777 -282.738311767578 2.758067607880
0.090292997658 -62.659862518311 -287.505371093750 2.844049215317
74.154495239258 -76.313362121582 -227.867248535156 2.957365751266
-105.495010375977 -64.192024230957 -175.339370727539 1.560556769371
13.327635765076 -69.621574401855 -219.378433227539 0.591919064522
-76.468009948730 -65.071594238281 -132.716949462891 0.675759255886
-12.102328300476 -70.450523376465 -233.783370971680 1.373786687851
14.548392295837 -67.150894165039 -243.639282226563 1.169388532639
-59.078269958496 -64.396690368652 -44.890674591064 2.373880147934
37.462665557861 -72.529792785645 -251.104751586914 3.099765539169
21.170677185059 -63.554069519043 -244.863876342773 1.657032489777
-97.448318481445 -71.189872741699 -261.967529296875 3.381178855896
-15.716953277588 -71.314155578613 -266.898162841797 2.413462162018
-102.109901428223 -67.224586486816 -174.048324584961 0.812587797642
1.644207000732 -69.225761413574 -291.335632324219 1.850355386734
-4.499802112579 -61.368938446045 -239.152969360352 1.613015770912
-93.587707519531 -63.135475158691 -148.440460205078 2.262890100479
34.384677886963 -65.864341735840 -18.456727981567 1.538042545319
-59.092445373535 -64.648178100586 -115.945709228516 1.708011865616
42.208332061768 -64.438926696777 -30.987325668335 1.900866389275
-79.946357727051 -67.124694824219 -53.041313171387 3.162388324738
19.672149658203 -61.488136291504 -281.486938476563 0.204801395535
-89.212989807129 -67.683013916016 -55.838531494141 2.505357503891
-13.889488220215 -65.425933837891 -61.187015533447 2.522590160370
79.766349792480 -61.220733642578 -60.163158416748 2.391385555267
7.677295207977 -59.187507629395 -260.004821777344 2.377819538116
91.316131591797 -63.073421478271 -65.603836059570 3.403628587723
-11.965600967407 -63.302314758301 -66.202743530273 1.602745056152
-101.818260192871 -65.021217346191 -80.392890930176 5.139405250549
65.507888793945 -69.848960876465 -243.361740112305 1.095595955849
25.980657577515 -63.085433959961 -264.499725341797 1.707451105118
60.812202453613 -69.212257385254 -85.783035278320 2.346888780594
-1.978597044945 -70.823822021484 -292.165924072266 2.534805297852
3.318149089813 -66.338363647461 -290.181518554688 2.573792219162
91.084220886230 -57.001583099365 -109.921066284180 2.093378782272
64.041297912598 -66.276313781738 -89.341903686523 2.219007968903
83.786193847656 -65.895744323730 -105.523231506348 2.194413900375
-99.376892089844 -64.574172973633 -90.349800109863 4.296735763550
50.483463287354 -67.447891235352 -241.025390625000 2.672843456268
-64.662048339844 -64.903175354004 -95.008911132813 0.965632617474
104.744308471680 -65.034675598145 -102.972236633301 2.427521705627
38.377086639404 -62.342639923096 -42.047252655029 1.376623392105
44.166831970215 -63.464736938477 -101.322189331055 3.696280717850
75.449371337891 -64.772827148438 -63.612560272217 1.884933471680
40.708469390869 -67.080505371094 -100.228248596191 3.726159572601
-101.161544799805 -66.793991088867 -108.160026550293 4.200048446655
45.420616149902 -70.882659912109 -105.861511230469 2.243588924408
61.415004730225 -64.162788391113 -93.374122619629 0.915377199650
103.499572753906 -64.879493713379 -106.568496704102 2.475134134293
38.280368804932 -67.404342651367 -108.666023254395 2.963942527771
50.004451751709 -66.174369812012 -89.717384338379 2.272003889084
56.229564666748 -66.417900085449 -94.478424072266 2.427787780762
-82.134643554688 -70.406631469727 -111.430953979492 3.312510251999
-91.250190734863 -65.540550231934 -118.299278259277 2.181209564209
37.851871490479 -70.453338623047 -118.167839050293 0.830758035183
48.415000915527 -69.653198242188 -112.891647338867 1.792688965797
60.348434448242 -62.612682342529 -95.036827087402 2.216959714890
21.665693283081 -62.892398834229 -254.125015258789 2.650550842285
-4.878137111664 -64.989273071289 -286.007873535156 2.082991123199
28.320274353027 -71.082481384277 -260.329254150391 2.369275569916
-79.079040527344 -69.100440979004 -131.206268310547 0.643480598927
-132.705108642578 -68.180824279785 -231.870391845703 2.165787696838
-85.416763305664 -69.562843322754 -116.888114929199 1.073372721672
-41.825908660889 -71.160263061523 -159.792282104492 1.532912015915
-117.062744140625 -65.082435607910 -231.777709960938 1.231093049049
-80.155410766602 -70.498954772949 -121.588256835938 2.095259428024
32.696369171143 -66.285530090332 -128.553253173828 2.770795583725
-101.291160583496 -72.447662353516 -255.993896484375 1.296519517899
41.396854400635 -68.456985473633 -126.625076293945 3.984346628189
114.818077087402 -69.366844177246 -125.464408874512 1.948629736900
18.531263351440 -64.279006958008 -29.131992340088 2.678361177444
-65.757575988770 -63.412487030029 -129.551208496094 2.486819744110
13.627840042114 -70.095680236816 -214.871810913086 1.394891262054
-57.358921051025 -66.512908935547 -125.613967895508 1.230918884277
12.542959213257 -67.418357849121 -199.372268676758 1.449903249741
113.632682800293 -68.119537353516 -127.721336364746 0.990356862545
108.625495910645 -65.931533813477 -131.624496459961 2.820388793945
-163.631576538086 -66.910766601563 -216.344406127930 1.082217216492
-18.401283264160 -67.078750610352 -69.150520324707 3.063833236694
-94.269363403320 -68.770576477051 -136.757537841797 2.469810009003
5.396162986755 -68.842590332031 -232.088470458984 2.035946607590
-41.912574768066 -56.587024688721 -80.193084716797 1.708111643791
31.101522445679 -68.243980407715 -135.041442871094 0.785589396954
-76.878166198730 -66.331176757813 -133.825881958008 1.156599760056
40.470085144043 -61.413261413574 -120.892936706543 0.736338555813
0.077575996518 -66.138435363770 -229.715011596680 1.618715882301
-22.710460662842 -63.792427062988 -54.886138916016 4.055194854736
-72.792083740234 -69.600997924805 -135.998428344727 0.883133769035
7.800619125366 -68.683082580566 -219.006958007813 3.514382600784
46.498847961426 -72.760200500488 -253.244537353516 2.098758220673
109.006469726563 -66.607711791992 -136.159027099609 4.051289081573
110.131088256836 -67.932754516602 -143.175964355469 2.343043088913
109.696418762207 -65.107131958008 -145.616470336914 4.872283458710
-55.440341949463 -69.704597473145 -143.104400634766 1.342504739761
-58.006950378418 -69.884483337402 -145.963272094727 2.321144342422
-70.070991516113 -71.333534240723 -149.728591918945 1.493470072746
113.329399108887 -66.356033325195 -164.609878540039 3.256379842758
5.647686004639 -69.544929504395 -160.534530639648 1.031258225441
17.491048812866 -69.269966125488 -157.271240234375 2.705210685730
12.680547714233 -70.131149291992 -156.543533325195 1.881494760513
21.915739059448 -67.730567932129 -164.005172729492 3.095904827118
-44.110752105713 -61.232830047607 -76.834213256836 2.366020202637
6.335993766785 -64.918365478516 -293.401428222656 1.848236441612
-111.026962280273 -69.277244567871 -182.671554565430 2.149616956711
12.669458389282 -68.709281921387 -188.144790649414 3.820427894592
-116.082405090332 -68.416656494141 -187.267364501953 2.711277008057
35.920883178711 -61.358612060547 -125.490257263184 1.484826922417
-23.666677474976 -69.679687500000 -194.607757568359 1.634632706642
-87.910041809082 -65.090705871582 -132.548431396484 0.703672707081
-24.524120330811 -70.369514465332 -196.266204833984 2.059162378311
34.281440734863 -70.267875671387 -253.403228759766 1.650434374809
12.504605293274 -69.808723449707 -199.274841308594 1.830958247185
-54.043571472168 -63.325138092041 -130.800613403320 2.044464588165
18.902877807617 -69.139678955078 -195.250289916992 0.916233360767
13.249155998230 -64.236473083496 -201.616897583008 4.131972789764
-19.360839843750 -63.339057922363 -206.115615844727 3.494922399521
90.645080566406 -71.944000244141 -206.738037109375 2.625724554062
9.847411155701 -64.404884338379 -211.705123901367 4.114157199860
-64.299346923828 -68.893417358398 -131.801574707031 2.443926572800
84.900840759277 -70.115997314453 -221.824478149414 1.314428448677
-13.974587440491 -71.159667968750 -216.153305053711 0.923581957817
12.325072288513 -66.715820312500 -214.228744506836 1.871158838272
100.409751892090 -60.208671569824 -87.476837158203 4.959051132202
-166.368774414063 -67.228057861328 -217.306900024414 2.638623952866
-50.938613891602 -66.211181640625 -136.181808471680 1.727546572685
-167.667617797852 -71.010246276855 -222.642272949219 2.607559680939
-104.648788452148 -70.596611022949 -229.623504638672 1.827183961868
-87.234443664551 -70.055824279785 -252.200424194336 1.888333678246
