-11.739568710327 -65.298789978027 -203.391036987305 2.848673820496
-14.445469856262 -65.192718505859 -204.676208496094 1.867063641548
15.237181663513 -66.344863891602 -239.253433227539 3.401019334793
-44.359867095947 -76.085449218750 -133.799942016602 4.394162178040
-34.542716979980 -67.845237731934 -238.936294555664 6.665996074677
65.165100097656 -62.838298797607 -243.158538818359 4.185796737671
-0.619733989239 -52.413902282715 -292.845642089844 1.088800311089
1.103728055954 -45.961872100830 -290.069641113281 6.181910514832
-107.035072326660 -66.948539733887 -177.911071777344 2.151164054871
-57.276466369629 -69.463729858398 -244.830215454102 3.023946523666
-48.641811370850 -92.513809204102 -50.900905609131 16.352622985840
-84.061050415039 -68.721282958984 -247.367019653320 3.620756864548
-104.239288330078 -69.372367858887 -225.054504394531 1.913934826851
-13.289598464966 -66.567184448242 -252.372634887695 2.424925804138
-97.821960449219 -68.358352661133 -255.488845825195 3.365170240402
-20.964962005615 -67.565406799316 -258.314453125000 7.385666370392
-125.692604064941 -71.241569519043 -257.949157714844 3.462532997131
-127.922096252441 -63.214954376221 -257.721466064453 1.814593076706
-132.702957153320 -67.538635253906 -262.162689208984 2.826763868332
20.877487182617 -64.570022583008 -267.518554687500 4.273924827576
-15.548368453979 -64.197669982910 -268.905487060547 5.736424922943
-16.406343460083 -55.080238342285 -271.307067871094 1.784545898438
30.516620635986 -81.548927307129 -34.478408813477 9.315439224243
-169.989501953125 -73.253265380859 -278.842559814453 2.302544355392
67.078117370605 -63.514598846436 -244.342086791992 5.211039543152
-173.075546264648 -65.972831726074 -276.693664550781 7.055311679840
-152.459503173828 -63.437328338623 -275.513183593750 2.234220743179
-159.320755004883 -69.804214477539 -276.209960937500 2.014759540558
-148.926818847656 -61.528915405273 -276.286987304688 4.117353439331
0.787389993668 -77.873092651367 -167.266952514648 0.911689758301
-159.619583129883 -77.017135620117 -209.139389038086 6.174414634705
-142.749969482422 -75.660713195801 -193.544708251953 1.708849549294
-54.590206146240 -60.057994842529 -286.727874755859 9.023535728455
30.270233154297 -78.427940368652 -137.681732177734 2.116986751556
-52.077850341797 -57.149467468262 -286.687530517578 11.536912918091
-115.358146667480 -65.911018371582 -227.643661499023 1.765138626099
-148.671508789063 -65.616149902344 -194.219116210938 1.125628352165
-151.233383178711 -64.935249328613 -191.997390747070 2.793022394180
-83.834869384766 -89.045333862305 -112.141571044922 7.693440437317
-26.186992645264 -57.027542114258 -286.758972167969 13.915790557861
-21.726692199707 -60.662029266357 -284.019012451172 10.692490577698
-102.023094177246 -64.919570922852 -284.933776855469 4.745418548584
-112.754806518555 -70.001777648926 -193.591201782227 2.064554452896
83.116813659668 -62.512290954590 -225.457702636719 6.517395019531
15.436794281006 -61.074596405029 -291.753845214844 2.804171323776
15.806945800781 -56.971187591553 -282.734100341797 1.740381717682
-144.146560668945 -76.394165039063 -201.132400512695 2.597490310669
-62.382598876953 -62.644546508789 -288.704772949219 8.087100982666
-140.839187622070 -73.875274658203 -200.348220825195 1.324187040329
-153.638793945313 -73.338180541992 -199.136535644531 1.439990162849
-151.830688476563 -65.202194213867 -199.092697143555 2.442241668701
-143.707168579102 -68.940292358398 -240.108200073242 2.312242984772
-102.618957519531 -64.206253051758 -290.801177978516 4.327818393707
-103.061401367188 -63.209545135498 -283.670745849609 6.264447212219
-43.431404113770 -79.986099243164 -144.184570312500 4.460215091705
107.472877502441 -72.358589172363 -181.469268798828 1.245975136757
-25.974639892578 -58.287937164307 -290.793975830078 12.818021774292
-1.848829030991 -61.339202880859 -295.539093017578 5.649367332458
68.116088867188 -57.958469390869 -241.682052612305 9.323904991150
34.155147552490 -86.649833679199 -15.680113792419 13.054338455200
32.642219543457 -83.346580505371 -19.379112243652 10.084299087524
-25.088825225830 -94.147453308105 -55.062240600586 18.923753738403
-133.274108886719 -76.032463073730 -225.608993530273 1.535786509514
-15.904117584229 -93.316246032715 -69.388168334961 17.467126846313
84.484611511230 -87.265663146973 -70.887474060059 12.169106483459
83.731399536133 -83.120094299316 -69.792472839355 8.719371795654
67.552978515625 -67.765716552734 -239.690551757813 1.550803065300
-85.917282104492 -94.542816162109 -68.818862915039 15.970728874207
70.467277526855 -84.509284973145 -92.955513000488 9.692906379700
84.698860168457 -86.851219177246 -75.739959716797 10.361448287964
81.723052978516 -87.926269531250 -80.332046508789 9.242873191833
72.211265563965 -88.804458618164 -76.739334106445 14.321364402771
43.750965118408 -85.054054260254 -107.686744689941 5.985474586487
101.523406982422 -85.218193054199 -82.452468872070 11.361341476440
30.439529418945 -70.769073486328 -135.249023437500 1.773304700851
30.552663803101 -67.688613891602 -137.832550048828 2.121038913727
-135.857681274414 -74.058395385742 -251.543487548828 3.720718622208
-37.455772399902 -89.847457885742 -81.098579406738 7.705444812775
-62.092060089111 -88.447555541992 -91.595382690430 2.010732173920
-64.154556274414 -88.580253601074 -91.884193420410 1.338914632797
57.674522399902 -85.037452697754 -102.072509765625 8.607447624207
96.135482788086 -86.074974060059 -71.788223266602 12.694380760193
102.021377563477 -85.669517517090 -79.523674011230 11.903479576111
26.911012649536 -80.230934143066 -147.141448974609 2.350288867950
67.463760375977 -61.505905151367 -234.586517333984 5.692664623260
6.200863838196 -54.779598236084 -294.443817138672 1.079216837883
68.636466979980 -76.325263977051 -78.897178649902 4.052638530731
1.257997035980 -50.685840606689 -288.569335937500 2.372171163559
94.859100341797 -83.402091979980 -106.369522094727 11.538700103760
-88.234420776367 -88.596305847168 -103.277046203613 6.063231468201
5.753990173340 -50.159996032715 -263.929321289063 2.159084320068
58.653598785400 -82.038345336914 -105.300491333008 7.434934616089
-58.021335601807 -79.726913452148 -84.775138854980 6.246734142303
94.077445983887 -84.172973632813 -106.949638366699 12.292241096497
46.076606750488 -92.186752319336 -39.756336212158 19.521690368652
112.671501159668 -83.209030151367 -111.408279418945 9.164193153381
56.460308074951 -92.343070983887 -24.991012573242 21.903900146484
-16.365890502930 -66.271438598633 -230.478790283203 3.801011562347
26.999078750610 -69.011436462402 -192.241638183594 3.523099184036
-94.671043395996 -87.749320983887 -107.194557189941 9.195401191711
42.734855651855 -91.011077880859 -39.549770355225 18.438411712646
113.843551635742 -81.818084716797 -114.015869140625 8.557518005371
-57.838050842285 -78.713592529297 -137.076293945313 2.791944980621
108.190979003906 -82.500312805176 -115.182991027832 7.574826717377
36.734619140625 -94.618484497070 -39.696132659912 21.782373428345
107.930450439453 -79.263969421387 -121.498222351074 4.300683021545
-49.474643707275 -84.935943603516 -87.451942443848 2.014408111572
110.590515136719 -79.512931823730 -128.838592529297 3.783022880554
112.678871154785 -79.657333374023 -128.039947509766 3.940554857254
111.001091003418 -82.124366760254 -134.735641479492 4.934875488281
114.166244506836 -78.304679870605 -135.289779663086 1.633535385132
-17.906097412109 -89.498764038086 -77.082626342773 13.672806739807
40.026699066162 -79.699768066406 -137.813842773438 3.681448459625
-19.398944854736 -86.796775817871 -74.791122436523 10.433357238770
-75.336326599121 -75.375106811523 -115.565650939941 6.119427680969
35.952957153320 -79.678558349609 -136.548248291016 0.994858264923
-164.977905273438 -77.344520568848 -218.066543579102 4.555835247040
8.646906852722 -71.904975891113 -199.386459350586 2.116102218628
-50.729469299316 -82.239036560059 -134.659683227539 6.384287357330
9.519532203674 -71.688446044922 -224.567626953125 2.059778451920
-76.210342407227 -78.717216491699 -136.989791870117 4.445065498352
-43.806484222412 -81.047698974609 -145.888198852539 3.325899600983
8.272731781006 -63.766857147217 -229.661621093750 4.316095829010
-29.234821319580 -75.847358703613 -198.478042602539 2.997346162796
31.193700790405 -58.117168426514 -255.104934692383 3.943053960800
-23.337419509888 -71.088768005371 -196.015930175781 2.125765800476
-72.828536987305 -79.600860595703 -149.457336425781 3.767539262772
1.027487993240 -64.374160766602 -222.772003173828 3.928719043732
30.706880569458 -77.645645141602 -159.413879394531 1.751108288765
24.863147735596 -74.892692565918 -153.695907592773 1.572658896446
30.187925338745 -70.947250366211 -162.191650390625 1.630016326904
-11.502419471741 -70.980316162109 -209.948211669922 2.810410022736
-63.930778503418 -80.653755187988 -154.008102416992 3.440485715866
-34.303272247314 -78.635246276855 -158.338668823242 3.400433063507
112.510711669922 -73.960571289063 -161.919357299805 0.821425199509
-47.340450286865 -77.451713562012 -154.817794799805 0.633152186871
-45.112998962402 -71.260330200195 -151.243392944336 2.172437906265
-78.011169433594 -82.831275939941 -117.480865478516 9.545627593994
18.227630615234 -62.624580383301 -248.069595336914 2.205837011337
101.731613159180 -69.396072387695 -194.997543334961 3.352838277817
-17.052505493164 -68.913574218750 -211.928756713867 1.936987519264
109.057312011719 -74.039497375488 -190.571060180664 1.789946317673
-69.190994262695 -78.012252807617 -158.467193603516 1.576761841774
-18.632629394531 -68.166442871094 -214.471511840820 3.434056043625
33.405303955078 -78.741859436035 -156.976837158203 2.211510896683
22.108272552490 -78.528282165527 -171.052749633789 1.102501273155
15.105639457703 -75.727355957031 -157.074020385742 2.884642601013
-62.575225830078 -84.521636962891 -163.598617553711 4.687212467194
-65.412048339844 -76.876029968262 -163.351562500000 1.614219427109
-13.735405921936 -73.890998840332 -212.749588012695 2.836284160614
17.821908950806 -60.962463378906 -247.017150878906 3.443756580353
-38.305618286133 -78.648948669434 -164.113204956055 1.779587030411
20.005622863770 -66.269302368164 -179.345764160156 1.089712262154
3.088896036148 -81.298255920410 -166.948684692383 3.373220920563
-22.229490280151 -79.910964965820 -181.074188232422 1.365728974342
-26.384477615356 -74.191390991211 -166.357559204102 3.435535430908
-33.427398681641 -78.018043518066 -171.656539916992 1.649461150169
-31.946403503418 -74.993820190430 -170.086608886719 2.788288593292
16.131589889526 -78.454124450684 -154.393936157227 5.617580890656
1.737853050232 -76.124938964844 -166.614654541016 2.254224061966
17.360868453979 -75.540931701660 -153.216079711914 4.009406089783
111.753593444824 -72.964622497559 -178.293823242188 1.990582823753
110.124443054199 -69.970474243164 -174.345657348633 0.708688557148
113.006965637207 -70.486228942871 -172.938140869141 1.862576723099
45.601085662842 -57.343601226807 -254.183258056641 6.135274410248
14.121147155762 -64.791694641113 -216.098770141602 3.587049961090
-26.847059249878 -74.192314147949 -182.855514526367 2.371855735779
-36.338554382324 -79.861381530762 -174.176300048828 2.110641479492
-25.843433380127 -70.482849121094 -184.948226928711 1.521437644958
-37.602664947510 -73.955291748047 -165.679138183594 3.317136049271
21.957466125488 -70.160011291504 -173.440887451172 2.875938653946
19.826393127441 -72.025527954102 -166.917221069336 1.571341872215
113.377723693848 -72.157791137695 -178.760162353516 2.421407938004
-34.235752105713 -73.304672241211 -186.041687011719 0.921365678310
-37.444194793701 -79.339897155762 -178.769180297852 2.128039121628
-39.016952514648 -72.492706298828 -170.715835571289 2.035558700562
-66.656272888184 -80.076629638672 -142.184753417969 6.949449062347
-31.286514282227 -68.336769104004 -180.090057373047 2.277448177338
-38.744659423828 -62.333839416504 -286.015319824219 8.886548995972
-33.212051391602 -63.936454772949 -284.013183593750 9.661914825439
-142.845840454102 -81.856513977051 -175.232955932617 8.142429351807
-138.266937255859 -76.439346313477 -173.991928100586 6.648079872131
-150.302566528320 -75.137290954590 -172.665603637695 3.903126239777
-151.863067626953 -71.826591491699 -175.058364868164 0.984556615353
-77.854866027832 -82.346160888672 -102.309768676758 1.165586233139
-149.598678588867 -70.897239685059 -167.461807250977 7.597681999207
1.666345953941 -57.213031768799 -260.504058837891 6.013890743256
-20.484884262085 -74.387901306152 -185.867111206055 0.975514709949
-41.156574249268 -75.497116088867 -164.249526977539 2.322266817093
-26.446006774902 -75.804512023926 -184.039840698242 3.243791341782
41.629154205322 -61.717750549316 -256.138610839844 1.981932997704
11.734071731567 -69.437347412109 -219.056182861328 1.247005939484
-71.558860778809 -82.313270568848 -132.935195922852 9.597721099854
-77.049507141113 -82.706497192383 -138.443847656250 8.226511001587
-30.648197174072 -74.147926330566 -188.060516357422 1.434277415276
-39.812297821045 -75.998359680176 -175.154281616211 1.496720314026
-146.164215087891 -81.288932800293 -179.364181518555 5.934050559998
-151.382995605469 -71.783660888672 -178.791549682617 2.057307720184
-142.033752441406 -70.859375000000 -178.158447265625 2.881703376770
-12.318346023560 -86.865798950195 -64.307594299316 14.153911590576
50.002456665039 -60.153137207031 -253.131179809570 5.319328308105
-30.894973754883 -75.580368041992 -188.049255371094 1.404205799103
-29.720222473145 -75.116432189941 -185.646392822266 1.605485677719
99.180786132813 -70.161476135254 -194.489974975586 1.901286244392
-49.830230712891 -83.478553771973 -136.676620483398 7.098466873169
8.439324378967 -70.918518066406 -193.477996826172 3.018443822861
27.212442398071 -73.733787536621 -189.102142333984 1.882053971291
103.136054992676 -66.708496093750 -200.680023193359 5.575925827026
-131.178329467773 -78.273529052734 -195.154922485352 1.940036416054
-124.335136413574 -78.421028137207 -197.462188720703 4.134545326233
-154.245605468750 -67.899909973145 -218.761474609375 1.494779109955
-105.896415710449 -72.523574829102 -191.415100097656 4.305951595306
-20.896770477295 -72.067398071289 -210.029693603516 2.241741657257
-66.188545227051 -77.321136474609 -169.204299926758 1.454123497009
12.054187774658 -66.981887817383 -245.187789916992 2.513198137283
100.264274597168 -65.989639282227 -207.627456665039 5.991254806519
-66.515403747559 -58.872795104980 -287.319946289063 11.509906768799
-145.541595458984 -76.525817871094 -207.749649047852 2.163472414017
-148.863265991211 -63.776035308838 -201.582672119141 1.584878206253
19.449001312256 -70.543487548828 -213.498764038086 1.716291308403
87.705070495605 -64.519485473633 -221.694458007813 4.838658332825
14.616869926453 -72.287208557129 -211.859497070313 2.282447338104
107.296852111816 -74.185081481934 -87.449020385742 6.893500328064
-67.534088134766 -80.566261291504 -155.124938964844 3.074634313583
-12.171610832214 -71.266761779785 -218.014266967773 0.973082661629
-97.843933105469 -71.441886901855 -213.930755615234 3.082988977432
-140.761184692383 -66.499496459961 -249.574462890625 4.777474403381
-76.580513000488 -78.477470397949 -138.214385986328 4.189942359924
1.509274005890 -69.913299560547 -226.279174804688 1.884474515915
-24.787406921387 -69.559143066406 -223.939559936523 2.204492568970
-120.748870849609 -62.888454437256 -288.275817871094 3.790859937668
-153.521591186523 -61.685050964355 -258.371276855469 1.766459107399
82.661743164063 -62.454265594482 -229.893951416016 7.169300079346
-22.263963699341 -70.014823913574 -220.482589721680 2.319021224976
13.326450347900 -71.328849792480 -189.547500610352 1.435779571533
-118.780311584473 -68.622489929199 -193.498977661133 2.977671146393
-4.385505199432 -70.030242919922 -227.178390502930 1.750283360481
-7.387444972992 -61.656505584717 -227.015472412109 5.906061649323
80.938812255859 -64.711608886719 -230.773666381836 5.579801082611
-139.059051513672 -69.211761474609 -226.700027465820 1.984073758125
7.537633895874 -64.999130249023 -239.207946777344 0.904775857925
15.303409576416 -67.245201110840 -230.996276855469 3.157701253891
-78.415519714355 -59.978733062744 -284.232452392578 9.376190185547
-143.782836914063 -69.221351623535 -212.552459716797 3.130032777786
-150.155029296875 -66.169960021973 -213.986999511719 1.468847632408
-158.428405761719 -71.169158935547 -230.635391235352 3.119071006775
53.762035369873 -91.116020202637 -22.218866348267 19.853708267212
-144.374145507813 -68.806045532227 -232.025497436523 3.018942117691
-16.203836441040 -67.732444763184 -235.922012329102 3.427072286606
-164.778244018555 -74.632843017578 -231.441574096680 1.862979054451
7.307026863098 -70.070144653320 -216.813201904297 2.292845010757
-95.121536254883 -62.338230133057 -287.511413574219 7.332820415497
-157.969589233398 -74.225250244141 -237.902587890625 1.652485847473
-157.104766845703 -66.292732238770 -233.069442749023 2.497823715210
52.240013122559 -89.026725769043 -19.357797622681 17.226526260376
26.345052719116 -68.147483825684 -141.667755126953 1.619215250015
56.320312500000 -67.353805541992 -246.022979736328 1.625483751297
12.584560394287 -67.644897460938 -205.315521240234 1.678203105927
-56.759464263916 -78.368827819824 -134.304870605469 3.735250473022
-24.770557403564 -64.298149108887 -237.016586303711 7.541410923004
29.741853713989 -92.477989196777 -18.152883529663 18.839389801025
34.991912841797 -90.919601440430 -16.510370254517 17.400699615479
-89.820594787598 -92.571243286133 -74.622436523438 15.735867500305
65.338233947754 -65.022865295410 -242.517181396484 2.277598619461
-154.574783325195 -71.376190185547 -240.784332275391 2.747868537903
-8.063491821289 -69.214500427246 -237.578079223633 1.488112688065
-11.540623664856 -56.933582305908 -239.027282714844 2.599660158157
-22.134761810303 -69.797912597656 -243.442230224609 3.792313575745
-131.438385009766 -71.403121948242 -200.045669555664 1.648997068405
-168.245300292969 -72.351806640625 -230.486450195313 2.523554801941
-163.731292724609 -68.208625793457 -240.641204833984 1.593310713768
5.082806110382 -69.645698547363 -244.677566528320 3.509612798691
-168.788040161133 -70.919952392578 -237.753936767578 1.725960254669
-45.946643829346 -62.306236267090 -287.630249023438 9.452907562256
-142.527236938477 -74.934951782227 -186.872421264648 0.936594426632
-147.851272583008 -68.943435668945 -182.830383300781 1.975560426712
-2.494883060455 -64.867576599121 -242.456054687500 0.993328988552
19.478160858154 -64.389152526855 -244.911270141602 2.197932004929
-6.541081905365 -67.352630615234 -243.132827758789 2.634826183319
-97.203498840332 -78.901191711426 -148.104354858398 9.781875610352
-9.349192619324 -65.514900207520 -242.889770507813 1.227246403694
-141.438278198242 -70.379043579102 -191.318038940430 2.790773391724
-153.296752929688 -68.246078491211 -241.521362304688 2.771617889404
-149.103530883789 -62.870437622070 -239.091232299805 2.515980720520
-150.259109497070 -57.410434722900 -235.473907470703 3.856470823288
-160.741973876953 -70.568550109863 -239.632675170898 2.826784610748
-79.947967529297 -71.446830749512 -246.821853637695 1.415205478668
-60.632476806641 -69.037155151367 -245.188049316406 4.091202259064
-100.062149047852 -69.580863952637 -212.469497680664 5.601318359375
-99.062362670898 -66.063804626465 -254.417129516602 3.027626752853
-14.274439811707 -67.826484680176 -257.865264892578 1.673772096634
-62.154720306396 -64.746200561523 -284.724304199219 6.854136943817
-143.393264770508 -76.426658630371 -197.490936279297 2.706642150879
-142.315673828125 -70.102569580078 -202.398117065430 1.424834370613
-153.801971435547 -68.704788208008 -202.239013671875 1.150076985359
-93.124366760254 -67.399772644043 -248.999649047852 4.753208637238
-84.569633483887 -63.007247924805 -283.424468994141 6.965201854706
-149.478179931641 -65.888648986816 -220.396972656250 0.878307044506
-127.274635314941 -63.338600158691 -198.507232666016 1.350188016891
-99.453308105469 -63.406158447266 -283.518585205078 7.119668483734
-95.437454223633 -58.767333984375 -287.678802490234 10.791661262512
-145.861297607422 -68.976104736328 -235.262573242188 1.078645229340
-115.428634643555 -66.336860656738 -200.672988891602 2.473826646805
-148.987335205078 -61.798942565918 -230.043457031250 0.654232144356
51.510406494141 -95.681419372559 -23.159618377686 23.835891723633
12.367863655090 -61.101444244385 -285.300170898438 3.605754137039
-103.333267211914 -78.490509033203 -167.656570434570 9.427228927612
9.606757164001 -53.622688293457 -286.883331298828 1.969368338585
-85.863166809082 -63.607131958008 -286.833190917969 5.076363563538
-111.116310119629 -70.826782226563 -192.688201904297 0.600202023983
-139.090698242188 -71.204383850098 -219.619750976563 4.361268043518
-152.468887329102 -61.692974090576 -220.761108398438 2.265417337418
-127.810829162598 -65.435844421387 -197.765060424805 2.136496305466
-149.914901733398 -60.768051147461 -215.770217895508 2.554469823837
-146.076263427734 -76.433448791504 -222.127227783203 0.626875281334
-82.276290893555 -62.472160339355 -286.464691162109 7.082506179810
-150.611557006836 -60.615413665771 -216.651596069336 3.200241088867
-140.326599121094 -64.695259094238 -292.748077392578 3.872385740280
-156.193664550781 -57.663330078125 -278.989654541016 8.338805198669
-0.876843988895 -59.237510681152 -289.839508056641 3.211275100708
-1.742712974548 -49.042373657227 -285.925384521484 2.131600618362
102.006164550781 -68.813262939453 -109.961883544922 3.707037687302
72.749534606934 -84.324913024902 -95.438011169434 9.095477104187
-12.196850776672 -58.622673034668 -277.859161376953 2.713937759399
13.741779327393 -60.255477905273 -295.731353759766 4.667864322662
-105.681907653809 -68.826156616211 -164.077270507813 2.195996284485
33.664821624756 -96.649032592773 -22.017717361450 23.633003234863
-60.501956939697 -75.661323547363 -109.949737548828 10.945001602173
28.461784362793 -96.331291198730 -27.569852828979 23.873449325562
-12.285086631775 -61.124080657959 -253.918273925781 5.302930831909
28.683917999268 -95.493919372559 -29.371067047119 23.121700286865
-63.774887084961 -96.512863159180 -49.249805450439 20.607200622559
112.990203857422 -82.089637756348 -122.649131774902 7.087351322174
39.574619293213 -89.761062622070 -39.018096923828 17.181837081909
119.151565551758 -77.284324645996 -125.932281494141 5.106169700623
33.160495758057 -92.391174316406 -31.290216445923 20.239997863770
111.542800903320 -78.937927246094 -127.988250732422 2.909123659134
35.188972473145 -94.993621826172 -40.281009674072 22.122394561768
113.697463989258 -79.098739624023 -119.623649597168 4.517648220062
-29.262834548950 -94.418441772461 -52.892730712891 19.767471313477
-0.144365996122 -57.901123046875 -262.337677001953 6.604285717010
0.514294028282 -56.003459930420 -263.598449707031 5.514408111572
73.693710327148 -80.995643615723 -63.985805511475 10.399110794067
101.236602783203 -85.343086242676 -80.200767517090 11.287590980530
-41.055400848389 -91.080932617188 -82.309188842773 7.689324855804
107.788978576660 -82.837333679199 -96.045303344727 10.480341911316
-55.517124176025 -87.630813598633 -91.844085693359 3.452200889587
-15.116840362549 -64.099845886230 -275.635192871094 5.890988826752
105.923454284668 -81.554069519043 -104.022232055664 5.634922027588
5.885252952576 -56.056922912598 -293.218963623047 0.766507685184
84.013008117676 -83.729034423828 -106.950790405273 12.391858100891
107.688858032227 -83.339561462402 -107.347862243652 7.681248664856
36.435375213623 -88.516624450684 -43.329483032227 16.604986190796
112.748863220215 -77.944984436035 -117.313591003418 3.829796552658
33.741462707520 -80.489135742188 -129.158691406250 1.906615614891
34.631584167480 -83.076461791992 -125.425056457520 2.659613370895
31.476022720337 -80.565849304199 -134.431762695313 1.673376202583
13.473228454590 -68.124977111816 -226.775955200195 3.159329175949
-76.931579589844 -83.636787414551 -130.287200927734 12.175433158875
11.779944419861 -69.674453735352 -218.063964843750 1.620927572250
-101.854347229004 -76.581329345703 -169.551193237305 7.659107208252
-60.300994873047 -84.573829650879 -138.208221435547 9.171293258667
-1.727978944778 -68.989807128906 -222.082244873047 2.040340423584
-71.465156555176 -82.012245178223 -145.712219238281 6.137017250061
33.772720336914 -57.642166137695 -260.207458496094 6.245779037476
-69.285408020020 -82.676757812500 -140.573165893555 8.247660636902
-42.832717895508 -86.702354431152 -143.069305419922 9.517657279968
30.083309173584 -78.987487792969 -144.064376831055 2.165025234222
39.898815155029 -53.768001556396 -254.607635498047 8.613353729248
-8.083335876465 -69.196746826172 -210.210830688477 2.177318334579
-66.888870239258 -84.320350646973 -149.231170654297 8.426527023315
-9.046325683594 -69.441459655762 -211.975418090820 1.133779287338
13.965033531189 -76.085014343262 -153.474243164063 3.629152297974
25.232410430908 -72.230224609375 -168.501510620117 2.537776470184
9.125881195068 -72.745468139648 -152.414978027344 2.071645975113
26.644906997681 -73.573326110840 -174.504165649414 0.715818345547
73.764450073242 -80.666534423828 -94.389846801758 5.498036861420
108.661682128906 -77.417587280273 -168.946884155273 1.627913236618
110.373245239258 -73.895034790039 -172.147140502930 1.194370508194
111.478073120117 -70.156051635742 -177.528976440430 0.274963557720
-43.969722747803 -79.047584533691 -166.155014038086 2.343416929245
-23.166622161865 -70.253677368164 -188.160446166992 1.658621430397
-20.720071792603 -68.364944458008 -190.184127807617 2.033999919891
-42.307266235352 -77.513877868652 -172.718292236328 2.410575389862
-19.262971878052 -70.174072265625 -189.463348388672 2.688247203827
-43.211357116699 -76.282836914063 -165.137130737305 1.124398231506
30.089935302734 -79.180900573730 -175.458129882813 3.035289764404
111.335968017578 -72.129905700684 -185.556060791016 1.969467639923
25.277324676514 -76.714782714844 -173.655105590820 2.071547508240
24.451250076294 -68.106536865234 -185.837860107422 1.488810181618
26.188879013062 -74.760009765625 -182.862472534180 2.012772321701
24.721761703491 -72.884231567383 -178.356002807617 2.534585952759
15.761381149292 -78.299934387207 -182.535446166992 2.796226263046
-152.533309936523 -76.429473876953 -184.425872802734 5.146649360657
-147.436630249023 -72.082267761230 -189.439041137695 2.482292413712
-145.421020507813 -68.979888916016 -183.934310913086 3.133136987686
-155.257080078125 -78.866172790527 -193.389968872070 3.816402435303
-149.506423950195 -76.387878417969 -189.656372070313 1.900178074837
-23.840250015259 -83.668312072754 -76.515068054199 5.778074264526
-150.107406616211 -72.803710937500 -188.484451293945 1.330285429955
-145.870758056641 -67.263031005859 -187.433609008789 2.205159187317
-115.757781982422 -71.371940612793 -226.365295410156 1.769259214401
48.630851745605 -90.140106201172 -34.064483642578 17.012884140015
22.007699966431 -69.118194580078 -196.731002807617 1.515392780304
-135.706420898438 -76.418174743652 -195.282821655273 1.501072525978
-150.227920532227 -72.875434875488 -205.504730224609 1.653209567070
-152.172378540039 -72.450912475586 -202.781280517578 1.868275046349
-138.351470947266 -73.499641418457 -229.675338745117 1.864207744598
-164.185821533203 -75.318260192871 -203.961227416992 4.482649326324
-163.144607543945 -77.894065856934 -206.154663085938 6.598497867584
-168.087707519531 -73.926979064941 -223.940765380859 2.042402744293
-27.106325149536 -69.391952514648 -218.778625488281 3.244167327881
18.303222656250 -68.465972900391 -216.570358276367 3.637479782104
-72.724197387695 -81.274810791016 -140.918670654297 6.004941940308
6.889214038849 -67.018486022949 -221.206680297852 3.242995023727
36.605327606201 -66.326339721680 -124.977012634277 4.008222103119
-20.554477691650 -90.610092163086 -54.852771759033 16.511247634888
-164.799407958984 -76.307701110840 -216.756103515625 2.937121152878
-96.682228088379 -70.685287475586 -160.335754394531 2.843384027481
-12.751548767090 -68.695487976074 -219.679199218750 1.494419097900
-157.107757568359 -75.576370239258 -219.697174072266 4.608967304230
-152.387603759766 -67.952201843262 -214.593109130859 0.645990908146
-147.344558715820 -66.593902587891 -215.658325195313 2.518314838409
-14.989997863770 -69.538322448730 -228.389862060547 1.921049594879
21.198732376099 -67.278045654297 -193.375808715820 3.079429626465
-79.145446777344 -69.505470275879 -117.745262145996 1.778683900833
-118.020187377930 -73.201927185059 -224.996887207031 1.406771779060
-134.752349853516 -67.126518249512 -227.338607788086 1.854609131813
-158.181457519531 -79.114486694336 -190.572097778320 7.695712566376
17.299663543701 -63.266658782959 -239.358703613281 1.174425244331
-8.506558418274 -71.526649475098 -245.034210205078 1.201278805733
-93.777648925781 -73.484580993652 -147.559112548828 4.558741569519
-65.395454406738 -63.563930511475 -249.529266357422 7.896012783051
-10.621290206909 -61.898948669434 -248.886489868164 3.711494684219
82.322517395020 -63.792961120605 -224.132461547852 5.435194969177
11.795957565308 -56.297904968262 -287.010772705078 0.387852519751
-137.311401367188 -61.855045318604 -281.248931884766 7.166144371033
-138.840438842773 -58.749866485596 -288.679290771484 5.452932834625
-155.512344360352 -53.757476806641 -277.902618408203 10.907890319824
-78.303962707520 -63.470520019531 -280.591217041016 9.232284545898
-80.945075988770 -60.204029083252 -285.740661621094 9.789803504944
-145.180389404297 -70.145210266113 -214.369232177734 2.891888618469
-151.795410156250 -64.355895996094 -214.201995849609 2.451459884644
-68.815551757813 -63.313529968262 -286.251464843750 7.313031196594
-145.468261718750 -73.381843566895 -203.455734252930 2.922375202179
-145.882995605469 -62.787292480469 -205.928634643555 2.192643642426
-33.667968750000 -61.953346252441 -287.046203613281 10.324605941772
-34.199863433838 -61.190502166748 -287.813201904297 10.739848136902
-139.072479248047 -78.346679687500 -172.918746948242 7.397572517395
-148.784973144531 -72.868049621582 -174.932083129883 0.834259927273
-148.837463378906 -68.823257446289 -177.768295288086 2.834780931473
41.981052398682 -97.808555603027 -14.594098091125 24.778795242310
39.824867248535 -98.431251525879 -16.689077377319 25.220430374146
-55.209354400635 -74.565979003906 -119.910514831543 7.157217025757
108.478248596191 -73.539100646973 -100.525352478027 1.897306203842
47.507793426514 -97.328163146973 -21.268335342407 24.924144744873
108.842025756836 -71.667083740234 -92.901092529297 4.267422199249
48.377311706543 -98.763046264648 -15.109954833984 26.684545516968
41.553977966309 -99.042823791504 -19.119028091431 25.881481170654
-51.011615753174 -75.502723693848 -114.399932861328 12.764778137207
46.125812530518 -100.457778930664 -24.276790618896 28.367692947388
50.068801879883 -95.289466857910 -25.120826721191 23.458780288696
49.159439086914 -92.994712829590 -22.993665695190 20.884157180786
108.244430541992 -81.885307312012 -94.441467285156 10.126821517944
-63.238632202148 -79.187583923340 -120.955978393555 11.408638000488
52.043441772461 -94.446830749512 -37.343040466309 22.120727539063
51.029918670654 -93.055541992188 -33.700809478760 20.369329452515
52.971725463867 -95.056030273438 -41.136821746826 23.714439392090
-9.489096641541 -91.999435424805 -64.149589538574 19.840003967285
73.073699951172 -87.650238037109 -88.797019958496 11.591928482056
-49.836673736572 -91.422538757324 -90.745918273926 7.186452388763
29.604825973511 -89.329994201660 -42.576480865479 17.266241073608
109.777450561523 -82.299331665039 -105.401557922363 6.474026203156
-54.944427490234 -78.271331787109 -142.012054443359 1.587787628174
11.284193992615 -68.068458557129 -204.745361328125 1.145194292068
107.679946899414 -82.119369506836 -115.121559143066 7.427841663361
31.634126663208 -76.475479125977 -161.662780761719 2.195358276367
19.455276489258 -80.581520080566 -156.197097778320 4.315045356750
20.808404922485 -73.665634155273 -148.140411376953 1.961577415466
7.206729888916 -78.264770507813 -164.953063964844 3.055917978287
110.478370666504 -67.821052551270 -172.638565063477 2.823570728302
112.872467041016 -74.270362854004 -171.041717529297 1.767741918564
19.064710617065 -72.999465942383 -172.222183227539 2.728000164032
105.020462036133 -71.856849670410 -188.171325683594 2.402878522873
-151.592971801758 -82.507873535156 -181.291336059570 5.444886207581
-150.344009399414 -76.699455261230 -181.443099975586 3.202917098999
-91.214279174805 -74.416282653809 -142.762084960938 6.428609371185
-132.280242919922 -75.024040222168 -196.478988647461 2.186638355255
-119.998123168945 -78.010360717773 -191.470779418945 7.381686210632
-139.358322143555 -76.624359130859 -201.592636108398 1.251989960670
-158.997283935547 -72.403060913086 -202.524124145508 2.946440935135
-155.820220947266 -74.854103088379 -206.157424926758 4.163830757141
-148.544097900391 -68.197517395020 -202.993011474609 3.388716697693
-147.476287841797 -68.974281311035 -202.811401367188 2.835127830505
13.783213615417 -68.336578369141 -195.443939208984 1.746528267860
-70.874755859375 -81.711280822754 -148.373901367188 5.909959793091
-5.064805984497 -66.326530456543 -223.129089355469 1.446962833405
-10.888969421387 -66.428077697754 -221.944702148438 3.619716405869
-47.343162536621 -74.231536865234 -147.091781616211 2.506295442581
-25.170513153076 -70.400032043457 -222.669311523438 1.926092386246
-137.669509887695 -70.795440673828 -223.097869873047 3.380248308182
28.741338729858 -52.034236907959 -258.660675048828 1.339902639389
-20.303226470947 -82.650627136230 -45.124122619629 16.861177444458
6.855887889862 -68.461982727051 -229.374679565430 1.467350125313
48.037754058838 -70.332420349121 -116.229965209961 2.222821474075
49.982315063477 -84.891098022461 -28.346666336060 13.163831710815
-13.944508552551 -63.312812805176 -246.436004638672 4.098587512970
-149.406860351563 -64.948707580566 -277.099731445313 2.716190338135
-141.135894775391 -59.502883911133 -281.297027587891 5.901574134827
-3.468370914459 -59.359722137451 -292.323822021484 3.366595983505
95.678833007813 -77.815826416016 -109.331581115723 8.259836196899
-102.401451110840 -60.099636077881 -289.133148193359 8.087102890015
-154.202072143555 -68.957260131836 -239.352233886719 1.594900727272
-42.033454895020 -95.505233764648 -50.721923828125 19.572191238403
-24.573116302490 -91.550445556641 -56.361244201660 16.207263946533
42.280124664307 -81.127876281738 -117.814247131348 2.487920761108
-18.572122573853 -96.410751342773 -59.941310882568 20.965801239014
-92.047920227051 -90.943603515625 -70.472366333008 15.885649681091
103.613502502441 -83.163009643555 -85.295219421387 10.032989501953
14.802676200867 -49.971771240234 -276.123107910156 1.816123366356
13.247407913208 -51.834506988525 -283.441345214844 1.782828211784
-37.614643096924 -89.764686584473 -79.198806762695 7.086122035980
-94.864616394043 -69.891662597656 -218.934982299805 2.114193439484
-95.172355651855 -81.404815673828 -88.174407958984 6.162272930145
105.832817077637 -79.065963745117 -103.880012512207 3.455386161804
111.959114074707 -78.096557617188 -106.388465881348 5.015583515167
52.667316436768 -88.374397277832 -35.472370147705 16.471286773682
72.219131469727 -81.396720886230 -104.726860046387 10.177810668945
-92.742156982422 -86.541900634766 -101.533935546875 7.794149875641
112.541572570801 -74.270019531250 -116.266944885254 3.094225406647
38.698146820068 -92.669639587402 -41.169788360596 20.091733932495
-145.034225463867 -70.219459533691 -179.061294555664 3.158088445663
-22.210481643677 -82.309577941895 -62.903285980225 6.343219280243
-19.020524978638 -81.361824035645 -65.213256835938 6.253872871399
-86.481903076172 -89.807624816895 -115.313888549805 10.252252578735
46.750751495361 -57.106941223145 -257.445831298828 7.321253299713
37.611087799072 -78.425689697266 -117.921005249023 1.460291624069
-80.683692932129 -83.848541259766 -120.079597473145 10.606355667114
-41.541168212891 -80.475494384766 -148.915512084961 2.331635475159
-74.766624450684 -87.894012451172 -117.090469360352 13.753998756409
-44.104145050049 -74.046493530273 -152.737365722656 2.583889007568
-78.325569152832 -81.527923583984 -122.438201904297 10.896155357361
-51.872844696045 -86.181434631348 -43.375942230225 15.624398231506
31.575395584106 -73.744155883789 -144.682937622070 3.342880010605
18.100717544556 -75.586753845215 -153.258453369141 4.085973262787
15.826120376587 -71.174583435059 -154.166854858398 1.066424489021
26.661897659302 -74.258407592773 -157.946151733398 2.291114330292
-38.805694580078 -79.193710327148 -160.926651000977 1.012613773346
23.790300369263 -77.394531250000 -160.561218261719 1.928432941437
106.519058227539 -69.691116333008 -189.520858764648 0.848426103592
-111.218040466309 -74.840614318848 -193.196716308594 4.138428688049
-164.807571411133 -78.049072265625 -194.987655639648 7.216779708862
9.101766586304 -69.041122436523 -210.957550048828 0.867321848869
-99.904228210449 -73.561264038086 -216.165145874023 2.167829990387
-74.265388488770 -66.660522460938 -244.638229370117 5.245516300201
112.276168823242 -71.751556396484 -169.738342285156 0.901573896408
105.517135620117 -79.075538635254 -77.104476928711 8.910537719727
-10.050771713257 -70.142822265625 -227.484344482422 1.643880724907
-5.123116970062 -68.240173339844 -228.930816650391 0.560781180859
0.893099009991 -50.303001403809 -282.201965332031 1.971045970917
-2.615065097809 -48.756313323975 -286.653076171875 3.077916383743
73.987541198730 -69.100189208984 -232.368652343750 2.253304958344
-103.836624145508 -71.437744140625 -172.760284423828 2.855487346649
13.357413291931 -65.877960205078 -220.951461791992 3.148129940033
-73.219062805176 -78.019676208496 -131.781585693359 6.315882205963
-12.561243057251 -65.291496276855 -234.470031738281 3.436564445496
13.597868919373 -59.589088439941 -244.543319702148 0.882011115551
-52.575229644775 -90.556816101074 -45.566936492920 17.296546936035
36.358493804932 -62.953815460205 -253.507827758789 2.487230539322
20.065742492676 -55.623493194580 -245.398956298828 2.586336135864
-98.849105834961 -64.472381591797 -259.620880126953 3.063073158264
-17.388906478882 -61.066482543945 -267.169342041016 2.730481863022
-100.321487426758 -74.519577026367 -172.075897216797 6.158494949341
-1.021649003029 -54.583259582520 -291.521759033203 1.058153390884
-5.423943042755 -55.228492736816 -238.581130981445 0.912571549416
-90.963821411133 -74.216934204102 -146.435028076172 6.035903930664
41.817176818848 -93.005943298340 -22.756710052490 20.510425567627
-55.245830535889 -79.649383544922 -115.729438781738 13.482093811035
49.122402191162 -89.367973327637 -35.152519226074 16.335977554321
-73.649139404297 -92.672981262207 -53.362094879150 16.770692825317
17.137893676758 -47.884799957275 -281.166290283203 3.604737281799
-82.994728088379 -93.097167968750 -55.908992767334 18.830747604370
-8.018024444580 -87.491165161133 -63.284538269043 17.164199829102
85.454902648926 -80.345001220703 -64.660591125488 7.746152877808
5.896739006042 -49.391105651855 -259.211395263672 2.706600189209
96.840187072754 -80.930183410645 -70.699119567871 8.042257308960
-6.344035148621 -84.542762756348 -67.961425781250 14.706864356995
-96.581481933594 -87.039520263672 -79.309837341309 12.656731605530
64.587692260742 -60.578334808350 -246.356231689453 7.787698745728
24.121192932129 -51.915882110596 -264.859893798828 2.206286430359
65.786125183105 -84.849082946777 -90.590400695801 11.400094985962
-4.626619815826 -56.152309417725 -292.475799560547 2.160013914108
0.612452983856 -51.858119964600 -289.980834960938 1.703676939011
94.776397705078 -67.986846923828 -113.467666625977 6.730944633484
68.795639038086 -81.283653259277 -93.743629455566 7.563097000122
87.901565551758 -77.702026367188 -110.295875549316 9.480823516846
-94.528610229492 -84.952697753906 -89.145034790039 8.425964355469
49.599781036377 -59.081581115723 -243.181427001953 6.498920440674
-60.017311096191 -83.375999450684 -94.926071166992 2.474827289581
108.908035278320 -76.546340942383 -108.325027465820 3.824548006058
44.821784973145 -85.691528320313 -45.611167907715 14.476091384888
48.414810180664 -77.297363281250 -104.474792480469 1.745669484138
81.113334655762 -83.454895019531 -68.485687255859 9.391748428345
45.103015899658 -81.154518127441 -103.854164123535 2.668965578079
-96.916450500488 -84.407516479492 -107.014495849609 9.645075798035
49.705821990967 -83.864067077637 -110.168190002441 6.504910469055
65.961608886719 -78.652976989746 -97.303260803223 6.634662628174
107.525489807129 -75.870483398438 -111.809036254883 1.338946938515
42.370403289795 -80.231185913086 -112.153381347656 2.010556221008
54.757278442383 -81.597129821777 -93.640747070313 6.049836635590
60.803936004639 -80.880195617676 -98.580673217773 6.676250457764
-77.931404113770 -86.818496704102 -111.433570861816 7.338806152344
-87.431343078613 -81.244400024414 -117.145523071289 4.335614204407
41.672008514404 -81.763206481934 -121.998664855957 2.474981069565
52.398788452148 -81.445861816406 -117.009315490723 6.556665897369
64.790252685547 -76.897880554199 -98.664344787598 6.921478271484
20.194437026978 -53.499664306641 -254.450164794922 2.795493125916
-7.456342220306 -51.458053588867 -285.381622314453 3.686181068420
26.839633941650 -60.385089874268 -262.084686279297 2.505582809448
-75.657203674316 -82.321418762207 -130.842605590820 10.649804115295
-133.023635864258 -67.416023254395 -228.294067382813 2.864882469177
-81.438224792480 -85.239456176758 -116.578834533691 8.639728546143
-39.458599090576 -78.610847473145 -160.593093872070 1.445603847504
-117.482185363770 -63.845237731934 -228.222381591797 2.266073942184
-76.332489013672 -85.248153686523 -121.536750793457 14.334355354309
36.015579223633 -76.192657470703 -131.420989990234 1.791294455528
-102.428405761719 -66.781250000000 -253.799255371094 2.942094326019
44.839889526367 -78.345451354980 -130.144866943359 4.263902664185
118.249526977539 -76.951377868652 -131.535339355469 3.199101448059
25.536405563354 -90.299369812012 -32.524833679199 17.754007339478
-62.448417663574 -76.518196105957 -128.744003295898 6.580440521240
13.839562416077 -67.043373107910 -216.588684082031 1.592999696732
-53.824150085449 -79.913513183594 -125.622200012207 9.060370445251
13.261528968811 -66.870895385742 -200.833786010742 2.163993358612
116.945732116699 -75.405853271484 -133.526840209961 1.051220655441
111.736152648926 -72.802162170410 -136.869781494141 1.091103553772
-163.369857788086 -69.642387390137 -211.763305664063 2.814397096634
-12.776859283447 -88.024253845215 -71.257926940918 13.264552116394
-91.048202514648 -81.636184692383 -135.774002075195 11.650367736816
4.936295986176 -63.380828857422 -233.113250732422 2.370583295822
-36.971519470215 -76.727279663086 -79.730949401855 2.175137281418
34.234390258789 -77.160743713379 -138.081756591797 2.738824129105
-73.634880065918 -79.102622985840 -133.061752319336 6.812047958374
43.930774688721 -72.324356079102 -123.344116210938 0.330210298300
-0.363579988480 -61.263656616211 -230.170120239258 5.893578529358
-16.639083862305 -87.165412902832 -56.520652770996 14.038047790527
-69.542701721191 -81.851203918457 -135.855865478516 8.798982620239
7.823984146118 -65.196243286133 -220.256408691406 4.495599746704
45.311016082764 -62.540744781494 -255.950363159180 2.609525203705
111.965766906738 -72.744773864746 -141.464141845703 1.610533475876
112.863410949707 -72.913009643555 -148.635192871094 1.991903066635
112.258209228516 -69.755531311035 -150.582794189453 2.161438703537
-52.473484039307 -80.252998352051 -143.450363159180 2.935536861420
-55.139377593994 -80.068191528320 -146.216552734375 3.181050300598
-67.290519714355 -81.313819885254 -149.768554687500 5.780044555664
115.210372924805 -67.883697509766 -169.642944335938 3.505657434464
7.889529228210 -75.300033569336 -162.616912841797 2.315550565720
19.834461212158 -75.141868591309 -159.738815307617 2.333503961563
15.080761909485 -76.268241882324 -159.000076293945 3.964557647705
23.958539962769 -72.416061401367 -166.285217285156 2.653857469559
-38.910617828369 -81.914237976074 -77.079002380371 2.089020490646
3.466319084167 -49.849300384521 -293.032348632813 2.434169530869
-109.494224548340 -75.492195129395 -180.620040893555 6.516052722931
13.845086097717 -69.903587341309 -189.961761474609 2.799692869186
-114.740608215332 -74.091575622559 -184.854812622070 5.793445110321
39.212699890137 -71.701919555664 -127.724288940430 2.233276367188
-22.666067123413 -71.071228027344 -195.309555053711 2.887636184692
-84.641654968262 -78.450607299805 -131.245513916016 7.937431812286
-23.565319061279 -71.520622253418 -197.027359008789 1.059953451157
33.030944824219 -60.467590332031 -255.314910888672 3.528903484344
13.294143676758 -69.246826171875 -201.114288330078 1.922859668732
-50.796585083008 -75.841041564941 -130.344863891602 3.646817445755
19.817415237427 -69.002716064453 -197.245208740234 0.656169295311
13.793259620667 -63.354080200195 -202.568939208984 4.699203014374
-18.974784851074 -62.860969543457 -205.804321289063 4.028139591217
91.129066467285 -67.549209594727 -211.363021850586 2.418223142624
10.021834373474 -62.051021575928 -212.440643310547 6.323669910431
-60.921897888184 -81.525535583496 -131.878890991211 8.441817283630
84.774169921875 -63.569843292236 -225.775451660156 6.534348011017
-13.750617980957 -68.822578430176 -217.122283935547 1.815567493439
12.467210769653 -63.852245330811 -215.377258300781 4.557027816772
105.023269653320 -74.361930847168 -92.128631591797 5.266632080078
-166.131195068359 -69.896690368652 -212.674163818359 2.440830230713
-47.815528869629 -77.740112304688 -136.212921142578 2.478676319122
-167.522155761719 -72.835868835449 -218.495208740234 0.727616965771
-104.845932006836 -69.207717895508 -227.372650146484 0.980211377144
-88.312255859375 -64.542335510254 -250.135360717773 5.787331104279
-14.881914138794 -64.068176269531 -239.017807006836 3.231568336487
56.421447753906 -55.320568084717 -249.919357299805 10.002659797668
-167.252212524414 -67.289230346680 -241.833129882813 2.719554185867
34.149051666260 -60.119644165039 -253.570785522461 3.947866678238
-100.926101684570 -65.160919189453 -249.141204833984 4.006068229675
-138.000442504883 -66.370811462402 -250.518905639648 5.656940937042
-36.612346649170 -90.423904418945 -77.771659851074 8.035445213318
29.746805191040 -69.493919372559 -131.939727783203 2.061001777649
64.079002380371 -81.053657531738 -96.685295104980 9.214892387390
-118.622444152832 -63.367534637451 -254.811401367188 5.771764755249
-13.870721817017 -58.313884735107 -260.685089111328 1.843046426773
16.300081253052 -54.368465423584 -285.520874023438 2.021437168121
19.871417999268 -57.599071502686 -277.475646972656 1.397968649864
-96.098320007324 -86.013732910156 -86.819686889648 10.712287902832
51.473400115967 -60.853595733643 -245.125625610352 3.949384927750
39.670795440674 -92.856208801270 -15.218172073364 19.769664764404
28.309118270874 -96.556945800781 -22.818775177002 23.360271453857
33.840091705322 -88.151306152344 -18.616901397705 14.680892944336
-106.463897705078 -75.488685607910 -157.842956542969 8.852596282959
50.977684020996 -88.310714721680 -31.108245849609 16.170618057251
25.495159149170 -84.875251770020 -28.228769302368 12.423931121826
31.782289505005 -96.094833374023 -29.541231155396 23.996389389038
-15.700762748718 -60.039714813232 -257.168884277344 3.179645299911
51.006927490234 -92.293479919434 -30.988182067871 19.942771911621
46.635978698730 -90.463577270508 -36.299713134766 17.210123062134
37.066638946533 -90.763412475586 -44.460453033447 18.850395202637
109.658164978027 -77.781333923340 -123.102798461914 3.648171186447
-10.677403450012 -85.937393188477 -65.281402587891 14.075103759766
105.284957885742 -79.035766601563 -79.511131286621 8.731258392334
59.556777954102 -82.557891845703 -87.863586425781 9.509943008423
65.861625671387 -78.634124755859 -97.129058837891 6.687082767487
-3.516410112381 -52.773471832275 -277.639953613281 1.875721573830
