-5.717160224915 -71.697387695313 -275.241516113281 4.365827560425
-48.166465759277 -78.877449035645 -80.255195617676 5.071320056915
78.803497314453 -74.596916198730 -230.516098022461 0.927999675274
-55.945545196533 -79.338851928711 -83.330207824707 5.819756507874
14.855302810669 -73.560554504395 -182.251892089844 1.177434682846
-152.462066650391 -86.104148864746 -263.138092041016 2.730181932449
-172.287155151367 -70.663795471191 -260.104461669922 4.538962364197
19.428037643433 -67.895332336426 -178.022735595703 1.932999849319
-45.317920684814 -83.202865600586 -84.815826416016 2.156844377518
-54.262920379639 -80.253143310547 -83.005508422852 4.528239727020
-76.461112976074 -82.939506530762 -104.853195190430 1.822001099586
2.891472101212 -92.431777954102 -256.564178466797 6.316680908203
-2.262000083923 -88.401947021484 -261.597503662109 3.893399000168
-60.778022766113 -73.661743164063 -58.770362854004 3.424998521805
58.728691101074 -63.847747802734 -88.168380737305 2.835771083832
57.785739898682 -61.412181854248 -90.719924926758 0.871999084949
93.449073791504 -76.876495361328 -210.127014160156 1.466082572937
-38.664649963379 -62.851593017578 -47.714725494385 2.633099794388
-9.292538642883 -77.350975036621 -288.276580810547 1.294563055038
-9.531683921814 -79.926010131836 -280.877716064453 5.212422847748
6.903615951538 -88.953514099121 -254.692642211914 3.306112527847
-51.529037475586 -79.947105407715 -79.516456604004 2.975064754486
-74.384971618652 -82.865943908691 -100.023933410645 1.912644028664
114.587127685547 -79.232635498047 -156.505752563477 2.420607805252
23.678199768066 -71.817497253418 -257.837677001953 2.199756622314
-8.752584457397 -69.204254150391 -285.093688964844 1.563062191010
62.293258666992 -63.325782775879 -92.464218139648 1.142769098282
28.828125000000 -77.976448059082 -132.249649047852 2.644771337509
-4.358173847198 -80.892684936523 -166.382003784180 1.876899600029
26.982616424561 -73.092628479004 -132.153320312500 3.027871608734
27.937652587891 -73.976051330566 -132.999420166016 2.204750299454
44.350803375244 -73.735626220703 -243.952987670898 6.288691043854
41.760086059570 -66.001663208008 -109.988769531250 2.461644411087
-37.724746704102 -77.197898864746 -161.314880371094 1.367980003357
-21.030723571777 -84.563766479492 -183.102188110352 0.415692090988
-15.171900749207 -87.347923278809 -173.165100097656 4.708770751953
-64.263862609863 -74.703987121582 -58.910583496094 2.071175575256
-135.415222167969 -80.253486633301 -257.617645263672 1.665637850761
-94.242362976074 -64.104202270508 -100.668762207031 3.937324285507
-80.334259033203 -84.924140930176 -98.804649353027 1.799459457397
-134.055221557617 -75.649368286133 -260.078918457031 1.047829270363
-36.210678100586 -85.907379150391 -190.725723266602 1.105592012405
88.038963317871 -65.871772766113 -61.504112243652 2.203025341034
-88.230972290039 -74.557479858398 -98.465362548828 3.281752347946
-41.984931945801 -84.234603881836 -194.381622314453 1.982838392258
44.854801177979 -75.308685302734 -99.612922668457 1.035232424736
41.995246887207 -68.335090637207 -109.315010070801 1.714110732079
-8.955205917358 -79.219955444336 -169.409805297852 1.459044575691
-47.420425415039 -86.737129211426 -195.666656494141 2.860669136047
43.161201477051 -75.476646423340 -242.325424194336 8.323569297791
-20.872524261475 -78.642044067383 -172.626663208008 4.236536502838
-12.880840301514 -81.226074218750 -172.312805175781 1.705811500549
56.115833282471 -70.553771972656 -82.490692138672 2.819404602051
56.323760986328 -67.098709106445 -91.338768005371 3.407629728317
-60.166816711426 -70.534957885742 -54.776424407959 5.588360309601
-40.343769073486 -81.035964965820 -205.078170776367 2.901378631592
-0.082589000463 -90.003761291504 -249.506805419922 7.318654060364
93.483497619629 -80.992935180664 -200.951324462891 5.225713253021
114.674880981445 -75.720252990723 -146.245574951172 1.990523099899
-17.182062149048 -77.487579345703 -288.604553222656 1.983844518661
-47.213386535645 -74.288131713867 -77.305908203125 6.290967464447
20.281770706177 -72.305007934570 -248.982421875000 2.214319705963
54.182258605957 -59.025344848633 -95.527412414551 3.735170841217
49.024051666260 -55.824817657471 -89.416320800781 7.081054687500
-2.693583011627 -88.029167175293 -254.045059204102 5.534352302551
-81.365715026855 -83.359375000000 -94.924453735352 2.701667308807
58.718132019043 -65.450492858887 -82.395431518555 0.668297171593
65.663299560547 -61.033664703369 -89.524627685547 2.031582355499
6.105994224548 -91.156867980957 -262.972137451172 5.395203113556
24.118610382080 -68.317405700684 -265.850921630859 2.239586353302
-46.801681518555 -63.006210327148 -41.860424041748 3.028213977814
75.069969177246 -75.456504821777 -89.947326660156 1.400485038757
-78.541099548340 -65.847183227539 -54.199638366699 5.090476036072
-120.694282531738 -76.109336853027 -286.335235595703 3.000151872635
-121.216445922852 -68.654853820801 -286.433685302734 2.858621358871
-145.836120605469 -68.517463684082 -264.746765136719 1.099857211113
-152.846252441406 -64.787986755371 -261.915405273438 2.497464656830
-149.314804077148 -90.081535339355 -281.683349609375 3.451225519180
-141.231643676758 -88.735763549805 -286.879302978516 2.696742057800
-96.973007202148 -57.186901092529 -78.233695983887 3.977268218994
64.871299743652 -78.174011230469 -231.961441040039 5.781198978424
-155.914840698242 -84.823791503906 -276.682830810547 4.400515556335
-161.582809448242 -71.396423339844 -274.638366699219 1.550047397614
-169.084014892578 -72.292755126953 -268.064819335938 1.035237789154
-66.185256958008 -70.662261962891 -99.099143981934 2.017506361008
-150.908157348633 -84.476783752441 -267.870574951172 1.569116950035
23.524192810059 -77.258964538574 -168.422851562500 1.252748012543
16.382564544678 -79.895500183105 -176.193588256836 3.148262500763
-95.229843139648 -66.017471313477 -71.276947021484 1.706357479095
16.674591064453 -81.066032409668 -180.013397216797 3.764680147171
68.974540710449 -74.240936279297 -236.821868896484 0.816732585430
-155.945053100586 -75.154510498047 -276.217987060547 3.961110353470
-62.883007049561 -77.052284240723 -92.246864318848 2.936748981476
-168.895477294922 -72.359542846680 -285.486877441406 2.260125875473
-145.255401611328 -83.813217163086 -288.692169189453 2.215328216553
-153.021057128906 -90.192771911621 -281.025787353516 5.021752834320
-151.496826171875 -87.561080932617 -286.619201660156 2.253938436508
-79.705841064453 -67.285690307617 -107.121620178223 0.772025167942
-79.078277587891 -63.217632293701 -109.524757385254 1.703475832939
15.888530731201 -63.219799041748 -142.884613037109 0.885740041733
-134.743331909180 -63.259262084961 -261.977539062500 1.864563345909
96.859977722168 -57.744113922119 -66.356040954590 3.304777860641
30.859487533569 -64.750862121582 -133.516052246094 0.742710411549
22.786243438721 -62.167778015137 -135.624816894531 1.516440868378
92.080612182617 -71.844818115234 -77.989212036133 3.480006933212
-73.268486022949 -76.228500366211 -63.809734344482 2.789190053940
-156.128158569336 -75.680427551270 -310.186462402344 1.775154113770
-158.323455810547 -79.255821228027 -306.661773681641 4.878909587860
76.816314697266 -71.971801757813 -75.879966735840 2.081486940384
-145.215072631836 -87.045494079590 -287.682281494141 1.612759232521
-54.649330139160 -86.681678771973 -198.357727050781 3.413842201233
-145.011871337891 -86.666099548340 -285.395629882813 1.976262927055
-147.509872436523 -87.904876708984 -291.625549316406 1.907616734505
-152.381759643555 -88.409286499023 -298.812286376953 3.057446479797
-62.706134796143 -83.733825683594 -203.362594604492 2.116564750671
-150.933776855469 -72.067329406738 -306.836975097656 4.248029708862
25.829177856445 -70.165550231934 -131.535858154297 3.734902620316
20.523674011230 -65.052925109863 -140.400207519531 1.061456561089
-76.449775695801 -60.741981506348 -110.999992370605 1.912836432457
-79.286895751953 -59.414394378662 -107.787063598633 1.807627439499
96.035209655762 -63.899902343750 -67.849937438965 2.919213771820
-82.346176147461 -65.581192016602 -113.028076171875 0.931708335876
-56.485847473145 -74.614021301270 -70.986473083496 6.635606765747
-64.953643798828 -75.852706909180 -71.340316772461 5.778573513031
-29.512737274170 -85.303733825684 -182.198013305664 3.503846883774
-42.113685607910 -68.293235778809 -151.834045410156 2.608101606369
-32.058330535889 -86.212997436523 -186.807312011719 1.531982660294
-19.543376922607 -66.061645507813 -197.286529541016 1.428898692131
-44.177440643311 -66.128112792969 -151.665115356445 2.982788085938
-14.731247901917 -68.357391357422 -195.656372070313 1.933295845985
-31.847017288208 -87.339157104492 -192.817871093750 2.264815568924
-106.885551452637 -69.478881835938 -225.082366943359 1.846937179565
-44.773017883301 -84.541069030762 -197.046463012695 1.185506224632
12.804164886475 -84.941421508789 -262.774719238281 2.103034019470
29.987680435181 -75.402366638184 -264.272399902344 5.534679412842
7.987222194672 -88.586791992188 -256.809387207031 3.300385236740
21.652317047119 -70.605934143066 -258.343017578125 3.173817873001
-1.596205949783 -86.439308166504 -255.752624511719 3.380663394928
-41.080406188965 -79.463973999023 -201.950195312500 0.885143101215
-94.430229187012 -78.203872680664 -216.041168212891 2.768980264664
-45.076595306396 -80.196472167969 -68.049224853516 1.628655433655
110.135520935059 -82.260421752930 -148.959564208984 5.498095512390
1.525884032249 -88.066917419434 -246.455642700195 7.322383403778
-53.233711242676 -85.622383117676 -200.967239379883 0.835431993008
-151.974578857422 -69.183258056641 -174.245529174805 2.558974742889
-56.050529479980 -73.872444152832 -72.480255126953 8.268405914307
-154.353210449219 -69.761016845703 -178.973373413086 1.049893498421
-150.852783203125 -63.928478240967 -175.322265625000 1.675297617912
0.860487997532 -66.949195861816 -256.047088623047 3.917139053345
53.606155395508 -69.511390686035 -105.680313110352 1.387485265732
-57.792236328125 -86.464195251465 -202.693664550781 1.916514515877
-71.580902099609 -62.604877471924 -104.633384704590 2.806378841400
-77.855834960938 -64.461746215820 -108.210403442383 1.384084224701
29.945522308350 -78.948348999023 -151.890258789063 2.065052747726
-149.052581787109 -86.271865844727 -249.124389648438 2.060102462769
-152.058135986328 -84.542312622070 -252.353790283203 2.164028167725
-170.066207885742 -73.882965087891 -246.678604125977 4.741395950317
78.375717163086 -79.403823852539 -233.940216064453 3.565910816193
-149.034561157227 -72.320091247559 -275.891754150391 3.383414745331
-89.236038208008 -69.252975463867 -67.171218872070 2.416605710983
-143.716751098633 -88.179725646973 -256.431121826172 4.058318614960
-134.578475952148 -71.419807434082 -286.353240966797 1.901562571526
-154.430984497070 -63.272953033447 -277.213623046875 4.110638141632
-165.197158813477 -76.834884643555 -290.581024169922 2.482976436615
-150.736022949219 -84.753768920898 -299.230773925781 1.262729883194
-104.672286987305 -70.608428955078 -253.764053344727 2.113530158997
95.287750244141 -78.132522583008 -209.992218017578 2.309618949890
-130.423843383789 -77.264907836914 -257.263824462891 2.525454759598
-57.477069854736 -70.127861022949 -55.611625671387 4.937592029572
-117.954551696777 -70.976402282715 -258.635192871094 2.199313402176
-119.489601135254 -68.563980102539 -258.003784179688 2.764937400818
-92.755775451660 -70.635017395020 -89.953231811523 2.627168893814
-141.964080810547 -86.262588500977 -257.396392822266 2.343051910400
13.479913711548 -85.131706237793 -274.239624023438 4.411847591400
55.374092102051 -73.858383178711 -102.502220153809 1.989909887314
70.376869201660 -66.122978210449 -72.721168518066 3.523210287094
-2.875602960587 -89.247314453125 -263.627441406250 4.453428268433
-167.052474975586 -74.531188964844 -253.486053466797 2.350866079330
12.001712799072 -66.421836853027 -151.206542968750 1.321940660477
85.362052917480 -63.038768768311 -106.057662963867 1.948194265366
-135.161376953125 -78.095092773438 -281.765319824219 5.501648426056
-142.308319091797 -84.783058166504 -259.900970458984 0.854199707508
79.807350158691 -71.103424072266 -230.322799682617 1.177899837494
-146.663604736328 -69.959846496582 -273.144042968750 2.361993074417
-137.554565429688 -69.802192687988 -288.114349365234 1.994065642357
-158.910781860352 -74.824043273926 -276.480041503906 1.647418975830
-152.495697021484 -87.152229309082 -260.627136230469 3.553731441498
-156.007064819336 -70.375442504883 -276.138519287109 3.409869432449
-168.877136230469 -70.227622985840 -259.652435302734 1.782524347305
-134.697692871094 -71.190887451172 -293.496612548828 1.340189814568
27.623655319214 -73.854972839355 -173.509613037109 0.887984931469
13.678359985352 -77.090538024902 -152.176666259766 4.506933689117
-68.987564086914 -76.765838623047 -99.209205627441 2.817396879196
9.535866737366 -70.185226440430 -149.186172485352 1.177192926407
28.637746810913 -70.022773742676 -163.500579833984 2.287966728210
89.020347595215 -68.425277709961 -106.815528869629 1.826871991158
87.833633422852 -66.485206604004 -68.230079650879 2.310588836670
40.295261383057 -76.812805175781 -109.474754333496 1.799369573593
-57.562389373779 -83.253067016602 -205.017761230469 1.953818798065
53.219211578369 -68.536209106445 -102.655136108398 1.694508433342
2.864022970200 -89.046806335449 -266.686431884766 2.450853347778
-94.104331970215 -66.087097167969 -92.006507873535 3.411060333252
-0.142612993717 -89.569496154785 -269.121734619141 5.132121086121
-66.329490661621 -77.710365295410 -67.762290954590 2.795986413956
1.620839953423 -88.495918273926 -276.901184082031 5.687351703644
-79.530746459961 -79.993629455566 -83.003684997559 1.835785508156
2.913348913193 -83.482910156250 -281.699279785156 3.545057296753
23.697731018066 -75.035964965820 -268.438598632813 1.593961477280
-65.554473876953 -82.744102478027 -204.772857666016 1.709165096283
-57.688522338867 -86.342018127441 -209.822509765625 4.119245052338
56.980606079102 -74.629638671875 -92.168289184570 2.241549015045
39.510284423828 -75.515914916992 -110.829002380371 2.343145608902
-0.892494022846 -90.325561523438 -268.882476806641 5.573745250702
-75.907562255859 -67.810432434082 -101.970916748047 1.846505284309
-130.353591918945 -67.735740661621 -258.933105468750 3.707983016968
-83.889022827148 -74.889747619629 -80.517562866211 4.689947128296
-151.245132446289 -84.493675231934 -292.670928955078 0.318318575621
-155.715164184570 -82.046035766602 -282.125305175781 3.603679656982
-82.440902709961 -77.776641845703 -84.895370483398 2.947580575943
-148.377365112305 -82.457290649414 -290.818847656250 2.189254283905
-164.681884765625 -74.669357299805 -280.925170898438 3.935155153275
-149.011093139648 -73.422317504883 -305.438873291016 5.335456371307
-66.439079284668 -80.680915832520 -80.806190490723 3.580606222153
-127.285186767578 -74.414344787598 -262.681823730469 2.056702136993
-127.775741577148 -67.997718811035 -264.151062011719 2.258188247681
-55.710800170898 -79.679557800293 -75.424888610840 3.903621196747
118.848457336426 -73.344612121582 -142.433166503906 2.585254669189
112.422050476074 -76.135231018066 -139.652297973633 1.453119993210
-40.484786987305 -82.200736999512 -80.971817016602 1.135793328285
11.331287384033 -78.459312438965 -290.194244384766 1.639871478081
11.468957901001 -72.907791137695 -284.859832763672 1.911312937737
-105.160812377930 -68.045341491699 -165.085800170898 1.832185149193
-61.917377471924 -83.032821655273 -208.413253784180 1.741579532623
-64.491500854492 -80.331245422363 -203.080474853516 2.485899925232
51.283973693848 -72.315406799316 -107.639350891113 2.062616109848
-73.267013549805 -57.122909545898 -111.521202087402 1.467590689659
40.793731689453 -79.110351562500 -107.691925048828 2.128849744797
106.376136779785 -74.674896240234 -167.886505126953 1.128530383110
-78.342132568359 -77.912574768066 -90.486564636230 5.662680625916
-75.489479064941 -81.008964538574 -85.411087036133 2.746437311172
-154.315856933594 -70.916328430176 -176.305496215820 1.971352815628
-153.212463378906 -65.551055908203 -174.887207031250 2.045994520187
-77.008407592773 -65.027709960938 -106.320404052734 1.712842106819
-151.224777221680 -64.403160095215 -178.273941040039 1.787724733353
-1.026234984398 -68.539382934570 -268.401733398438 2.877104043961
-145.152938842773 -62.738498687744 -171.944747924805 3.131961584091
-64.365119934082 -79.799957275391 -72.839752197266 2.832840681076
-119.437049865723 -76.825798034668 -251.952102661133 5.033690452576
-56.000007629395 -68.032218933105 -51.866935729980 2.884135484695
94.258026123047 -79.587989807129 -199.512619018555 4.315043926239
-41.144645690918 -81.013633728027 -199.576751708984 1.003504157066
-54.877895355225 -83.536819458008 -182.562896728516 3.068039178848
-90.010917663574 -74.802673339844 -85.950279235840 1.872275352478
61.376579284668 -71.107925415039 -94.693954467773 0.301944136620
-141.035888671875 -76.017532348633 -289.046417236328 1.296924948692
-124.385131835938 -74.478279113770 -255.204269409180 1.198945999146
-83.471817016602 -78.602806091309 -98.251487731934 3.581746816635
-159.607940673828 -79.127143859863 -289.644744873047 3.909017086029
-144.803527832031 -79.878280639648 -302.809631347656 3.006280183792
-147.312591552734 -70.610313415527 -285.110046386719 1.518740773201
-146.858978271484 -70.325096130371 -293.099731445313 1.538423180580
-153.721328735352 -73.998931884766 -284.262542724609 1.698090672493
56.989639282227 -63.909614562988 -85.727371215820 2.326780796051
52.856769561768 -60.917396545410 -92.072441101074 0.528423070908
51.330299377441 -63.189125061035 -92.448989868164 1.992696046829
-145.007781982422 -70.817024230957 -284.187042236328 1.698760390282
-147.866607666016 -68.138374328613 -293.715423583984 2.373872995377
63.340858459473 -60.356285095215 -83.737007141113 1.439591884613
46.070770263672 -64.556381225586 -96.123672485352 2.761467695236
86.412620544434 -58.257114410400 -59.324081420898 1.307478070259
-109.291679382324 -73.163246154785 -257.352569580078 0.755882918835
-85.504844665527 -78.681533813477 -98.028945922852 3.427230834961
-86.687065124512 -78.964286804199 -98.774024963379 3.967418909073
31.025039672852 -66.255867004395 -257.589172363281 2.250462770462
-9.354461669922 -77.343849182129 -289.138092041016 0.925816714764
-9.749852180481 -79.690093994141 -289.465209960938 2.940771579742
-3.724308013916 -70.652519226074 -291.903961181641 2.301475286484
22.069475173950 -77.618888854980 -258.852661132813 2.331128835678
-7.773231983185 -72.723320007324 -287.430664062500 2.519063949585
112.273132324219 -73.680496215820 -164.156616210938 1.336208105087
-23.089921951294 -81.414482116699 -181.570144653320 2.060902357101
24.820442199707 -68.882522583008 -139.258560180664 2.223417043686
30.891347885132 -64.178741455078 -131.038848876953 2.398676156998
-36.009716033936 -71.216560363770 -153.140014648438 2.430565595627
-23.093818664551 -84.389106750488 -179.962982177734 1.925366640091
-110.406234741211 -70.977890014648 -231.655899047852 1.814239025116
-24.463397979736 -82.826889038086 -181.988815307617 2.589323282242
-41.462493896484 -71.701850891113 -153.354705810547 1.921555757523
-116.610969543457 -67.426712036133 -232.509140014648 2.086957454681
-41.575744628906 -85.347526550293 -189.674209594727 3.107526779175
-49.981666564941 -81.935920715332 -194.659957885742 2.357308864594
-55.415473937988 -86.552917480469 -199.924819946289 2.891103267670
-41.125209808350 -76.886878967285 -65.175971984863 2.607630729675
-48.428321838379 -78.691993713379 -70.957893371582 1.748573899269
-154.020812988281 -81.999183654785 -226.753494262695 2.561934947968
-135.549468994141 -77.873214721680 -196.994171142578 2.172359943390
-146.411270141602 -82.718040466309 -215.025955200195 1.578012228012
-58.194694519043 -59.955734252930 -137.357543945313 1.700757026672
-49.216564178467 -66.368026733398 -141.426666259766 0.813074827194
-22.710971832275 -72.638061523438 -242.604293823242 1.419180631638
-152.612976074219 -85.358436584473 -220.000915527344 4.697272300720
6.289184093475 -78.084930419922 -213.745651245117 2.122819900513
12.454186439514 -82.795143127441 -210.273452758789 3.314890146255
-33.226211547852 -81.199882507324 -237.126770019531 2.546541690826
-150.205505371094 -83.873443603516 -222.683959960938 2.448273181915
-146.501296997070 -84.564079284668 -222.697525024414 0.949800550938
-142.784210205078 -88.654495239258 -228.186904907227 5.652307510376
-21.532327651978 -76.302627563477 -214.580871582031 1.593540906906
-151.432846069336 -85.346260070801 -228.793945312500 2.284148454666
-166.901504516602 -68.050407409668 -229.629837036133 2.408610820770
14.029520034790 -74.058090209961 -184.124786376953 0.604950964451
34.451400756836 -74.838592529297 -149.194259643555 0.669639945030
-146.281433105469 -85.074050903320 -227.048736572266 1.095127105713
-147.898651123047 -84.942527770996 -234.771636962891 1.335705041885
-146.078674316406 -84.552627563477 -237.103378295898 3.052424430847
-150.960906982422 -84.133117675781 -230.428009033203 1.538735389709
-169.118103027344 -67.424842834473 -234.659622192383 2.435550451279
8.418167114258 -69.521064758301 -215.651977539063 2.287720680237
-26.803329467773 -84.033950805664 -215.777191162109 3.774966955185
-144.159698486328 -82.175041198730 -241.488647460938 0.401276230812
-80.287582397461 -73.588447570801 -210.926116943359 0.854683816433
7.210434913635 -69.389389038086 -157.283950805664 1.105074167252
-51.895648956299 -75.993240356445 -239.626632690430 3.532284498215
-55.936649322510 -83.308082580566 -241.217483520508 3.100704193115
19.032083511353 -69.364128112793 -175.903076171875 1.717971563339
-167.306488037109 -73.482025146484 -261.666961669922 1.337690949440
96.575378417969 -72.831039428711 -98.445991516113 1.354051947594
-136.069519042969 -74.472213745117 -288.352478027344 2.156117677689
-151.006881713867 -69.032768249512 -277.609222412109 2.914975404739
13.386122703552 -69.797897338867 -148.773681640625 1.320945858955
27.290220260620 -71.967323303223 -166.611968994141 0.757774055004
70.693717956543 -71.226722717285 -91.667930603027 2.054020404816
-148.129531860352 -82.292839050293 -251.950592041016 1.571285724640
27.457126617432 -68.929557800293 -171.796203613281 1.856878280640
9.840472221375 -70.248794555664 -150.840667724609 1.494277477264
64.530418395996 -65.629386901855 -86.686294555664 1.479820370674
-148.564468383789 -85.797981262207 -259.440826416016 1.785886049271
-170.940322875977 -75.815856933594 -255.133438110352 5.656341552734
-152.654861450195 -89.417350769043 -256.754669189453 3.369657278061
5.905933856964 -63.396102905273 -280.898193359375 2.935298442841
69.662765502930 -58.635593414307 -66.348396301270 2.703545808792
-50.222213745117 -75.120941162109 -69.166633605957 5.008752822876
12.562282562256 -86.714332580566 -254.304428100586 2.948406934738
-75.301116943359 -78.306785583496 -249.882522583008 2.993858098984
30.341608047485 -71.202033996582 -253.097244262695 2.695970058441
111.732749938965 -76.770339965820 -157.183609008789 0.776417553425
11.773807525635 -75.871658325195 -174.015945434570 6.379595756531
-164.339218139648 -74.137100219727 -259.194061279297 1.488656878471
-152.240264892578 -83.324913024902 -261.617767333984 0.887758493423
13.280145645142 -70.896141052246 -182.415115356445 1.950818657875
-1.944543004036 -86.761413574219 -268.856811523438 2.690322399139
6.954595088959 -83.868255615234 -292.254425048828 5.492208480835
85.262969970703 -75.607460021973 -97.792701721191 1.373256444931
79.842590332031 -68.508743286133 -103.598564147949 1.755596041679
-4.801187038422 -83.289184570313 -276.140075683594 3.317493677139
6.602233886719 -87.767967224121 -270.253021240234 2.683850049973
47.340553283691 -74.737541198730 -111.153610229492 1.506065964699
-87.970451354980 -79.278137207031 -214.973800659180 1.149614453316
26.339952468872 -72.987785339355 -267.923461914063 3.400696516037
64.778770446777 -76.227485656738 -233.972167968750 4.099672794342
39.309898376465 -73.114242553711 -104.363891601563 1.617251992226
-89.845108032227 -78.628387451172 -105.829231262207 2.290482997894
-4.338315010071 -85.656173706055 -267.518920898438 1.952634572983
41.943325042725 -71.580215454102 -111.449386596680 2.189264535904
0.929818987846 -61.106533050537 -252.387405395508 2.339063167572
-55.012981414795 -77.585418701172 -93.863731384277 2.015713930130
-160.156829833984 -78.497924804688 -261.462219238281 4.127895355225
-159.607360839844 -77.406112670898 -257.602264404297 3.269564151764
-150.791168212891 -86.987236022949 -275.666076660156 1.838770747185
-168.504364013672 -70.189147949219 -279.327697753906 3.012544155121
72.649604797363 -69.047592163086 -104.071563720703 1.405513286591
-150.924407958984 -67.640945434570 -257.650451660156 1.512669324875
-85.806343078613 -57.548950195313 -52.998706817627 5.545589447021
-148.454498291016 -64.774452209473 -258.841400146484 2.173887729645
30.440156936646 -69.954322814941 -151.388168334961 0.972472906113
-154.731323242188 -83.602882385254 -266.227020263672 3.835512161255
-153.988418579102 -81.519454956055 -270.756866455078 1.618013262749
-145.904418945313 -73.405738830566 -250.292816162109 1.913493752480
19.512102127075 -74.134780883789 -160.059463500977 1.875486016273
28.679834365845 -67.151824951172 -150.317337036133 1.992731571198
-166.031524658203 -69.932899475098 -269.797424316406 2.444697141647
-159.997161865234 -71.313049316406 -269.751373291016 1.172312021255
-128.531753540039 -73.687034606934 -257.432495117188 3.074787139893
48.543720245361 -65.335037231445 -104.637443542480 1.610643029213
-162.127532958984 -75.227851867676 -304.393493652344 6.359880924225
30.486310958862 -72.823425292969 -120.173492431641 2.076872348785
-35.654476165771 -79.646003723145 -181.426559448242 2.884603261948
-91.640846252441 -77.286178588867 -102.430778503418 4.522600650787
-150.998733520508 -82.251976013184 -293.902893066406 2.549677371979
-32.318149566650 -83.014739990234 -173.928436279297 2.708327531815
-143.921569824219 -86.046043395996 -284.605957031250 2.511330127716
-67.022727966309 -80.976425170898 -211.607467651367 1.847767353058
-146.358154296875 -81.360786437988 -290.834442138672 2.156209468842
-58.652885437012 -84.434097290039 -202.425384521484 1.998362183571
-58.701587677002 -83.697036743164 -199.545272827148 3.376001834869
-46.373565673828 -79.200256347656 -187.675170898438 1.423731565475
-155.405868530273 -79.156227111816 -295.751556396484 2.862505197525
-60.953239440918 -87.254829406738 -207.851272583008 3.734805345535
-154.885894775391 -70.104118347168 -307.166503906250 0.604869127274
-84.973258972168 -64.777305603027 -103.479568481445 3.350759029388
-64.543060302734 -76.162506103516 -77.830505371094 7.441932678223
-47.270042419434 -72.763854980469 -58.347301483154 2.835530042648
-87.771110534668 -77.847106933594 -103.597656250000 3.350592136383
12.044128417969 -87.113136291504 -253.012649536133 3.889539718628
-49.566570281982 -80.402778625488 -76.265396118164 2.445465326309
-50.119506835938 -76.627174377441 -77.241539001465 5.021736621857
-137.949462890625 -83.318367004395 -259.033538818359 0.843705415726
-35.563415527344 -75.366889953613 -163.385406494141 2.025594711304
-17.472606658936 -80.782478332520 -176.794570922852 1.050947904587
-13.529590606689 -74.527229309082 -174.595382690430 2.993840932846
90.368392944336 -73.685394287109 -72.437370300293 1.462168574333
-136.300109863281 -76.386375427246 -258.374847412109 1.596615672112
24.544620513916 -78.423362731934 -137.011764526367 2.495113611221
-151.036087036133 -86.150642395020 -301.093719482422 1.182392120361
-13.717633247375 -75.989204406738 -170.832519531250 3.375438213348
-154.436477661133 -77.274765014648 -311.776184082031 2.696496725082
29.254268646240 -75.849807739258 -133.122894287109 0.963199377060
25.179420471191 -72.818840026855 -134.562347412109 2.839241743088
83.353294372559 -74.050094604492 -79.027305603027 2.624619007111
-3.718389034271 -78.814865112305 -164.352432250977 1.302551746368
66.585754394531 -66.095245361328 -69.062286376953 1.770088911057
92.948280334473 -73.922378540039 -76.280609130859 0.715240657330
-44.165248870850 -74.305229187012 -65.345146179199 4.170145511627
-40.633705139160 -80.013130187988 -74.038970947266 2.591875314713
-165.926269531250 -77.502449035645 -285.752227783203 3.229165554047
-137.596343994141 -73.919326782227 -256.170928955078 1.718182802200
-102.004013061523 -76.089904785156 -217.672424316406 4.259764194489
-44.060138702393 -78.439933776855 -73.042526245117 2.855793476105
-41.028900146484 -76.982955932617 -208.243957519531 2.023722887039
75.893150329590 -72.743827819824 -226.380783081055 1.846459746361
-6.710718154907 -80.968315124512 -250.226226806641 3.438965559006
106.805557250977 -68.987747192383 -126.559226989746 2.591491460800
-65.499893188477 -61.218044281006 -94.490638732910 1.973438024521
61.485336303711 -56.327850341797 -71.583137512207 3.284022331238
94.013252258301 -70.686920166016 -80.305908203125 4.259540557861
-40.813766479492 -78.724029541016 -80.566040039063 3.519020080566
-39.003864288330 -81.064155578613 -243.502304077148 1.127494215965
-137.505706787109 -83.102958679199 -286.997406005859 2.049731731415
-74.853088378906 -78.607780456543 -209.993377685547 2.352901458740
-133.247283935547 -78.396614074707 -283.349578857422 4.193450927734
-74.840057373047 -79.644454956055 -75.105316162109 1.518063426018
20.570062637329 -61.301963806152 -142.638290405273 2.118011236191
-76.043395996094 -79.054168701172 -81.656356811523 4.440968513489
-86.087783813477 -65.109672546387 -107.348213195801 2.635251522064
55.882122039795 -60.228591918945 -98.352027893066 2.696273326874
-22.696786880493 -72.588752746582 -291.438446044922 2.441777944565
-77.167984008789 -78.876274108887 -79.323326110840 2.428912401199
-72.335121154785 -63.946727752686 -98.568107604980 2.927852869034
-88.648101806641 -64.956161499023 -111.069381713867 2.598402976990
47.595779418945 -64.396278381348 -99.167137145996 0.667591631413
-146.702667236328 -75.579124450684 -267.082336425781 1.439135193825
-130.672302246094 -74.634300231934 -280.640991210938 3.021475076675
-157.082443237305 -74.299987792969 -251.076324462891 3.254686594009
-159.887237548828 -76.291671752930 -250.329513549805 1.651252388954
-49.531620025635 -75.996482849121 -85.079513549805 2.039130926132
-153.628555297852 -76.936859130859 -256.157714843750 3.153690099716
-126.191200256348 -72.335662841797 -286.644256591797 1.199370145798
-131.512329101563 -67.512023925781 -287.884552001953 1.960289478302
-150.629196166992 -70.235717773438 -270.785766601563 4.189682960510
-155.663543701172 -64.312194824219 -267.164855957031 3.631198883057
-145.214752197266 -80.601440429688 -257.052459716797 2.760014533997
90.472473144531 -75.924026489258 -96.785835266113 1.686975240707
-68.229843139648 -76.710647583008 -101.061859130859 0.898066878319
-48.476913452148 -77.360366821289 -68.303726196289 2.245427131653
-80.397850036621 -77.354286193848 -105.102363586426 1.496544599533
47.481296539307 -69.020759582520 -98.359466552734 0.941892087460
52.705253601074 -67.083267211914 -91.180206298828 0.796993434429
-37.540344238281 -74.006126403809 -174.134445190430 2.438212633133
-153.927093505859 -76.909500122070 -290.798889160156 2.208257436752
-146.808670043945 -78.312141418457 -303.515716552734 1.678282618523
-149.119644165039 -81.773063659668 -300.319976806641 2.162500858307
71.041641235352 -67.449302673340 -69.023345947266 1.836217761040
64.976974487305 -64.861442565918 -78.255836486816 1.777088999748
58.537418365479 -65.823837280273 -85.943389892578 1.709654450417
36.082584381104 -68.875930786133 -109.127761840820 3.300125598907
-37.183986663818 -70.845054626465 -177.970458984375 1.684153079987
-122.551193237305 -68.975143432617 -262.450714111328 3.016129732132
-154.005615234375 -72.161720275879 -294.495666503906 1.932203412056
80.181419372559 -67.728591918945 -65.773780822754 3.365211009979
-30.466516494751 -65.686332702637 -176.906768798828 3.471282243729
-111.928237915039 -69.757904052734 -256.091430664063 2.196668863297
-117.613838195801 -67.764999389648 -259.643402099609 1.209893226624
46.929977416992 -64.877471923828 -96.933578491211 2.068661451340
61.221313476563 -66.106231689453 -82.090995788574 1.079797387123
85.485939025879 -63.349899291992 -60.699878692627 2.242459058762
-154.809509277344 -66.256805419922 -285.671478271484 1.847888350487
-150.069900512695 -67.610923767090 -292.938049316406 1.928721070290
-150.448211669922 -67.322608947754 -294.852203369141 2.240897178650
-14.381912231445 -82.350746154785 -179.063095092773 2.271816730499
-37.695575714111 -79.155281066895 -162.460830688477 1.420747637749
-16.437223434448 -83.136940002441 -179.405929565430 2.672649860382
14.866518974304 -80.711395263672 -217.422271728516 0.500189840794
-148.298217773438 -82.199096679688 -187.481643676758 0.433714836836
-39.899883270264 -76.074371337891 -154.205657958984 1.172764897346
-59.412834167480 -74.229530334473 -173.241638183594 1.326643586159
-11.708512306213 -81.021163940430 -210.705245971680 1.087980508804
21.604513168335 -85.352157592773 -244.438354492188 4.351986408234
-32.549182891846 -82.364067077637 -190.710296630859 2.342298984528
-3.822141885757 -69.900520324707 -234.454269409180 0.856328427792
-93.586471557617 -66.295906066895 -145.463989257813 1.796141505241
-42.898578643799 -75.306678771973 -198.582626342773 1.146996498108
-46.400077819824 -80.681701660156 -186.860626220703 2.311146020889
-45.752540588379 -81.734870910645 -191.744842529297 2.015922069550
-92.905601501465 -73.900718688965 -218.222763061523 1.278467178345
-42.289569854736 -72.251510620117 -55.888092041016 3.005461931229
12.014369964600 -79.338340759277 -249.230972290039 1.142012238503
-126.185516357422 -74.719085693359 -226.777938842773 1.155436396599
-149.488372802734 -72.431747436523 -198.090316772461 2.244729280472
-31.266683578491 -76.375953674316 -69.932388305664 2.887399673462
-152.669174194336 -76.866317749023 -188.841827392578 3.882035255432
-156.950424194336 -69.043479919434 -197.146911621094 3.103379964828
-130.045608520508 -67.007751464844 -222.392105102539 3.837403059006
-140.180023193359 -66.896965026855 -198.786315917969 2.222819328308
-144.960876464844 -59.042915344238 -197.104965209961 0.987729191780
-68.693687438965 -72.393218994141 -153.766601562500 0.615059137344
13.194956779480 -83.710716247559 -245.610946655273 0.632463634014
-70.362319946289 -68.798057556152 -147.684371948242 1.194063067436
-9.699936866760 -71.140892028809 -215.754333496094 2.531817913055
-71.339218139648 -75.674232482910 -248.832733154297 0.260141164064
-10.599573135376 -83.452049255371 -213.828460693359 3.577735424042
-87.252479553223 -58.634674072266 -116.758583068848 2.136882543564
-42.231750488281 -78.367156982422 -287.461242675781 1.554805397987
-22.145282745361 -67.942108154297 -62.247360229492 5.435907363892
-141.259017944336 -69.258529663086 -182.545867919922 0.848628699780
-145.451095581055 -59.970203399658 -181.877792358398 1.898084998131
-18.119401931763 -80.533042907715 -202.144683837891 2.376118183136
-149.900955200195 -70.600387573242 -188.363464355469 1.301199197769
-152.329299926758 -82.229568481445 -199.389801025391 1.717970371246
-155.188751220703 -67.132484436035 -187.791061401367 1.910208225250
-162.215942382813 -65.084335327148 -199.137161254883 1.920189142227
-148.923278808594 -58.785675048828 -191.740097045898 3.429195165634
-116.775009155273 -72.872077941895 -226.677627563477 1.317086815834
34.251697540283 -74.039512634277 -139.156738281250 1.825852036476
-52.432991027832 -78.895744323730 -190.446716308594 1.274398207664
-49.615177154541 -79.729499816895 -195.471908569336 1.321579098701
-145.966308593750 -85.825401306152 -202.116592407227 3.172152519226
-147.309417724609 -81.037338256836 -201.490158081055 1.486080288887
-148.206359863281 -82.081237792969 -206.536941528320 2.361184597015
-11.834559440613 -59.064689636230 -57.178756713867 2.571485042572
-50.129207611084 -79.356597900391 -284.666839599609 2.428435087204
-83.446464538574 -72.615676879883 -248.813598632813 1.809238195419
-106.491226196289 -72.019271850586 -227.824005126953 0.849736630917
-143.714324951172 -84.151535034180 -198.495346069336 2.189167976379
-146.714065551758 -67.068328857422 -189.222854614258 1.793881654739
-28.762004852295 -59.973423004150 -75.306999206543 4.535291671753
-151.009445190430 -64.297691345215 -188.688095092773 2.257233381271
-33.699607849121 -55.306514739990 -69.533447265625 2.989718914032
-37.542903900146 -79.131416320801 -196.889236450195 2.060643434525
-54.059020996094 -75.672096252441 -185.607177734375 1.622825264931
78.068603515625 -76.223716735840 -72.430824279785 3.004200696945
97.349647521973 -66.539245605469 -69.447868347168 2.056212663651
46.650955200195 -76.175376892090 -248.417861938477 4.582632064819
-70.121841430664 -75.234359741211 -72.519645690918 6.008906364441
6.613945007324 -85.067512512207 -277.586273193359 3.173517465591
9.677522659302 -81.488777160645 -279.366668701172 1.042820692062
-67.791824340820 -84.302688598633 -208.211166381836 1.518725514412
-87.979629516602 -70.738929748535 -84.966339111328 3.510049104691
-82.227005004883 -78.865890502930 -81.844894409180 2.447600126266
-102.605873107910 -71.736099243164 -222.958740234375 1.707598686218
-56.483905792236 -64.350761413574 -46.974822998047 3.630605220795
99.730484008789 -73.439643859863 -199.218185424805 1.296252608299
-117.136703491211 -63.368862152100 -200.952560424805 0.680813968182
-146.495864868164 -78.447395324707 -224.340270996094 1.902236580849
-148.424224853516 -77.084594726563 -215.253875732422 1.487772703171
14.256155967712 -79.615013122559 -187.299072265625 2.169627666473
-165.296554565430 -67.690261840820 -214.406143188477 2.112609863281
-11.336237907410 -66.560142517090 -246.328674316406 1.728332281113
-69.470390319824 -55.283512115479 -117.694709777832 1.155232429504
-147.819671630859 -80.505088806152 -216.223495483398 1.339273452759
21.720951080322 -71.844169616699 -198.941009521484 1.474901199341
-31.154600143433 -79.675865173340 -241.617385864258 1.753997325897
100.618400573730 -66.939498901367 -83.411911010742 1.537015795708
-5.392304897308 -75.226753234863 -243.109039306641 2.991607189178
-147.699630737305 -78.643524169922 -216.624923706055 1.305570721626
-114.531341552734 -63.226131439209 -199.739028930664 1.158470392227
-165.138244628906 -72.112060546875 -228.454025268555 1.506033301353
-155.320297241211 -80.546684265137 -228.165527343750 2.193220615387
-100.028869628906 -76.544647216797 -290.654785156250 3.313838720322
-153.963775634766 -73.659812927246 -247.248260498047 1.767938017845
-142.216567993164 -82.428230285645 -228.178070068359 1.129571914673
-153.581832885742 -70.459442138672 -246.275726318359 2.271382570267
3.054673910141 -82.132606506348 -245.274810791016 3.342318296432
11.321456909180 -81.009056091309 -239.714187622070 2.255262136459
7.047863960266 -81.599998474121 -237.370162963867 3.184030056000
-33.327270507813 -59.911346435547 -52.524490356445 5.530497074127
-28.540466308594 -84.034439086914 -214.324844360352 4.449225902557
-60.740936279297 -79.690132141113 -166.797729492188 0.250366806984
10.065843582153 -87.700553894043 -238.243560791016 5.185514450073
-13.999962806702 -73.985534667969 -205.088851928711 2.913574695587
34.920948028564 -80.174774169922 -117.312454223633 1.472460508347
35.886650085449 -73.684143066406 -110.886779785156 1.024402022362
9.060105323792 -86.780677795410 -244.419738769531 5.062579154968
12.993307113647 -86.703178405762 -237.222137451172 3.373010873795
-98.264236450195 -67.835037231445 -148.284011840820 2.215714693069
1.706030011177 -69.475013732910 -238.241958618164 1.232506990433
-147.370147705078 -79.140655517578 -207.709716796875 2.801672458649
-162.123596191406 -66.312156677246 -209.883071899414 1.799226522446
47.086059570313 -77.768409729004 -115.045822143555 1.431998610497
-135.159179687500 -69.427101135254 -227.586471557617 2.674840211868
34.980899810791 -79.737739562988 -123.510147094727 1.805585384369
-135.837875366211 -81.186111450195 -226.281906127930 1.899298071861
13.192812919617 -87.639640808105 -244.788787841797 3.702793598175
-95.014549255371 -65.456161499023 -141.237930297852 1.454981923103
2.948698997498 -69.240699768066 -234.461868286133 1.195141077042
-4.001173019409 -81.858161926270 -224.742233276367 2.648505926132
-69.565956115723 -72.624382019043 -157.645294189453 1.816911697388
-19.311241149902 -78.238792419434 -212.333267211914 2.368689537048
100.207923889160 -80.445343017578 -192.146087646484 4.047062873840
19.312112808228 -80.911994934082 -247.175750732422 0.446807056665
34.222690582275 -71.582550048828 -134.059875488281 2.179731369019
-78.875816345215 -58.419643402100 -114.239295959473 1.168031215668
17.341915130615 -86.797828674316 -240.914001464844 4.546720981598
-83.003974914551 -61.755733489990 -126.653793334961 1.989085793495
5.257947921753 -77.054679870605 -286.751403808594 2.289541482925
-4.422618865967 -84.777671813965 -256.008148193359 3.209170579910
-167.801620483398 -78.772659301758 -273.675964355469 4.472403526306
95.132995605469 -74.031097412109 -82.431129455566 2.786949634552
-147.718963623047 -75.159667968750 -256.358093261719 1.783255577087
80.070693969727 -72.485214233398 -98.596244812012 1.609475374222
81.448509216309 -69.865478515625 -103.814178466797 0.961693465710
-157.426788330078 -70.233772277832 -257.368682861328 1.095708608627
23.271852493286 -77.535545349121 -151.126785278320 2.266765117645
-141.849563598633 -82.873428344727 -257.509185791016 0.792668700218
34.167579650879 -76.098014831543 -150.603805541992 0.796712040901
87.069374084473 -76.653434753418 -90.739707946777 1.954403281212
-66.201065063477 -78.712936401367 -242.733169555664 4.160098552704
21.807569503784 -77.835700988770 -160.280044555664 1.327913284302
-150.972793579102 -83.626419067383 -259.853912353516 0.835133016109
-164.132110595703 -73.437995910645 -263.590606689453 1.734524488449
-149.976318359375 -81.807548522949 -261.120147705078 0.978782892227
-115.431587219238 -78.465080261230 -287.718780517578 2.760343551636
-156.911911010742 -65.832633972168 -259.726837158203 2.211152791977
-158.448059082031 -77.165321350098 -245.947219848633 4.651379108429
85.423019409180 -80.605941772461 -222.316238403320 3.406891345978
-153.400741577148 -85.094711303711 -253.753356933594 1.792677044868
-47.983116149902 -75.894706726074 -81.270217895508 4.429722785950
-9.254457473755 -88.952217102051 -258.658355712891 6.881760597229
21.468618392944 -57.475776672363 -38.140518188477 2.570249080658
-12.429330825806 -74.888412475586 -271.575683593750 2.705045938492
-5.201159000397 -74.522460937500 -267.184478759766 6.874080181122
-9.490142822266 -76.456863403320 -278.445831298828 2.510624647141
-3.323302984238 -71.298225402832 -278.999786376953 4.407249450684
-65.550262451172 -76.527832031250 -245.904235839844 1.877085208893
-5.918900012970 -87.171730041504 -264.305267333984 1.667127847672
-9.308726310730 -82.923995971680 -262.042663574219 2.132849454880
46.265361785889 -65.577880859375 -96.705039978027 1.745437860489
8.772039413452 -86.927665710449 -273.169616699219 3.975662708282
-70.725563049316 -58.093067169189 -101.150650024414 2.578759670258
48.130794525146 -75.117675781250 -104.436042785645 2.537963390350
-89.427261352539 -73.886688232422 -98.662925720215 3.350295543671
103.202766418457 -80.868789672852 -171.157562255859 6.710356712341
-66.875343322754 -59.518550872803 -44.941509246826 1.636765122414
-67.530632019043 -79.987052917480 -204.409011840820 2.283288002014
-53.941555023193 -82.018875122070 -184.108795166016 2.851408004761
7.651082038879 -85.156326293945 -275.524841308594 1.752345085144
13.092046737671 -83.715316772461 -275.841705322266 3.913533687592
65.959373474121 -72.577430725098 -240.237869262695 1.119541525841
23.947334289551 -75.528266906738 -272.875793457031 3.211308717728
-137.171112060547 -83.495948791504 -287.305816650391 1.830572605133
-147.902404785156 -83.213363647461 -279.984527587891 2.498993635178
17.153648376465 -75.433685302734 -179.077697753906 1.470107436180
4.092020034790 -75.870208740234 -160.436096191406 2.265235900879
20.761243820190 -80.923164367676 -168.364730834961 3.468431711197
24.898391723633 -77.924537658691 -167.250610351563 1.430660963058
-158.867187500000 -71.170623779297 -274.761169433594 1.249036312103
-154.140151977539 -78.700248718262 -275.748046875000 2.932624101639
-67.086715698242 -73.924285888672 -91.783828735352 2.531622648239
-153.868240356445 -83.505516052246 -278.541687011719 3.659018754959
-158.490036010742 -71.976242065430 -280.947784423828 2.273761272430
-60.370647430420 -76.033706665039 -65.127113342285 2.682333469391
33.305519104004 -69.559906005859 -140.025680541992 2.623585224152
48.753913879395 -67.833999633789 -92.817237854004 1.548968672752
-66.208091735840 -77.270225524902 -75.106948852539 4.513346195221
56.460697174072 -65.191558837891 -99.255691528320 0.331230312586
-83.990570068359 -60.678810119629 -110.645652770996 2.199506521225
25.099479675293 -67.240844726563 -143.552398681641 1.193660140038
90.438140869141 -63.772357940674 -65.006645202637 3.059376001358
-39.622272491455 -76.822349548340 -208.958511352539 2.214063405991
-48.742996215820 -76.222930908203 -157.990631103516 1.995673179626
-18.795021057129 -75.526313781738 -189.451858520508 0.872490286827
-51.588020324707 -55.767555236816 -40.509010314941 5.328887462616
31.208768844604 -77.415222167969 -143.443252563477 0.825538158417
-82.895500183105 -79.020088195801 -252.264221191406 2.697245597839
34.090751647949 -78.116813659668 -144.662628173828 1.027207970619
-34.708930969238 -77.898231506348 -75.210006713867 3.662009954453
-142.534088134766 -76.897346496582 -184.868698120117 1.956738710403
-78.791015625000 -76.741462707520 -75.608825683594 4.312881469727
89.152153015137 -73.567810058594 -91.709823608398 3.558841228485
-47.761211395264 -78.783287048340 -80.512565612793 4.839248180389
-53.077766418457 -77.214439392090 -90.160011291504 2.117160797119
109.180252075195 -71.910850524902 -161.947753906250 1.599678635597
-89.120697021484 -75.455329895020 -92.214630126953 3.403769731522
-49.364570617676 -76.302467346191 -60.063037872314 2.693139791489
50.754676818848 -66.195487976074 -249.485809326172 0.901523530483
-46.035144805908 -77.179374694824 -202.299865722656 3.555997133255
56.813144683838 -60.095806121826 -93.943466186523 1.565683245659
-74.383811950684 -78.942359924316 -99.989250183105 2.212041854858
-30.656129837036 -79.034027099609 -187.459960937500 0.811342716217
-23.185770034790 -79.964958190918 -197.518997192383 2.163920164108
-38.556381225586 -81.951210021973 -186.358352661133 4.151013851166
-24.490026473999 -80.652160644531 -193.962036132813 2.211594343185
5.390927791595 -81.612861633301 -225.011642456055 3.930668115616
-3.694561004639 -82.065521240234 -224.038619995117 3.042834997177
6.052155971527 -81.299011230469 -218.796707153320 3.214872121811
13.889176368713 -79.457855224609 -222.557922363281 1.662679433823
-3.950694084167 -79.227622985840 -228.802078247070 1.459462642670
1.455618023872 -77.933616638184 -226.989761352539 1.523563623428
-50.484066009521 -78.740242004395 -180.154220581055 1.093619465828
-28.362838745117 -83.627235412598 -189.800796508789 1.760841012001
-44.247604370117 -81.203842163086 -166.290908813477 3.332112073898
-92.836936950684 -72.323165893555 -219.077209472656 2.631170511246
-45.177585601807 -73.116821289063 -197.579208374023 3.487811088562
-49.309398651123 -68.231986999512 -47.830768585205 1.521580219269
-48.833988189697 -80.031837463379 -181.614532470703 1.483794927597
-41.349521636963 -81.290618896484 -195.695800781250 2.387904882431
-147.343338012695 -72.049324035645 -198.653106689453 1.329498410225
-57.071819305420 -73.016098022461 -288.304748535156 1.444161772728
-146.930648803711 -80.379959106445 -191.074127197266 3.450192213058
-141.988693237305 -64.692230224609 -200.902175903320 2.072150707245
