109.390045166016 -78.224243164063 -156.268798828125 2.569478511810
115.222068786621 -75.385971069336 -156.662063598633 1.620845437050
31.100818634033 -74.703872680664 -155.831359863281 1.067944526672
-71.052772521973 -74.849685668945 -155.099075317383 2.362598419189
2.298369169235 -71.776870727539 -160.438888549805 1.577010035515
2.045506000519 -71.639709472656 -158.220916748047 2.645990848541
-64.152236938477 -70.671081542969 -163.398635864258 1.960836887360
-42.857479095459 -75.741958618164 -165.209274291992 1.287325143814
23.504426956177 -77.655014038086 -168.334518432617 1.418975949287
107.129714965820 -81.170806884766 -160.229339599609 5.521444797516
32.044246673584 -72.828567504883 -163.042877197266 1.294658303261
-0.151365637779 -73.373626708984 -166.537200927734 1.960098624229
18.298326492310 -79.409164428711 -166.615081787109 4.733574390411
-63.876815795898 -75.959030151367 -166.470397949219 1.243041515350
-61.902595520020 -74.738189697266 -168.240905761719 1.479601383209
-44.561069488525 -74.312133789063 -170.382720947266 2.964018106461
26.166221618652 -74.590438842773 -172.294250488281 2.425455570221
19.573070526123 -77.384323120117 -170.461517333984 1.841638922691
26.964599609375 -76.220932006836 -168.495468139648 2.168157577515
22.905918121338 -70.184844970703 -173.477630615234 2.646759986877
-30.084836959839 -70.968032836914 -174.262237548828 1.331107378006
14.625455856323 -74.980102539063 -177.469284057617 2.600306272507
18.731891632080 -73.097183227539 -179.349975585938 2.494191169739
-58.770343780518 -76.310470581055 -175.663406372070 1.400487303734
106.384262084961 -74.749893188477 -182.810317993164 0.888961255550
14.454132080078 -74.610946655273 -179.378234863281 1.672465682030
27.893789291382 -72.443756103516 -178.094635009766 1.776923537254
-30.314319610596 -74.023086547852 -187.872924804688 1.273818254471
-46.547237396240 -72.920257568359 -189.354354858398 3.483736515045
14.947672843933 -78.988830566406 -188.112640380859 1.623684048653
-52.323207855225 -75.899353027344 -187.869888305664 1.681014060974
101.860527038574 -75.807525634766 -187.986129760742 2.253259897232
-51.071037292480 -70.085662841797 -192.154388427734 6.269939422607
-147.116149902344 -74.021697998047 -190.522277832031 2.540296077728
14.885961532593 -73.035873413086 -193.768661499023 2.682744264603
-41.415550231934 -75.326034545898 -201.862258911133 2.049392223358
17.771732330322 -74.586685180664 -195.191894531250 2.355276107788
-15.128620147705 -72.542587280273 -196.669464111328 0.582700371742
16.165754318237 -71.953338623047 -197.116912841797 3.143700122833
-135.535400390625 -72.470672607422 -193.837799072266 3.142312049866
16.070154190063 -76.990646362305 -196.490966796875 1.259238600731
-134.500045776367 -72.650772094727 -201.039245605469 0.589219093323
-141.757843017578 -76.937973022461 -202.738235473633 1.915683031082
-34.781105041504 -78.102783203125 -204.775726318359 0.532298803329
98.036140441895 -75.040252685547 -204.350158691406 2.132898807526
-157.231597900391 -74.061599731445 -201.593093872070 4.542817592621
-14.420097351074 -78.525039672852 -205.798934936523 1.325355768204
-32.315471649170 -78.488571166992 -203.082153320313 1.141439795494
-38.405220031738 -81.408584594727 -205.540679931641 2.378625392914
9.440839767456 -76.352752685547 -209.101882934570 1.962391018867
94.556404113770 -73.193511962891 -207.462875366211 1.763400077820
-73.342651367188 -76.558288574219 -209.698272705078 0.792675971985
-34.147953033447 -75.790405273438 -208.220153808594 2.319771766663
-9.104335784912 -73.158233642578 -216.525329589844 3.805219888687
-68.724472045898 -77.240463256836 -212.998428344727 2.278506755829
-36.383750915527 -75.889709472656 -213.753723144531 3.482117891312
-20.099811553955 -80.427947998047 -215.323837280273 2.766592025757
-28.344512939453 -73.024063110352 -213.342864990234 0.621135473251
95.377761840820 -78.036026000977 -216.944915771484 3.823842048645
-74.371231079102 -75.065872192383 -211.237472534180 0.483287364244
17.684846878052 -77.015136718750 -223.103546142578 1.421857833862
5.522913455963 -75.741500854492 -214.466247558594 2.099255084991
-6.008474349976 -72.414871215820 -220.692947387695 3.986012935638
-93.233482360840 -78.636535644531 -219.063629150391 3.379969358444
5.080808162689 -72.721893310547 -226.122604370117 0.563694834709
-16.306131362915 -76.195266723633 -220.981903076172 2.404521226883
19.828443527222 -74.771377563477 -220.612014770508 1.405277013779
81.655273437500 -77.833343505859 -222.638992309570 2.054478168488
-153.410903930664 -80.136505126953 -223.812469482422 2.573487520218
-13.949590682983 -76.996917724609 -222.378387451172 0.969324409962
82.804161071777 -74.579055786133 -226.097778320313 2.088448762894
-142.388580322266 -75.337448120117 -228.717147827148 1.244926929474
17.066343307495 -68.216278076172 -227.323516845703 4.045371532440
-4.769534587860 -75.900039672852 -222.948059082031 2.004495143890
7.223563194275 -77.707550048828 -223.234054565430 1.335988283157
22.761049270630 -76.120574951172 -229.201324462891 4.897380828857
68.641731262207 -73.753601074219 -236.324111938477 1.287693381310
78.521583557129 -75.283386230469 -237.559616088867 4.527718544006
8.880122184753 -78.250335693359 -237.380874633789 1.978663325310
2.736342668533 -71.562057495117 -237.200302124023 2.682473182678
0.505445182323 -74.480850219727 -238.658035278320 1.507469177246
2.663964509964 -77.006530761719 -238.151611328125 1.209301233292
-46.380111694336 -80.201461791992 -235.387741088867 6.995508670807
5.168806076050 -75.433853149414 -238.903961181641 0.840329229832
-37.508026123047 -70.905242919922 -247.720016479492 6.032962322235
7.977239131927 -71.066329956055 -245.957946777344 3.153444528580
9.538184165955 -76.632751464844 -249.370162963867 3.236734867096
17.444555282593 -75.232833862305 -252.632125854492 2.976688623428
19.448032379150 -69.978134155273 -250.928421020508 2.592592000961
-79.104598999023 -78.793441772461 -248.398941040039 4.559104442596
18.178987503052 -77.134338378906 -248.832595825195 1.443751335144
-73.798698425293 -75.346542358398 -256.605072021484 2.839360475540
-144.228790283203 -72.206314086914 -258.863891601563 3.000983476639
-131.006591796875 -73.179336547852 -261.322601318359 2.495394229889
-137.207672119141 -73.896209716797 -263.637420654297 1.527381062508
-133.211898803711 -76.479858398438 -261.684814453125 2.026416063309
-152.676177978516 -79.883987426758 -268.047149658203 3.255107402802
-147.030822753906 -79.748992919922 -275.559539794922 0.994595706463
-147.427536010742 -78.034164428711 -266.745544433594 1.354889392853
-152.052337646484 -74.848266601563 -279.724304199219 3.023051023483
-164.199310302734 -70.506546020508 -284.941986083984 1.947180986404
-130.648544311523 -74.398117065430 -284.508605957031 1.018384575844
-50.542335510254 -77.544158935547 -285.423828125000 1.364578366280
-62.167964935303 -74.740753173828 -280.126464843750 6.001635074615
-72.675712585449 -72.826034545898 -287.575927734375 3.093894243240
-0.656546890736 -78.065933227539 -284.263061523438 3.080770492554
-126.604621887207 -73.986373901367 -285.464447021484 2.334146261215
1.851355791092 -77.005523681641 -288.620880126953 2.085319519043
-134.973419189453 -76.655670166016 -287.348114013672 1.365059614182
-93.585472106934 -78.205200195313 -287.554077148438 3.360800743103
-80.871841430664 -73.604263305664 -291.293457031250 2.797073364258
-159.702377319336 -76.374847412109 -290.161376953125 1.995402812958
-140.210098266602 -76.910202026367 -292.824707031250 2.230815649033
-116.276535034180 -76.194305419922 -290.418151855469 2.034924030304
-68.402061462402 -78.381423950195 -286.468322753906 1.482874035835
16.000268936157 -73.492813110352 -292.369812011719 1.842001914978
-33.742752075195 -79.388702392578 -292.266632080078 1.577428340912
-18.265743255615 -75.376037597656 -292.861572265625 2.058421611786
-133.418914794922 -74.567550659180 -292.736968994141 2.961879491806
-132.750244140625 -74.218811035156 -295.929626464844 3.033824920654
-143.231475830078 -72.798538208008 -295.948822021484 1.827167391777
-148.660461425781 -74.800354003906 -301.745361328125 2.821734905243
-148.322036743164 -72.565216064453 -308.628570556641 3.487022399902
-56.804847717285 -74.491531372070 -56.039020538330 1.271673917770
-76.360504150391 -70.902984619141 -55.256755828857 4.253632068634
-78.262771606445 -72.834655761719 -55.282543182373 2.736277580261
-26.003335952759 -74.576248168945 -59.621814727783 1.719279885292
-19.834802627563 -72.537063598633 -59.325237274170 2.770051956177
-79.485809326172 -73.034317016602 -68.129562377930 3.944784879684
-87.340354919434 -75.056579589844 -69.989898681641 2.039762020111
86.181243896484 -72.830093383789 -74.581008911133 2.028457880020
91.565574645996 -77.715744018555 -75.256469726563 3.307427167892
-94.315269470215 -72.005798339844 -77.048873901367 2.098054409027
-29.737052917480 -77.481719970703 -73.777587890625 2.076434135437
93.822166442871 -73.247787475586 -79.632110595703 2.040730237961
91.900878906250 -71.408309936523 -87.332626342773 5.271108150482
-93.011108398438 -67.809463500977 -74.306900024414 3.762513399124
-49.048507690430 -72.028411865234 -84.259170532227 1.062896251678
100.072814941406 -71.729370117188 -89.126724243164 1.728124976158
-56.940086364746 -76.409378051758 -87.677429199219 3.862674474716
54.955257415771 -77.807449340820 -95.250442504883 2.359227180481
-60.279262542725 -74.118728637695 -89.137756347656 4.610656261444
50.883132934570 -72.000198364258 -92.372192382813 1.182583212852
45.651763916016 -77.373626708984 -98.218261718750 2.444723606110
52.982402801514 -74.586532592773 -93.943893432617 0.517718315125
52.023265838623 -74.696960449219 -97.744430541992 1.249715685844
44.443511962891 -73.165512084961 -107.671218872070 3.208911895752
109.743751525879 -76.072860717773 -105.142333984375 2.138247489929
-80.002746582031 -71.127532958984 -110.932601928711 2.496315956116
-85.152420043945 -71.551345825195 -107.982635498047 1.794508337975
109.944633483887 -73.559143066406 -113.785369873047 2.025694608688
45.863437652588 -75.134292602539 -115.862899780273 0.598418831825
47.705364227295 -72.494659423828 -122.155700683594 2.901424407959
-87.727798461914 -76.177886962891 -114.861724853516 0.898360133171
112.406921386719 -76.148132324219 -114.799728393555 4.029302597046
112.771850585938 -68.545761108398 -118.350585937500 2.420011043549
42.958038330078 -76.168716430664 -122.784301757813 2.230092048645
109.976821899414 -76.180648803711 -127.419052124023 1.233833432198
107.738601684570 -73.677825927734 -131.762268066406 2.242308378220
28.505147933960 -71.239944458008 -134.887222290039 0.842342495918
113.818778991699 -74.596191406250 -139.239532470703 1.198678135872
109.379013061523 -75.854766845703 -131.208404541016 2.015333175659
-63.598678588867 -72.304473876953 -135.906646728516 2.946022510529
-57.556163787842 -75.120559692383 -138.512145996094 1.035404205322
27.065729141235 -71.392929077148 -142.399169921875 1.892874360085
-52.410320281982 -67.612625122070 -133.039978027344 1.856736898422
-75.344032287598 -70.395172119141 -140.379577636719 1.075628638268
-71.442481994629 -72.061752319336 -145.115249633789 2.353060483932
103.071479797363 -77.752670288086 -141.189132690430 6.283095836639
-57.112854003906 -74.110351562500 -146.295349121094 2.273425102234
-72.803176879883 -72.364990234375 -146.011306762695 0.837040722370
-41.918552398682 -73.459030151367 -145.038040161133 2.370277643204
114.367843627930 -70.410858154297 -154.663757324219 2.538175344467
26.145498275757 -72.877746582031 -155.821884155273 2.169608354568
-76.299255371094 -75.679870605469 -158.162338256836 4.633628845215
-52.692832946777 -75.553680419922 -156.927642822266 1.225341200829
-35.680316925049 -78.373535156250 -153.597640991211 1.987056732178
-39.322944641113 -79.904037475586 -153.319351196289 1.639989614487
-70.716529846191 -77.484405517578 -158.975921630859 1.155201077461
10.761066436768 -74.404144287109 -161.281936645508 1.145279169083
-50.142253875732 -73.505447387695 -159.287857055664 1.005939364433
-45.986186981201 -74.053726196289 -157.556198120117 0.733827173710
30.434947967529 -74.057250976563 -161.353134155273 1.901974320412
-33.419647216797 -75.530548095703 -167.706710815430 2.062272310257
-70.686012268066 -77.154449462891 -165.253936767578 4.227741718292
106.947769165039 -73.989776611328 -161.817367553711 1.809488534927
109.720069885254 -69.389205932617 -167.546356201172 2.218267202377
30.765640258789 -73.411392211914 -166.615020751953 2.910610914230
112.890319824219 -70.323608398438 -166.130493164063 1.346712946892
106.271385192871 -76.118194580078 -166.993041992188 2.589946985245
18.659713745117 -77.742904663086 -177.054183959961 1.434579133987
-28.094667434692 -70.205795288086 -173.195114135742 1.925887703896
-53.015811920166 -76.304367065430 -177.597091674805 0.704186022282
110.741676330566 -74.906234741211 -178.995010375977 2.034464359283
-36.663200378418 -75.684692382813 -180.374740600586 2.973801136017
13.555105209351 -74.015029907227 -177.992477416992 3.283932924271
-33.289497375488 -70.871765136719 -174.717163085938 1.419023871422
-56.179531097412 -72.867233276367 -183.223068237305 2.632039070129
-149.242660522461 -73.004394531250 -183.454330444336 2.571055650711
-149.691360473633 -71.067687988281 -182.625228881836 2.309266090393
107.369567871094 -76.543212890625 -179.337661743164 1.841427326202
18.382448196411 -71.339538574219 -183.204681396484 2.011979341507
-58.552135467529 -72.431137084961 -183.491744995117 2.878795623779
-48.129119873047 -77.011245727539 -195.022842407227 0.621788561344
-48.205490112305 -71.446792602539 -190.689666748047 4.587715148926
-49.518535614014 -77.433700561523 -193.893737792969 1.447642803192
16.884366989136 -73.834655761719 -188.561370849609 1.073230385780
16.948949813843 -75.097671508789 -187.467590332031 1.530712842941
106.361701965332 -72.879379272461 -195.622146606445 1.733587145805
-23.584827423096 -72.908187866211 -196.554458618164 1.314924359322
-44.247955322266 -75.318161010742 -197.597106933594 1.358540534973
22.873798370361 -72.367828369141 -196.520202636719 0.120313845575
-43.271823883057 -72.382324218750 -197.052352905273 4.051917552948
98.356018066406 -76.341613769531 -200.097671508789 1.306298375130
-37.445560455322 -70.999954223633 -202.596511840820 2.896862030029
94.268806457520 -78.748657226563 -201.174377441406 3.282858848572
19.638597488403 -71.794784545898 -204.194793701172 1.740751147270
-38.524013519287 -71.819259643555 -206.862365722656 2.408726930618
16.208467483521 -70.298522949219 -199.948654174805 2.292042970657
-22.326356887817 -75.657714843750 -209.211181640625 1.923005819321
-40.358997344971 -74.530761718750 -204.479354858398 1.862712502480
92.063240051270 -76.022689819336 -207.740631103516 2.011293888092
8.714919090271 -73.699752807617 -206.855224609375 2.360868692398
89.129264831543 -69.175415039063 -218.514511108398 1.286841630936
-8.662054061890 -77.299346923828 -212.660415649414 2.044089794159
-23.289489746094 -74.296051025391 -208.984237670898 2.520318269730
-79.776802062988 -74.646911621094 -212.453063964844 0.705774188042
82.887855529785 -74.897460937500 -219.614395141602 2.612888336182
-19.461746215820 -74.700225830078 -218.191696166992 1.489132642746
17.970897674561 -71.806289672852 -218.909820556641 1.254421234131
-25.822202682495 -77.647384643555 -219.802200317383 1.805737257004
-29.386238098145 -73.773330688477 -216.511138916016 1.406872034073
-100.382980346680 -75.620880126953 -219.857864379883 2.058624029160
-7.898514270782 -73.117721557617 -221.115447998047 2.716391563416
-20.914789199829 -73.925552368164 -221.905532836914 1.356594204903
-0.775281786919 -74.313064575195 -225.232727050781 1.983855724335
13.722049713135 -78.160491943359 -223.679428100586 1.208466172218
-14.837656974792 -73.133407592773 -223.251251220703 0.901250600815
-12.919408798218 -81.712341308594 -224.873275756836 4.521075248718
18.915391921997 -76.234329223633 -224.033721923828 1.067051649094
8.240414619446 -75.077194213867 -219.381240844727 1.360710382462
6.888823986053 -77.362899780273 -218.297225952148 2.730452299118
-130.285476684570 -75.911987304688 -230.555465698242 2.475182294846
-12.556207656860 -73.393783569336 -227.501907348633 1.055315136909
75.747627258301 -74.804382324219 -229.663543701172 1.459955692291
-16.265117645264 -76.167694091797 -227.109466552734 1.382015585899
-151.041976928711 -77.218597412109 -229.536148071289 1.940312027931
-130.480651855469 -75.625595092773 -234.698730468750 3.402848482132
-10.988507270813 -72.427062988281 -237.212860107422 0.310307443142
75.873069763184 -76.654220581055 -227.155227661133 2.351902246475
-7.393108844757 -75.409835815430 -229.362960815430 2.213446855545
-2.751863718033 -75.015945434570 -236.458770751953 2.228882312775
65.972312927246 -76.180755615234 -239.291687011719 2.395840167999
3.337994098663 -75.027618408203 -243.988098144531 2.218886375427
66.761749267578 -80.296142578125 -238.722808837891 5.719369411469
-156.093124389648 -72.982925415039 -246.537063598633 0.875197052956
62.612434387207 -70.673339843750 -239.211120605469 0.572371006012
-36.833442687988 -73.058258056641 -241.348052978516 1.111294031143
-38.922111511230 -71.664581298828 -242.920837402344 2.961580038071
14.544661521912 -75.304382324219 -238.250930786133 1.980646610260
-47.423839569092 -78.641937255859 -245.685028076172 1.116446256638
-26.362529754639 -75.120437622070 -243.299621582031 1.605172038078
5.722202301025 -71.513046264648 -243.630096435547 2.145734786987
-48.988147735596 -76.141418457031 -246.159362792969 2.185174465179
-143.901260375977 -68.970092773438 -247.520767211914 3.102766752243
17.712274551392 -73.517150878906 -238.361755371094 2.063946008682
-150.067489624023 -78.979156494141 -241.532852172852 0.463661402464
-72.180595397949 -76.216125488281 -248.036178588867 1.369757771492
-4.240841865540 -78.194931030273 -248.974685668945 0.532330751419
-8.677943229675 -72.295547485352 -250.097915649414 2.455695152283
-82.189086914063 -75.179031372070 -247.582077026367 3.365396261215
-150.199707031250 -73.049804687500 -254.414688110352 2.340032100677
-149.982192993164 -81.181884765625 -252.248123168945 2.676477432251
-86.817161560059 -75.448867797852 -260.119659423828 4.714215278625
-161.196838378906 -75.381988525391 -260.896453857422 1.370211958885
-125.084594726563 -78.727584838867 -256.351959228516 2.548130035400
26.351552963257 -72.849227905273 -259.857086181641 3.241487979889
-155.280548095703 -72.139587402344 -258.162963867188 2.334356069565
-144.395690917969 -69.945785522461 -258.876159667969 3.015335798264
-164.527252197266 -73.500457763672 -259.943481445313 1.167696356773
-136.148178100586 -69.148033142090 -260.519073486328 2.724331855774
-121.707046508789 -76.218078613281 -262.889556884766 2.778520345688
-161.034301757813 -78.851119995117 -267.717224121094 4.287252902985
-144.662826538086 -74.935821533203 -259.957305908203 2.285799503326
-166.220596313477 -74.494689941406 -266.720092773438 2.920043706894
-154.337921142578 -72.961975097656 -260.250793457031 2.698255300522
-160.407806396484 -71.434387207031 -267.755157470703 1.222139954567
-169.579162597656 -73.159667968750 -262.934631347656 3.538214206696
17.078407287598 -82.899353027344 -274.456634521484 2.992516756058
10.812732696533 -75.696716308594 -273.894042968750 5.199247837067
-158.246322631836 -72.866561889648 -278.239471435547 4.221880435944
-158.243728637695 -74.267486572266 -273.992675781250 2.208481073380
-167.259979248047 -69.074966430664 -280.766174316406 4.544456481934
-156.716430664063 -73.965164184570 -272.796752929688 3.662747383118
-152.690658569336 -69.667716979980 -273.617095947266 2.461141109467
-149.975784301758 -72.654510498047 -273.444580078125 2.132052659988
-137.770965576172 -72.815841674805 -280.892822265625 4.392584800720
-161.933288574219 -74.379074096680 -278.945770263672 4.462256431580
-153.625457763672 -71.134933471680 -286.281707763672 1.801805257797
18.879327774048 -74.107849121094 -283.217407226563 1.690824389458
-153.779098510742 -77.595397949219 -282.479797363281 2.954665184021
-159.995346069336 -76.992492675781 -284.900024414063 3.604590892792
-162.890457153320 -73.394210815430 -280.747467041016 4.190122127533
-127.511756896973 -73.545532226563 -288.677276611328 3.640419960022
-31.665664672852 -76.435241699219 -286.118438720703 0.882927477360
-44.939048767090 -73.011062622070 -283.608367919922 4.702798366547
-68.407936096191 -71.268417358398 -291.210754394531 1.296919345856
-12.777611732483 -70.818740844727 -287.410156250000 2.810209512711
13.055115699768 -76.134353637695 -285.290008544922 2.735838890076
-2.074934482574 -77.351318359375 -290.780517578125 1.393481969833
-112.311981201172 -76.916152954102 -291.350799560547 3.486182451248
-98.018569946289 -72.738327026367 -287.005828857422 0.884462594986
-114.030822753906 -74.788360595703 -293.233795166016 1.870350837708
-103.278488159180 -74.981765747070 -288.842041015625 1.218150138855
-93.201095581055 -77.321044921875 -291.419921875000 3.387640237808
-47.727169036865 -73.784271240234 -286.950225830078 2.660114049911
-117.161926269531 -75.177337646484 -289.672210693359 1.445904135704
-86.085639953613 -73.186798095703 -292.580017089844 1.322100043297
-115.346229553223 -74.308563232422 -294.685394287109 2.100475549698
-134.896514892578 -75.741073608398 -291.699859619141 1.835103511810
-12.603017807007 -71.880981445313 -294.571838378906 2.996709823608
11.844253540039 -75.346191406250 -294.078430175781 1.297059059143
-152.869888305664 -74.522964477539 -295.145782470703 1.568000793457
-159.582687377930 -77.855819702148 -312.508514404297 6.108540534973
-66.188713073730 -69.889434814453 -56.074283599854 4.324865341187
-59.849441528320 -71.641738891602 -53.992713928223 4.794598102570
-57.379245758057 -77.453338623047 -59.567890167236 1.468196868896
-74.620956420898 -73.237136840820 -55.558483123779 3.440784931183
-42.570716857910 -78.371215820313 -59.281764984131 1.892958641052
-78.184738159180 -73.683670043945 -58.937923431396 2.257416009903
-80.289215087891 -73.743103027344 -64.020217895508 2.796443939209
-19.034687042236 -75.957717895508 -73.454498291016 0.784285485744
-18.259782791138 -76.867904663086 -73.382873535156 1.077073097229
74.447143554688 -74.424789428711 -75.963333129883 2.213020801544
-36.476272583008 -73.747573852539 -82.411727905273 3.518877983093
-38.252098083496 -75.571136474609 -75.527984619141 2.597272872925
67.432350158691 -69.548675537109 -81.929595947266 1.279316902161
98.604652404785 -77.157501220703 -87.110488891602 2.749484777451
-55.456741333008 -73.581222534180 -93.797912597656 3.124863386154
60.046794891357 -74.557983398438 -98.549346923828 3.081502676010
48.344417572021 -71.751907348633 -95.984680175781 2.061060667038
48.920890808105 -72.886093139648 -100.092895507813 2.316607713699
37.569015502930 -72.488342285156 -102.808883666992 3.463226795197
110.629180908203 -74.655715942383 -98.404602050781 4.152518749237
58.572090148926 -70.054702758789 -92.041778564453 1.230983614922
-97.635360717773 -75.157943725586 -103.055252075195 4.966698169708
-76.147125244141 -70.163131713867 -102.413742065430 2.735170125961
56.167423248291 -71.648925781250 -98.325775146484 1.534130573273
42.906387329102 -68.735992431641 -103.383605957031 2.426568746567
42.602489471436 -70.832107543945 -105.676651000977 1.025556802750
-94.062904357910 -72.155731201172 -114.738998413086 3.229171752930
36.260841369629 -71.531127929688 -108.880874633789 2.358053445816
52.452724456787 -71.355056762695 -113.122009277344 3.985479116440
43.037326812744 -72.843460083008 -117.009689331055 1.120255589485
46.645648956299 -71.351715087891 -123.402542114258 2.991556644440
114.463386535645 -72.183090209961 -129.076660156250 2.252065896988
-56.813095092773 -72.169052124023 -131.180938720703 1.044239997864
37.828575134277 -75.684494018555 -135.354400634766 2.250081062317
37.666179656982 -73.057617187500 -134.147781372070 2.211980819702
113.981613159180 -75.476852416992 -138.771606445313 1.795842885971
-73.867210388184 -71.153335571289 -131.995895385742 1.386900186539
-56.416622161865 -73.425582885742 -140.867019653320 2.125484228134
121.012069702148 -71.183105468750 -135.779434204102 3.589720726013
-72.681343078613 -72.507492065430 -139.925872802734 0.973987042904
-50.473674774170 -71.145568847656 -146.729263305664 2.573798179626
-62.313892364502 -69.294754028320 -145.605712890625 4.404553413391
106.705543518066 -72.778976440430 -139.025573730469 1.954344034195
20.912755966187 -78.326950073242 -150.984542846680 3.810820341110
29.692525863647 -72.052520751953 -145.980407714844 2.563844203949
-44.520648956299 -71.805862426758 -153.509063720703 0.951619923115
-64.324325561523 -72.379913330078 -153.920043945313 1.856047272682
25.058570861816 -78.198028564453 -150.579086303711 1.364891648293
-72.208747863770 -72.820495605469 -152.704666137695 1.869585871696
30.179128646851 -74.206634521484 -150.028060913086 2.652601242065
-36.139732360840 -73.741333007813 -157.201828002930 2.632470607758
24.441036224365 -73.083999633789 -154.020339965820 0.592163324356
9.265360832214 -74.862472534180 -155.701980590820 1.850488185883
-71.837280273438 -71.975326538086 -163.103240966797 3.593234777451
-49.664871215820 -77.845718383789 -158.515243530273 0.994514465332
-60.196445465088 -76.086746215820 -158.528411865234 3.768638849258
-50.829086303711 -75.045684814453 -158.215835571289 1.584728240967
5.217459201813 -73.258010864258 -160.103866577148 1.372320055962
-34.740127563477 -74.948760986328 -169.029571533203 3.156976699829
-40.413722991943 -75.799072265625 -166.253829956055 2.595707654953
20.502115249634 -72.750259399414 -166.785018920898 1.440028905869
-41.337879180908 -76.826080322266 -169.048034667969 2.552369356155
24.759128570557 -71.457748413086 -167.332992553711 2.623886346817
116.843734741211 -69.494522094727 -164.908782958984 2.569604873657
-32.885025024414 -74.466979980469 -172.802505493164 3.310342073441
27.692831039429 -76.900329589844 -173.218978881836 0.434630870819
-68.110282897949 -74.086166381836 -171.084747314453 3.182407379150
-59.567623138428 -71.456466674805 -171.256912231445 2.398626089096
-43.963813781738 -69.153747558594 -170.550598144531 3.683903694153
-62.349964141846 -75.293914794922 -176.444534301758 2.210689544678
108.055320739746 -74.426025390625 -173.950042724609 2.086204767227
-147.899475097656 -71.857940673828 -176.050872802734 1.590901613235
-143.032775878906 -74.805847167969 -176.626007080078 1.489140868187
-58.798686981201 -72.418777465820 -175.324829101563 1.113861918449
102.782295227051 -74.020187377930 -177.285797119141 3.247081041336
107.789260864258 -72.712875366211 -176.331619262695 2.338595628738
106.079170227051 -71.512954711914 -181.256256103516 1.434064507484
23.707361221313 -75.294036865234 -189.401779174805 2.345811128616
-36.174190521240 -74.480072021484 -179.721908569336 1.750785470009
-135.240753173828 -72.698745727539 -185.758758544922 7.102835178375
106.644447326660 -70.777496337891 -183.725738525391 1.919190526009
21.502393722534 -71.990432739258 -193.412277221680 1.945972323418
105.035911560059 -70.903244018555 -194.246749877930 2.987362861633
103.853134155273 -66.787048339844 -195.294708251953 6.202965259552
9.284500122070 -83.331024169922 -196.708007812500 6.278449058533
-133.203582763672 -73.847396850586 -198.242507934570 1.274970173836
-124.589675903320 -70.457839965820 -197.420593261719 2.082567930222
-143.223876953125 -77.981781005859 -202.438400268555 1.904654383659
-131.513977050781 -72.166244506836 -200.631683349609 1.189374685287
-121.418975830078 -74.377380371094 -202.002136230469 2.014335393906
-21.372190475464 -76.421020507813 -204.186630249023 1.891334414482
-26.313228607178 -75.193161010742 -203.460647583008 2.877628087997
-129.116531372070 -74.734786987305 -200.599166870117 2.800798177719
-140.455688476563 -75.172851562500 -201.550811767578 0.851602733135
-14.610102653503 -73.296997070313 -212.231765747070 1.890336036682
95.168708801270 -73.069168090820 -200.801376342773 1.083790302277
-21.056386947632 -76.384094238281 -202.557830810547 1.631536364555
87.689994812012 -68.245193481445 -209.983551025391 4.080139160156
17.212093353271 -72.841247558594 -207.926223754883 1.222637653351
-5.222814559937 -73.949157714844 -214.926818847656 2.269825935364
18.600749969482 -74.320175170898 -209.836059570313 0.844653010368
-32.822208404541 -70.427078247070 -207.613235473633 3.155687332153
-85.634635925293 -77.620346069336 -217.161590576172 1.303094029427
-94.830108642578 -76.555343627930 -217.438247680664 1.737450718880
-10.754831314087 -77.867538452148 -220.063629150391 2.667335271835
-95.505210876465 -72.747817993164 -217.203689575195 0.921061515808
-95.796394348145 -72.785140991211 -218.039352416992 1.736249566078
84.571983337402 -70.795593261719 -219.772323608398 0.770170748234
-23.524806976318 -76.098587036133 -224.335815429688 1.836065769196
-22.086101531982 -68.666427612305 -225.878982543945 3.978266239166
-24.384922027588 -72.424011230469 -220.053619384766 2.180139541626
-19.585987091064 -72.486816406250 -223.547622680664 2.142132043839
-18.829219818115 -72.835144042969 -221.120773315430 1.147490501404
12.710049629211 -75.038314819336 -221.727554321289 2.968669891357
-137.905517578125 -73.268051147461 -228.555084228516 2.781352996826
75.553932189941 -74.529434204102 -223.649368286133 2.572584152222
-3.634448051453 -76.044311523438 -229.500869750977 1.835087060928
10.886941909790 -77.469131469727 -235.046783447266 1.051038503647
79.370155334473 -72.588897705078 -230.537979125977 2.078922271729
-124.381828308105 -74.728500366211 -231.678497314453 1.531392216682
-159.258651733398 -73.392776489258 -236.643508911133 1.748694539070
-134.946563720703 -75.708190917969 -232.592086791992 1.673209428787
13.259102821350 -77.504959106445 -230.722137451172 0.850257456303
6.519350528717 -72.533660888672 -229.822113037109 1.585081458092
-123.094146728516 -76.789154052734 -233.484558105469 3.045134782791
-2.511867284775 -77.180313110352 -238.455032348633 1.065233588219
-148.447525024414 -71.769775390625 -236.917877197266 3.164944648743
-4.415657520294 -80.832809448242 -233.712310791016 2.124420404434
10.402546882629 -72.348068237305 -235.666992187500 1.592558026314
-3.149773120880 -73.436676025391 -235.634063720703 1.568128228188
-4.111051559448 -77.259353637695 -245.444656372070 0.791529715061
6.821345806122 -78.913940429688 -237.852432250977 1.962734580040
-162.502243041992 -77.748031616211 -243.201583862305 4.197915077209
-155.566970825195 -75.997406005859 -238.026412963867 3.266641139984
21.024793624878 -71.468322753906 -242.747543334961 3.024685382843
-3.724723339081 -77.083770751953 -238.494506835938 2.112105607986
65.278045654297 -74.777877807617 -242.818984985352 2.545584678650
62.594661712646 -71.292785644531 -239.657470703125 1.221725463867
-164.749008178711 -72.017410278320 -243.845291137695 2.517479181290
-160.359436035156 -70.214584350586 -247.465286254883 2.300975084305
-151.020721435547 -74.153610229492 -242.469741821289 1.961676597595
-56.663631439209 -72.305007934570 -241.541473388672 3.421367883682
-8.651906013489 -69.523986816406 -244.230209350586 2.615914583206
-54.814014434814 -76.162094116211 -242.837142944336 0.700553596020
-154.402465820313 -78.261260986328 -252.019393920898 1.952312469482
-57.201763153076 -70.633026123047 -245.502868652344 1.884698987007
15.959815979004 -68.201904296875 -247.272720336914 2.618818044662
-10.093702316284 -75.398818969727 -245.658004760742 3.148526668549
-8.549471855164 -72.007537841797 -254.213302612305 2.738575458527
-161.057220458984 -71.945602416992 -250.081375122070 2.944991588593
-163.957107543945 -73.485198974609 -250.255020141602 2.612084388733
-84.211585998535 -71.553939819336 -245.248458862305 4.314625740051
-164.236602783203 -74.998687744141 -252.291030883789 2.036277294159
-147.450271606445 -74.588745117188 -255.796493530273 2.469243764877
-73.136474609375 -71.891906738281 -254.095382690430 1.855893969536
-97.109413146973 -72.574615478516 -258.526977539063 1.233030200005
-86.530296325684 -74.780914306641 -251.689285278320 1.423117399216
-134.143264770508 -75.466537475586 -258.657531738281 1.117867708206
20.895200729370 -74.502777099609 -254.256546020508 2.351777076721
-97.971176147461 -69.330932617188 -258.200653076172 1.367767453194
-100.302597045898 -69.381225585938 -262.314910888672 2.617631196976
-101.830558776855 -67.616355895996 -260.489532470703 1.674751162529
-114.624053955078 -74.300476074219 -261.056640625000 1.063300728798
-109.592773437500 -75.203567504883 -262.679840087891 3.149824619293
-115.788162231445 -74.600875854492 -262.251983642578 1.559899449348
-145.483078002930 -76.155960083008 -266.763946533203 2.204828500748
-128.952331542969 -73.571487426758 -263.329284667969 1.230341792107
-152.857864379883 -70.124404907227 -263.250854492188 1.058597922325
-147.181350708008 -74.338500976563 -271.817535400391 3.964438438416
-165.878021240234 -74.218704223633 -275.846221923828 1.702564358711
-10.049582481384 -76.133468627930 -278.474029541016 3.052649736404
-128.311691284180 -76.532730102539 -284.650238037109 2.315532922745
-139.527053833008 -76.186096191406 -287.774871826172 2.444185256958
-43.125686645508 -72.329467773438 -289.635162353516 1.281720519066
-87.444824218750 -72.940429687500 -290.343566894531 2.405261516571
-27.716518402100 -76.177047729492 -290.868469238281 1.779438734055
-33.852634429932 -72.195419311523 -291.796752929688 1.900141358376
-119.689811706543 -77.708068847656 -284.947357177734 3.191947460175
-19.726383209229 -74.842666625977 -289.479370117188 2.365281581879
14.364128112793 -72.934020996094 -290.875885009766 0.793323338032
-53.817211151123 -72.914779663086 -285.756927490234 0.687605381012
-119.691101074219 -72.774490356445 -295.186584472656 3.589092016220
-77.386352539063 -69.980773925781 -290.270080566406 0.766711533070
-70.254776000977 -69.728683471680 -290.913360595703 2.172231435776
-29.538045883179 -74.893890380859 -290.262268066406 2.921956539154
-99.675521850586 -73.464630126953 -290.303833007813 2.357631683350
-113.051406860352 -73.700775146484 -292.116943359375 1.174407482147
-11.343475341797 -70.115982055664 -298.881286621094 7.482430458069
-162.647827148438 -69.955078125000 -292.429412841797 1.785047292709
-150.520004272461 -75.502868652344 -301.382568359375 2.590020656586
-152.169021606445 -73.986953735352 -315.229156494141 2.802686452866
31.175918579102 -74.590957641602 -17.046911239624 1.265648007393
25.520679473877 -75.829360961914 -17.723821640015 3.912621736526
27.570772171021 -70.666946411133 -21.548948287964 1.145601987839
22.101106643677 -69.222366333008 -27.171539306641 2.354616165161
24.352815628052 -73.996154785156 -34.566989898682 3.010579347610
32.487598419189 -69.095046997070 -39.539821624756 1.582203149796
20.245639801025 -75.471099853516 -43.164974212646 7.805812835693
-57.022003173828 -72.355270385742 -52.239231109619 3.259197235107
-31.911773681641 -65.651611328125 -52.285495758057 3.138086557388
84.272590637207 -68.059143066406 -69.795669555664 3.923974990845
-91.043464660645 -72.326705932617 -74.308349609375 1.059764385223
70.757431030273 -72.169387817383 -75.466735839844 2.171320676804
-38.034725189209 -77.371673583984 -81.591461181641 2.410029172897
-94.568359375000 -70.646377563477 -84.464324951172 1.914350748062
-50.494186401367 -76.688140869141 -81.317077636719 4.671605110168
102.469718933105 -73.957351684570 -88.851287841797 2.554325819016
-94.248672485352 -71.748245239258 -92.767730712891 2.307358741760
65.859664916992 -72.212478637695 -93.278793334961 4.416721343994
-98.532356262207 -68.877075195313 -91.375900268555 2.614085912704
56.600093841553 -78.153030395508 -94.997024536133 3.843798398972
105.245597839355 -68.812683105469 -94.448806762695 2.462945699692
-72.189842224121 -74.059280395508 -102.337402343750 1.865249395370
42.851654052734 -67.828536987305 -97.346771240234 1.582981467247
77.935386657715 -71.347290039063 -104.389663696289 1.552985906601
86.494857788086 -72.148605346680 -100.335723876953 1.862249732018
42.385684967041 -70.468368530273 -101.554290771484 0.433171063662
106.958251953125 -77.691802978516 -102.948730468750 2.219718694687
-95.108482360840 -73.829849243164 -113.765777587891 2.952941417694
108.333328247070 -69.499145507813 -104.482299804688 2.079469442368
106.388847351074 -71.782669067383 -110.237579345703 1.700458049774
34.326889038086 -72.829895019531 -118.228118896484 0.846671104431
46.174549102783 -73.694580078125 -112.662139892578 1.218461632729
44.662166595459 -77.066299438477 -121.033767700195 1.276404380798
35.451896667480 -73.156860351563 -120.472473144531 2.543160438538
42.909885406494 -73.448379516602 -118.675292968750 1.745515584946
46.980422973633 -70.040679931641 -122.488449096680 3.668303489685
107.103858947754 -73.788558959961 -124.174621582031 3.805146455765
113.750602722168 -71.138305664063 -124.812042236328 2.072982311249
31.806058883667 -75.844711303711 -132.621459960938 2.462108373642
29.889308929443 -74.459045410156 -135.841964721680 2.512717723846
-70.700996398926 -71.591400146484 -136.499984741211 3.303703546524
-53.294635772705 -72.788146972656 -126.518569946289 3.127795219421
111.995147705078 -74.366790771484 -138.672851562500 1.066914916039
29.044679641724 -71.989715576172 -133.565567016602 2.295639038086
38.221389770508 -67.456275939941 -136.752120971680 3.956400394440
-80.618293762207 -72.166076660156 -141.695129394531 3.626508235931
28.298797607422 -74.040649414063 -137.142608642578 1.966662168503
22.414489746094 -75.996856689453 -142.114303588867 2.635706186295
-46.568611145020 -72.030899047852 -145.242462158203 0.883160889149
-73.504371643066 -71.262237548828 -145.468200683594 1.718533396721
-54.430305480957 -72.901397705078 -146.989883422852 2.392645597458
31.157131195068 -70.700042724609 -148.056564331055 1.660275101662
-54.874870300293 -73.009170532227 -154.346176147461 2.555454015732
36.145835876465 -71.144271850586 -158.741333007813 3.764190435410
29.432128906250 -67.406211853027 -163.050964355469 2.653462886810
110.763900756836 -70.474624633789 -155.474792480469 1.406572580338
24.909908294678 -74.598190307617 -156.649963378906 2.882687568665
15.855581283569 -73.583358764648 -158.610549926758 1.958997726440
-40.519775390625 -79.860900878906 -153.821716308594 0.446102738380
-73.562408447266 -70.154296875000 -157.288787841797 2.693152427673
-46.853057861328 -70.720397949219 -159.894409179688 2.263165473938
108.804878234863 -69.909103393555 -158.385910034180 2.844218492508
35.860145568848 -73.271255493164 -161.781036376953 3.607095479965
112.409523010254 -74.531539916992 -164.774581909180 2.204103231430
-35.652751922607 -73.627487182617 -162.301147460938 2.343057394028
18.485599517822 -66.653884887695 -171.790267944336 2.939318418503
-0.638753116131 -71.488861083984 -165.096405029297 0.709879219532
-32.481395721436 -69.573478698730 -164.447067260742 2.569241285324
-61.124912261963 -69.573547363281 -167.411743164063 1.755220532417
-31.246627807617 -73.559494018555 -165.254760742188 2.364920377731
-59.554321289063 -75.046524047852 -171.735641479492 1.399105548859
-33.246662139893 -67.442268371582 -174.220062255859 1.334050297737
22.327018737793 -74.467376708984 -172.407394409180 3.613553047180
-40.351455688477 -75.249130249023 -175.389358520508 1.050959944725
-151.059783935547 -74.101211547852 -178.958389282227 2.512738227844
114.587249755859 -70.973632812500 -174.189758300781 3.010284423828
-149.807342529297 -70.317443847656 -185.994598388672 1.451260089874
-145.887542724609 -75.009170532227 -185.575073242188 1.387380838394
15.101291656494 -70.925872802734 -184.429046630859 1.859667658806
24.324916839600 -72.208602905273 -182.682739257813 1.379778265953
-40.147010803223 -70.407424926758 -188.369964599609 6.955182075500
-151.723327636719 -68.758132934570 -188.830825805664 1.662588596344
-30.480569839478 -72.096481323242 -187.602172851563 1.661160469055
-145.481414794922 -68.534439086914 -191.911041259766 3.124867200851
-20.564611434937 -72.102661132813 -196.787124633789 2.351685523987
13.556461334229 -76.489929199219 -192.654388427734 2.048529386520
98.110748291016 -72.554534912109 -201.774063110352 2.315472364426
5.577880859375 -80.709304809570 -196.934478759766 6.577585220337
-128.054122924805 -74.954437255859 -191.747482299805 5.251812934875
-132.929260253906 -71.990661621094 -197.144989013672 0.935239434242
-141.654266357422 -73.593200683594 -202.271728515625 2.420627117157
96.573097229004 -68.729217529297 -199.212295532227 3.126190662384
-133.066848754883 -75.812225341797 -204.618423461914 3.171703577042
7.093687057495 -72.545898437500 -203.952270507813 2.548956394196
-25.342126846313 -69.514259338379 -206.399780273438 3.071036577225
-138.289688110352 -74.724548339844 -204.148162841797 3.484733104706
-146.132415771484 -71.762023925781 -206.897140502930 0.534160792828
97.822547912598 -75.684219360352 -209.725738525391 2.358252286911
-11.301090240479 -73.161697387695 -204.104782104492 1.274313092232
99.651893615723 -73.375045776367 -199.726379394531 1.201186299324
-7.169174671173 -70.962371826172 -209.751312255859 1.945462822914
95.143486022949 -73.606094360352 -212.251403808594 1.295493841171
-145.817321777344 -71.952697753906 -207.738067626953 1.198896169662
-13.060861587524 -76.482040405273 -212.891830444336 1.907121896744
-155.326477050781 -73.702056884766 -217.003326416016 2.599679946899
-150.785247802734 -70.926437377930 -209.237487792969 3.136028766632
-16.031347274780 -71.118255615234 -216.239288330078 1.297832369804
-88.146903991699 -69.062553405762 -214.969207763672 2.285637855530
-158.163574218750 -71.215942382813 -218.872833251953 3.087960481644
-161.244491577148 -71.582275390625 -209.900146484375 3.462661504745
-153.111480712891 -73.389144897461 -208.203918457031 1.634584665298
-31.829122543335 -73.244232177734 -216.272766113281 1.215018987656
-29.386056900024 -72.854476928711 -218.298461914063 2.136879444122
-14.778929710388 -67.637245178223 -214.304077148438 1.519702911377
-17.769104003906 -78.876419067383 -216.657852172852 3.377526283264
-148.432723999023 -71.548522949219 -222.964645385742 1.801748871803
15.943756103516 -77.923538208008 -223.705673217773 1.741136312485
-151.390930175781 -70.006195068359 -226.380569458008 3.230943202972
-91.932830810547 -70.397491455078 -217.188476562500 0.644938588142
-164.629333496094 -74.513870239258 -228.235839843750 2.541118144989
-25.689798355103 -65.004302978516 -217.608764648438 7.234655857086
-18.133029937744 -74.568054199219 -219.829589843750 1.156634449959
-161.493957519531 -71.594360351563 -215.702896118164 3.485464334488
13.778207778931 -70.596954345703 -221.690017700195 1.994471073151
-157.812362670898 -74.123779296875 -218.435729980469 3.941511154175
5.023552894592 -67.830596923828 -226.451889038086 2.153293371201
-164.067474365234 -69.624847412109 -224.501541137695 2.259608507156
-149.674636840820 -66.528106689453 -226.512741088867 3.109460830688
-105.574943542480 -73.031295776367 -226.810928344727 1.478841066360
6.667332172394 -73.383926391602 -217.864471435547 1.576496124268
-158.436782836914 -71.491058349609 -225.658203125000 1.972019910812
-160.600708007813 -69.630256652832 -224.338714599609 2.037215232849
5.197583198547 -70.379287719727 -224.077758789063 2.289181232452
-112.794349670410 -71.057693481445 -230.579727172852 0.504646122456
-156.269149780273 -72.584930419922 -229.205017089844 1.511941075325
15.819211959839 -73.325790405273 -226.926849365234 2.050307273865
-112.822067260742 -71.999588012695 -230.136978149414 0.677100062370
-114.915473937988 -70.304061889648 -229.390289306641 1.244830608368
-121.346466064453 -72.219787597656 -227.638198852539 1.904538512230
80.648429870605 -71.506011962891 -229.624267578125 1.800872325897
-162.364120483398 -74.973007202148 -227.717529296875 2.070277929306
-159.094299316406 -76.721145629883 -229.192001342773 4.192808628082
-2.087478399277 -72.934524536133 -228.156173706055 2.473405838013
-162.487777709961 -69.222885131836 -232.966857910156 2.480516672134
5.636777400970 -69.029144287109 -229.527999877930 1.747621178627
-165.576995849609 -72.516052246094 -234.466613769531 1.355713009834
-163.732925415039 -71.758209228516 -230.047332763672 1.505340814590
74.242073059082 -70.595169067383 -232.012817382813 1.574206471443
-164.624221801758 -72.361068725586 -236.040130615234 1.905676484108
-167.759597778320 -74.453659057617 -239.961929321289 1.873766541481
6.125489711761 -74.052520751953 -232.711212158203 1.494836330414
-155.743850708008 -69.526252746582 -238.241165161133 1.300371766090
70.396362304688 -71.307220458984 -237.413589477539 1.488609910011
73.250480651855 -70.676803588867 -234.692840576172 0.321081995964
-147.207901000977 -74.825195312500 -241.224411010742 0.865949392319
7.953811168671 -68.186965942383 -240.522857666016 1.251772761345
-12.896284103394 -74.537948608398 -240.709472656250 1.737591505051
64.030334472656 -75.632400512695 -242.265823364258 1.601223111153
-166.687576293945 -72.734985351563 -244.248138427734 3.017730951309
6.295879364014 -75.801727294922 -246.487869262695 2.227285385132
17.830373764038 -74.678054809570 -245.420089721680 2.163882255554
67.889251708984 -73.045455932617 -244.069610595703 3.451759576797
20.559339523315 -77.655166625977 -248.173873901367 2.154856443405
9.294046401978 -74.756927490234 -244.430465698242 1.509327530861
-75.391700744629 -70.306457519531 -247.613601684570 2.121527671814
19.305543899536 -76.038101196289 -243.669494628906 2.194590568542
-14.485395431519 -67.530181884766 -251.183731079102 1.796767354012
-147.248275756836 -75.070510864258 -248.793991088867 2.628453016281
-64.795669555664 -74.599777221680 -256.401428222656 5.753400325775
-142.683364868164 -72.820281982422 -256.314208984375 1.146530628204
-127.837997436523 -72.013122558594 -254.438034057617 2.239805936813
-98.523651123047 -75.332962036133 -256.431030273438 2.072143316269
-133.829360961914 -72.885482788086 -256.659759521484 1.686186790466
-110.247085571289 -72.423995971680 -259.483459472656 1.543472170830
-112.710273742676 -69.893371582031 -260.242614746094 1.879377365112
-95.519004821777 -77.074493408203 -259.084350585938 4.861451625824
-103.776649475098 -70.114120483398 -259.331298828125 2.442242860794
-115.867393493652 -72.753219604492 -266.443359375000 3.416476964951
23.416503906250 -69.557510375977 -267.169738769531 2.430920124054
-14.488354682922 -74.197601318359 -270.622894287109 1.266216278076
-171.125610351563 -73.252731323242 -274.469543457031 4.391952514648
-145.205169677734 -77.664474487305 -274.713623046875 2.412136316299
10.754559516907 -66.907501220703 -287.696136474609 2.938064336777
-130.443649291992 -74.148651123047 -282.309478759766 1.539236545563
-127.027397155762 -65.597717285156 -286.924682617188 1.243007302284
-80.069984436035 -72.595932006836 -287.173797607422 2.769481182098
-53.138191223145 -73.081756591797 -286.638031005859 0.979875564575
-109.130508422852 -69.900665283203 -290.729125976563 1.942015171051
-39.447570800781 -73.254928588867 -287.547882080078 1.690189957619
-29.424711227417 -73.372283935547 -285.552551269531 1.094386696815
-10.049349784851 -75.946548461914 -288.588317871094 0.999390900135
-36.049884796143 -68.576904296875 -292.499206542969 3.698862791061
-59.043533325195 -73.193328857422 -292.627349853516 3.117326736450
-30.982437133789 -78.657775878906 -291.106994628906 1.730380058289
-19.954217910767 -71.392868041992 -290.408294677734 2.960487127304
14.673610687256 -72.888977050781 -293.341217041016 1.098512768745
-113.403701782227 -75.483978271484 -290.249145507813 2.011007070541
-120.903106689453 -71.595382690430 -296.289459228516 4.234200000763
10.459222793579 -73.662857055664 -292.257049560547 3.075004577637
-139.304229736328 -76.408142089844 -294.412933349609 3.950085401535
-148.010620117188 -73.895095825195 -301.908905029297 2.486520051956
-144.074401855469 -74.598541259766 -302.997528076172 1.699680328369
-153.726181030273 -74.071273803711 -314.388702392578 3.045030117035
