# This PCD file was generated using the MATLAB® pcwrite function
# from Computer Vision Toolbox®.
# .PCD v.7 - Point Cloud Data file format
VERSION .7
FIELDS x y z
SIZE 8 8 8
TYPE F F F
COUNT 1 1 1
WIDTH 798
HEIGHT 1
VIEWPOINT 0 0 0 1 0 0 0
POINTS 798
DATA ascii
-115.374632670084722 213.385888123708014 -52.004633913941063
-132.864616105806192 214.625666130665593 -51.732274449711838
-132.626366957147923 214.799735029339530 -53.290960991530156
-126.475791234405392 213.926644616729334 -51.395108378571067
-124.077737061947474 212.829347131598126 -52.165585433003372
-121.520550452547809 212.693496258111281 -52.430367608981740
-151.405096299160647 214.273734606582991 -51.337466909730217
-127.620662691024364 210.998991856174655 -52.884478013355306
-121.987277774247076 213.918316212972854 -51.711723144791264
-114.100231512140724 214.454155353579011 -53.540981542809732
-124.258369794789189 213.747569293149155 -51.296246238863070
-123.054841605925674 215.097719912285612 -54.521226692677345
-118.541518973910158 214.883128765956087 -52.018645294165850
-150.916624200978475 215.807789472073921 -51.716267833410690
-145.933584463787497 216.910685654587269 -52.926771576592500
-146.081366020628536 217.017331001456881 -52.388693007412186
-150.316015668926980 218.268642105359902 -51.315795732632459
-150.641197270659433 219.155610593332938 -53.334258983332774
-145.014926011890140 219.039371553447324 -52.266034937446506
-145.477872472156122 219.820508939968761 -51.561299845289568
-145.483329249186738 234.219121839323435 -52.215499288085439
-151.099547725539281 232.247312431033805 -53.435406034602835
-144.252707082370449 232.069666220122485 -51.181726150529393
-154.980133655247357 237.225986905018345 -51.988016332926605
-131.945296719542426 237.797416139762646 -52.310118959083511
-126.378682385819729 236.451597767085218 -52.308520037966147
-126.076774038543135 235.858318378512848 -51.139715132652704
-124.608337866309427 238.178286128652275 -52.920764350678795
-132.145233847130811 238.346037071543634 -51.632268217378090
-128.965477402280044 237.942671467851198 -52.454170572235711
-133.249850418638005 238.339880943730975 -52.546310722578951
-131.930234450314629 238.522144714599364 -51.531498344014821
-131.268297882456892 238.412685012769600 -50.981747917395879
-125.193543479340534 238.590888654166434 -52.006146457270233
-132.906986838986313 240.465557768156430 -52.400019478368435
-132.385122401481254 240.731992231873647 -49.940286642868095
-125.401877721119590 240.724024536825937 -52.824093078313865
-130.278707363254142 239.655311916902235 -51.925559108010994
-126.004651010230148 240.334268541295785 -51.332085119264477
-154.506296114391205 243.459578162466158 -53.331791877718132
-131.178169295028198 241.650262366985061 -52.025583964445971
-129.199420376066314 242.128860760265326 -52.859607202036571
-126.959495575187006 241.233393286239505 -51.835994997631772
-128.646208437755661 243.007825552747335 -51.458943418486086
-6.602887736452086 246.749750030494539 -52.456860444605994
3.207906266171865 248.299323282836099 -52.496452573351775
4.069869788213674 249.471614093167915 -52.605118618389341
4.891906300485418 248.516467934308707 -52.234714463024332
7.100856882841482 246.868549221378572 -51.299263809971499
-146.417090507313645 248.036547191850246 -52.606364479309065
-7.164737342797541 249.606642627522490 -51.822670338567306
8.112696682666039 249.894424764786407 -52.824547506613158
-147.359612981440989 249.247018273559348 -52.654232061090667
-146.169141181842321 251.522178520307676 -53.586688800871840
8.747093238643441 252.389560149324581 -53.104944886981357
-6.439482083362287 250.671517095889527 -51.964050684380496
11.920529883279487 250.346330167680492 -51.078796347112778
-4.791457567643605 251.732825708444352 -52.871098948749463
19.152509800943470 251.353749412159345 -53.721834409297131
-2.404571418709535 253.159185288109541 -51.950369800043426
7.497267946904136 252.563921681328736 -51.931438412729086
10.998417066971578 251.838738062791123 -52.762890000940814
8.101345046598269 253.255560031578199 -51.475641734320497
-4.074928738743420 254.300013339399840 -52.613606827369523
-7.084399154741454 253.724401335091926 -52.860992409383257
-3.957196509459259 254.635056546673383 -52.512575555880034
21.692593041610778 254.732238594532816 -51.841460207513286
-4.942111540400946 256.873874853419238 -52.437109167656018
20.018541594942551 255.835975605978007 -52.797163636584244
-8.471907902305997 255.252768746077891 -50.924226923783479
-151.725859166469178 256.648653130155878 -52.449673109107138
-151.016875625261775 257.389999240939403 -51.244032913903425
-9.120833087560223 258.128901320109094 -53.868161306437386
-9.533946606571869 258.992022889709347 -52.558967804884716
19.513223187469737 259.420886492140312 -51.980723736851580
21.500448899283818 258.408022968062937 -53.666214676040568
-144.615093285303516 260.529676519628765 -52.554969507636969
-152.112371821573475 258.911289128894964 -52.340803589104723
21.694325633412419 259.368369316297390 -52.828178185904235
-7.667023669857245 258.831424539977093 -51.600429398823628
-6.074355161797138 259.840448629876619 -52.716904473986943
-146.589204371776617 260.190422474409502 -52.443533494262155
21.820552132572264 259.507139193285127 -51.170817400250598
-4.975877175785453 259.648773302541372 -52.276909634346609
43.646761028880896 261.300052398972070 -53.738898204272687
-149.232853490443034 259.736194461467676 -54.806262006439823
20.835484108955118 261.104523648531767 -52.877766102998592
-147.892633678902143 262.600092837028285 -52.930158048716493
45.021901581774998 261.197164632425597 -52.513730380541602
44.492058343238497 261.238555652797515 -52.657254157707811
-2.848847272881068 261.682543647400166 -50.595955633707995
41.802254440350993 261.941025739910003 -52.116859676632160
-146.902174704561958 263.201216231374588 -52.353865676787123
39.074102269057761 262.557286357774728 -52.717216053154743
-151.347330821752195 262.826204781069464 -51.610125049359667
37.392277485255462 262.494756160933548 -51.871158493398568
40.697877190201190 263.996193646629138 -51.695112500287799
42.272423551372178 263.369467488717646 -52.082803436790797
-147.471880793766019 262.614141092581349 -52.582491988785932
-1.299098477269400 263.033237024469258 -51.614792092307951
23.484256158107009 261.723303061891215 -51.252009355590005
-144.615679326968774 264.093040067719812 -52.877567587286194
44.141925244116429 264.903736446638732 -52.380941577191280
-143.163126639822167 263.959398392610694 -52.572397610579586
35.037410624116355 262.747042834389731 -54.426654790358896
37.597872946637878 265.051068107850369 -52.128629788207448
41.757455437100440 264.323245822566264 -53.174037693422562
41.942889330360238 265.831848194718873 -53.091812063111647
-154.970649410705732 266.204759409931626 -51.244556000966583
-145.124427105093815 265.276601561373070 -54.126802673975931
35.822544832853175 263.398377027363722 -50.601666797655987
-149.279377917175424 264.050357069929248 -51.278863348194690
-146.112877550036387 263.120769486455401 -52.447054696536114
38.493502365495395 265.976229161208494 -50.566225040621163
39.915313557532514 264.057229254569052 -50.886691280881145
-143.542971609167580 267.358132987858539 -53.444843368856269
33.767418753549649 264.288269148021300 -51.026870575470390
40.156040995385467 266.638356049656295 -52.187164450589194
-157.012118630028340 268.046262727541091 -52.843229288305153
38.895300404584965 265.514725284736642 -51.447943359280814
-148.593853170882852 267.051839685964126 -52.426142611497355
-148.893520426011463 265.385270931732180 -52.227645054640803
-142.318630933430455 267.161052690553504 -51.486958944032587
0.074941501893048 269.385809679236900 -52.896222383871802
1.244371180577056 267.135751785269690 -50.977660748868736
24.627774135385220 265.876778737076506 -51.495699854825666
27.456196553305766 266.470693652144064 -51.955486712639619
-156.898449590579418 266.874501191599506 -51.308451641157255
35.771655319361201 267.337251757867648 -51.118139525209401
1.195527213904136 267.446462715684788 -52.371772040996532
22.845541450248923 267.639693139077906 -53.782063892962086
36.961008446053455 267.763126345524313 -52.021374133873607
-149.453338889510405 270.031982107900319 -51.915098619507951
-142.621666400429774 269.203445973722239 -52.206913182851665
3.107777901875846 268.963528890315843 -52.820317169829579
1.458584522804340 268.541339366681200 -51.422458019834458
34.307376602062526 269.673683984249919 -53.490497430043163
-153.970041574600657 269.165861721807914 -52.913498271291346
-151.513805147053546 269.977007726110003 -53.173274924029784
35.084377406660735 269.852215470157489 -51.839170435155467
-155.672126356495994 270.549662544344017 -53.317684612499704
1.595050245538532 270.369358675232434 -53.719267579211717
-148.143678303739989 270.927104046196348 -53.772150350167863
-149.608316001222846 272.327224405999232 -52.462786446639896
32.908065054419090 271.111610963114515 -52.229930625417140
-153.457480965231952 270.769269912259915 -54.086077635166902
-143.838398128949933 272.126772527957826 -52.340439846227952
-143.070175527171131 271.631439782396683 -52.000097118081086
-151.610007208185465 272.774864926584087 -51.717035122253471
-146.221060716672639 272.362065630768711 -50.437032169531200
-153.959248513629973 272.379415734707266 -51.921097365763686
-144.744101343019906 273.138937745136900 -52.871313427689103
27.563000210800414 272.164670953351674 -52.494618148630167
-154.731801308004833 273.529161584622159 -53.295121356537393
-151.701864705161825 273.538544436343329 -51.161457391270240
30.186262727382072 273.729874736502268 -51.562215822940445
-150.991815115464647 273.390648247619538 -51.812085976883210
-147.645745376219935 273.270597506272736 -52.429748073117182
-141.833297430920595 274.595266747564210 -52.414719728780739
2.684616963795948 272.203599004225509 -52.861067009389600
2.521451892375812 274.157912137287667 -51.153112544690522
26.254460273573898 273.714303643027051 -51.309402403122164
26.850987316331249 274.534706327459901 -53.216550708106638
28.607262824888863 272.117483753650276 -51.110994944573100
-154.919369328355288 273.421600498478654 -51.692934642552245
-148.599917185279480 272.105958299104032 -52.550990708877720
-144.650358635326967 274.518003741978191 -53.095385808309885
-151.333666851676696 276.447115896639559 -53.836193365712418
-145.334951971573190 274.701550807053934 -51.039105236126865
4.309919978425868 275.699499178163876 -50.842942813366683
-151.955029913719443 275.246445751843623 -53.394063039141130
3.380000410476546 276.678137882585304 -51.931564025300624
3.411195773575801 277.284288341188528 -53.013100046964439
-150.515496161409345 277.395899088932424 -54.914268247287893
-148.033289458662040 276.521356598149509 -53.137454737170643
4.171636114496733 276.827799727051968 -50.277236122185563
25.773901306622989 276.922925767178413 -54.692693318124284
26.512551925217473 277.934945773531012 -53.611939060480722
-150.393818065664163 279.761920820404725 -53.445143770918079
-151.928959468505866 278.025071887316187 -51.665648111779937
-148.504228314462694 281.074284424867528 -53.648080052969107
2.075128105973579 280.218496889177288 -53.670858011311296
-152.608227565633598 283.213043273582571 -52.406204076546757
-147.059226885848062 283.984408052509593 -53.777570577461830
1.555509581676632 285.725827589474704 -52.910479499758381
24.172248907675851 285.371291216229054 -52.530032948931819
-152.453008601210627 285.771876260176953 -53.290928697672783
1.776951207489393 285.388735494866808 -53.338576445345865
1.279335407813772 287.161153058409070 -52.850046365691057
22.282324306526341 286.680779490140367 -51.690627655141910
-147.767305591525258 288.389062198732063 -52.933998319857437
1.196963905050950 291.005985964851220 -52.946559447089854
-151.021258821629687 290.705037488304299 -54.403132407192018
21.386680595366609 291.195270348182078 -53.663951277942189
-148.099307788496276 290.409666647044673 -50.716920788626339
19.111186383783565 293.027971292425718 -52.436108494626140
-150.629069420006658 291.682115189037972 -52.225016920671365
-148.557422566811454 293.743322091307391 -52.142424518837231
-2.026765699787321 292.823520833605244 -53.691802286232445
-151.854926604273658 292.235476748047290 -52.397518225290270
-146.950525844540294 292.836511925504453 -50.856271235327057
-153.333657288516463 294.363551010504352 -52.673863721119076
-152.684905177550206 295.638270546938713 -50.495112490822777
-150.201503160501773 295.862974903293320 -51.473272227622971
-148.123375310410438 294.848968792099697 -52.249583588362398
-145.290798230244064 293.593283782220226 -51.466656697780252
-150.937104008520890 294.286879367356960 -50.880729281302798
-148.516129907644910 292.774189217436060 -53.366224657608313
-143.636392107741159 294.861657103727964 -53.785491260293753
-145.821734447169291 296.184681532915931 -50.725574302220259
-146.385947752553875 294.578932799584550 -51.306096191324926
-2.875472211888769 296.384460156928753 -52.543868544670488
-153.614968668627711 296.118101792283198 -52.427825043348392
-153.757258266435315 296.043432448413228 -53.775751694125972
-150.888945167782339 296.877766150891375 -52.189343181990878
-148.988814311577897 294.451280169322786 -52.721930437427545
-147.756181630185921 293.879167305929002 -51.442900540788209
-145.294378125222551 295.092223268750502 -53.190995129830597
15.898966214889946 295.502681380126717 -53.050663581299887
-145.482627618231220 294.973498435684348 -51.052516996424458
-153.202236509729914 296.219869952092040 -50.750963843769590
-147.909661567354817 295.206326815573391 -52.752205378807673
-142.785976009112403 297.565235578650288 -52.012612731888623
17.232862240598518 296.271122995006749 -51.888844674361899
-154.778721901967003 295.942317942063369 -51.121355818691711
-155.061989571012504 296.550503357958462 -51.847794818033655
-155.789259721831513 297.060858950928093 -52.174421624913450
-149.530503579640481 296.120189141800324 -50.641479904387715
-146.682397465203223 297.300191262441615 -52.564489245292137
-151.630118255176086 297.405842315325401 -51.812052764024202
-147.981975540921638 296.958109341603745 -52.779608361539260
-146.435134388445846 296.707984155536337 -52.444689187719504
-146.524559529159433 297.157584416231430 -53.864361112297857
-144.522480203392348 296.844938100977686 -50.854135089824176
-143.715827037651309 295.866251638855204 -51.869765012211523
-1.361432274580887 298.118237358980537 -51.371022990479155
-155.830139457200175 297.234097912695290 -51.404909511467750
-153.889863582016488 298.845417524442325 -51.556136711318217
-151.879438803214555 297.398739346808213 -52.389441786636226
-152.085498174207686 297.387506783844913 -52.770400896302021
-143.387489840640711 296.050003325027717 -50.806938206401789
-153.307415089830158 299.104547002136030 -51.754780493129921
-147.690264914724025 297.511206036161525 -52.566916945943461
-146.780280927448587 297.043918518420185 -51.270015573446869
-2.414925767348294 299.319017218076795 -53.224546498226715
13.270111532415259 298.610506087617750 -52.543972032709561
-151.548013393641980 298.737548639803776 -52.044666332957618
-146.801450432444142 296.768962279071445 -52.866677052651525
-155.372701282222636 299.406049015191911 -50.781719768887150
-146.945717936521987 299.855043483890881 -52.272160054495131
-145.473982424583284 298.476064988921621 -49.666682001660654
-141.756372641666076 300.416178769217026 -52.512335792727853
-157.457248146546050 299.847910008660619 -53.616769332799933
-152.482310388135375 300.016167799639447 -53.042439535624467
-2.907915650162472 299.391954827035306 -51.372629253379863
-155.279346895665782 298.114336049874794 -51.528005123908329
-153.199098654075982 300.974968600391776 -50.200188048322907
12.452550859187923 299.377971615769411 -51.840795050788508
-152.962183347318017 301.350049148371227 -51.297486360749367
-146.320008669727883 300.339009969722724 -50.481159798717911
-145.291899822534020 300.778438247087081 -52.954233701275811
-144.162489553785804 299.484465800043324 -50.891761540197933
-1.607846505411696 300.047999462313953 -51.440550194383434
-146.517307268622346 300.238518150280697 -53.390809809800871
-155.746668227823989 300.847660661549014 -51.925187014545841
-154.945572494391456 300.111632944527059 -52.030663715594869
-152.747377592354184 300.476034810027500 -52.486034093815988
-147.187783847938505 300.710938345406305 -51.745590200398972
-148.097717217133550 301.253988047031726 -51.544409759425342
-145.267100200279401 300.809900593991927 -50.417214641424572
10.348804765709348 300.109861013764146 -51.504445224348807
-152.866432833035191 300.648818192735348 -52.111526442326976
-146.401592688986284 301.263393638761727 -52.835590803107749
-142.969840630787218 302.336390405815564 -53.021786297660100
-151.199318891862646 301.580556794126267 -52.033838256866460
-147.847480645158754 301.844710767744630 -53.359509794432682
-148.957919926844482 300.152247497342273 -52.132740182663881
-146.153464932001356 300.701988845854430 -51.365875709007362
-144.161425265338636 300.924251776900974 -51.836453337153792
-156.006817591595706 303.324711017336654 -53.112248240105245
-153.359860462771167 303.665267770162586 -53.037798272893298
-154.750299490660382 301.534388672772025 -51.662807794607851
7.996224259198011 301.878359400622003 -52.732642962413593
-152.647047700124091 302.557384833823846 -52.014510692868825
-148.557834623335111 301.900080879805103 -51.756566928015161
-146.541035358742704 302.513341554584485 -54.373570943076473
-144.757847876361751 302.055257921256668 -52.400130806239787
-145.289729218289466 302.290924609627950 -52.488114821674898
2.370230919016035 302.420574042752207 -52.011886249643354
2.592083439545338 303.954368725206734 -50.988181189064846
-153.453069638332124 302.727812467191370 -51.983284849369980
-154.599944726187061 303.316404291201138 -51.533880635922046
-147.592740672985883 302.894525075191439 -52.172495216441334
-145.937970674013883 303.301897856288235 -52.812316962985790
-145.517659209369072 303.894624039017913 -52.303870556417863
-152.188083481512507 303.694466392540733 -51.043633069293222
-150.874418987755917 305.217226975153608 -52.332996237162376
-148.926573467657931 304.963445527824831 -51.228951805572329
-146.840801439789942 304.231661955779714 -51.721561540768782
-152.876896022220933 303.748964112743579 -51.209276159654230
-148.784747858339358 306.711128929771803 -51.091819260226977
-147.501868735664232 303.207252394081422 -52.648684434163741
26.497639609732818 25.844105352868567 -50.705676362950584
42.638454592327982 25.214358882623891 -51.383349135188624
35.584911499922001 27.115102982537181 -52.284317891075617
35.155567749392446 28.526372716539676 -51.472672985329069
38.668114746930364 27.904250913344434 -51.125147003107784
46.932274665582192 26.755559956087076 -50.971912378302484
22.270264009645299 26.934771446532064 -50.623579759103407
33.707471890439514 27.713055170540990 -50.524985405486071
40.191846333724612 29.372110735745693 -51.091583692949683
48.050292449527738 28.673045756949435 -51.744735281432675
19.766619256739965 28.639919055933468 -50.921241466961391
21.789001603429732 29.854284208786879 -50.192175209334103
29.327929373293923 32.194947269516263 -51.596908465354645
43.214598120140934 32.221248065037734 -52.116565785107781
48.251046841261903 30.376815998412411 -52.689480148197617
50.263161669348072 31.858490308939835 -50.678679776272233
43.580097772940491 32.298028388610007 -52.372807624275197
48.998209005694342 35.143752712999344 -52.214782147066799
27.083584156773473 37.129422643983439 -52.661836132431930
43.938724912380067 35.106590471188909 -51.315180194230891
26.175467213281863 37.332385407630490 -51.569219365925754
24.194995819558667 40.311751679034188 -50.555924445851232
44.757568711265506 37.766097013888455 -51.343819151767072
49.175641251988033 37.274791255189854 -52.039375070774256
44.260020874414501 40.508025527798637 -51.314351299438499
43.130595831829851 38.712287495811779 -51.335999832103944
50.385037532276435 41.289623092778413 -51.283291409593225
42.686476248293474 41.682304868147725 -52.287702876096560
27.840857985793285 42.941568300042910 -51.333607702690159
29.063795843304213 43.639923720678226 -50.531797821450652
23.288145904238839 44.287714465668287 -52.317518169742044
24.736236251504572 46.779504050946755 -53.586816552014767
42.444919269743338 48.148264980801329 -51.006681451782832
42.556223781171020 48.615255596138716 -51.751806531044934
34.146074310940101 51.061575327858385 -50.803301241277850
28.771710758779030 48.537107001340416 -52.463192800955426
34.477850678183273 50.194308776283854 -50.829354066083887
39.168533298695074 49.561254346073689 -51.387393520671587
-57.868984503351435 53.655440938209630 -51.921073507033853
-64.944140762977980 53.313054953569441 -53.338630454234846
-53.504274825460683 53.587577328419613 -51.819014839991894
-52.027328176728766 53.957415206365155 -51.389994705120323
-72.691891469913742 54.049455020143419 -52.044698946861232
-78.238209349226693 57.676733528387359 -50.432341272076357
-44.646090390932450 55.218782039466838 -52.273051384864274
-79.964632602966006 56.708415172344750 -50.965224739939906
-34.949080575628102 56.699181774462232 -50.845448118094218
-80.426012377487027 58.099603945864679 -53.644609163720844
-31.113075123823865 56.773156764275122 -51.528466826925616
-28.655845924025662 58.818151157200376 -50.579147611995566
-84.589534754338928 59.695230288040705 -51.498361002054921
-26.096925324647305 59.620928186603358 -50.645914359197398
-83.722548159765651 60.664241004219946 -50.958622026005308
-22.451945622056279 60.876482948169063 -51.321082397493704
-85.320513622050086 60.626526371404871 -50.339074977707185
-20.101140752422843 60.756712022601064 -52.274990498900010
-87.172007889400234 62.248176885172875 -48.934962328834544
-18.175766244498412 63.078668211318956 -51.070637573116592
-87.501829438576522 62.737935802707263 -52.965724207434732
-88.627279794861394 65.364650209675915 -51.249812619878220
-88.658230413289758 64.545033071225106 -51.509465791404445
-13.173347941745490 66.431712363739450 -54.019125077574927
-92.046252087134206 66.409700175667581 -50.447906857617141
-11.593701709370647 67.738346024404393 -50.290948321137968
-93.955326325672900 70.013468848712364 -51.672934286393996
74.957807373806475 72.243958073286421 -50.772546312660893
87.137244074133051 71.193218173798968 -51.794876764028622
-94.877239357209433 71.352231508941884 -51.444300265423998
-9.478739305709214 71.163690138038405 -50.726030657976153
73.530075150917980 69.880168191257070 -48.800480638859348
74.684025404425569 73.902654630361894 -51.945320612785174
92.213120499000439 71.817825532518626 -51.003088306658952
93.913066822596704 72.570688106481697 -51.188542808097935
-9.899176647302374 73.048497022767492 -50.711941104878804
71.897080959349495 72.762457961498271 -48.519799886111826
72.140255116912584 74.156171896744453 -50.328942558047082
-11.370821724254146 76.123498118631801 -52.433604520089020
-95.561719012186856 75.064023466740878 -52.666284722866564
-11.057502566230667 74.856220555887447 -50.820061768041633
69.017236151489541 75.277866229847547 -50.400704714179462
-14.251445795306124 75.795944684564319 -51.198584443245970
98.474889130163277 76.726639404617345 -52.810678838550842
-17.298845116245147 76.381679970725457 -49.506586525569944
68.613082912695930 76.243122034504751 -50.914281560235665
-20.451270714523705 76.424848800435285 -51.162411276025381
98.630544247764817 77.006324942616345 -50.532944919005601
-97.418887545219263 77.845804422319574 -50.775350705992714
-23.935304223581880 78.145703957950104 -52.832117805640181
-27.316407902692092 77.818007720499054 -52.609879372472349
65.964891560607867 78.095177153344167 -52.822079728852401
100.708468174180695 79.274519897291441 -53.281659230289392
65.711723887138334 81.285844010696479 -52.140794735190553
-97.667778055569769 78.632742502707018 -49.954483315742841
-27.083256067889202 80.141658040496978 -50.698057587151453
67.462076438446431 79.852141895084713 -50.239749919706412
-29.415339851088287 81.909433368757547 -52.042593447893225
-97.258584296777940 83.332249204474820 -51.644000521426534
65.328108676237392 82.806614462085591 -49.219224829435277
-31.072735001427759 84.233749289750534 -49.990804211341199
-29.838219445697817 84.416751631358622 -49.863703799909658
64.373089611617601 85.596754059172994 -50.887599097665401
102.985273185635791 83.178184692276943 -50.960201635521670
103.292820184457540 83.988353123156656 -51.416908059073386
-99.067094360240205 85.786266315742623 -49.835432491927584
-31.452242802490563 85.842911860971768 -51.388609274011962
-32.326197330191391 86.440966104900014 -50.675685559662604
63.821539818186501 87.429029944283926 -53.032033909001967
105.534617928830599 88.791491886953324 -51.663041208104559
-41.744031454337907 90.074307146808351 -53.599982316377009
-54.731175774021303 89.180823672664474 -49.713765986644766
-51.725311367104787 90.418277508536391 -50.510186426568524
-51.845544567283525 89.511978607562114 -49.053841778168554
-58.058128245182161 91.391820835525067 -50.163064184104464
63.652637825616672 90.241887257864590 -51.647762884171414
65.479353143831091 89.138915691069158 -51.323092044773482
-57.377757604459262 90.592206994619531 -51.063077705496809
-57.125072092777287 89.545313806208526 -49.449174977181521
60.602496483604213 91.634084847633986 -50.150056390188269
-60.831324491593847 91.565531365263183 -51.015258250604674
-53.885359960627000 92.066052923086446 -52.285620348309891
64.609798803144884 93.029593679820209 -50.831210834127923
63.977613869220761 92.994293934215932 -51.500853671697719
103.203515792266188 91.710165698966549 -49.983846526875475
-58.714912063144155 91.805597306878667 -48.560380556190815
-54.200513408547884 92.490562189081786 -50.729688155251580
-47.472740471523203 93.526930391873407 -51.836962993035776
62.090419393616777 93.560451445636104 -50.560596457585248
-58.839471695230024 94.455058816703072 -51.672337817923406
61.897473957964131 94.706643490979360 -50.551120229361295
104.349614216989835 93.294133096231121 -49.730494065405303
64.736470113335159 94.849288657097446 -52.613218031520390
-99.010130717592290 94.254139444554909 -51.664587229063088
55.056418641349012 96.326656475161329 -51.168476844208975
-59.447903206818744 95.082934758271890 -51.133599463752113
63.097829201826436 96.676622882179743 -52.008803631012796
103.411976596400677 95.731166571293045 -51.892767530128715
-99.381701773406618 96.959221416487452 -51.550622654909937
-59.406636417569374 98.016392843653605 -51.181931691330171
55.185908576997974 96.828296536043268 -52.180816255976637
57.970122300434817 96.361380142280993 -51.622667934509579
-99.626376756516521 97.360278145336110 -51.694791828426240
104.434286769920973 98.814574072627806 -51.712831666395012
-63.279442845285104 97.638104407810886 -50.215673310146023
-64.932800651971874 98.078159231914015 -51.806044571993567
66.498149136134003 98.201824465722382 -51.723730313839887
-63.424793382466873 98.285003688031935 -51.384484439052009
104.546761649922686 99.199372505871068 -53.625108279693890
-63.290614734974298 98.683911607016469 -50.713283482057811
-64.640121323957644 101.866445956612552 -50.968549162254781
53.174883526110619 99.826390565755588 -51.050986801409991
54.952425162166236 101.613321936406805 -51.040180208921441
59.945446185232228 101.196400365299553 -50.053322294680505
54.922902529284421 100.243695753887280 -50.395224195297203
-98.416273239043022 103.113526100504217 -49.152393119171656
61.821095693836462 102.199917165101198 -49.533339425970212
66.305909471746403 102.937567108692534 -51.578576809361763
-63.704722393588291 103.024807530690907 -52.444390489383451
51.718786304929218 101.744628229725720 -50.800054746778073
54.124940589094642 101.872676056078433 -51.902968141706090
56.069573542386479 103.698612997753273 -50.113017397337359
62.340250273888152 101.778480047771097 -51.233776982567754
-66.599729127257319 103.288398194661951 -50.718896666783856
59.081413464730296 102.876991407195121 -50.890030058258446
62.241684627225055 104.076416406363847 -51.858951662042010
66.281430217766271 103.461952837885576 -50.946802391506090
-66.145138155400076 103.305072012334037 -51.612895584795204
51.484672475008928 103.588597610242616 -52.475737700126416
60.272532398554347 104.833852842275888 -49.081658291383732
-67.101900038660716 107.112267594198372 -51.441182900700504
-67.575168700621632 104.613233646058674 -51.129198706120874
59.842748292061756 105.041157269097837 -51.432223217150835
103.648278879066723 105.095691564766867 -50.205597651648233
-98.782560856405055 105.028889688693340 -51.785815352560761
51.023073265032757 104.777158830102465 -49.973729674821833
56.301148318209172 106.226905095579298 -51.244950057181178
59.101388394333483 107.083325064428166 -50.147900654086996
-65.131159475128342 105.374216180744014 -52.986770373474329
55.030391421551023 105.721156275943144 -49.827627123078273
57.671401641994642 107.125219552014642 -50.270530611712111
103.010052178348502 105.813547152493342 -51.034570102309594
52.025953759837456 107.165633109983432 -51.473634349916217
51.019286064957441 108.679551754552946 -51.499885594324631
52.366332769350038 106.076142969172338 -52.028675852258615
55.614571507056915 107.818917101267388 -51.651885818569838
67.708588948159729 107.835588481458174 -50.739767898822294
-98.910710077452691 106.635578767385482 -51.513554431275026
104.229429930352808 107.428528232277415 -50.859010950405533
-65.839286211346376 109.020837245826357 -52.268586421762848
102.745363646973075 108.208829214715792 -52.694360999045415
-98.460028098168692 110.080534861190330 -52.586853775106249
65.861240448257689 107.963787115527438 -49.502144451141923
68.993026668579006 111.839404802331487 -52.778101793277088
102.045903092839623 111.339438131843437 -51.099909798791700
-98.406609149772251 112.454167601394857 -50.243308259441314
101.753521670644517 112.338461070377832 -52.524813050741599
-76.157043017506879 113.250981683734835 -50.661686725327158
-68.392520638354512 113.170498458403372 -51.226912614130846
100.451390449185510 113.912286868330085 -50.795224223668697
-74.460775550329942 111.620971066914692 -51.433526441274985
-74.695379626440655 113.101377433929670 -50.698670149658618
-79.891941009931855 115.663561038128677 -52.998118263441839
71.862538894724679 115.088636498659284 -50.378713335589666
-98.577626662314614 115.162389522218277 -52.055348260837249
99.714131185994376 113.914371649457848 -52.152393885782317
-79.160698683339817 115.560729309884394 -53.071996916557524
-75.751845342556152 113.836065526419318 -50.830956971477427
-79.592519767902019 117.218095479864218 -49.454576768827678
-72.569249530499405 116.110932257098526 -51.483070607874701
-72.240174395629140 116.417644874388685 -50.554195047769781
-77.476419044000750 117.099666560174441 -50.831709651014336
-75.065111104840099 117.906975345989352 -50.695577142529586
73.174433585075661 117.248553923025526 -50.633980205747918
84.162529563625853 117.790341502209898 -49.236302667502621
93.807363241402413 118.833753449916941 -52.105857167503842
-83.192209673643433 116.421490041509486 -51.175874741092308
-76.050501484018810 117.226271585274546 -51.754820300676720
-75.470770743849258 117.120174807745883 -50.697049138139022
-75.654204954229129 116.637015231078010 -53.016918398255228
74.485735319467906 118.017261207465694 -51.538767637132686
81.892000417017243 118.132136979167029 -52.123946865447763
84.192594658150711 117.299609342153332 -51.486293155518602
81.308094114076439 118.413188379398562 -50.939958129238917
76.129846868975861 119.192671162426052 -52.790666545865804
77.858951979626710 118.692412972872390 -52.394953671237758
79.940613592097506 118.388954259124176 -51.357029986501011
91.300792319947604 117.947536076917700 -52.448833364951099
-82.601779762817984 120.273606129127614 -51.441605935060473
-77.212614079792530 119.887321966129392 -51.537304356816421
90.036601100651367 118.580377737818367 -52.965005755364189
-83.689515933047076 120.278341803146631 -52.009452112260306
-81.536733392048248 121.110207001663682 -52.988864470366295
-64.853886299838493 122.578722206646788 -50.524298955514411
-85.247971476211077 120.772939897991080 -50.798528974336023
-83.972570600300045 121.978295907858453 -52.704687900904347
-80.202069532071462 121.601405387842519 -51.991977394029092
-83.744276020818418 121.350078539998023 -50.508225264387960
-85.274853376115701 121.907548309103490 -50.795642244823306
-78.577762131425104 119.988153419917381 -50.958341739036840
-68.266745179517514 120.985314115958317 -50.689604769799971
-65.068577930271289 121.394929333197240 -51.773359784641862
-86.000328740106454 125.304822913409424 -49.790380118925000
-83.363264512487959 122.111799115569227 -50.374604146487727
-78.487222318484811 120.649801071273146 -51.745895811382724
-69.005809138447162 123.499732010381678 -50.898520588607440
-62.380964904714183 123.226776531330430 -52.700755840731460
-61.724956930286801 125.742259355992431 -51.385440088100637
-77.245150237905662 123.712566502303631 -51.343219103796010
-97.085525644742575 124.948052117258428 -51.114056775192864
-84.705095510469818 124.860029051423609 -51.860050594619992
-89.227923909859925 125.092658557590426 -50.826618232893601
-81.413853583964340 126.315507588255414 -50.909667521662172
-87.468884956596568 124.694249374959142 -51.969669550081200
-68.752328711275709 125.064146479378820 -50.382108774810654
-80.177202007884944 125.754104750522998 -52.889794099729585
-62.355156788073131 124.646261100257746 -51.825861661082882
-58.272928828891700 126.658040720169140 -50.777501725890595
-84.226653352259518 126.964866580413471 -52.183597349186599
-82.587434636319315 126.783734990317100 -51.592039273109272
-66.581277061062778 128.707330183248189 -52.277540376350942
-60.971815202907223 127.811510028210094 -49.697626345223831
-59.744997103107622 128.036854670074604 -51.160277581339813
-57.468934365319328 128.435244817585129 -51.574655431846608
-78.757838077540697 127.183796811030803 -52.390846765842127
-64.104026657864409 129.153585749101183 -51.595083597011850
-61.937308482557960 128.406973929220555 -50.462523377340588
-61.821096369993086 128.283147161259080 -51.690855199660426
-98.744202517540757 127.931535160158930 -51.412769464340826
-90.721807123563977 128.835506971862685 -50.133135359672124
-79.856195364558275 128.779141534017469 -51.794523811854702
-55.585943399170077 128.674830607987701 -52.251805300825652
-82.553470239741884 128.704248043621135 -52.002180309815145
-81.212579274073846 129.915285213674451 -51.199888093163693
-65.307678592932660 128.943428231320382 -50.053382469776757
-96.974208434338522 130.651253270501115 -51.405356715684391
-79.617876156514029 130.541048955948099 -51.889313552297359
-58.635177488953296 130.624698545105531 -49.740786265271510
-56.326917743340935 130.023170430914519 -53.226528270488984
-96.133022145403586 131.011266958270028 -50.188493883968739
-76.307354144597937 130.457272315903509 -51.485809509437232
-76.248432049895797 130.097627744521446 -51.218592095276826
-58.032914887086633 131.538690778626460 -50.990480339902774
-84.332135365076127 132.613367633160237 -51.903806126336228
-81.136943790035772 131.667480511503754 -51.285567198965545
-56.892566490652165 132.348500609257627 -50.715707183365481
-57.201862207875230 132.882655648632237 -50.854803680549828
-92.693632148524017 133.583537387008505 -51.650353433873363
-91.032008362277523 133.167757996214675 -51.340537608212394
-75.261107768762884 132.042188942302204 -51.458189443321423
-63.503172239317792 133.016138801215192 -51.416896208256915
-83.691396766959684 133.858297311678768 -51.744087087599958
-66.272477576863679 134.502770041299357 -51.120283216968630
-54.129152628064979 132.553437261637015 -50.041167283294442
-64.895235823816805 133.488101420157250 -50.292503121512460
-54.299560564034671 134.636472117315293 -52.801116833423436
-84.582665840609835 133.472167666097789 -52.899230938906584
-63.382538450486749 134.385292270666241 -51.325800429590203
-75.680949987718506 134.402639256515840 -52.315611564300070
-75.648058934065418 133.905558755697456 -49.564504675450294
-51.249096079118132 135.543448616851776 -51.791833815890371
-76.813328038870026 136.287878995612886 -52.217696017000677
-54.280714644708567 136.095219898595701 -49.682378570344738
-82.412224918439762 137.193351180114689 -52.170431869010187
-63.971877146338322 138.739081097105839 -51.800963723441598
-63.888235517205892 137.509135267537829 -51.215350373230756
33.221667856227235 138.620165470926366 -51.727342958177353
-81.393407725798539 138.374419348132079 -51.229724356500483
-77.793504982596644 138.819601232106265 -51.922289426101102
-77.150451509567361 139.672827549320601 -50.648002712636156
-51.931696432104282 138.972948205403412 -50.692720863911035
32.840133966076635 140.054143673224416 -52.431571088845644
-75.523181693223350 139.720601056687485 -49.286345858479223
-54.245647223384601 140.751162423398483 -50.147423842335229
29.583090087464441 139.534537555094261 -52.236586714739701
-79.358374483745834 139.517473101858315 -50.948204975795740
30.329949515637626 140.659183368070444 -49.812578865839377
-78.250161036412308 140.934271650528217 -51.019874102120248
-65.086997548219031 139.630101371460199 -50.766550983774501
33.775602315571518 140.205762015204783 -49.813491231041972
29.465547656476016 141.770235620273638 -51.648336280934402
33.042028328524239 142.456332102820824 -50.760933638394071
-53.943347281102000 141.839208918564879 -52.810821357865450
-61.649433146837708 141.485802745627694 -51.570316614669622
31.273916347932094 142.630939916184872 -52.879902247447845
33.649101964645283 140.890319773461101 -49.813678607962878
-59.501432023324085 142.884844087888439 -52.144932148072755
26.888191071627947 142.772562572437238 -51.589098607560608
33.738699260330833 143.806149671415028 -51.755480455732524
-60.751295554745937 145.288693012948016 -51.479770180292697
-53.533757838148141 142.728349998501187 -50.722403263489525
-50.600733454262695 140.881026634543531 -51.692073842069860
-61.616045922161689 144.370195337919114 -52.004364057216264
-60.283030952072615 143.122422526023172 -50.833051127838715
-51.664683896487588 143.801315506359629 -51.769957555369395
-51.549321388870496 145.188024740085893 -51.453799137227875
-61.064288543014769 144.992894358430135 -51.155477844706212
-51.622186133802714 145.094589214838038 -52.855167932897473
-58.150619810523473 147.617906219960986 -52.351901963984147
25.041420892872505 145.732509966487697 -50.808252678100096
30.510995976484573 144.198503493448783 -51.486807702140638
-91.732790150817650 144.657835389406728 -51.448020725853105
-60.860745403592524 146.646203794385713 -50.578426463856694
-51.159376548268021 147.219273370189086 -49.841684451618740
-51.156815376998509 145.009052939284288 -52.138074467867895
27.930751529160144 147.429657531841713 -52.618020482617666
-90.179311638619509 147.098703939868557 -52.746832953905056
-59.828213343645423 147.456950599819265 -50.983262510134693
-91.406729396623888 147.250803034790636 -51.063309681845091
-57.262734576753566 146.627610526053218 -50.693938802097151
-53.569407970570282 149.437840529853190 -51.303433790256697
-50.969858008913249 147.174007133976232 -52.095384602744332
-56.448225307719859 149.943464368087916 -50.312820776073281
-55.681190274897048 148.329446815023687 -51.733671740026026
28.508429510283339 149.124119530166922 -52.098790350316648
21.640967230096500 149.363147789484970 -51.260153421081547
-92.058720598899001 149.370140413508750 -50.856269719629800
-55.132503817811759 150.832390788312495 -49.729743557976676
27.925718045832653 149.527322520384132 -52.088474155359904
-90.651985417274560 150.797569454506487 -50.826780752708672
-93.195923487648500 148.844944520952055 -49.726868246217101
-91.873650981364875 149.189656087311704 -49.256681047486374
20.789263259596002 149.121691168157781 -51.997317142108145
-93.752789187715493 151.431710623290542 -50.628699705195785
-90.063818141990353 151.852373353698056 -49.678528811804235
-90.947508171708620 152.660231130565080 -50.956423474222177
26.334080163379735 151.412906669534493 -51.858239057190424
25.702182529802283 151.471800526340104 -52.266273830178747
20.109356001048301 150.830233595371141 -52.078712343530711
-94.630996358381651 153.145990527137542 -51.437873408279174
-92.770755244616396 151.127788371389556 -49.136079778597875
-90.650886685056790 153.854895418407210 -49.933906211576875
-92.824866247752880 153.740953450088341 -51.739619637237581
18.999427024296331 153.355153192845620 -52.159531398224019
20.144197103387498 153.647187327683412 -50.182847664598242
-96.395309389031340 154.418411803057467 -51.571551512423667
23.383583387284162 154.467156794531888 -51.513539659209869
-93.511094768349125 154.516350090020211 -52.076497656511449
-94.153168605338493 154.861153199408932 -49.931200405212678
-93.147982893011175 154.485641203683400 -52.702049734887979
17.523766905615247 154.634967213144876 -50.153631528769104
21.855658681796022 155.891857404179234 -50.605837491354315
-95.323621487294616 156.255077861405084 -50.529212735166588
21.284404900241039 157.311018283048156 -49.613776218591539
-94.866909692551943 154.428610599770423 -51.812637998764941
-93.786880399406726 157.918174288520731 -50.671527822415392
16.873775162915749 155.530816722405007 -50.088133103966641
18.772561064633440 156.000284476176944 -50.417037704344011
18.420208501465229 157.227162643288864 -49.413258563187874
-93.541569022882072 156.792350175693940 -51.637248535786071
-94.677694309235306 157.710677715712166 -51.767656484048999
-93.405745523036160 158.774134734365191 -48.844485862940417
-95.576162554463679 159.766328922595818 -51.620283774456347
-93.105629395716448 159.046132346903278 -51.546498651323112
-96.996019220807000 159.833179833486014 -50.024836272687637
-94.270441511641550 159.659671615589104 -52.303860518960150
-99.399653576029976 160.247928896371008 -50.801036557425256
-97.147335578683723 159.455157780116963 -51.229443241060572
-95.346971415813911 159.651518112048365 -50.676466182792367
-94.003364158021796 159.511036836430151 -50.681093984455799
19.672462146283205 159.975006043274050 -51.008494891229489
-99.538655377067116 159.992056410826706 -51.056756016602506
18.858849716205668 161.811332856346382 -51.972510108360282
19.680195209024383 160.379494132742565 -51.083276711124171
19.294229235502051 161.607153732721429 -51.148585315396424
-97.984745658913482 164.323446168786859 -51.060314918066609
17.330220195220775 162.624971527513623 -50.552794130678315
-97.423945427519243 162.713127955278935 -51.522573761953055
-96.973558050211096 162.904418058324239 -51.497419573211744
-96.011776266215350 163.127269090953035 -51.214501491920764
-98.520992058792032 164.470335889521465 -50.722859942537610
-95.920447886162364 164.305293453424099 -50.415161046122996
-99.676769195212643 163.793772542874422 -50.292563977228795
-97.387387177066884 163.344568693191718 -50.559278159311738
-96.516019627897705 162.802985785531746 -51.042162712581444
-99.429224557737840 165.450272764199156 -50.625255073587311
-99.642690130168262 167.224010524302543 -50.952990853324330
-97.358235547229086 165.596958036463036 -50.155769552852092
-95.975882834049060 166.899940768352110 -48.983008040877188
-101.228393377486498 167.292323905462155 -52.157087084148230
-100.862047676961225 166.472936544038049 -50.414981035000395
-94.743230017718957 170.048485018098660 -53.010174706172833
-99.205468087822467 168.393603569348414 -50.746305107568496
-101.398907507185768 169.093280013974947 -52.187916782187656
-101.205859258118664 168.784555789838862 -50.262229355418825
-98.141812159504994 170.030310942901252 -51.076301170326971
-101.267662621160881 171.441143204290626 -51.195892973609766
-101.061009778251218 171.334357167486843 -49.934398965303835
-101.656417691557451 170.351397497309250 -50.050601454546360
-104.360218183975974 171.867865504930393 -52.519121557299897
-103.689960001006270 173.623498629732268 -50.952352926514187
-101.336928818742322 174.261194562114923 -50.729961617233741
-100.551737246588075 172.259858412309626 -50.421564161698178
-99.330448879889900 171.103476224929608 -51.108571337563987
-100.715574056657786 173.285616422776457 -52.298552898548650
-104.371300629782112 173.476216632615575 -49.569420246781263
-101.926841798988889 174.668453643581586 -50.313414217848681
-99.318718142079334 175.008938203381348 -51.881125939029161
-104.120782263299219 174.163765707180801 -51.861103156821045
-103.470842574736821 177.957205125474928 -51.463188134274773
-102.997428069670207 176.017647067518425 -51.337231311174108
-104.176159381019289 177.486325845812161 -51.820653408802436
-101.842788619315129 177.736597824542883 -52.562687949682726
-104.892623579429440 178.676870280030613 -50.885128415575302
-103.452456370025814 178.265397880929186 -51.672321085754227
-104.698163610204872 178.615728176213224 -50.597389490411835
-103.442447502178524 178.721518841858199 -51.179351298219977
-105.549517986694298 179.995362828070654 -49.848978719943197
-105.771496009646540 181.259484285420456 -50.917617136230099
-107.578410393840400 180.182699759588360 -50.846499999641679
-103.856811212696329 182.318538943576073 -49.327584025343569
-103.390521846088390 181.130071015985123 -51.641217459209457
-106.218028018658600 183.454313945121982 -50.160625304685340
-105.749583075137750 183.821141502706297 -52.797947256610897
-108.142240988596583 185.305410432287744 -50.523529713244685
-105.069130314621631 183.514336562182848 -49.342245557119327
-146.075016256841820 185.532473412831166 -51.052558545855710
-106.953857625798022 185.537938893887087 -49.715269836066341
-151.029976021029853 186.259831522932075 -50.715193150529906
-151.197394003237804 186.132112763945059 -51.543804287718729
-145.080871052137525 184.520605612694197 -49.767732762528524
-143.429535700062786 187.997303268915175 -51.096383966108590
-107.803352279557473 188.247999752991802 -50.761495334077019
-106.676686882184839 186.515966145037055 -51.965014297732523
-144.556343012170430 185.591661423449210 -52.427831634069577
-107.921170759267426 188.995788654896046 -51.791408725882320
-152.385005704888101 188.864108297919813 -51.574064917956996
-142.869508710845906 188.570067920059387 -50.640258034353813
-106.396136564148463 186.569477029469880 -50.068581989397842
-153.150098564272270 188.382152445726149 -50.118243424842582
-109.195704221574715 191.662690447278521 -50.146776759764279
-141.497988690812406 191.583429663067449 -50.862019283541073
-108.843020661597819 192.512877901615127 -50.848761926408017
-151.281561711000819 191.358501115700875 -50.288212723201276
-143.296125999481433 192.883894587349573 -49.925719662824903
-143.390052938436952 192.121111576770772 -50.200197157530972
-149.833650779955718 193.346199153330019 -52.100466551371710
-149.964580083047878 193.770430066096594 -49.802353846727485
-143.719413517521303 195.726953418081223 -50.515810281505480
-143.982129521326840 198.418182417847362 -52.007406290379322
-148.912160213713037 197.497806785833205 -50.194479396812106
-148.998037683258559 197.047820110856890 -50.063699425148030
-145.023344593219093 197.682258355919828 -49.439733063851072
-149.064236460957318 201.759406924830870 -50.630487908237228
-146.096717247339228 202.674379797428259 -51.488401292091154
-145.228646344423993 202.533406675712484 -51.458736837461949
-149.080605665889578 205.539282581128276 -53.301191909121684
-124.789462273180419 206.913148914088254 -51.128407589381425
-132.303684010199078 207.395451874634801 -52.355077054904143
-130.039534743262038 208.188817367866022 -51.653812933590196
-124.718363709632030 206.791955084050784 -51.325905445764043
-123.896931116880637 207.510206391505164 -51.142192947347560
-140.695618288887829 208.798453755654123 -52.448995603265857
-132.727653397706547 207.571513217088352 -50.125730811289216
-131.736793876844700 208.267270225029279 -51.169715492680233
-129.041615672042354 208.034337540380307 -51.750468939423321
-122.620788904082133 206.797980159793951 -51.253960100621981
-123.218687672242467 208.524471182406558 -50.422013929968799
