# This PCD file was generated using the MATLAB® pcwrite function
# from Computer Vision Toolbox®.
# .PCD v.7 - Point Cloud Data file format
VERSION .7
FIELDS x y z
SIZE 8 8 8
TYPE F F F
COUNT 1 1 1
WIDTH 800
HEIGHT 1
VIEWPOINT 0 0 0 1 0 0 0
POINTS 800
DATA ascii
-5.406808120546510 234.101048254330294 -68.606243636389806
-151.006155059550622 235.194381618723185 -69.055621027640527
-142.537537691623669 238.768875823843274 -67.294160076048911
-138.792283726059139 235.207117696972034 -67.262488809871158
-2.151258395671576 236.468936969755447 -69.615083616210939
-3.384681703249169 234.940612073045827 -68.954772391019816
12.507803737681034 236.590768112900491 -68.344053109127699
-155.492947735004719 234.977964389409095 -68.273424214369555
-0.514239311759046 236.991719868163528 -68.004391677634018
-147.956043633372417 237.940094077511986 -68.843669843398132
12.188640554768542 239.752112954090762 -67.610533133971600
-152.332449660060831 239.979644934102112 -66.750664889960419
-144.523335606129763 238.195636301603116 -66.366125498529541
12.678868123235642 239.478670773928712 -68.019746212257559
-137.159445709424205 241.658185056043635 -69.076372271350735
12.635146087522255 239.897733207804464 -68.866791012145470
-137.847371850818320 239.537301188797187 -69.127578390468287
9.640107062742596 241.901174200444387 -70.499691495643518
-153.783477571863273 244.479886668148964 -69.032672722917241
-141.232797324968402 239.987644464008525 -69.377182563314349
-150.493425664906823 242.059620328743364 -69.988303801777349
-147.770905824583821 243.708523232952757 -67.931171912144052
-150.211131524964941 242.664846607333175 -66.242794824739576
14.756502626066268 244.786378123782612 -70.730398411516475
16.225648261342648 241.517741446332394 -74.185823497061207
-149.126117691444364 243.690898337852843 -70.225675512989440
10.087093247029889 243.975676689268170 -69.955725041010581
12.257756497727504 243.633924596510809 -66.653164002780940
14.568128542273335 241.514178577429021 -69.265132371888271
-143.196087452328499 245.130891198631190 -70.691302874574617
-144.337003637819379 244.876196643281276 -66.824368478223732
-143.003386071813537 244.453153601512383 -68.612199807001772
10.528327566649919 246.995507100692976 -70.004000005839984
16.293186704490775 245.386872916535509 -68.270382071216531
17.322002647171210 244.029667224002196 -69.894638616367303
14.264894189393178 247.713795425580031 -68.462843191406805
-145.203838230019443 248.526000154462508 -68.872931851643898
7.310832442998263 247.872432181029183 -69.599637276296917
20.145430598964673 247.494106013568341 -67.451662470741283
-27.911564504608435 246.008754572092670 -68.729113387696458
15.362205533628748 248.692997648400166 -67.487333098041447
-33.742406513489399 248.646429707895408 -67.049293767221826
-27.542980484269123 250.751062744245672 -70.639209108524511
-150.612985267021401 250.501106848114347 -69.895531317370953
-38.014029075925407 248.509245062134596 -69.017055077631696
-38.541171580900766 249.815380895099679 -67.596860196704668
-34.115477995022665 247.803123948280245 -70.547258079118336
-33.521985496787032 251.484666200371777 -69.038917229397498
-29.216204665433239 249.670524221728272 -68.211804341646840
-25.999528558182600 253.428688298569227 -68.025513697446058
11.619590685053312 249.949215101092335 -69.372292450490463
22.279651941351933 250.596186233931263 -67.924748683127092
10.660281418475552 251.692122708720746 -68.783368391732552
-44.326808251259656 249.933090234086876 -68.147747346126010
-39.569202488068598 251.233607594671241 -68.641453511104572
-33.673372463112869 252.689299386627056 -68.642607708179156
-30.771887140259995 251.304400670638813 -69.783246537171820
-29.960588171750917 252.011112030479239 -67.894065998670698
18.170308320820798 250.706083730784201 -69.925686093643009
-41.400784399629522 250.949550469741041 -68.612506419046227
-46.569431402086423 252.951466052498176 -67.967590734899474
-36.747561051945929 254.252215933240990 -68.083884114166096
-46.299226136542366 253.439672147427899 -70.102129868918198
-42.767351334596384 253.145298260587737 -68.969446338244083
-41.813134831272315 254.450226249792365 -66.040496244472465
-37.445553958311407 252.381029736733268 -69.037828541024254
-33.437374751480498 252.819737945647518 -68.208714352449846
-38.583983569568694 254.932116140150214 -67.092852305155191
-47.799175998532967 256.317006477332313 -68.499086644861706
-46.876032154229058 255.786542119063512 -67.544053836941899
-43.353722568597135 256.759603091387532 -67.229269224205538
-39.212707155790255 255.619653332786584 -65.599387169130765
9.216741117148038 256.610589196982346 -67.384332295955744
12.513608150869553 254.287989908281673 -69.114049044140785
18.276489538828308 255.687140064072054 -68.096674361127427
19.467629331237632 256.887254584886989 -67.769748334955480
23.683745233721467 256.530501598801322 -70.050398555702898
9.068492463080258 257.262746845748097 -67.811974654775668
11.293719624527492 256.005635749869612 -70.999382576545713
0.318906692122845 256.350491630742795 -68.250035811351808
21.324680942521557 256.761911784328390 -68.148285645334596
21.910761373029736 256.272029118918738 -68.640069567043000
6.228977039727218 257.110150661766852 -68.940755193568222
1.041824158227469 259.174722426649566 -69.717994891947626
7.724832765906320 259.173721717751278 -70.562530330511919
7.211554403544710 258.851907376164036 -67.363232458602496
2.031991272854837 259.680505748207452 -67.254737326344753
-0.482218993505843 259.291686792001428 -68.932327518007014
7.813854400133257 260.097331922140143 -67.242064941261148
-5.286895066820788 258.250320116776038 -70.104687183105852
-1.190594795916621 257.794315694807949 -67.149952275027331
-4.810997210410257 262.198020688655674 -67.052588133794771
-2.079081121943300 259.162716652510596 -69.149569854698939
9.811005626735970 258.456409681831929 -66.627706063863769
-1.565525180165854 258.714292191168738 -70.549186208656593
15.054305285569530 260.807124739887286 -70.970766279068016
13.813813884896605 260.609391371968684 -69.792240352822375
16.283279960290137 260.690329993098317 -67.987367152056279
-6.363714235487304 261.827682189997290 -70.804286734150395
13.949852344702453 262.393954241246774 -67.458797973623362
-6.644022902089448 262.959857728676525 -69.393408264175719
16.060694277521115 265.909235806284642 -65.739273334000899
17.569875555880177 264.282921635451316 -66.132264595438997
-154.141430905692886 266.668496468041155 -70.088931226326878
-9.464065356138603 265.545817700042505 -69.955256537020972
17.593145591722902 267.959317088475643 -68.377368316455630
-148.434830369759908 267.456272002869696 -68.179392144515020
17.914220450920645 269.507037350685948 -69.686180390142368
-150.011562233270070 268.482955155247168 -68.573480200459684
15.597899348612566 272.093304443322211 -67.407142942634849
-144.590385790512983 269.688978781475271 -68.144911314371683
-9.044536032471376 268.517612608280672 -70.247683491763993
-147.763925240526589 268.474716658846773 -68.485077740220603
16.923176908263194 269.100478909925187 -69.221667377353640
-147.886937966385545 270.319097891058391 -70.583811161501444
-141.731665713851868 270.418986977061763 -67.609627228255576
-153.054337981853791 274.425500377265223 -67.947684906742865
-144.195508365446528 273.426096020204284 -67.500631871681662
-152.923061274028328 271.779255093649169 -70.143448842857083
-145.059766335472005 273.335247419877646 -67.486988633491023
-142.950691365167813 273.879141408683552 -69.046071264733726
-147.497769818187180 278.155257712975299 -68.012837368821295
-9.103087643136361 278.126742720887023 -70.072756265934444
-8.105929099976700 278.754324883145614 -70.503159798746040
-149.515684545982992 278.158839352982682 -69.143789371082093
17.917136879958473 279.677037480002582 -70.380328959567251
-149.986013640101788 280.515005462827730 -70.577450636878439
-150.718973545293665 280.629756215819157 -67.592857000400286
-5.570164237263663 280.304866873787205 -67.181293242707952
-147.494105610791934 281.371718639162623 -71.979824071046593
-149.637771873599036 280.313874223265486 -68.668832611771009
-149.204950707146907 284.337209595405170 -69.031873809841656
-4.297835455269032 280.638535050720350 -68.033919671710450
-6.462905206356041 284.076841883820805 -69.211848531261609
-4.578190864629880 284.676344015521522 -67.009966777950908
15.344121010092902 286.791826079850807 -69.190258890831899
-151.131064706020027 286.858164172603210 -67.925525393426341
-148.689457624347540 285.344341768391587 -67.344527789721496
-1.895675363277929 285.902120765670588 -68.344296305394266
-1.676562725438074 283.878233617360252 -68.195773274057601
12.181048778807691 283.850393905179430 -65.578971665695008
-149.240707969009122 287.020118831558136 -68.163394040822340
-145.375818526635612 286.351195006491821 -68.605145861621409
-146.817201032609802 286.867643089255466 -67.717125574452652
-5.300724121977044 288.497643340320053 -67.716557292646471
-146.179265617075998 286.256935199132499 -67.803880314182564
-150.838497293614552 289.097350319324903 -67.972488098434027
-0.826585972483207 288.043607891018382 -67.207887246577243
-148.919653349319418 286.877065546774190 -69.254106643407297
6.063002057274759 290.203988005714280 -69.300901876552658
10.597151244400445 286.942593583804751 -65.537756497796792
2.379248051421500 288.949784962336651 -69.465341879406338
-145.164102964261559 288.518864300532641 -69.714980338672973
-0.265345292176419 288.583651222950493 -67.235836611252623
0.782341738850286 290.394701793789068 -70.810397479722582
7.486667491471967 287.068446152606214 -66.548174371888763
9.042032754020099 290.612696309173373 -69.769774177456199
-153.231411934890303 293.086472809074792 -67.310355122183552
4.670086646785842 290.618220523237426 -67.379890632450383
-146.723439334973676 292.095469336776148 -66.957617603051986
-150.412052473228584 293.511281647329838 -69.307335533954387
6.477572005122821 291.666156083371618 -68.153207989628896
-146.412574483959304 291.227592939600584 -70.352563482909787
-144.973708102656644 294.320476564853436 -68.944998045893925
-152.890716804537391 294.154053016652711 -66.733262473432106
-146.442024843436172 292.306693463112822 -68.499764471146719
-154.636192098196830 293.751343337202172 -67.738511017739086
-143.389943364807294 294.948651405255191 -69.686663968739552
-144.510311108308997 293.406273357793964 -68.695201403441089
-145.890045900086704 297.807768698862901 -70.707695585672752
-141.973915797721418 297.167065083547016 -69.690866727434354
-137.807797033103952 296.377336692413166 -66.511935781463734
-138.679476368847162 294.389964613453344 -69.503631716555276
-137.347446176415161 296.078629900867952 -69.292805221186512
-134.682483838107231 297.257412218278944 -67.777262705857140
-153.939904875182037 296.208811343159198 -68.580094324819513
-147.320252503387621 299.206635471956815 -70.106302208666335
-138.600121198194955 300.307308917461171 -67.771863023116737
-145.395863509796214 300.002601963762913 -65.231255055357579
-138.414625299283074 296.615297615376790 -66.331966126582714
-155.922575431167246 300.687651005894679 -68.187886612771820
-140.458388648535362 297.890496221319097 -67.855030768458363
-140.444606793925942 301.942110479987662 -69.127583850910838
-139.775201051537181 302.471802663965207 -67.036248790779538
-154.969264844254326 302.176006867175602 -72.035355163538455
-143.720959958841519 302.110836347795384 -66.678565864896754
-156.351620628137823 303.586588778990858 -69.716818127715285
-144.759469537165842 304.168546734626261 -70.331710220102309
-153.378548994303571 304.309375349026311 -68.409823983456050
-152.666222186464068 302.561783568155306 -69.668946038916076
-154.308255759862703 307.534898355589576 -69.042859370933698
-150.373204435958257 305.215113905224086 -65.976119323849048
-144.180304000188357 305.612061088566350 -67.685882188601113
-150.687311613127775 304.257118284819740 -68.394057723995573
-152.254557713886612 307.950007978582164 -69.774417274303190
-146.865901139182000 307.837735129032467 -69.884004650904245
-150.005384488400324 311.634775552428607 -70.652324344368964
-151.767285758585274 310.278111023327028 -68.930254797530225
-148.016690241586105 311.732403896136134 -69.580958637968649
-150.712934984963113 312.625334514663848 -68.662060199947234
-149.348969031911508 310.528523450763771 -70.153959558932428
-148.608207222853707 308.349604727235828 -70.236000715138601
-60.741958630628893 73.185148436973748 -67.812538075482706
-57.767174758931873 71.794733164091127 -65.963105718632690
-65.225450881984358 72.366459850460558 -68.111744837329439
-62.250483184692719 76.779652910849862 -68.127698999907437
-59.506805578084354 73.174154311849605 -67.491402244506062
-56.714211905395857 72.928722527085938 -68.496994632348589
-50.313692241618007 72.291150073380138 -67.212741978176481
-68.589987149609414 75.678186348993549 -66.487247230106220
-69.405288871448860 73.725254075557245 -70.071589155977108
-66.574965488411308 76.192014774093977 -65.744531368872757
-58.574143180986184 77.593376681424559 -67.202377502765856
-43.315950419053820 73.643407723795576 -66.008352982964070
-46.291348190980216 76.108504356685117 -66.086146278661218
-42.879469641413301 75.448505539897212 -66.467100191400277
-37.374574298983070 74.728037604979562 -67.989380128737395
-53.127332834262162 75.949772548196322 -66.598163746877546
-63.970982752692393 75.744407789573103 -67.285812234552239
-72.571625373994934 76.490098602767901 -68.255884117380177
-42.127637837503848 77.438515895167711 -68.668220125775491
-45.764418369100724 77.483873867493429 -65.901156960656053
-38.882587708638994 76.931918529558516 -65.396920769531889
-72.777956261657692 79.915353772897603 -68.501182405817744
-37.443725861189122 77.295235205545950 -66.747771117932132
-72.372797883723891 78.810589314655545 -69.181140185478895
-39.560114004230172 77.452848606673683 -69.625823463469317
-37.277466547291240 77.681793463830701 -65.285595072509778
-37.338080826303724 77.167678907804017 -68.148284333421913
-73.775668542239814 79.851595417820846 -65.566327098651826
-74.853360472245001 78.519385587176046 -69.438936904806937
-33.648815792280310 79.151336828302490 -67.169627699297408
-35.038959742128760 80.894833727658778 -68.914041299436093
-79.194106634333352 81.163434791163297 -66.986573656735686
-34.252180178102947 81.015207466971248 -66.601707972828763
-34.725984104226704 79.066911945229933 -67.214827425747771
-76.967395000865167 81.477455815844721 -66.938570358958430
-30.346856032358744 81.364697048770779 -66.671957861561367
-81.620598396262736 82.361281403004611 -66.671139166282671
-32.450637851286793 81.342114868852349 -68.919959761393216
-77.097371762324215 81.772532372739605 -67.677979434924964
-29.246571935366234 81.662515895402564 -67.323234780269757
-79.930295239559655 82.719284225129400 -68.958919925335351
-80.693953000615537 82.631789980196487 -67.242376245183237
-36.136017427685907 83.686040390886902 -65.340573551637576
-78.570162936121747 84.829817840025527 -67.029286627616713
-27.773617023319325 82.433030756980941 -66.991911421457573
-27.285279778695628 84.998793115765864 -70.053676496318133
-82.207141934109160 86.626097893010495 -65.892179414684321
-81.123403987873331 86.381654345401074 -66.632794622978409
-28.030933568458117 89.289888650344878 -69.321934919124871
-82.442728451144461 88.140980270972634 -68.579128044062315
-29.508275244566164 85.803140682371421 -67.465161561631689
-79.601472567085793 87.487414989377669 -65.878208037085642
-31.419017888999758 91.284858902035410 -68.597828208205982
-85.041995125374157 87.447930927634857 -68.215799611714402
-32.594119663996601 91.272015994796206 -65.849672489264890
-84.561394355296812 88.987548291736672 -66.146007114491454
-35.452280376629801 93.487475725603502 -68.867262738302827
-81.695813702691623 92.899790854215397 -67.969790720301077
-36.531344420852619 92.010428607609740 -69.584950296414391
-85.292567483834290 92.542764638311880 -70.166336780723000
-87.181953738599503 94.181513577081788 -64.318163004493059
-87.142150773610737 93.047397597397762 -65.902861005782057
-41.405907117584945 93.704243251599451 -67.429760599481995
-44.391981027550941 95.956526987659714 -68.168465752185156
-43.244080288296978 93.480927708474368 -70.558813109429323
-42.915778366267162 95.695675125507520 -67.113753950318895
-86.122138940289261 95.969093529249065 -67.246818293499885
-84.502915402374214 96.476186803947556 -67.023929642622022
-89.179637945186172 97.531362735777435 -67.679814426863175
-49.656824417569091 100.372922683986388 -67.826646146306814
-87.768932599167073 99.353953393212748 -67.020093060658354
-90.602276345650338 100.749218873712678 -65.591654375162406
-50.348372983868174 103.098985162377261 -67.735177205772160
-88.116565592533277 104.742942909898261 -67.041342015569313
-58.738106504957678 105.506171464689558 -66.790940850634328
-86.313930824745071 105.675310899284469 -66.992472776583725
-61.699935333204010 104.282630427568463 -66.722774851407550
-60.565195453844893 105.897249899748132 -66.120452147962069
-65.335154542338159 108.994303747875477 -66.699985993487687
-65.161832068116539 106.539481961433665 -68.439441799863914
-76.156697892315250 113.255102884254555 -67.377910308613735
-74.569114411215267 111.141477685722620 -68.077571312482235
-72.486250314586812 108.291492002689054 -65.206941823924055
-73.538378626040100 111.297944554180589 -68.852979402318596
-77.594658747982365 111.418560081859994 -66.358069633464396
-79.955044704389152 114.718661055860125 -66.891324957130308
51.026322636115687 113.457433238425821 -65.030216296194013
-81.887810630803401 115.798342990232740 -65.355614479423878
49.735082320061856 114.305933198925828 -67.494215740249459
43.291508006684722 114.102302769190842 -67.408697212448217
-80.111481798041822 115.259113246205303 -66.526754342241176
50.025502563883144 115.561960069082744 -68.690110193657105
-80.728492185631424 116.621471240746274 -67.634475333721639
43.677092528322149 118.049921986724812 -65.657695904954224
49.390403491451835 118.039150864972655 -67.751040120725150
46.292338066968632 117.136026549593055 -68.085922798871508
47.041838806998364 116.730780403953887 -70.267492826674598
-90.533513983752385 119.006997205927632 -69.600945966597592
-81.707991697632252 119.451329439902921 -67.476524018558166
40.494643312253693 118.618036083947516 -66.747416998210497
-88.737921804824637 120.394539530533166 -66.937884965758116
47.981804388406147 119.003886375066372 -65.767217639273326
-87.160832066694979 119.530140246418384 -65.601029365698665
41.978370139051506 121.085472440105477 -66.265452548057183
-86.607764837670445 119.872812507950428 -66.758067111538409
-85.345949299792267 121.518257301973904 -64.250111629805900
48.083600185018362 120.637568118969028 -65.003363529358964
39.588284929316437 120.334133500356430 -67.849018738731004
44.344315279604359 124.604190441635183 -68.679181429629679
37.494650821149975 127.075467637585419 -65.080768998065579
36.127680019083350 125.392422005258467 -65.340219438417066
46.032824718391929 128.361990761548697 -66.723456228731123
43.460231209555928 129.055624547585467 -69.103100673961507
38.107511354085553 127.423138840397513 -71.134879357423358
34.476139669036684 128.492480110666577 -67.450322556168743
37.961019887012363 128.403576246009038 -64.879711147923743
40.045846525106199 130.560348969837037 -66.630637675356454
40.207645535169149 129.789218676228643 -65.987373426447661
42.374422580542856 129.747236930326778 -64.920672403553098
39.808446315366730 129.894499648431236 -65.831818686066384
33.696774662099770 131.117830050103720 -70.503486816599619
35.285072703544714 130.726173676965630 -65.708180164972248
41.906091287863113 132.153338340849757 -67.038232485670008
39.551242950859610 131.684017859101772 -67.586125854265163
36.016117691664263 130.465805615490268 -68.454600485973131
33.857822095331599 134.351664934320553 -67.534445331596970
36.408985036654926 135.084393287247110 -65.343839164359295
32.812479186067087 138.013993330774213 -66.958684033197841
36.927309695842077 136.083448852123183 -66.895521759910480
44.399017186204986 138.054283125754324 -65.749809193879415
32.991347798404256 139.740405044103454 -66.864811400012584
32.748093837882593 139.910692957574611 -68.315500211970956
35.170669362779257 138.043823148869592 -70.905037170401656
38.634986383004488 139.902183432312199 -68.664598829378576
41.560928415883410 141.179056580067169 -63.834814348092962
37.119306252350704 142.637627785672350 -68.027653167368669
29.040475765824738 142.224102157374006 -67.864811962016844
31.470154050498760 141.727946551750392 -66.548049754003813
37.662602286719903 140.959873373129312 -68.770632133001271
37.781514609039085 143.553325379973472 -67.825275712579000
33.311184314332088 143.650777629380400 -68.650229090663487
34.704020939676447 144.291110509557257 -68.225453793095440
30.735908529625210 143.158688312459532 -64.571235012675089
30.752384188113925 144.999743899143937 -68.240338346913759
33.038923627173595 147.077707707022768 -68.697664927243522
32.824459670660872 145.947572337149211 -67.351852211070906
37.410792998301126 144.833943356991199 -68.698626047907410
34.132557426542370 145.555602489840822 -67.801614424145455
34.270666254276037 145.420874925873676 -67.423713159518073
30.429423643068802 149.427369242351375 -67.125854860938247
33.562985078766033 149.725459021556901 -68.056707621472313
30.491505303089628 147.676665146966599 -64.483850599016506
37.324883801710655 150.019233398953276 -67.568143880726112
29.741536658434825 147.970403946624202 -65.468479979252976
31.815863359719501 150.000726586704559 -67.426289843833430
32.379613068514033 148.199772704535320 -66.908582309067157
27.994571359507013 155.277336300159362 -66.696004483747558
30.440059887206264 153.740822055624932 -67.226166361457615
29.408478575991591 149.827304762104319 -66.168044095821102
33.935594651762038 155.032876972232515 -67.398298645468316
32.004842677370249 153.809243545683813 -66.061101061988765
29.584505502591618 153.873691538294821 -67.109383965976505
30.108988969133421 153.275030897196757 -68.342902389083022
33.677326640401873 156.738205359178181 -69.296995443021572
26.920399574192857 156.861419404683488 -66.424151604698963
-46.164100454172775 154.277687012061847 -68.814507626908082
-49.235142719831167 157.293488472307700 -65.254868913537450
-46.264646378309934 158.026768068867113 -68.808777296899805
29.476453256775404 159.243743218754474 -65.829701314328076
-51.562627805580867 159.125316553432071 -66.653672148091914
-47.435631429904483 161.344222616731400 -66.380773659071579
-43.058916129196547 158.968946666567632 -65.074760137111184
26.587238948470503 158.277933635058105 -67.034279666664702
-45.723869839151455 159.838824444609912 -68.429223293246935
-45.456229457304609 160.790676050083277 -66.937763896855415
28.444872215102780 159.089934698116110 -65.153546641749656
-49.252760412257580 159.698255457913291 -66.505041047322635
-42.540798882493604 158.320928324128374 -68.134687518345601
26.268017519341555 156.549212936867491 -68.634795161578296
27.362602411207106 156.979517169010705 -68.460550745887147
-46.338663202990205 162.037723267748220 -68.234610966937353
-42.576514818992678 160.197139063157039 -69.232480006573823
-48.159889724081353 161.286843321345202 -68.133695979523736
30.565137184785868 162.332358812968096 -67.956290573896823
-43.124484822232908 162.643700352607226 -67.928860178755031
-49.750432453112047 163.304477465084489 -66.779770377525452
-42.537565923771893 159.078754192845253 -67.588878017794855
30.957151204055947 160.887688700077973 -68.249640785069062
-45.875640066417894 165.812929719999545 -65.804430725250157
-41.703138891858600 162.972351686718440 -67.472924231798089
22.808830152494036 162.659063771735759 -67.641919876786446
-38.575133749915530 163.574770909465599 -67.483684178681344
-48.360081732148693 166.250286809529086 -68.861120879418721
-38.473280766005104 164.592258704548925 -67.473524150126536
30.429122557452242 166.476479975527383 -64.700731490040283
30.280663702293030 165.435357996745665 -65.678424150912036
24.917791377966303 168.110716248259990 -69.287169404795847
-35.797083848249216 165.320366960349645 -68.803657028254079
-46.300609553263357 167.313543156575406 -65.032529416451027
29.819746832578687 171.495380417117019 -66.954252802945405
23.055408534509180 167.779974922109801 -65.625211932587149
24.048192401162328 167.155941148414144 -69.247371077959727
-37.284766666248629 167.635880284086596 -66.141395038535023
-66.395828426131956 172.206689990134180 -67.203664540122887
22.358653736418098 169.962087900706848 -66.858288938571008
-65.343530262962346 169.882916200586862 -69.177093147995947
-46.563501034459151 171.810008430571685 -68.319425339657840
-42.460920651632648 173.123825402993504 -67.810228096885098
-35.896712465572335 172.622694247990239 -68.630432279533636
29.588155815620905 172.321392825511111 -67.343069317557408
-65.472931973110903 174.048669096334635 -66.810370878833311
-62.790687611598017 173.810888700020570 -65.868537914228497
-34.086888800809767 173.847650498981807 -66.841598747820413
-66.145758269864004 177.003145724311992 -68.883554489948679
-46.485127313027263 172.522026332034727 -68.967072764418319
22.425078932455243 173.263385795064465 -67.533444418509532
-63.972210504773365 172.451074231542435 -68.880694888147886
-62.112063860342438 174.746071016926635 -67.044392809688659
-61.335594901303253 175.013727456781851 -70.383849105519332
20.843849315939885 174.742927141306438 -66.933099949150886
22.558585792219144 175.061482418563713 -67.425555185828131
-61.894196119632312 175.835786038130919 -67.557772337371560
-33.957638646186659 175.136317679430960 -67.356610204034382
1.114219402998239 177.808226786321370 -66.972038828130522
-59.974681851204643 174.961962170122689 -68.624421340151301
-43.626892621543377 176.206569951513188 -66.156047608286329
-31.704327452034118 175.263629194973305 -67.794550618416110
-2.697520417767499 178.115057165495784 -69.221950550744253
-2.428991363686125 175.676248585092964 -68.127376665082295
-65.166651231494683 176.087446058187624 -67.080870058147951
-63.952675284036147 173.388365590518021 -67.041358329290418
27.865960460395918 175.003464188263933 -67.006670147785982
-65.637069962785134 178.078828515346288 -68.833572849899113
-57.274394795847016 177.698663309958789 -64.268086650742291
-4.842671899592236 179.096524943419666 -67.126056151008996
-2.382453283789399 176.190846353912292 -67.792461043155740
-1.703766570278856 177.977035021191682 -67.758423299703864
30.734065707698566 177.992750756979689 -67.189961090889668
-29.607245520464787 178.112675682020466 -66.360989686969333
-37.956087390827378 178.585576403780863 -67.545005068134131
23.086871351061575 177.928399157644833 -67.011321405775590
-63.848924338860648 179.320951053623872 -68.944724799172647
-4.072137126251688 180.283176188531343 -67.947069625139434
-40.137085947083214 178.005968523088086 -65.533356670940776
-28.773394755149969 177.190383374295578 -65.353053249947294
28.853108117339701 180.844209853882290 -69.191447421935706
-11.961731744396777 182.183523033554508 -63.537143065457627
-29.192009962667573 179.200085281907747 -69.211565185430601
21.715561529367818 181.116936182229466 -63.687088867481165
-63.326564757249379 179.585622391745602 -67.052221749248517
-39.692932325937178 180.511501540047703 -69.078040647079533
-31.521120402055637 182.479733343912102 -67.433681956159361
22.645294043188610 180.903984872593441 -68.182144347575573
27.396755354119893 182.758522335764354 -65.073678059105930
-11.465644277571805 181.358663248330146 -68.529481334731400
25.937407300388262 181.628208712491727 -65.970100508982583
-61.956850221470525 181.822126921735446 -67.884384083943232
-56.653757266636646 181.943738873230416 -66.476068633621139
-5.649341908463235 183.427363251117214 -68.010569274772706
26.190176608320826 182.893252664314019 -65.759364985476253
-38.632710555792940 180.813568870949695 -65.585166390762112
-14.113033057317475 181.174176616573732 -68.867736456264296
26.793625800697303 183.747267039939743 -64.653963132611665
-7.112356133612715 182.440933005769011 -68.020073547079761
-36.839938493152616 187.806640271021138 -67.864213105757173
-15.044959396581962 183.476954331849896 -67.695184411113587
-5.152734394495050 183.671520210857153 -67.512195141509793
20.078060518001184 185.859107175855769 -67.892405774694168
18.228586657143666 185.000911766066650 -68.277846682943945
-28.809997308862396 184.127274109046709 -65.028739402373205
24.248950999683295 184.683907463601571 -65.283047403730677
-17.301270177673878 185.147137082179398 -67.908940329809383
-5.695781283195381 185.765164069960321 -67.931259707488053
21.936986670827018 184.852823164678426 -66.064098830737976
-24.565750342509972 185.215052419909284 -66.405347501258589
24.972918414110140 183.497156767503924 -65.708474767777972
-60.212070508604299 188.479037356120301 -68.029409148009876
-22.069329154910182 187.815334118712684 -67.389085416641748
-36.283760879909359 187.614866799060394 -67.105900560500984
-25.681741531685585 185.714641320191106 -65.696286509991339
18.085448183501519 185.984493910108114 -68.669246631118511
22.243258933081094 185.598651463604227 -67.322231334663016
-11.830816742367999 188.239022083240741 -69.377415858915867
25.065564587106365 190.713367852247217 -65.606785582469627
-60.548249119006627 189.003077928136236 -68.363876940809192
-54.601708000128696 188.168567274019608 -67.841362706820107
-24.085082368225251 188.946539780280034 -68.268591914133339
22.091206158646266 189.659480875383110 -66.403175426102194
20.706285813400655 187.846469177499955 -67.843494548237146
-56.060749289972854 188.498026800821748 -65.570922946436824
-34.451416159011188 187.297483691587388 -66.684741658618520
23.304278895564462 189.491450371912123 -63.697515200219499
-52.155293059010155 191.836048708532161 -66.409376965066684
-12.058682467707841 187.509358402763070 -66.898536032721665
-25.784445007502622 191.488317207059595 -69.721624075069414
18.994025138672509 188.567203863963044 -66.053398539442512
23.574643464003355 189.710042751254036 -69.251438678475196
-13.144542648490210 189.129561647929506 -66.284540240183304
-53.829046528426652 191.873369157863209 -67.858178977622657
-14.482301148399435 190.271241809224307 -67.959649149858663
-57.954828477084313 192.873404849962071 -70.602020116598624
-34.975221840915864 189.730364904165725 -65.348922666928104
-24.571612612441655 190.642094730319627 -68.125363235310218
19.054992967244146 193.098686209867026 -63.416800108164807
21.935378146070974 191.310656310243417 -67.395647196064843
-51.213912138659509 190.589625325379643 -66.347060994973532
-26.539958148112653 189.336060102879060 -68.930641102860093
21.308366070380860 190.774462533518857 -67.625523163570207
24.260691360166327 192.734507412980804 -65.664359348733669
-50.517345832135298 192.622799557533398 -68.826494983684839
-57.576160562166905 191.709588819104198 -63.528438279304609
-52.475820721759348 190.481186318401768 -66.044598283654608
-52.131306854813268 194.030189498372039 -65.764851892823032
-50.400953430993781 192.786730957653361 -67.879971832788641
-19.636086747170761 192.386205054254816 -67.962659836279798
19.437666890380939 190.978865395927841 -69.123016498930753
23.837091823880709 194.180285884007816 -66.621951332525384
-55.176470576124466 193.814492845386013 -68.888127780714143
-29.343528359522853 194.275200905611882 -67.273208477984625
-20.000966608625301 192.491748148352940 -67.093080655685114
-19.320652508360240 195.851378356767128 -68.784083529404910
-52.184809400131073 193.662166418846653 -66.851194858095056
-54.910586812535662 194.031649465636292 -68.861208272689765
-50.834097613357841 195.416590715377794 -68.189534859471436
-21.560529975907258 193.573252385095714 -66.091541027046034
17.312872267915001 194.888986319416887 -65.642621608532778
-33.518656234217886 195.549094430888147 -68.859533502800105
-21.761224527200472 195.079721028773548 -69.171771950934115
-145.790426789526720 195.434315156027282 -67.482698731884085
-46.356028145735820 194.684065352290361 -65.105511569637130
18.144491338637732 195.879240688852320 -64.918302706741528
-51.109933234342840 196.784846378341427 -69.108367472541545
-31.317415855746013 195.100868956487744 -65.845883554617572
-53.990465139475617 197.987839691617467 -66.734214106262556
-28.549969689812027 195.908443494165596 -69.338082132158107
17.738374173914437 198.144782914555037 -67.426275043228443
19.779974026678147 197.242207235154751 -66.606303147974899
-48.238579982253334 197.129016379217404 -66.149430350668624
-47.014512718456530 197.300906147592372 -68.379340655113069
-50.250279439334626 195.938119595033953 -64.346786850591243
-28.528113212953421 196.756372728321082 -68.525696808679157
-49.680284754017023 197.068572596021482 -67.563197605345152
-21.374361394931210 198.028742394738856 -64.167948247262714
17.756634329056329 195.162309854292829 -67.586182522621726
19.321340263591480 195.931698378166914 -67.216761624189473
-51.045951948156308 199.494797978859964 -67.959520236257617
-31.542969661423058 199.283734962351843 -67.563026129175228
-19.512866562293780 199.420413319865645 -66.257070772561434
-33.534925554497455 200.271256966069103 -66.822681092261462
-29.599672511796701 199.825027188700176 -68.017467373357974
-23.327405374067386 200.260941916175966 -65.997253688032956
18.501188728885953 200.127926156068042 -67.955986624427197
-150.246592901045659 199.006274818495115 -68.030672830165273
-46.767059402849419 200.725156376746298 -67.086208140243485
-40.859806946227323 201.565313057564907 -66.637888431373625
-32.027483068313678 198.525082993305318 -66.033067009630486
-26.426796262985832 199.041715892144623 -67.391629545894887
-27.910705756142665 198.258487785681211 -68.918570772611659
-49.405187109121876 199.853338657688710 -68.017213684012930
-47.219176606033471 199.180833474199744 -68.042774647387319
-42.443325699131726 198.923300834808970 -67.576508463857721
-24.208356676826718 199.163653375323094 -67.240876443401078
-22.284066203007789 202.408173938327877 -65.382017030592095
-44.850840652689094 204.565247529194068 -68.563143784202822
-43.941624884929830 201.806868068875929 -67.774990991489233
-18.515407129135351 204.615135927810684 -68.822581514999214
17.041790666081035 201.027125800477933 -69.025497551952228
18.796389739308797 203.631324866618286 -68.879269525301638
17.198064733164479 201.106073230830674 -66.857892991819455
-48.384854402997661 202.676067070328401 -66.215468862081863
-44.557936769342476 202.583591336495772 -66.951379638788239
-41.305896034383089 203.997936247376401 -68.677157068570992
15.553309024451263 201.739913248905566 -68.249911670960302
-40.370165970515636 204.263114473835742 -66.801118955192479
-16.685681252828289 203.486693466037821 -66.570772567820669
13.728289899605523 201.892860728451495 -66.931612473548796
-41.684579132170853 202.298696261151719 -70.072046900478995
-44.921327962936573 204.867026231296563 -65.971100966274605
-153.689056939895437 203.855894431785600 -68.557107595492283
-142.914702225865597 203.670820910638923 -66.592006982688503
-45.934368107501143 204.599967083793160 -69.007707423749764
-46.649866285960485 203.332072499896384 -69.531049081629419
-27.580085293062439 205.037913786088325 -69.152079570218461
14.682613720771823 207.594395579583221 -66.765881277087033
-40.346564037704688 202.453729014605841 -67.258982839305332
-142.523126533555654 204.252800544178854 -67.196652442760140
-48.196854362197278 206.257999206037596 -64.611554618438802
-20.617169816128865 206.518799631601581 -64.758638869931971
-25.937961859558893 207.158486624804311 -64.800645027774792
15.613544170135825 204.959477501669397 -65.736942386350307
-152.236804249092813 204.023065033580707 -67.414086523088557
-142.702014547488517 206.707799944680119 -66.199889263204852
-38.271603371013434 206.960837434838197 -67.490755054552054
-43.125738236528733 205.737957618911395 -67.458129905251909
-40.843785679383529 208.163763795715028 -66.800891504456118
-23.714534244790915 206.855843086558394 -67.195714323614595
17.481232104842725 205.290617551910373 -70.834781703146220
-151.910106955098257 206.619478138960972 -67.777523535342283
-47.276088105537610 205.201991019476708 -66.933540212077403
-13.891141974112767 208.552933381497496 -64.131590931446169
-40.805961128799957 209.426831770807809 -69.928973635194723
-35.713586343057734 208.045175067025156 -67.368087670907641
14.241408333390638 209.784202128397084 -66.522314444784357
13.893506766224121 208.016439705899955 -65.789415005997682
-20.094626018541305 207.182820782154266 -66.405630891592807
17.435307032976326 206.895106647233575 -66.321030257844612
-146.680725701918590 207.389664213950965 -64.599030926291107
-45.381154264535326 208.157056073358660 -67.664374434733190
-41.686099616620730 208.140053444409403 -67.675462403103708
-17.556929143375935 210.487503987956984 -66.746257226108909
-24.418990468935963 207.799547443218557 -67.595342384778888
17.383567176014974 209.032345015541523 -65.695835078755195
-145.001096280999633 211.598422752240936 -67.294808543072207
-43.733361309522728 209.058377480260816 -69.397832287232447
14.393318375870694 209.399694056577857 -66.767931549428980
18.447761736303928 208.051972705574570 -66.911345362422836
-133.804099345239109 211.535243056149653 -68.426908171368694
-38.788536702467191 210.989170352403335 -68.594868806940880
-35.792065959669173 210.555119645872651 -68.022222802162034
-14.526174708588153 211.408188875248925 -64.488934022740537
-50.268115046341826 209.929539647357444 -67.851790581989491
9.566938998034718 209.098164812574311 -68.494084674804597
-143.150726696534548 210.931522719158636 -70.248002817465277
-140.780675606732188 210.500411399001393 -66.033321643082473
-139.118769617898579 210.983665920367173 -69.093217831707307
-34.555735564870346 211.111616639379577 -66.844090447623756
14.202898366872679 211.019868953106823 -66.353501397728635
-151.346258292577772 212.362406226970990 -68.496770409830077
-54.209092447869395 209.241933445739704 -68.634515083560174
-34.845991490142012 212.592086459900486 -69.025732865689520
-15.385543692831401 209.916826878104132 -65.859698998755761
-12.825141862440850 212.304783515339039 -66.003712601608115
-142.214645593538989 213.906333798275966 -65.926432853135466
-44.272789719270762 211.333367016757961 -69.683795890204721
-54.815572553050295 209.609723636804290 -67.236271608500147
-51.330471341681104 213.962216411740570 -68.607523804741078
-20.444615843366584 210.536664230323595 -64.862720449802339
-152.995506184950585 213.783739503617738 -65.658890984634951
-53.252016302855424 214.379062105480443 -66.552696692122723
-144.497527660412231 212.560050476406218 -67.502303171952619
-58.439271657594027 211.880012387158700 -67.039807215231093
-14.511551745852671 214.404164923972388 -68.558528210152701
-15.210253116672265 210.790953474067578 -67.998729289430983
11.927366969886007 213.715549626231478 -67.334069924475401
18.129570756505061 213.579007729958732 -66.900483161368541
-150.517132693433751 214.252148407954536 -67.958771085551945
-54.914894733616045 214.080483804046793 -66.455000392781372
-37.499983377199392 214.744251216921214 -66.209033054941074
-32.308347580712969 214.896872146750951 -70.440903917522718
18.287933321046719 212.745521472145469 -71.044976668642192
-144.226232304017287 212.404548854518509 -68.535589254788775
-59.928203726185693 214.553307497421201 -68.833154563854777
-59.492029082001743 212.741396736863038 -66.468922977964525
-54.169413410412176 213.833903858071693 -69.400018404481671
-13.710872995766355 211.662435749406967 -66.034943333993553
10.471508986164972 214.802152103162769 -69.166312187468776
14.588179485098202 212.019700307830618 -65.961038293071240
-149.755644963499037 215.410256825036754 -67.408893571734282
-141.960322038786757 213.568144025472208 -68.096674293452523
-62.377281240607246 211.526249109047939 -67.192011845680767
-59.593693421986131 214.972415506809540 -67.118555806958184
-67.418853706520181 215.462443568007501 -68.634961776239933
-59.040850283760562 214.747674501912286 -69.150805427147787
-55.318227916791002 214.479285247453760 -67.760108453310281
-18.653663140004724 214.522489344142599 -65.695501015277486
-10.645982700956633 219.030429305177648 -65.708622647601928
-56.448678538535901 216.003160010665255 -69.562479873043358
13.811382601611305 216.013228223427262 -68.827201932764069
-58.545273160208311 216.360018893060015 -67.032740152008785
-38.536905338342457 216.648981098245343 -67.502640890998322
-35.292902671893444 216.343982206474891 -69.004858741000746
-11.552774506632369 215.659359966786297 -66.899310207492292
-71.379708473738859 218.971158390051812 -68.222875753455909
-57.847746680406814 217.069673979127344 -66.124497274767393
10.517409072988846 218.188373623385559 -69.567508211285912
-146.114897432647837 217.113548135081146 -69.041830992842534
-69.148509493678532 216.936861200381713 -68.001103376714667
-61.437447031705801 216.184590280939148 -66.847696138694829
-70.884436614424160 216.151552761674310 -64.822347127564626
15.508791896052447 217.594860632609112 -65.074758466393178
-35.988801218209794 219.120521216262688 -69.873536926108670
14.433898123939779 216.767175236822681 -65.722377140043250
-60.673688784337536 221.378997151591818 -66.357822646283878
8.930946349388039 219.508356952904705 -67.589153993458339
-73.836814403658721 218.221918082290358 -65.617139564414387
-13.126473336062798 220.147806743433989 -65.610031758901386
12.193523744240292 218.716042759770346 -68.806998722501575
-62.917649288006757 219.991747942835332 -65.808102758684981
-16.024625024108577 220.010577636067069 -65.549359107180422
-62.465439770749569 219.826245271545901 -68.481449554642651
-15.941876213451819 221.820378101081076 -69.340051848172493
-150.658115741613557 220.309779838515084 -67.966956373030001
-64.032163591788319 219.896219885418247 -68.781743619218361
-79.122025794531453 220.673884860854741 -67.291022845767316
-6.787350907082068 220.132666384630454 -65.755899679008905
-149.273642732175517 220.602499734865972 -67.694628564697965
-67.626322816822181 220.239397505002273 -63.912680313764255
-27.155409720772589 220.522002358773875 -67.780682756232324
10.549303539511648 219.847270084658845 -69.804976530694248
-81.197357997926673 223.163786859702583 -68.423930006183227
-66.606527387695749 221.881804600734228 -68.598187928929903
-8.963728899111128 222.560976351537732 -67.235023609473814
-33.040864553489875 220.804583773839710 -66.626416779857649
-8.438387394087465 220.651144531322444 -67.572129786010478
16.915794258277277 221.655657034251504 -65.143121302687291
-81.020783012024339 222.453510436413637 -66.740760305752417
-69.220563311122518 223.676330734937011 -67.611396678077782
-12.689748158949904 221.496284044527670 -67.130138391189689
-82.747200191459584 224.106500198119818 -67.551550539862717
-84.608205678408012 222.308999236302498 -69.124788375914548
-71.279640181633027 222.186673421604667 -68.889123838170065
-24.307342090427529 224.120051645345058 -68.206922397168739
10.311290302347270 222.432515621983384 -66.188163942249716
-74.043444714275850 224.444754028412518 -66.403140234663596
-71.033724384942204 222.959708741322828 -68.884583136995303
-5.172389344329442 223.881026496975323 -64.999388056979242
-87.044833152894952 222.879642362788388 -67.892511342345657
-29.606170800312587 223.937040906110298 -66.532988011041013
-12.359871842505012 225.688413425036885 -66.784840644418153
-84.132936462213920 225.378595645223953 -68.268517554897812
-84.431023267668465 225.687006425647297 -66.942894558098658
-79.184462634522490 223.983169283447182 -69.485142692503004
-23.376990411493420 223.478214490683172 -68.455349436653648
-82.539697778920129 224.721343364499887 -65.625213250998527
-25.035307334406347 226.854930235548807 -66.282317927784973
-13.985989732507704 227.816798073738141 -67.790380812003292
-5.873144705298900 226.006843693372900 -68.221249150889449
-27.971459791825932 228.409438891719731 -67.488146577676915
-21.096505391086520 228.072266403444416 -65.930048712688972
-4.842852976356084 225.843259051940038 -67.060465259232473
13.729752514862527 226.601847861789025 -65.909960169257516
-21.014401539801774 229.009894320446421 -65.740350457845892
-3.528992134019851 226.845306185100583 -66.954639029324909
-26.091949029500238 229.336751403608218 -68.412180182235147
14.388137551969820 226.172721843330351 -65.969458818221270
8.309089169912957 226.703481128130164 -69.300714914095821
-27.105343797940520 230.479546194355805 -66.334401656271297
-21.665591229260283 228.093104318095016 -67.517188877834769
-11.889875702278491 227.682628489206024 -66.902974154596464
12.710804556676136 229.121855463694317 -67.436912763140029
14.674050200934490 227.470729626633300 -67.873700027500050
-21.207204978339689 227.060465085539164 -65.360326351020547
-23.836379924736974 227.562989109420641 -66.509060592954896
-24.745070474820082 230.204987336354066 -66.513132095423970
-10.869167610483045 225.727683838199312 -68.021747742549522
-2.794071357474099 228.916493866880955 -66.362719593755983
13.692286374104105 230.262896709210793 -67.287731910140025
15.038855095549412 230.931653892409145 -66.728377699459742
-1.791574685771570 232.127226320240226 -66.965863865114002
-9.606382810827615 233.007434139997031 -66.583740831178204
9.257584408045190 232.741976805000689 -69.781388982569865
-147.332942594610472 234.693876876978237 -66.082737659972423
-7.585527958921214 234.490822222568283 -68.058922066869030
16.526242868145800 233.767893810085809 -67.591479808692966
-7.497578325379241 233.549909471192649 -64.826767030775500
16.372875980270763 237.105789599462753 -69.337848648247885
-141.560205648322267 236.261801657622158 -66.004054882559544
-6.439480349082758 233.812062603919429 -66.459597334087718
8.493878109850559 235.377615378001281 -68.501713344468072
8.071830855795532 234.431104126384071 -68.396017472625061
11.201469464093982 234.696802546243163 -68.371988378823175
-142.711453179083861 236.725597273503837 -66.487304553415882
-0.403219891254071 238.048022657819075 -65.785123283299768
16.944124635309276 238.640227458794357 -67.545720569422045
-147.016644943089005 235.224652546578824 -68.278542426354463
10.328564667802183 238.363765495375588 -68.373621634669618
-153.042217135938017 236.116519548236539 -67.922563848755047
-150.906896041291418 238.961114997515125 -67.009042612196893
-6.963289389318603 237.525892943490021 -68.092026182055022
7.815234013606646 237.567667201464587 -67.294947151253936
14.777715315535271 235.044349786857680 -64.510819138654753
15.360759090534126 236.481966497889232 -67.815184953088561
12.627419654947538 237.841212842775576 -64.445160835656168
-148.564094013934522 237.493963991619381 -66.881908694850935
-5.215397410819819 238.572395528354662 -65.931891151046472
1.107517542261419 236.585282923276765 -69.086952001660066
-144.954620045637967 239.278979800436474 -66.911029450808286
8.927616702306162 240.390052578745014 -66.618452635855547
18.264333192598404 241.938587769014504 -65.957557168480932
-149.588716383121323 240.632655743673183 -68.313786275897201
14.106020701434952 237.279323787234830 -68.047296628747077
-1.801585347001116 238.837904167174514 -63.787372021521307
7.340581860639046 240.749865585282862 -67.674596893442427
-147.829668093636656 239.907724230119925 -70.142883730591407
-2.922457931992832 239.759841081552281 -67.871122278203870
4.549028383652374 241.257135558677248 -66.742338122756436
-2.221320896721989 239.602826839084258 -68.379623025659555
-1.093378241404809 239.839719978254749 -66.790832803679677
0.170013503690429 241.655180250610528 -67.136930168597203
13.642669767935208 245.243920469423500 -69.643959856718723
2.283401846420494 238.949402778600074 -68.016827484999368
-142.379347736840998 242.404133878001204 -67.572825195962636
16.520042981912471 243.713249005402531 -69.667228831037320
-144.094773940701401 243.184966303330583 -68.689105685737388
-150.059287003016891 245.164060043517082 -64.456738112082832
8.111374087655456 245.070448235495775 -66.430282465492496
10.214076766161906 246.196730103218101 -69.995311875275689
19.083711757230112 242.732664058002939 -65.011152028144082
