# This PCD file was generated using the MATLAB® pcwrite function
# from Computer Vision Toolbox®.
# .PCD v.7 - Point Cloud Data file format
VERSION .7
FIELDS x y z
SIZE 8 8 8
TYPE F F F
COUNT 1 1 1
WIDTH 807
HEIGHT 1
VIEWPOINT 0 0 0 1 0 0 0
POINTS 807
DATA ascii
-82.481068692173395 123.210628977956034 -48.199400496942602
-82.248227770084910 122.778614602726208 -47.359702449768356
-80.807253590852497 122.931296497642919 -48.603640799584703
-78.563661031260580 122.310402853792965 -48.942149352393621
-79.110711176086909 122.643735847166525 -47.466428727057441
-68.267401548571428 123.085778787190918 -48.390836527273919
45.846975322883296 122.677509930821259 -48.150489145688681
46.849271807402360 122.664426972022198 -47.876989690888479
-79.180751203667853 123.310186795801371 -48.629724041144819
-82.190081901773880 124.874858397385239 -48.908906869118930
-77.693056911979212 123.760759137027961 -48.616547458306442
-97.477836644804185 124.777709720762815 -48.869565387610677
-85.025789000994337 124.447268790227525 -48.560771172419727
44.608941925122863 124.123459206936644 -47.613213844654354
45.749125026373591 124.526273150989638 -47.501596112325672
46.268427063769188 124.626447510816476 -48.237913945572132
44.139969121785839 124.959228682481211 -47.833243312238267
-57.449283610461229 124.783461266232905 -48.082751358487528
-97.434868284260958 125.358020502231227 -48.665167188812660
-81.573827913840333 125.672039012309554 -48.804633962627157
42.779303347850053 125.660857356328947 -48.466278467111827
44.901953458004527 125.703558880819784 -48.085041369763708
-57.487813236996672 126.256796683355219 -47.853096120741640
40.960739924855751 125.368422799730169 -46.886326873368255
-56.172613522488675 125.804181444898674 -49.136718630780145
45.035697526442874 126.683779653747706 -48.233893058007908
-77.472219549039352 127.668329057282122 -48.279409781649278
-69.794983600164784 127.081183393044896 -47.830104678986118
-68.343531793462930 126.902075226306607 -48.340708994317403
43.020997657072336 126.892520416271793 -48.254917614073371
-84.457482469141908 127.629516165445992 -48.221133049905205
-87.545028294747553 128.247731015934903 -48.672463340578837
-56.279179394097234 128.228070663637254 -47.931453018121587
43.717123192858452 128.204535844519683 -48.574672824583118
44.450528564002667 128.090936438894857 -48.311737430536695
40.974562473893656 127.612042074295132 -48.482055222571113
41.155765194420873 128.212860037759924 -49.117077335718278
-84.325405157667149 127.997513886259512 -49.174429772950653
-77.667173224971776 128.062105316357133 -48.270081516269848
-67.811180805282504 128.479350824858159 -47.661641343499461
-82.446283779425940 129.225155063458800 -48.296112614535957
-69.028556986127398 128.334623485475731 -48.389037778616000
-57.387861698309230 129.273864821531276 -48.699599803940679
40.059576169973170 128.845319993297323 -48.478648525489795
37.970352415035876 129.260037631407613 -48.414500528128634
43.382715773998505 129.563420257111090 -47.227939222692818
-96.790709449305766 129.562617438823906 -48.168643002291610
-78.368548076901149 129.410304949544809 -48.156401580883383
42.464234282439129 130.407649829697590 -48.798641842466601
-89.151730530214110 130.407611436309423 -48.451666906048096
-78.988188139519821 130.279329804942677 -47.922488608621130
-77.957449039565205 130.174534836864524 -49.469130020941869
-68.889577217313516 131.146435317610383 -48.179418886976521
-96.299400734729815 130.120526572850110 -48.856595919911094
-55.224236992163711 130.397255397794083 -49.073511052648861
-81.803460744310328 131.524249400290614 -47.998848517433260
42.735435308728277 131.271363901176102 -47.708759072050626
-90.037038666432906 132.157995839228249 -48.932946053039160
-79.516787679074710 132.392187900986016 -48.704551378137367
-54.869003070674665 131.595846081191553 -48.388523926470050
-68.318756831894206 131.296276484505825 -48.385841351808239
-65.637342280420171 131.754847645686311 -48.059951935076135
-56.601918767498482 131.790356451977999 -48.765731019077371
-78.781946003197561 131.975005770250618 -47.899439567557302
-95.019881830124348 133.514815774459322 -48.052530618163743
-81.188653566179354 132.254781760267122 -47.831860266112137
-57.445108277945138 133.245552776398256 -47.377921484109052
-54.121629400615809 133.442959391098327 -48.908735192720485
-92.999809588150939 133.667413502011357 -48.887365389415734
-80.067417915020528 133.564158916790774 -48.163538232211010
-64.002658628728113 134.153070829503065 -49.233955687714470
33.087437004045832 135.175528130644921 -48.627540911065630
-65.147597934110038 136.324648856075555 -48.696195741723429
32.264975013028959 135.889596414954354 -48.339143773285905
37.737239216678219 135.726661004534606 -49.131865371273854
-65.785686401591505 137.214328446532875 -48.129787652673357
37.683623716447194 137.619795971171357 -48.611954825795507
-54.449022895573997 137.973977058208305 -49.148083362590533
30.370557294515748 137.493630731793530 -48.208094691402842
37.631511915276604 138.389481558880192 -48.406392263374286
-55.655549920206056 138.391751934714762 -48.641517831198463
-62.299891774622587 138.768792540716021 -48.831148005443843
35.951031915452511 139.248213090592799 -48.383614915429781
-63.694035426987661 139.277292521115498 -48.005059799818262
28.784679042214631 139.584200495219932 -49.172488592910206
-60.722102913731078 140.184250224251656 -49.096970731169847
35.158595068241659 140.048766572168461 -48.194520190759171
-56.123659955171398 140.312099391807806 -49.048846416281705
35.614262239526880 139.984221570583856 -48.934901067661890
-52.953608988982523 142.044466054994700 -48.101843648515121
28.009511434619206 141.423568731281705 -49.589495538105226
-61.675038058296067 142.047680197724702 -48.458210743662846
35.563480426556659 141.697517383374418 -49.083993496738394
-58.432224854221872 141.473464306591609 -48.715178492174346
-58.166111438142174 141.432432211266502 -48.717723405515216
-54.429553312983771 140.860851987255671 -48.174803900413160
-62.912447287928188 142.619192184587092 -49.447521475613378
26.311422709576306 142.936795482586717 -48.545609562117896
26.785796422018564 142.031103291503143 -47.927871805002113
-61.486513054766156 143.374581045342865 -48.489186092621068
-53.932142154590338 143.724558909329375 -48.379853579555572
32.975252861400385 144.458031876391573 -48.399365503488923
-59.975946090405671 144.545509713069293 -47.764828826451982
-54.855897212389607 142.977219484194990 -48.017618054355957
25.488470346875403 144.672703671131217 -48.124451277841359
-58.596961539691300 143.691930604738815 -48.248561078684240
25.297579005158568 145.809350762066316 -49.046846839259793
32.560199106238784 145.266624084341316 -48.790755431445717
-55.714285703258518 145.509490681872819 -48.726033929341376
24.524183097728738 145.250477158563768 -48.911699040261439
30.800132919529826 145.993527797694867 -48.776250545714646
24.589655332608380 146.743204736421461 -47.258555274892103
30.217531364366074 146.546749290652826 -48.224754136613626
29.581496724068895 146.860144916759197 -49.360844827007668
22.418545482494139 148.753873920246832 -48.883555137172912
27.243946502352088 148.516576143497474 -46.855153861542362
23.792301699443424 148.553454170453250 -48.119902572456546
27.201017567183815 149.015760403751131 -47.934916458801212
23.616904337059239 149.926313149727349 -48.063809464371737
25.254940004598716 150.539384476085303 -47.798109495295463
23.639106706878000 149.878834093313287 -48.945551715723909
-147.311921563039277 203.326843165222016 -49.523650014140777
-150.876230063508302 203.463933554106376 -49.222187386156733
-149.773901576812079 203.670533135684366 -48.450754400975470
-145.608518646901757 204.719016356086087 -48.379030430789577
-144.792498457645451 204.040211042214594 -48.780351867132666
-144.789334335828016 204.029056091093992 -47.593662357364558
-149.563635254388942 204.492168130129755 -48.368843868096725
-146.849557219720879 204.188003772411292 -48.053533048372365
-144.879545653164030 204.641471874719599 -48.661603700945271
-152.673913489834206 206.026507548492049 -48.307808279129020
-151.188493106995594 205.696269921884948 -48.233757130440999
-150.106928975973091 205.728123046823470 -47.498574758040824
-144.728129459450457 205.499191941083609 -48.069079536936158
-144.641154337661504 206.000776619898090 -47.869016441807595
-142.733608141378539 205.423152927839084 -48.287018139451582
-152.458176226176278 206.245341944964366 -47.533119636493204
-151.951141529915930 206.298279689624223 -47.746824939847485
-148.338496978034584 206.549770782438031 -48.330799693009368
-147.562558384794926 206.799699035716458 -47.996654968045831
-145.868798666927944 206.488438788311583 -48.872052738873563
-144.590575697770674 206.818116846564067 -48.560053891878383
-149.887614103007934 207.768000679217209 -48.804161280358159
-145.808086343694470 206.285088051100189 -48.368637349879961
-143.242868126974486 206.884317385819827 -48.736123458985887
-142.593723546842654 207.252512311640231 -48.762199088445094
-148.850906249857957 207.144573265169214 -48.707660124797840
-146.465096538582770 207.370331301474891 -47.433435937588065
-152.873928502337264 207.418119021707383 -49.608338041099294
-152.458480845519517 207.371620509287681 -48.375992544772515
-150.396354805985624 208.052901283977832 -48.045838391798277
-144.609049330470754 208.560026513643038 -48.539842784920047
-143.626920934407821 207.665899895446444 -48.691147703109912
-150.666688048716026 208.285573797352811 -48.784924743301460
-140.591949790926179 207.671507013856626 -48.829735601564096
-150.191361609012944 209.782367105033387 -48.449974060779994
-144.539289423517090 209.020651370086142 -48.429150497551241
-142.061501692404391 208.956855413974864 -48.723684417845732
-153.569674887738870 209.715874914340390 -49.202778250168265
-144.124738360019904 210.799890226341404 -48.241927091922378
-153.137357389692255 210.506982695054091 -48.262011935761734
-145.381930401623634 211.152330431226659 -48.683283834289526
-142.522305632951742 211.968194392058592 -48.498082736575512
-142.190503735758796 211.098291512590123 -47.762012214545209
-150.079982633515783 211.738463690435424 -48.558587714149965
-146.105520259382303 212.291490115731108 -49.239224524724129
-152.270118969288603 211.253802519423687 -48.000312320118475
-146.036175274975193 212.701768037242175 -48.648174491903376
-144.034437819289309 212.745838945396230 -49.028094182603240
-142.216081421094742 213.074989562419688 -48.438089894643518
-147.239258236265499 213.143117308156093 -48.309503188651547
-142.964562461958877 214.165179405984674 -49.480256224478119
-144.103644751532016 213.102326212583819 -48.366400185362224
-144.600230982399381 214.412048101994969 -48.959489774261954
-150.702076474740124 214.756326311361789 -49.112187100975568
-149.429848787012901 214.547235065479555 -48.385607402709496
-148.327434728252825 214.831365664896424 -48.615154483879820
-145.108704357763173 214.433713578553750 -48.271016289837405
-148.081312952433137 215.039395396228286 -47.897520447668363
-145.915852668730594 215.428075677850813 -48.797505867059201
-148.576287943886541 215.511590255142096 -49.126666575534074
-148.696353810955713 216.319863751047876 -47.370426246728691
-148.652015544914008 218.037587424858202 -48.065397437842037
-148.423519198260180 219.583728056552559 -48.607875870994455
-148.411610410915642 221.408487010970504 -48.744386117294354
-147.548331857823484 221.239155944283596 -47.550894060003714
-148.855826807119826 222.604582616076783 -48.652933141606127
-146.916316174142878 223.299757315281397 -49.360140935049763
-1.017007129588510 247.738637992325323 -48.302223844290886
-2.629139800001299 247.284883297213582 -48.743103384594100
3.757070998470366 248.244937038585903 -48.955211125020384
3.864923305927687 250.518851182399771 -48.115131662647563
-3.253303647778786 250.154911545662600 -48.271457266942356
5.096242038589331 250.812599665752828 -48.755132422502122
17.173912769622483 251.336256701435332 -48.039596529895590
-2.160803562339140 251.112930383027333 -47.543110526719076
13.956295137182829 251.426656378805092 -48.917653979901260
13.237978862262235 251.606769117554308 -48.868086434208585
-0.075769022923057 251.925497402333463 -48.130598779202423
8.789292286138021 253.292330299938669 -48.578008702310456
10.018516800395442 252.879285665280634 -48.433968346373497
13.441302525263977 252.968858487006855 -49.856367511087271
0.098189999960665 252.197412583655506 -47.638844754480573
12.224581687721203 252.944605420265162 -49.080747959540460
4.710083540981064 252.657816454898523 -48.000618985739038
7.241370399940183 254.054744207172405 -49.366160240472453
-1.417534220744231 253.564785904118480 -48.675249210396487
6.021390208937533 255.086204736617248 -48.278008136577775
7.144772897988267 254.120684944884403 -48.156777703728892
-0.821560867301277 254.390578117453146 -47.875170058487917
21.282348392478930 258.307104182101000 -48.624226924509564
20.858213519332697 258.488563233378954 -48.516250509955540
-2.202301037311000 258.871794200886598 -48.417043605536996
-1.492437672680939 257.880486981775221 -48.662254391615662
20.521616004881981 259.256615488173736 -48.759027337930114
0.886938906977075 260.494356106226064 -49.458981346959504
21.740653446739838 260.184030925775403 -49.466019314396149
1.662766499415221 261.353915346289341 -48.034895988710801
2.454370931338616 262.200063561582226 -47.811805122677768
4.618543861005089 263.903286280223824 -49.074503490322542
24.455575568445788 264.993424293583189 -48.379180300952243
5.344217807994252 265.840263232296536 -48.303441631060522
24.654455804494894 265.717875728745071 -48.598526144424675
6.055444816727531 266.975354386953597 -48.386619702945524
7.081207856378478 267.127552406747611 -48.387694961103151
25.060737542371758 267.143235086322022 -48.568928949392969
7.576752309191107 270.747360970234183 -47.981619518760802
8.095919997223742 271.237574265093428 -48.753201207485638
7.345420381492100 273.077988442644084 -48.504775165313902
26.240356283977469 275.798416386290285 -47.980728911123961
26.204606416859683 278.811061748488385 -48.347800415016749
6.933169695915468 281.204868990840566 -48.778606371543056
23.600934481113025 282.326619056839775 -48.997187650606975
6.934049304509795 283.429131207245007 -48.628527149626123
23.109088964300508 283.842183151250993 -49.431208945849932
7.161934886844180 284.962679510113503 -48.552945033252350
22.451872115694218 287.758665248075147 -49.689810374045720
7.409126879099937 287.792775753037461 -48.934515731013470
20.924471858922814 288.545014915401850 -48.711081978168018
21.444841967891143 288.090393943862580 -47.705277499882591
6.217784914373003 287.666849800326304 -48.239196062937587
21.181832867181683 290.028873503289844 -48.322933517042074
5.857892021047088 290.554783873012354 -48.494780658725041
5.251783989292944 293.170131838489112 -48.488367555502940
5.077169184336804 295.629377925138499 -49.072502117632425
15.629072674177216 296.193813778153128 -48.409020266204308
6.261074132479391 296.906559155033051 -48.127688297224857
14.025975740562055 297.761484063753812 -48.819040549870031
5.014517482689823 299.111829135430980 -49.090116577397154
5.496374492896004 299.053297602192515 -48.628772699336125
12.890360487002939 299.544384271933836 -48.716239076291679
11.291575180556121 299.863540548214417 -48.755819623811881
6.738939379746773 301.487565367971058 -49.199234653589833
9.388377170738506 300.764511278147950 -48.648926434773927
10.133362886921271 301.346386414535175 -48.542143039994308
8.423305500015740 301.312559355202723 -48.685249490827637
43.225030564653160 25.109551658635532 -47.017923175622620
44.873572398864198 25.838703564908450 -47.429245682712185
44.458717870347151 26.107841642530772 -46.997330136797800
35.787813541278815 27.641327035202305 -47.954166968358706
22.750081653674286 27.635538033520330 -47.085945275910511
31.347897534860280 28.046996143842787 -47.661244805982108
22.169861812817526 28.781060294547558 -48.055887458372375
29.627077704272288 30.436291677402018 -46.896486027860533
29.556505403971006 30.377901598546149 -47.067191464411870
21.073518184609281 29.954382297397125 -47.482571444380198
40.977647401356514 29.911372705463567 -48.264302293506674
27.410665337100106 30.560533345943245 -48.035383959694315
48.613646667540323 31.486629572272896 -47.877097928310818
28.661263579121716 31.114782012255084 -47.472657378431968
26.489858974124264 34.254487018346353 -47.377795338276300
43.036963437590522 34.376534176664961 -47.908489381285520
49.364887427541177 35.368212613363539 -47.355506003671415
50.245741340822264 36.408163056859010 -47.566594150135721
20.202087299226577 38.933658084633095 -48.044453484990093
26.297311170215227 38.315589731827586 -47.436903989304348
44.104914314275604 38.440200229797796 -46.574128734550406
25.400683171130815 40.186447308282922 -47.224120911295046
49.326200554607496 40.026235260469690 -47.781480171833792
43.462418197428597 40.566033181837554 -48.234448843906236
49.340932322456815 41.381324836527853 -48.019843485641879
48.364745211917196 41.935371158832623 -48.582774644670870
27.407193373652742 42.617200870225297 -47.788470715728977
21.461434788221791 43.465544115211394 -46.990930900093311
28.699427122465877 44.215060592345552 -47.771972507093189
41.567686465641955 44.039552553690086 -47.383186071016375
22.068171046664389 44.670366066532296 -47.730958590319439
40.530999543057462 44.024020905021487 -47.631353890088555
47.686539622853438 44.547841764689501 -46.624749413802121
30.695242650812233 45.555318558852527 -47.729866566755206
35.088077826846025 47.743844879073215 -47.918586530645520
34.935782695199755 51.785218804715576 -47.190289636886931
36.579330506945574 50.689379228924203 -47.892817859013782
37.268908960157681 50.949703833029083 -48.060373021109896
-59.725101966664319 51.776398700131601 -47.401040186122962
-57.294415354683935 51.982067241064165 -47.418290190703168
-66.885526021306660 52.334448929432128 -48.139644023277086
-55.202153186965049 53.305455034704856 -47.720472916492483
-70.898288437323245 52.430391088466351 -47.006674455173751
-52.277948710352220 53.448146327230653 -47.487712782846984
-51.452293585872724 52.985136008533800 -47.655358743215352
-46.233915861424592 54.551801666473743 -47.749760301310090
-43.232755717046288 54.926683775099029 -47.438045255946633
-81.531589628670147 56.011717580757306 -47.598521815975275
-42.353002104147400 55.903626071831660 -47.309133340028772
-37.908495309122827 56.743128432211371 -48.106526762412635
-34.331123468762677 57.759243512089029 -46.685484430882809
-29.472006435908952 58.020745013207403 -46.695289982886905
-26.531167409183205 58.901823005173824 -47.177916419430012
-23.308950705176112 59.805618346838763 -47.678059850894265
-20.688649396345077 60.693692907616175 -47.163888826898393
-87.771028365081037 60.764086225093060 -47.340548668698212
-19.753333438836659 59.855312811690425 -47.780640581232156
-88.536228136260007 59.987639520961302 -47.343009442811017
-17.844468813463394 59.770238908912027 -47.424148748434568
-89.499035706005287 62.920913149379437 -47.515027460081654
-90.373777182195980 63.714335700972441 -47.094959152558182
-92.039565380430005 64.100622734129644 -47.544680991125659
-9.582859194647760 64.457251650589683 -47.868341852600906
-9.851862856004777 65.824240834649274 -47.667464306566330
-93.309965531157815 65.731811103129530 -47.399588082699701
-9.107780882524889 66.999623717724461 -46.976119553762736
-8.766342209363266 67.710380135368894 -48.051052413003916
-95.107979075530622 68.401195118148223 -47.385584059247520
78.102959933537988 68.242479761232858 -47.082512994365281
81.707969368899739 68.477362408105620 -47.447588324591401
75.924711710772570 69.229010118908704 -47.509450963105699
-94.840487122338857 69.552101727379181 -46.005585999994452
74.274283038392099 68.953709545667579 -46.861892405478557
84.027247691384119 69.754117498848757 -48.211253285028867
86.511778206251336 68.851656247722929 -47.116481795355021
-96.370501871932035 70.537861576694709 -48.052170668798851
72.857348487029881 70.542938890629031 -47.163196451142859
95.295010794512550 71.530339154888878 -47.414482670798307
-96.168675985238295 72.256324765164862 -46.945376070779574
-8.215818016493015 71.469095212935514 -47.794718204812661
-9.564980641625370 72.218349377162099 -48.690940148444966
97.081584172971006 71.665294836204211 -47.368115949141917
69.402740278350961 73.692898008659597 -47.526514120938735
-21.169528212463376 72.575366683926035 -46.822326243042731
-17.777656612161774 72.761190639508897 -47.107054261129647
-10.329678090390098 74.022144546656975 -48.347957482847178
69.030058129978812 73.510543409051635 -47.649982743941258
-18.894614228710385 73.273676231851368 -47.993311161400079
-13.308038567804276 73.270728350574103 -47.836194901020917
-12.595718659766021 73.576833307301115 -47.084693456723876
69.101850712219971 73.622134011947367 -48.176383175538135
-24.960792274348456 74.122484592848195 -47.320704181945743
68.176222416965146 74.662278547772402 -48.154828296228565
100.151884027674868 73.450566277481258 -46.872916934156045
-27.301321277517918 75.338214129415718 -47.285390994915595
67.740224624481669 76.408203969335659 -47.756066737835120
100.891474787078451 76.553793070386504 -46.893329157467697
-29.859037971880547 77.175316024997016 -47.776715531645678
-32.603448310066547 79.721327756939928 -46.401694158586196
-99.053838513550133 80.156565601993421 -47.609616218823433
102.465115971932633 80.567086187532425 -47.989309857332259
103.166690236785826 81.995518392094141 -47.311406477008731
-98.806609366899124 82.401524969514909 -47.638321765177984
-34.292770241871374 82.603639826780750 -46.964420649896852
103.895883281275886 83.203665901010922 -47.350231464684470
104.347154247384211 85.229218985366373 -47.929319435280640
-35.507113224162303 85.147300774148121 -47.176443121019993
-98.387329115610058 86.310443320171672 -46.736942871035076
-35.147268690526445 86.118067098369238 -47.115708553897157
-99.435952788068818 86.371724356911429 -46.853626128149813
104.541952525835597 86.954775996073536 -47.682661502702608
-49.745694699676982 87.620052344756147 -46.797149610214653
-35.187993291793617 88.529121778140066 -47.497599624372207
-53.397588903715850 88.246733394322717 -47.888506009229992
-50.197110357664890 88.786212185758728 -48.235811639817157
-48.367529512519624 89.052100439770172 -47.588645563600352
-38.969889742546023 90.500392247663939 -48.280408490812071
104.970195305290147 89.178600939746431 -48.346331121765431
-57.208921326805239 89.930896853131003 -47.365679681346961
-48.101501209664733 90.641737535794221 -47.968471568217865
-45.312358771274248 90.777748343137034 -47.517323918522031
-98.485734608538664 91.117043887672892 -47.034904455044114
-58.836791951358308 91.837223986520584 -48.150898054050558
61.685629054261703 91.637529432049334 -47.601574379139947
62.384746308067399 92.051056903679253 -46.625625163288994
104.830348680577231 91.914995822530884 -48.401236273157380
-60.118499607887323 91.398757676888465 -48.199677895818844
104.958149723093285 92.749300090564745 -47.311191567420508
-60.904442389293912 94.764622201915472 -46.770373825687955
62.041155365227425 94.086828585545675 -48.076693043274140
62.694184094337714 93.986517810628044 -46.182736729218540
-99.734813637885665 95.267860925001855 -47.754114896751155
-61.125042603508874 95.368624666972039 -47.272675468123538
57.058791164589749 95.156801978859747 -48.276637637084605
60.816869091936823 95.238094770871641 -47.624910410648418
-61.570719513769525 95.979327375280988 -47.384426384878410
105.631020126397416 96.499680472326787 -47.378789873545308
-99.806267899524570 95.844715482610354 -47.885262495712404
56.166250772935683 97.043400754393062 -47.337424890153400
-61.494157265104718 96.823066005824487 -47.131811541019005
63.770417200090257 97.163027460682969 -47.680153994958104
-99.647925785114012 97.727079083187519 -47.820853737603770
59.900369899330023 96.457455362419950 -46.973800249148596
63.854412783527721 98.721106183151747 -47.873779718732230
-64.773348458643554 99.123293496046244 -47.666081666837812
56.629265532256390 99.678662807724805 -46.628923077755005
59.770560804007872 99.611247013971337 -47.823402317906677
-65.111588000432135 99.674398157395828 -46.968694672526446
56.812710603457582 101.678912220421310 -46.431570651875852
63.652077659944048 102.275152512785908 -47.567298222377481
64.319278270524890 101.956932380267560 -46.839407698253218
57.635471123774174 102.501112289090131 -48.062088706372506
58.925793752472607 102.471412183524862 -47.918728246029652
104.418164069831036 103.125729572157866 -47.179362889982421
104.653134078683479 103.427196970974094 -47.526657970605918
-67.539661713431798 104.239949109505531 -47.918034053726409
65.305781657929558 104.954331015431165 -47.442433910841430
-99.533505932944834 104.754850089596317 -46.715279216618327
-68.883924705731843 105.660546805275430 -47.289204017813816
-69.741304352292161 106.364230439864684 -47.391207793681971
-99.818255142738280 106.820087427374105 -47.526100296395278
-69.357841928545852 107.191992213056352 -48.172557929980144
-69.068181556292870 106.795760147536996 -47.623853068133499
-70.470152086055577 107.545632903769331 -47.549327429808713
65.661603619664092 106.555080202881399 -47.414762215150056
-71.641266819996545 108.403071486058565 -47.075235309679883
103.791712148906726 108.360691642830375 -48.037106430816607
65.584385114988521 108.163611379656302 -47.913982017217350
-71.189404972118993 109.543968204155377 -47.663618278226309
67.246849592282430 110.207812987950192 -47.613084058743915
103.484960080676629 110.579277234392251 -47.480033727261976
102.815410759737361 110.776614914113253 -47.459619340724061
-72.575524985546735 110.519311379327874 -47.215425363193866
67.348310955320144 111.074034047854596 -48.492872759462962
58.772058685998495 113.389721781728355 -46.864718182830771
-73.912893100857730 115.328011367299453 -47.570195914865153
56.417358190708200 113.910867804826125 -47.043381814211187
56.867877647542656 114.287615261809407 -47.433659263400735
-67.200338911862929 115.070829951073407 -47.743786547021251
-64.078276597066633 115.177331437586361 -48.504298448507427
54.107687958918056 115.264537208623594 -47.651334489027043
56.044306827933909 115.040801303068207 -47.025295856106467
72.717022081041051 115.151381620622601 -46.648171914684916
-68.495705016094064 115.426439004425887 -47.662889907791708
-63.411368691016264 115.981921108371083 -46.347139801281621
73.106157046853184 115.943509213718286 -47.519530049772257
73.869403749755122 116.445746914317610 -46.926910340857390
79.521339580377258 116.825290689476120 -47.252917156049413
82.060664545448233 116.560883517425054 -47.410297723377099
54.965431306001300 117.199937114665602 -47.358345686162167
76.028851611664464 115.667592482329852 -46.481458267268806
80.091243241327248 116.352869753670674 -47.966005394444949
51.277106930888813 116.754404807491028 -47.491176986873761
52.710375739500826 116.882785905634236 -47.155235429063907
81.696783267048474 116.500294534482990 -47.460895661929094
54.772415068206044 116.792564365219874 -46.398948844136662
-70.526962639592142 118.499955175781807 -46.695602805260023
-64.839339240288822 116.958434411978558 -46.946711934945640
83.802141995642756 117.371613263826106 -47.325975580895062
-98.513079138480350 118.296116820423777 -47.128046050697328
-69.486607538392491 117.929828742435660 -47.038063106079008
-65.215499851272568 117.052120666095973 -46.686074717960381
-61.363233785692685 118.743939363294643 -48.206497748810214
51.118064312294820 118.468243242020435 -47.479788135607876
53.790770667027111 117.828056942645759 -47.599443399505645
-70.663856150505339 119.010757402064684 -47.619549174996003
-69.723583944547443 118.392048941267788 -46.843342392583089
-63.801219986903568 118.576206869119474 -46.694087243976604
54.380492754238595 118.562705206259082 -46.553133803893239
94.711643140992607 119.183110262783273 -48.570364493170175
-64.480709287692747 118.441577803508068 -47.971761417077467
87.958221077823268 119.693280313793139 -47.296037969915432
89.516128309140385 118.896954338714508 -48.280389137426283
92.985272341045416 118.750925324332698 -47.679323281909063
-98.782111565456603 119.507313797130706 -46.781203890046704
-61.257410419359637 119.219421248402355 -47.783266935234437
48.398204793798143 118.765109535558906 -47.333130737150057
49.043861363833024 119.311401518651621 -47.223134223149096
-72.816260253152151 119.655775921125169 -48.156303733981176
51.256342143398321 119.052617069331532 -47.453159864451081
-97.864095157386231 120.548666688338912 -47.017373058117855
-63.202957241504301 120.556909662424189 -47.966077152952792
48.361379475405812 119.456085043179300 -47.797615261564808
52.827851506529662 120.421314706519766 -46.445271030646708
-73.589921040369688 120.689585839790681 -46.623672984659322
45.945853205348968 120.932844620620642 -46.808181093291473
-78.544495937384184 120.506117599829892 -47.257465911577050
-61.986955003443988 120.983450059078010 -46.780836053766258
51.478257736549949 121.185732140032840 -47.345123032360512
-60.137562264794994 121.694195007733356 -47.037333141299719
45.683504885519518 121.550839285469863 -47.188122958260628
-78.386848384187118 121.425504423718991 -46.109529689240404
-62.727756031373616 122.483075039376857 -47.461819090638201
44.740027969554731 122.107755234054395 -46.330130503737834
49.374937113084123 121.701462864937838 -47.791048026630733
50.597153597294145 121.239342567342533 -47.151362967580077
-79.486234248399143 122.938441443929591 -46.932433858831267
-71.804109154832773 123.237353937495627 -47.849083836258359
-69.707228510482054 123.148335661946390 -47.413165733630180
-58.542861774757412 122.909781976751958 -47.922663024727882
49.299493333818639 123.485284060633134 -47.147489918477476
-80.101773955235842 124.341581981455803 -47.829540256706856
44.663659754804229 123.537949371530274 -46.929260522584784
47.213304937003436 123.712394449986434 -47.325169512611936
-69.037620830744032 124.445852528393601 -47.256162135918331
-57.277332046696031 124.792413305194032 -47.609736164285401
49.021833439707450 124.640632958707343 -47.334782982565102
-71.084332558958366 125.217886412857396 -47.788894422782882
-77.198096675040688 125.854687940567118 -48.141746445549082
46.738730231343716 125.581010925983335 -46.343316790970370
-85.107396919373755 126.261424093973517 -47.706732229291084
-85.807856284904403 126.846725177126416 -48.184823152228141
-84.280051431445713 127.429313350202861 -47.745782303910545
-59.062869033504064 126.269312593614004 -46.997009570424801
-86.046960477204621 127.396371761087977 -48.052419855369230
-78.183295004984799 127.849995575841021 -47.208204018176474
-82.881063782261975 127.938205701663193 -45.795392198140568
-81.484491690015204 128.393903409657383 -46.593461800950756
-69.228138077138155 128.579132977912650 -48.001190093176419
39.021684013819332 127.874937613309967 -48.116647702267215
-56.505273658017515 129.005905839918597 -48.219655661501939
-86.867225936983687 129.755697539709558 -47.121979360836356
-80.823350662842003 129.308122316669767 -46.482440205739167
-79.402159577184165 129.067735217251141 -46.293255233704180
-82.739415862107165 129.491046572002688 -47.660192809256003
-58.563841981237111 130.520751028937866 -46.907459066157465
-80.512829209966270 130.928427284614855 -47.159289116515602
-66.323448028045433 130.512306697716554 -48.447124697540666
35.543813460344779 131.712104406377080 -46.976960298235355
-89.665719936053392 131.713218221067024 -46.879511688758541
-90.269196356752659 132.568866561745779 -47.722107008022448
42.630210205324907 132.358435287945156 -47.599686508226000
-91.383823186232661 131.567549474104680 -46.609931561985647
34.887327495105929 132.101330323450753 -48.138814551621017
-92.198153999776821 133.441173139307068 -47.584719849497418
-66.050096314942834 133.232303128438474 -47.589423993209749
-54.673273115238658 132.479070525283987 -47.248084125871387
33.296902678714901 134.395866344660988 -48.466892442777983
-54.160492585067828 133.701987675496781 -48.551854955743551
-67.359679117880759 134.587710307225052 -48.329770934926522
-63.982360000589097 134.360332937184097 -47.632198457520822
32.952089797134406 134.444112437031436 -47.453912664178681
40.405835028310065 134.284282081313904 -48.290709566885290
-56.689700477681704 135.433639080590353 -47.859717674341475
31.585631641589050 136.333317558169085 -47.344534899606927
-63.659041475231945 136.120917684172980 -47.319861553820161
-56.842944368294091 136.242338089330417 -47.692372726431138
39.353409684292501 136.862484929064465 -47.736047805156929
-62.191372676703132 137.828074645952114 -47.448851506333511
-57.625639879692613 138.798602461965203 -47.614512608161370
28.957582335305034 137.905368656893472 -47.332891723765023
36.712469110975320 137.545134269439075 -47.664408780188992
-56.260924692880465 138.938980344221619 -47.935008229912611
29.849539625799107 139.823995087381945 -47.821738418886682
-59.221620627469505 138.285402436723047 -46.966367145115015
-53.803901192794001 139.024650619640511 -46.745260776276133
-61.316593596427886 139.703068521249094 -47.533292905061778
29.098692822772293 139.501804328314535 -47.860335215002550
-62.711377643945731 139.935963941000153 -47.918812462768194
-60.283565173741408 139.866637186617083 -47.870794639948890
-58.621568007153606 140.552543702566226 -47.391994304767714
-58.842230476727075 141.446459198538491 -48.228497249224731
29.030034415585845 140.488825360234870 -48.301516998326186
34.431948237077236 140.377351082338691 -46.881025181468829
-55.125559608861082 140.879925275028427 -46.011335238001180
-61.285454310337961 140.943308507017690 -47.343743089303842
26.684336069561343 141.930298402858597 -47.609901873592285
-61.067415289285222 142.411277705772306 -47.500003730734541
33.343101858456784 142.297797766438151 -47.738768826805540
-55.729063959897928 143.078459351783636 -47.761638551499018
32.746212781623655 142.866290021728815 -47.229869987994263
-57.961468364549241 144.249841790596889 -48.021231308878093
26.111035661059368 144.298405915353726 -47.539129484032784
27.443373647131832 143.902123570923777 -46.800812757433143
26.288683334716090 145.297615184600659 -46.881020555547913
26.462653682007755 146.093267463646242 -46.898368480868811
27.655706211799874 145.865517532818387 -46.667766684050306
30.375816232168024 145.869232477924299 -47.642472009684141
30.136735252298426 146.070582425072217 -46.479650334257855
25.274745680532323 145.782424908441811 -46.186285919566131
27.432518658309437 147.338222270442969 -47.248644191661135
27.147270541579658 147.006441964017853 -47.694573270259667
25.509683712568684 148.596828511395017 -47.540984178210863
26.313739808720342 147.229947003967879 -46.666098812095349
0.376863023531437 247.902273509306440 -47.131297151270211
-0.383397157514867 248.177924510366012 -46.782198652179517
4.250385875061338 249.085731521737358 -47.693223541691360
5.508295812691683 251.049591628406830 -47.156914254942478
16.586942010622582 249.963928294130369 -47.656294606128085
-0.728815436442316 251.964806963013984 -48.077684768335786
3.990983341903176 252.557982364163195 -47.888166487315665
21.456350108633849 252.472874209083955 -47.714522998513949
1.163184682580959 253.342349187066503 -46.888750291724826
3.029373784176838 252.589850213703329 -48.364302382349429
11.573033305590601 252.247695729991079 -47.869280231143527
8.316112028502543 253.825444314029340 -48.635362835183422
8.228932669623937 252.949561890047335 -47.025863968746918
21.696344230416830 253.089889132053656 -47.840975849853145
2.964903097352419 254.866657929246003 -47.058088583770179
0.579000932678713 253.608084415182333 -47.141590162971937
1.272419540907611 254.381148487445159 -46.311368578556980
3.689068501426811 255.821184732091893 -46.772289806667040
6.241125159403155 254.589602522296587 -47.463274329312554
-0.680755059583994 256.722094747707388 -46.753741823922091
-1.310430561212264 255.771699380434256 -47.792004016954053
-0.910523809527039 256.850286485172433 -47.826180772346156
0.487752033860097 258.302905018071783 -47.326098065701188
1.534512747093720 259.817219712908923 -46.455158730533824
1.211850055228981 259.123150331136571 -47.640441065817178
1.037170820873937 258.919275526020670 -48.502398386942865
21.747273348419327 259.716537416609526 -47.288858826099144
3.320633196697135 260.594658916903199 -47.498644281208776
21.165349748631908 261.539332746290938 -47.879221552395713
22.082073497201041 262.101844265245745 -48.067676813000226
4.380313038994572 262.358127440946532 -47.510938442602701
4.844195570498669 264.662341964195548 -47.802710694847214
23.557740633117007 264.949610281355035 -47.521003306687874
5.196297244224766 265.469368459509610 -47.088923066163780
25.618587220221649 267.759414830308742 -48.116544251563532
7.482093700917082 268.189425409154182 -46.475825291288444
26.059101267551767 268.527941041085285 -47.505020068621604
26.799473044695421 269.074948134031388 -48.070523125561259
-15.360573123526473 273.923505780147252 -46.626670482781122
26.744226307273383 273.475734024780422 -47.792595992591771
26.353489308636973 275.114290292885357 -47.018539881955405
-16.579872781092135 275.643739911066064 -47.415919170070190
-14.924412489392783 275.862908887515459 -46.604719404494034
-16.520883933642043 277.027381482714645 -47.484007292958388
-15.623091229316225 276.461949385920320 -46.679166340222139
-14.114081755102678 277.440774726457846 -46.931749974147628
25.517843370296511 278.533141653757184 -48.132705149094896
8.729482465414476 278.222784278928316 -47.945180073507153
-16.513293384833201 279.396905281905163 -47.851901432028818
-15.321117082687453 279.586927167208160 -47.233872361281740
-12.998018365903830 279.426671559611407 -47.261211248046834
25.563309394078900 279.851643322464440 -47.546393585768790
-15.067657819467602 281.196056487558508 -47.289548669924841
9.612671284947901 280.821280111466876 -47.055258799187243
-13.279805521903441 281.529178926434497 -47.568573964023344
-13.340608082008982 282.171812677371804 -46.873598273737137
-12.730845627770544 283.064947887302878 -47.421599496396723
-13.456020430181228 283.120256628502148 -47.519885850207736
-12.362725835121440 284.820411284663066 -47.293034023684228
-11.130704591458775 285.907244433060271 -46.550488764059551
8.734192322700334 288.258627481027077 -46.832481550553503
20.142358737508093 288.968722447264781 -46.877227414960913
19.676052991057972 290.799545159789091 -47.443898149680642
7.659388454003082 292.951590512814050 -47.424402714066304
7.477848566655001 294.240206203009166 -48.018617859942417
17.297041417307060 293.737488696596813 -47.775936558612358
16.104115284369740 294.698900028761386 -48.259028912125444
16.937966039339823 294.234299759610792 -48.418219806347196
15.563473485903877 296.333096858496447 -48.174656960420428
5.599884894209105 297.033943072484306 -47.971162559262574
7.111538115499042 297.344093727118775 -46.724122384572439
13.525534133324708 297.856173697693691 -48.469428781356385
6.530884793524174 299.440890925722272 -47.623478844883934
7.459154720325376 300.196474213871852 -46.797695684833599
6.794931875355287 299.456032433352448 -47.587329957373690
11.264271293118155 300.734882006856537 -47.999672818423321
8.297191414574220 300.997222285643147 -46.963645922671475
8.960975662072114 301.281792614596554 -47.734636952915913
9.758603276644680 301.074392371251918 -48.416054670854230
31.793627345396182 23.112018958090911 -45.991020793973540
42.716581943823222 24.706708608730274 -45.863924356936742
34.669676951007112 26.623565557406103 -46.395258787246632
23.244389445784435 26.548736294782906 -47.034891885835222
46.855067467870384 26.866606467991947 -46.710687059398524
31.846446377379451 27.732595921013527 -45.617116433599946
46.721476837457544 28.470744111526443 -46.495741551767345
38.770428792824347 28.263458238036932 -46.490393840182925
22.733558549850308 29.936819659626977 -47.057745838674776
42.313474658749534 31.200825565159114 -47.289781356014792
48.451996660677985 32.023707043626544 -46.858270131143172
26.503110896720866 31.388813040671295 -47.344170955786446
42.541523554995202 32.184156913023855 -46.860458799833076
19.680364985522527 33.069333449743624 -46.577583766918863
42.321607922173662 32.950502317106483 -47.020485238895517
19.434905743313159 35.450297381036506 -45.767381680600025
25.494286858479331 40.058039415648352 -45.900450952829161
21.230965408242124 41.017315432435780 -46.537977557926645
26.483198194449844 42.500911063065260 -45.426214624113420
27.481900416982519 43.054243513472045 -47.051704927151789
48.882460192609692 43.236512929918476 -46.372519511397215
47.472301820384494 44.357652175658643 -46.258240057300434
21.604748067935837 43.578543309428959 -46.084170901649607
22.177887955274695 44.972228744138221 -47.137414920372819
29.890362074255613 44.805801440285663 -47.010437802470136
32.323255887927616 45.984492243727225 -46.657005031381587
37.210610495229510 46.701570775035563 -46.768707316983793
43.863153953399575 47.584302714830159 -46.879043610584645
44.145853710646129 47.999023738575332 -46.893580753564287
33.298848932557206 48.675607423300242 -46.153965009857544
26.154163129448744 49.047124504730128 -46.412524433190733
34.257558824659355 49.561453635560987 -45.610051007156237
27.540780800379306 49.850957498661032 -46.922093042392888
33.781091024827475 49.988348071359198 -47.022419468855801
30.505138229504212 51.350352984515148 -46.658333469831398
32.660842906398862 50.853238692352825 -46.832067330788682
38.259751468456642 50.374730851605250 -45.297248383200696
38.802131487548181 50.989029475083186 -46.385582566529408
-62.031685951584883 52.844437291483253 -46.425333525934299
-54.134750991477162 52.370168858434987 -47.312243803295942
-74.362324461850250 54.437068915186316 -46.895304283417310
-72.509656649808846 53.261012804871157 -45.658400255965851
-49.493385348619036 54.042029134801297 -46.472865493399510
-76.432039870041621 53.894926156368925 -47.226102524005206
-48.041247652518166 55.471684237160872 -46.888071527357845
-45.397909375806051 54.684932142794771 -46.777268952640057
-40.199155193028432 57.203802815563755 -47.342909764292280
-83.348457250899557 56.846709403621119 -45.931304658717906
-31.185879964776227 58.345025039882039 -46.140244892088262
-85.656332878574545 57.779827788158869 -46.445218939953719
-28.845481688787057 57.572927360263215 -47.604772541379305
-87.113723490427461 58.645574426511800 -45.297659145924044
-86.673910407293008 58.911471052740978 -46.491324242885860
-88.734657643962237 59.711106124211419 -46.339274435369120
-12.820738583664269 61.952813561346865 -46.383499466267033
-11.343845374809376 64.048033646290492 -46.725911777633669
-92.602031042910212 64.376854334298145 -46.433992401053345
-92.843689353463645 66.060428633043529 -46.071281073500764
-93.807429865377458 67.265822834559046 -46.270563085772416
-95.065289252039676 67.464709251082155 -46.770124272607319
-94.408271243467397 67.917133956814098 -46.253728681887580
76.702074068129804 68.860033380411807 -46.382488236654723
80.557946231571862 68.099867516780577 -47.211507309114893
81.375656943760092 68.077460555644734 -46.993682700883248
75.049882343116806 68.456546064618195 -45.417933225185315
83.356409000541859 67.832774536382402 -46.434590883226271
-95.386390743768771 68.492939298040639 -45.390277005192715
88.680998393837655 70.627240351047845 -46.743144847501370
91.598354662151948 69.009969891149240 -47.122908544026551
74.097972563264918 69.330089296152337 -47.204778967461671
91.176241193673235 69.303392179710556 -45.996250053839425
-96.906903605237673 70.707917996270510 -45.970528914386939
72.355896974774510 70.229787150842327 -46.970282785171300
95.473766276680209 70.760128321588866 -47.041525820833058
70.804089504205706 72.846092140988560 -46.388572555406100
-96.728641786451718 72.841444229247202 -47.064619982812758
-19.600212730024673 72.780288641417059 -46.142173091552671
-22.437929440063975 72.722953393549830 -45.510014690335453
-18.160748103991612 72.661104095544857 -46.877776652074203
-10.976626445664023 73.649219816192527 -45.798226177963365
-96.708759878720954 72.924269062370627 -46.165511444578392
-23.037441924896765 72.741464284657724 -47.047706009020601
97.981121735724500 73.624779701272331 -46.365813962626419
-98.303520822466552 74.438389044002605 -46.624084350253220
-26.915528191982844 74.522189992191741 -45.650298717532742
-28.278758917289732 75.523703773174773 -46.285225779688531
-29.282307391388745 76.351678631984981 -46.177938552435428
67.271914532349541 76.530857650472612 -47.053792624644409
-98.603029394962306 77.224251632076474 -46.119006693123971
-30.649910237196959 76.924343464685165 -46.084431941011914
66.312246470944572 76.592575767931820 -46.632591945763224
100.803678316613400 77.330250644218907 -46.150544269706103
-31.204171543164243 76.863515637582879 -45.621421913791721
-31.292963787686652 77.711333455997874 -46.169390742512668
-98.013173550614283 78.826042187188818 -46.495834358691823
102.978579626504043 78.996988072915741 -46.653727194096653
65.608768764168133 78.873949440470270 -46.393701784942280
-65.501412807756566 81.309720218335201 -46.072941893393214
-64.706254173829237 80.552581012649085 -45.972884094903300
103.466882769445903 82.452985191330413 -46.720990580238286
64.632961441303834 82.916759162884290 -47.328223050084645
-98.595189845600885 83.481465838250188 -45.957452852918806
-34.817515795407068 83.101432642208437 -46.556013894378054
63.484904956542842 84.845068971408324 -47.309010302293345
-35.322371820428643 85.910676708680583 -45.689847614371885
63.123340378633756 86.929981926215504 -46.698843110487381
-50.100071064635110 88.021542750742270 -46.551964331653707
-48.684090240342158 87.981152746606142 -47.304025040063884
104.609901521510892 88.478514252324686 -46.555328869385207
-53.538909521426845 88.671398000807997 -47.163280876268942
-99.355211741461133 88.673302189721298 -47.153285635604327
-47.697797751701991 89.003830658725363 -46.147155106842796
-48.241517213823556 89.355066437132791 -47.081773694909991
-38.432102401379929 89.016035174304378 -46.081268933441265
-40.948048585545976 90.376065948545744 -46.596433647540223
-55.667856969543699 90.085478807099449 -46.483595407682472
63.181003975495443 90.416771527851196 -46.150549932670849
-58.344123987424538 91.065626531139444 -46.812842961402012
105.631492720573647 91.117497518491277 -46.789597538496196
63.282339647746340 92.072672760331841 -46.669889763522612
61.082305207494009 93.564358231094602 -45.800847927587441
-99.193114312769708 94.032283774422908 -46.777266207043880
-59.023940026796694 93.421705584713465 -46.855696295760801
59.198711863526391 93.226936292292038 -47.009549171795058
64.182362686803330 94.916570353022124 -46.678876311892751
63.248771204001564 95.213349827122087 -46.394697089701914
62.161608667081119 96.477768839532601 -45.627240209063459
61.982618251006485 96.200743400861469 -46.927174832932998
63.769181231303321 96.197053302692439 -46.250796146224708
104.514863890754526 97.188373483861369 -47.764544325457507
61.657741662599825 97.181201050922795 -46.860247261479330
63.413320186961386 97.691393889037855 -46.572584194394892
-63.965724617589409 98.188561771899330 -47.323710948592868
57.981474577538293 99.293735235732498 -46.003104079265952
104.662042301353637 98.788751003262107 -46.835686433197985
-66.196788068694218 100.981196591077278 -46.772876959887114
59.234069475635430 99.897436434820534 -45.802188820218134
59.928758636862597 100.924173279346007 -46.560227642508913
58.493388930605455 101.094376273333779 -46.339391695112660
61.499059283783808 101.310257266805451 -45.665619481259483
64.949698991418046 101.549431995308993 -46.572138209193589
64.655749023155067 102.188966172833261 -46.285669142699035
-99.414502739563019 104.232924365987373 -46.622353071813137
103.500598171002792 104.895136478502650 -46.475204205320885
-68.883198888337844 105.075730814238199 -46.795644020414336
-69.468545186899959 107.344135896998139 -46.735165067439652
-70.544924142502282 107.487679225062934 -46.619506683562811
-70.446934536777306 107.434997705613284 -47.209538780141358
