# This PCD file was generated using the MATLAB® pcwrite function
# from Computer Vision Toolbox®.
# .PCD v.7 - Point Cloud Data file format
VERSION .7
FIELDS x y z
SIZE 8 8 8
TYPE F F F
COUNT 1 1 1
WIDTH 800
HEIGHT 1
VIEWPOINT 0 0 0 1 0 0 0
POINTS 800
DATA ascii
-43.501648758779183 209.154317088916144 -63.755092927232042
-23.072499249280735 208.296073654901761 -64.504933711025416
-145.572970373786148 210.641715721491892 -65.086554382745618
-37.462629863733092 209.694112261248193 -66.010132942059414
-17.167664380589237 209.466524045618087 -65.970837072650028
102.905438787238012 209.492456515295487 -64.936457036087660
-12.969600285139359 209.363967971749673 -66.045122019918367
12.105756318491185 210.302116693715448 -64.573573756501673
98.101703530571712 209.285431012826081 -64.494655891129156
-133.357381071082784 209.642489800801542 -65.166632512238294
-34.680287333254192 209.987435134717856 -66.089989483709743
-22.017193113214830 209.701309018803329 -68.456772457610185
-147.647937502927221 209.620992366914919 -68.526052304722626
-145.682425484652867 207.330746250463875 -66.856665572845955
-16.234467654440742 209.447035037252192 -64.896035924530992
100.373115896664359 209.911628569164208 -66.390880515857319
99.817555817197970 209.353533711251742 -64.077835658466100
-23.095108230911116 210.539753273463361 -66.947567554570739
-147.278836620393321 210.509020302771575 -63.089150890299493
-146.185086620482537 211.410416125205643 -67.997557253876195
-43.253653905247099 210.907464515359834 -66.538832429931176
-41.072161133547979 210.716338260488044 -66.749226782476470
14.758983718497689 210.835015136383475 -65.564889745807093
18.091226547713088 210.398856451992287 -66.311295701821678
101.941689411268243 211.015172357002854 -65.592625583745274
-151.214308067809583 210.524062386533160 -65.308023991352599
-139.432013195748539 209.658119178469889 -66.818442159297462
-135.713812318365598 212.445353654368063 -64.712546708877213
-12.055010311345827 210.931753314915312 -64.743683225758630
-139.727413035272832 211.694736925277823 -66.448205755455987
-21.636694679329111 212.120806217944562 -65.332714103471361
-19.655271852061823 210.980773496139051 -65.230260941437479
96.714393885013337 211.993485368994214 -65.683541992719910
-36.139131605200305 213.240318810400652 -67.351927278676285
-32.978039682264082 213.048263707543754 -64.754265502133123
13.171533222905756 210.935050388936872 -65.918122742662064
13.101357791373271 209.837239994857470 -66.857670900231952
17.336093161313975 212.046615907226396 -66.021126728553867
-11.339649425810105 214.090438797658152 -67.486535386382400
98.595852087197756 211.951377635251134 -66.431591373524654
97.657392030688627 211.972672483179423 -67.963335052254592
-152.717131903200283 212.863288558038050 -66.328201827857896
-40.408295170496210 214.111710134794038 -65.798954746463849
-20.365653179390144 211.513399469156411 -64.850760357874833
14.668012551872941 213.001002281960041 -66.092530614518225
18.257657701043108 211.988322587518581 -64.917202181540517
100.590760270534133 211.340872851682434 -65.287620998131885
-42.220095475476015 213.494140593239763 -66.952760484493496
-34.504844481228275 214.606194000068484 -67.880420129514633
10.910380908724251 212.268193661994985 -65.723409394870814
95.729010753805326 213.092518174656192 -63.878341384764980
-141.748401666189579 216.561546640483414 -67.151999282766383
15.121202294772230 212.312006612099850 -64.739692780237462
14.904327112954535 213.333736086282471 -66.405595299416632
98.190318800363059 213.911940834939884 -65.565954033932059
13.268037433374204 213.747833155151881 -65.392929059594408
-143.690285244537591 214.304386256364779 -65.634445247696917
-33.650617204693454 215.214529085412096 -66.058777864594319
-31.869506488147188 214.783705756385274 -66.263113230886887
-17.395749589018127 213.114336229764490 -63.538987905953178
8.538029540103784 213.729116182829046 -65.430914163538887
93.503471065664115 215.830646610372725 -65.421894674041724
97.354028067130130 213.803799609558098 -64.120585722889871
-149.601974225324511 214.229877086413950 -64.558730148650881
-40.658438369146204 216.034388865969817 -64.989405439508616
-37.397937355925031 214.208361542720127 -64.863499102102040
-9.964734699268837 214.591750364606582 -64.869784725797587
18.560356746348333 215.295513411454067 -65.773230916558106
-21.192928828815191 215.669151483355989 -66.862902877524064
96.029214906485507 217.453933304452676 -64.764629202176636
99.480602265425802 214.481181259688782 -65.261486191425774
-149.785250508948337 215.968552106654528 -64.659675727751448
-144.585515656912492 215.349073574082979 -66.318775204892333
-11.664612037911230 215.473183986182875 -65.054054627086174
11.170151172002184 214.898434189244767 -65.424009187993988
16.875491816126225 215.083227790142701 -65.566714607498042
93.954280506734463 216.379680139642915 -65.900444001228848
-143.442376465776960 215.879500573891335 -65.815049085232289
-30.488496482386484 217.982528789308645 -65.872259856422033
-29.701595302615019 215.258613274066533 -65.336756197503234
97.555256696491554 217.989104202745324 -66.072860999707800
-10.999523406730413 216.860457159834056 -65.723846162968840
8.517823326012836 217.046011084447741 -64.030518994864423
93.727687066707801 217.701390173591534 -65.675829718831466
-28.597807143728989 216.589246151661740 -65.584863684923192
96.599434839868138 216.491716862211860 -65.276050321390144
-37.008988444226624 218.249549784895351 -66.269685095997218
94.445695051104849 217.856523135784499 -65.368490379687969
-69.104750595791003 219.067429078477204 -65.888950720064287
-14.598868006768043 217.949360638531772 -65.862262042755958
-10.192846902362902 218.574772627274911 -66.792624681710663
92.076189028487036 219.515566082020740 -65.085665472318595
94.990395554297862 218.619336476798622 -65.254789426460647
-72.362244459987508 218.172603494614862 -66.410813113864734
-70.681623593373558 219.659089272890611 -66.052506697708466
-66.428084562241949 217.342297904338949 -66.017965563443056
-27.740469878843612 218.204304234045992 -66.934309143295735
15.129712804504083 217.626140685638262 -67.338351950317076
-143.262167763027406 218.929238306545642 -65.010344538746679
-75.853911850866467 220.041027995763358 -65.430854042750170
-69.514190564401517 220.391893325287640 -64.079623707027480
-33.745575663374289 217.892089397459301 -66.041080071717886
-30.885969553479629 220.604723402245924 -66.324745869496752
-18.747223647566482 218.004099026754034 -66.044805121300513
-10.038335330904228 218.721328224565326 -64.344473484910921
-8.322091025024452 220.019440930819030 -66.201157624222489
-66.381797095919055 219.932577102196547 -65.462808709091391
8.696090927582983 219.050380779580877 -64.539802358464129
15.857837098811242 219.101861616165309 -66.821174590714875
-35.867503272164406 219.973835099254757 -66.111411737744305
94.282306676432569 218.250036254169913 -64.811143081626952
-148.876702893168300 220.720262145128515 -65.489985681236746
-146.863221371929626 218.306650484522294 -66.190695950891495
-81.176006302532926 220.092370043201896 -65.702126781830160
-68.520342383899788 220.107502264219278 -66.322095979156899
-36.397947533973422 220.309735611371451 -66.634851758171791
-25.983488374453554 219.675439110818729 -65.301495347163652
93.237630525809962 219.243103167868668 -64.627574889280694
-82.269564166153259 219.301629430907582 -64.144838455667468
-29.394486353765988 221.203429505652906 -67.149078457183251
-8.660058716719853 220.727996692798342 -66.592648016832541
7.326293170979691 220.525327587883766 -66.251041756193715
92.051317939062315 221.570318200046870 -65.192561332629865
-144.693345381208388 222.486599816262327 -66.235849434972721
-69.818076765831663 221.222064993127503 -64.244545016209358
-7.041930765139115 221.363128084590841 -65.387223411563681
-85.102284574444894 220.776502410027405 -66.060027351120866
-70.827183037392643 220.299262759464710 -66.102771774675631
90.348012280459045 222.809519046216934 -66.234538342405074
93.717425365026202 222.480210156158563 -63.803994047901043
-148.840176595233487 221.661288801174464 -65.618123916199650
-147.668299348614426 222.419699178627837 -66.623187986967338
14.693498541788271 222.322301529728918 -65.499400223911209
-70.062461679897808 221.867940939982930 -64.776790701160522
-23.819616301563968 221.638975736396446 -65.935892613076149
-14.449162787177263 220.904993767689177 -63.642770246781041
15.812861698419493 222.101449137096580 -65.115192847884273
90.563833246495818 221.671389052300981 -66.531843042804709
-71.106062850406076 221.060675984984044 -65.370349860161880
-28.533950977785501 222.715324706803642 -66.190852787562676
8.036443873126707 221.994430659101482 -65.596977247578124
91.309657684920879 222.191215809579461 -64.819249784507264
-87.583803541308001 223.816122850531912 -63.265227871883013
-71.196024850146401 221.483617339817016 -66.532591421910411
-32.826968587104481 223.084668064893179 -65.993396919565242
-28.703165921898481 223.995481384849569 -66.831350083913676
8.222973465919598 224.165885576606570 -64.825087580932831
-86.485944758066893 223.186647803794443 -64.340751404901198
-73.471612625608017 223.921318190377150 -66.278890361153586
-29.051374825049436 223.887235251083411 -65.205295755482595
-23.535942665964889 225.093995867953822 -66.043160596318558
-13.978850731002000 222.591261305975621 -65.261149896384907
89.088843920496146 222.749559441295958 -67.066961612502780
93.785898138149577 224.832187094972568 -64.565496725002831
-87.881568830353785 223.885707000829655 -65.017677238896567
-74.539431999633365 223.849109235743583 -67.291410016524367
-26.710948663143448 221.587807251106113 -64.558154447821579
-23.107296922819280 225.592020753292502 -67.447005729448890
-86.992342047886041 224.442302047556581 -65.028954403048886
-29.116487757830299 226.325806167596994 -65.382866130439041
-89.075488564405589 226.172488930597126 -64.727515490593646
-76.315054883625706 226.684138927748904 -66.476363250994567
-26.512408197227533 225.069432533614332 -64.336810086399410
-11.502673038401849 224.858032491154944 -65.768067482822659
-6.293074749511900 226.709537060744140 -66.029530532887748
89.534816687132746 225.707361383752414 -63.962709128856957
-89.408189619919028 225.514404156154910 -66.677570953677858
-88.109294733488866 226.000217394220300 -65.641283800367120
-79.581757550219947 226.124151199784762 -66.878835378681075
-21.225872890493378 223.438691003543539 -64.829827352036659
-15.496519307856920 225.520827537865273 -65.068758976949795
-3.494088767336202 225.370765204471553 -65.324966138554473
14.784069622321812 226.449736670884363 -66.058954275572631
88.116865228243356 225.724864272944359 -66.400804547940496
-148.788954506506542 225.196977322653026 -65.728426359071136
-86.386397490853085 226.103368240357781 -66.459913107450149
-81.237585225661221 227.785502067272176 -65.567462997100336
-82.585956067226945 227.247632352337718 -63.615955419537102
17.159273286510288 226.147679116733315 -66.540056222298062
-84.348388083020652 227.660858825629703 -64.532232879191426
-24.908164180246363 226.983224370238787 -65.353502095582812
88.723476979685245 226.122833706301094 -63.831237712762857
-150.277335290873026 226.848988088712815 -66.634091717982329
-149.123571432332682 227.557556611071732 -66.040704743876518
-88.030722323723353 226.097160189340741 -66.290137694584345
-88.484263172915391 226.489782641233148 -66.259655057197648
-86.576877521643695 226.502125897755150 -65.020556552213463
-84.724427944807843 225.692768193456260 -63.848919332947204
-20.240813911797918 226.648428411113628 -66.359075558193410
-2.075822333191920 226.875544944010642 -67.623540032434533
86.316009891502560 226.422336454196511 -65.152639024399662
-146.176195929464939 228.204956143255345 -66.199311257724759
-86.458988709787207 227.255170385147181 -64.847451854703863
-13.676714926198434 227.381338086816612 -64.758301723883520
-1.954822934410948 229.849028139676392 -66.107623985083535
-151.009314779682683 227.895168864896078 -65.955549803158348
-13.935529296522741 229.450180302683094 -64.403762294718277
-5.039195566699673 229.369132307066650 -66.107249170298999
86.931708226946128 228.396793477414548 -64.916433711823629
18.085309219640138 228.665233574684947 -66.560495920508401
-145.711222198038058 231.358949049883563 -66.346563402790565
-11.904351421210809 230.300833444420647 -64.981424631202813
-151.169880955078156 229.531487036925256 -64.364447232237424
-17.744032566392978 231.430944101539779 -64.233341124256029
-26.447826613467619 231.319976683836074 -63.607400704648143
-9.438285318373739 231.082325048237067 -65.367617184435034
-1.806483632516953 232.594597398181691 -66.196779165122535
14.918994251076903 229.853508746785906 -64.935937643347543
-149.032190878496266 228.990060200970078 -64.999449349802489
-144.722329883451238 232.675756638548677 -66.440375774662797
-17.120205866628574 230.982641540705799 -65.065617715379716
-10.128586526778607 232.374942701882446 -66.081528111717162
17.840117144945005 232.480749454743119 -66.264600665729034
-146.167654726980714 232.240127589707498 -64.495097521300963
-23.628002645910449 232.262733726762633 -67.100500278516165
1.830538054683564 233.934955384645207 -67.480383489949602
-149.857653689381095 233.250556986214548 -64.938816708413498
-145.017743542086208 230.746396810798700 -66.662818677867534
-23.259136408688079 232.061873500825186 -62.585324616284225
-16.578604731840940 233.873250540263513 -64.352055517177263
-14.978622027663253 232.987648683701167 -64.084075980616035
7.169465001153556 233.676134183884500 -64.289001674345485
-150.463601480431350 232.109764914245801 -67.553058369537240
9.421490145002524 234.012446239094430 -65.716065477750888
-150.169371058856768 234.844035228466538 -66.363540920892419
-143.413871137295359 235.785065862138879 -67.055996158169251
-19.767796400590353 234.900167885720634 -65.350712250739434
-18.401266947153687 234.404916651063104 -65.824172244864570
-16.230809539732938 234.979181732227431 -66.772035148631531
-16.258754963924016 233.258403092496224 -64.281200873272141
-21.487047018088170 233.577976302093759 -65.100213774098350
-8.194993506084529 234.700297936755049 -66.830936986168140
1.187317148627702 234.406811805469374 -64.139950380340153
18.819345196903861 234.164196550004391 -65.369769702356834
-153.518389755311404 234.623039661614797 -66.619247912428420
-141.855908541623563 233.394642903318754 -62.754870821757748
-3.161784661195917 233.914082648045706 -64.611804190707744
16.576710465513500 234.783566607313418 -68.096661414865821
-19.688423921707813 233.785388371027352 -65.354664391162387
-140.583715829417685 233.803688918658906 -64.550232149708236
8.165400251887975 237.585403407351748 -65.294940047760619
-141.884627480187305 237.256600872610562 -66.700780573035019
1.535981362895806 236.539904410695698 -66.651755222590268
-153.577598576975163 236.378695336896186 -65.858340403273388
-137.989539155897035 236.685846254213089 -65.232327937224312
-18.439972760097650 237.438282845928313 -65.763650166821407
-14.657543336132463 235.806821388981177 -65.960578325907122
-12.135933673458281 236.732199701372622 -66.779136049439117
-7.315596638973980 237.197173374233387 -67.348763370112735
16.266916601413961 238.268221967906385 -65.214540125463571
-149.583091648121439 240.175624701707392 -63.981447458335325
-135.631386422989152 237.976790354221237 -67.330906789736787
-15.914711647555007 236.327614423490417 -64.308024130843961
-134.606821719135098 237.716077615555236 -65.402636097476218
6.607024247217287 239.020511470457933 -67.116108919014437
8.538117436678315 237.984118822293539 -64.829669167074954
-134.510903428551245 237.740522184800881 -64.849406341732205
1.273205832577428 238.343086916056421 -64.561665069821316
0.999416509062940 238.623801304693245 -65.722850025221788
3.204032127306654 239.326254762500213 -66.784191334709064
-134.289562252435047 239.224406341902608 -66.215084596738393
5.918807412763641 239.939143937693700 -65.959615594139336
9.805327729148198 239.825154741078080 -63.981448546011521
16.304640287644247 239.434193795617603 -65.922443216801639
18.737875959522309 239.652683252318127 -65.537093975135704
-0.683238080782770 239.502107294643963 -65.361966907361563
1.544771256581755 237.743330284144037 -65.220585893556446
-148.288168084478400 241.496167939500850 -64.990574490427235
-135.363475043676772 241.271259474456912 -66.862128308576160
-4.970863353524557 240.381312185409598 -66.165398449107201
1.088442506373490 240.478639632785104 -65.002190450306031
-140.850323390101124 242.180524448955452 -66.333076488777763
-140.765249229439206 240.481744163322645 -64.993121516213066
-138.068727142632042 240.609479458000209 -65.982980767737843
2.269267555446611 240.383622333990473 -66.612426091602501
-152.739281418679695 242.235262179781500 -66.465479602817751
-153.540054715099927 241.633118774741234 -66.983168746961184
0.909239407004107 243.565354880034249 -64.951910931257729
-5.089440618757021 242.744634435831699 -65.972751409664482
9.679795682635456 241.817757642537316 -64.457215626237172
16.603320184470149 243.716933047852507 -66.560807810368416
7.071169636954987 241.437827284746618 -66.987429420191617
-153.343812682336448 242.425845965900038 -65.330129145109282
-142.168058562413563 241.477080488623557 -64.666917983709894
-1.267435707010747 242.997604452131014 -66.348822672102557
2.182762484310756 244.146137898973166 -67.117298791691127
4.681267621368432 244.119583735375045 -66.619976761951207
6.247705601189738 244.676525693515856 -65.074545273768479
18.376467900078886 244.007046783031967 -66.373475944874656
-145.252981402770018 243.822120362069654 -66.322822116368030
2.713670032563847 244.292705700565989 -64.794859924589588
-150.732082887879926 244.781075710120547 -67.026751014469866
1.112675106046231 245.065075026469998 -65.382950770824323
19.276770076236147 245.647603985770075 -67.028233275966002
8.732345964697368 245.214922731716115 -66.116916845003871
-145.060948111471305 244.000915458276353 -65.835889015478259
1.292611845331592 244.776443706414909 -64.312143971957141
7.065789258069142 245.018826631086313 -65.093630310922322
-149.370305853419694 248.248716897094937 -67.093475698324966
8.362303507831053 247.427760534211615 -64.850955356692239
17.009299709890609 246.984983794672218 -65.481999787429373
20.209185524742761 245.642426334408469 -66.100325948808944
-144.820095391017219 247.855118764149438 -66.926273939139435
5.646018080309542 247.539553643781744 -65.991572640029787
-28.021870545300196 249.311660414577773 -65.108534456579179
-30.114085944394180 248.669523361622765 -64.316356548423514
-22.334636577113478 247.249585877211160 -68.110908560539187
-20.358996050670090 248.899888769694059 -65.900762308634683
-20.726517017036844 246.308189488997527 -66.214360971755951
-1.538105739940369 248.161138228968952 -64.770829915025871
-150.063231455911904 248.349560908172862 -66.236818493374571
-30.853521606361600 248.139461140982917 -67.146378945521633
6.785612242567646 247.391102289825966 -64.971767751298131
-34.469201832885865 248.959801487479950 -65.965665119459132
6.925480749075374 249.196610560363126 -64.279612908300734
9.078907267803418 247.356770769101814 -64.916081386286436
-39.877956858518395 251.694846987907653 -65.018283004254315
-19.125844825524783 248.614336665166064 -66.972919437316790
2.536393892122851 249.975993616809831 -66.378733565672022
-151.130581349053415 248.006783380070232 -66.784753189634515
6.210303200882057 248.909221767881064 -66.058340639721166
-42.660823412758191 250.876690028184413 -65.588180589795769
-18.176156571774602 250.291187305185730 -66.010310937540197
17.222651861110823 250.709674155954389 -65.400917078082784
20.910212498126533 250.892012049609320 -66.571550762657012
-147.222997529339892 250.982841674690604 -65.898697998380271
-48.585731499396630 251.006155325027265 -64.783324800441690
6.969832060220472 251.167354649151861 -65.501778435579055
-149.344680542519654 250.309880955848485 -65.866946746315946
-148.679950010201424 251.136973865606876 -65.004773433011948
-146.231739701661951 253.350684182990761 -65.423390304580920
-49.776269084933936 250.840838387273379 -65.483901600891585
-149.484335537841901 253.748368089755530 -64.774051063565523
-18.612516553825618 250.873006884483857 -65.980515046710153
19.322065151095401 252.710427138821501 -64.396426287693615
-25.321710012037993 251.965281217044520 -66.058216263280698
3.332086020730727 252.043020941600076 -65.201918446633741
19.503250626932726 251.671973025802686 -64.810394273473918
-146.947112237286689 253.166600526713751 -64.888760506510124
6.915263072397593 254.146763097203802 -65.569643885681742
7.972869194839788 253.329980067451771 -65.130087029025731
-28.167879854157327 254.993611599716019 -65.633229670385873
10.708618180288656 252.744659477101891 -66.290860017174268
-56.394325982020845 254.464457868994884 -65.216620649409762
-33.449727225958277 255.041761034751829 -66.117896334507876
-145.340098348479870 253.788718780264418 -65.232264418612047
-59.185564775531482 256.395460972917249 -65.620559832116470
-35.174238932225151 254.507837611714706 -64.814517120357934
7.146058318783774 254.796954889670531 -64.815932616290681
20.884360654255222 252.779885354097502 -65.568886726060171
-62.081248528781742 255.341937138116691 -64.282019231632077
-37.649253778528241 255.244417403876412 -66.450536361110196
7.575269368214126 253.869131921852897 -64.834078739728554
10.221944111793658 254.681686038481757 -66.638381524759438
22.217925597199866 256.927228557341323 -65.451722797083590
-148.882928260397421 254.798650900369296 -63.783358781374332
-61.569771132461518 253.793593095441821 -66.680057429024018
-41.186872962206650 255.920546315037910 -65.256452606539000
-148.452425436093733 254.823635732446633 -66.699615727195621
-62.640873284806901 255.054156748181242 -66.069834588266502
-44.559698695895300 257.147786980681190 -64.461732512260269
10.488183749703451 256.227485526518649 -65.930989447745731
-146.442590564101579 255.767821717659274 -67.102582551354615
-64.416222088655672 255.395347704415940 -65.505359092444934
-61.521112551556946 256.872601876753833 -66.703304378156190
-47.250887478656445 256.930875145444304 -63.905790384672386
-1.204284943502953 258.022716608936832 -67.026494258874280
11.817881780674092 256.279721515167068 -65.658257580021342
-67.202947180558780 257.218390105581989 -65.714131819635725
-65.132273442878812 257.792329010603794 -66.818715701410483
-49.931440084840730 256.273673090756631 -65.228195375002741
12.268291686805911 255.938377364225261 -67.116084129468376
20.747934657115870 258.005257503511416 -66.281589110609147
-150.349041659520509 257.616319487921601 -65.344201387384487
-66.737428279416903 257.612954430629202 -65.240125456746384
-56.207179506458445 256.389005552551282 -66.799400564109902
-2.458928532630478 258.786466584852633 -63.464285282841175
-146.302414693400010 257.258947802735918 -64.641263661830706
-6.424198809718364 259.098652926815134 -65.977162438996359
14.576573297481794 256.098304175627277 -65.574031004855840
22.615437178315922 255.985852699981251 -64.264003455549258
-60.130014631894390 256.059073601277703 -65.570598114649911
-55.827073341566148 258.776715312625129 -66.879769048519364
19.954590943584407 257.248689977130482 -66.198694055985072
-68.310039858202828 258.481307572145170 -65.261507090333623
-66.298142107929394 259.772160017727629 -66.784224261188712
-57.455078357922638 257.098805443134324 -64.001780471615163
-61.823582790541622 258.506809926036283 -66.040940249661233
-59.235223362142612 259.286570297455626 -64.435955608272081
15.986427017719306 260.139597595935413 -65.969068123128068
-68.155375934912357 260.430887545707492 -64.749915288377252
-65.147066506134905 259.163739465243225 -64.422222010855705
-63.569823778647958 259.155658498224170 -65.386627117208263
-146.125250418749147 259.275531642085127 -64.514402489573826
16.543224481132711 260.330723757036765 -66.778654883334269
-151.421430743325573 258.768722517574474 -64.601635096066943
-8.900412435309207 260.436258645319185 -65.330554644188425
16.748847811563763 261.039942547569638 -66.719699576179607
-146.877142398685635 262.388792452454709 -65.427286428900189
-150.355052759996880 260.738634286845013 -64.621614548541061
17.672087134411868 261.690350587807075 -66.199874139066111
-146.797802839456551 263.931282871527287 -64.882197230190414
-150.869318606350760 262.462804098869185 -64.654982596437847
-10.626546056396132 263.898228696348269 -64.990835443953657
-143.633724354128560 262.677288692727075 -67.151013968785563
19.861570321023247 263.869779565073259 -65.727818488639144
-153.202828358542689 264.557840962292630 -66.194159682907994
-142.254427251168806 266.803633393778227 -66.318656503907889
-141.948266233849267 266.093723735925380 -64.758009257279895
20.125813220301321 265.164137258987921 -65.324310718988713
-154.758238294854323 267.946217135251914 -65.051103321218164
-148.915683391988040 266.452736097317029 -65.841049689028367
-147.997681231420529 268.702554203211946 -65.418086026472153
-141.142667679710428 266.780014109589729 -65.496126463836973
-12.286926801004007 267.227815002957868 -66.819987354003274
-140.057085527247608 267.121521340121376 -64.865112054407717
-138.792224426755723 269.061601617384156 -66.695683570819966
20.849408274539911 266.385177349730498 -65.330923005289591
-148.563437918464473 269.142261745079168 -65.209195951282879
-138.536269428293451 266.306032755561603 -66.788948614365239
-136.679441171516970 267.962249118641751 -66.730421658635436
-13.659690324904844 268.213172450398190 -65.367199682381184
-141.658991627708218 267.502359566355665 -64.157697593432246
-147.153195924951518 268.301154406580338 -64.910569479685833
-136.434172214300673 269.048676102069521 -65.478805206040022
-12.437895364264390 267.992229686168685 -66.815673710015716
19.717884532474805 271.596641312824772 -65.210607695167056
-148.171934953605955 269.906760584421704 -65.286661644381013
-141.892364333324309 269.100547280306614 -66.253925701238018
-136.114155574711361 269.912244899105019 -65.830103277368650
-148.213324739806495 269.596702656493676 -66.928955492213817
-137.122471749861830 269.749311226388727 -64.371877709863881
20.418070732712934 270.783208442764305 -65.845202984511644
-154.709831036933537 270.255328167945152 -66.395293345391281
-153.213468631272207 274.096441167557145 -65.156823943467231
-12.061418666801066 272.213015625426465 -65.926236118211463
22.026624579116206 273.895814378047476 -65.485477916978553
-148.668051429387702 275.539643581148823 -64.643796617018552
-149.025926065110980 274.626006202414601 -65.960192620864760
-148.596294861421740 274.495735621796712 -65.802285949108821
-11.663173274457961 274.259951763342258 -65.720456672572311
-11.411877899884161 275.323263777078353 -65.022709448913801
-146.863730065688628 276.632732612485938 -65.240902225495319
-150.623753659978803 276.387045242037630 -67.081812743945079
-147.747529166891525 278.714769613379133 -65.832095834986490
-12.304957759797166 279.163748830942836 -65.749073508552527
-151.203161022111829 280.938581043977081 -65.037036192631348
-146.061677412705620 277.995337420093733 -66.081640969947159
18.422841768810855 279.283941075341716 -67.222596962643507
-150.162078165075627 278.643999051696312 -67.107436497546544
-10.710731629219122 279.532438281392558 -66.065052238333109
20.841311887663640 279.769550648799168 -66.888290571789682
-145.104942796881886 282.105464115709822 -67.461325552990331
-150.012592373264312 282.329962167405483 -64.569159889519639
18.021964077245077 282.962039858083983 -66.400177041011673
-147.096558132133651 285.284242001769655 -64.985779593417874
-8.225822828716808 285.183716626045680 -65.642458524457680
-151.228496443011835 285.825914195849350 -65.571549802979149
-149.907750743211750 287.451526432668345 -64.053276180307023
-147.214668078076983 288.087456410581808 -64.948695259635613
-5.850106085367823 286.377891938617211 -66.590169022531938
-149.431721198693822 290.055853440894111 -65.964806286856373
-146.629639194407588 289.596773877640487 -65.557005368599278
-6.123507174421948 289.085603268487205 -67.171531593883756
-4.195216145346131 288.915341310637189 -65.186968335712180
13.605409440079256 289.626848477087890 -65.325696980179359
-3.575212827594966 290.736546299927568 -67.187374971965170
14.152554431846102 288.946902613878933 -65.319111110338014
-150.676132684241423 290.125761289550439 -66.337127435343518
-2.848877005749218 291.432931897344304 -65.079541579249579
-0.583058818832636 291.698083150129833 -67.251050651000170
-2.074958359003491 292.260003550538556 -66.272266507413676
1.036355743010522 292.660603994460814 -65.624227407588961
9.302945071682764 292.948055196569669 -65.593365824389977
0.190489618139980 292.803044819676870 -66.245073184719871
7.729354747221575 294.096118443638716 -66.196509072609530
6.141768781328938 292.711190006113156 -66.062985809191076
6.955487146271606 294.378234960580244 -65.542480385856933
1.033868698526979 295.324098058337711 -64.970772321453993
1.916437504607257 294.783078806330195 -65.371071067236556
6.076734804915506 294.829490907414026 -64.811096275552160
-142.244064001993166 295.438320541231292 -67.052989619268061
-32.814107615874278 295.663799963932888 -65.905736767266049
-155.466970930984473 297.171644751470524 -65.550141782907659
-47.056557745859628 295.906774594861588 -65.673780498846071
-40.707787134675350 298.742701018256753 -67.030553326481936
-33.917644996070010 297.050162936589061 -64.276153669338129
-33.701202676991308 296.593860605573184 -65.054779479704948
-32.727807137012306 297.424897783831852 -63.736259779001216
-28.053030760243423 296.088317532260646 -65.287004732655717
-27.642281028548602 294.660150387853037 -64.970336837662217
-150.620559146326940 298.600534747543236 -65.658384137112677
-50.640681326760365 297.198556729726931 -65.123438808918451
-47.956572284793097 297.027541066111326 -65.204480545589590
-39.709913683526786 297.859736994725552 -65.493676937299881
-31.341718927700583 296.020601140492943 -66.065373654615868
-25.532260582157715 297.340004102695218 -66.049034441586798
-25.685894387238182 296.357101364658718 -65.868815193362011
-16.248733265310761 297.433505175245557 -66.883535888749023
-11.431700819611052 297.088538146806798 -65.319137498243535
-130.368000074416301 299.123163413840587 -65.820725376330358
-130.695435769644945 298.520970721521223 -65.929407039712856
-37.187310881136213 298.909313584188112 -66.653738601759230
-23.641519571441407 297.025915424100276 -66.550174312501980
-13.876846435835720 297.329300359011143 -66.053104044374876
-12.136350655347051 298.506986411863636 -64.332567423216062
-9.670233744773588 299.028624819386152 -65.876172070845371
-6.095453341612972 296.899492995969752 -64.630834094336365
-154.493268542278145 296.233706060315285 -65.801175077696840
-133.489678806161294 299.529122068265224 -65.966954367503547
-130.247758192079289 298.370039219845467 -65.988051734698203
-126.870050866432308 297.517485030329453 -65.407744123230316
-124.929112806682554 297.878791980888536 -65.687196655964740
-52.855918305531247 299.835326070142173 -63.642272543485362
-49.167284596087711 296.969291562832041 -65.731062042293686
-34.216208168800840 298.782875818988316 -65.550644241422518
-26.645994617819952 299.877358268382409 -64.805974358370023
-21.865675763158720 298.711732819167310 -63.743627133495849
-7.184887532632494 298.186796878338725 -65.713539197255201
-5.366223476693208 298.201541981507262 -65.200625810029962
-131.919524991558774 299.330978404475047 -65.145120746838316
-128.686730407972220 299.544818118891328 -66.799536082751970
-124.019982891833550 299.458104913397051 -65.730829125223991
-56.142880529555320 299.742375055462162 -65.292788377895022
-52.324880106375218 300.025275885293354 -63.157620394406607
-47.995601451691670 299.455040336506613 -66.458731033848210
-39.464699533131736 299.955100274206075 -66.491808869350564
-12.709639126216040 297.353497229228310 -65.295058990631418
-8.406597277737138 297.642307804549034 -62.679363952448469
-3.631933483939547 299.297220572013885 -66.058529523728524
-0.282553277661296 298.519988871462715 -65.144906128184957
4.160916021513794 298.735167681903590 -65.562962881238221
-149.187597016495374 298.840503096053567 -67.229637085499562
-140.746409641277467 298.247711662098311 -65.530604986327134
-130.868662771577618 298.622722132619515 -64.257461909847791
-125.200767862493578 299.764891912273129 -65.325773576335280
-119.247844497574178 297.614107896970324 -64.281557500494770
0.521095497229627 299.921516501714848 -64.776980797432557
5.968207793978710 297.926683549870518 -66.685540779280601
12.360879277627472 298.950825051325239 -66.187745112063837
14.050601589855752 298.411027924205996 -65.662877111527962
-133.421021675656618 298.839563834384023 -64.836642922719534
-123.847329714221061 300.842359456888744 -65.536685642276922
-53.049065821600095 299.637038921778526 -65.124067204007986
-49.707088086528763 300.703148750826131 -65.553885113820613
-50.696884335702933 299.505841199919757 -67.041937389323337
-42.350193324419671 298.301512260152151 -64.398781252863969
2.381075707315922 300.448674855690115 -65.666424760868594
13.748276122755088 297.969231792931907 -65.642317018148759
14.497460962144027 298.621325820103493 -66.272340948620425
-130.287468336935177 298.728606670932152 -64.179357576554580
-127.153488835453345 298.169473631561459 -65.979230977585800
-125.809380435046123 299.747769690288806 -66.023510309992460
-121.241685302074686 301.016825403261180 -64.837172538201543
-50.166963911222311 298.584561651186164 -64.516467139374228
-48.078815991026978 298.554518488704957 -66.343433157236788
-34.988002290114601 299.367330599517175 -63.999522709241404
-14.536843023848046 301.147302690115964 -65.870103734455569
-3.749112457770174 299.497869407246526 -64.331901289300788
3.666370643848110 299.785648501139747 -65.035794403389801
10.288107023979725 298.861850396940099 -67.086706120478354
14.615859713656194 299.178716007016419 -67.664465925213975
-133.925664248860386 301.289888753514902 -65.864280731984678
-130.138646071029086 299.417668847864718 -64.899986063826958
-125.938189885249898 299.377428545328257 -64.353245555497651
-41.641955182127028 300.271880937032677 -65.801408886498223
-38.385771021232536 301.201337450337803 -66.032970875626631
-29.794319150241186 299.745882662379074 -65.178390242613958
-25.101756396153430 299.556696428068847 -66.115214918161229
-18.832674585996834 299.714312931151312 -65.002888469288209
14.467167321656287 300.925853467028389 -66.823633958938771
-141.913619845161918 300.257072709680358 -65.751324511598057
-134.722701164482402 301.046706182951425 -64.449628761929063
-126.843181100499592 300.561503611438582 -66.578065681033351
-127.536104234742268 301.537436720497851 -64.331646772381802
-43.155621746981467 301.581507904292835 -66.069648529917217
-38.816027318383590 300.267924096779950 -66.000273380784648
-32.277876946533127 301.239201133097026 -65.985289271588670
-21.760107918393768 300.150198241410521 -66.216779820923534
-14.768848989249323 300.067762790721872 -65.212305672174836
-5.559126199637673 301.304293512392292 -66.128588179197251
-3.227306344759722 301.819385538682525 -66.892271468461004
2.404297271182724 301.825507843032938 -63.740619096121151
7.519083602319169 297.096009415712842 -66.068082756954226
-155.422246198677897 300.799240871840311 -65.637370781581808
-127.726716899243257 300.875742725066289 -65.617859162950211
-34.610158774015432 299.476480431450568 -64.925514846522077
-27.818448224643767 301.308983185153863 -65.417813806783741
-24.685400522685121 301.579491926082710 -65.485833738182706
-12.455972792744719 300.801808425528577 -65.759032555713816
-6.437816856767314 301.878742619881280 -65.216105134727712
7.536747737605289 301.866486574841815 -65.725934166071639
14.683604235285301 299.434930768675656 -64.876053806514562
-9.309369325419704 301.777418704079992 -66.695558346872104
-4.863480202799455 299.946681112326644 -65.724162950565002
1.769653149339914 300.592874109658737 -65.993172677877169
6.202927870436532 300.288459578508366 -65.686350327442966
9.751952274840939 301.025465210366974 -68.234297748151960
7.929724738316882 303.036432146680568 -66.106703637705536
11.790157310010159 301.595249490890126 -64.751195771945234
9.864353003106137 301.435020655133314 -65.605846018635006
13.553891589649028 302.709421987455585 -65.171279213067351
-145.145449563861263 305.638822408601811 -65.053818450899854
12.071219048852765 302.962992460522571 -66.108693634886691
14.336330632060147 303.563341963075175 -66.258855193473323
-145.191402242227468 304.588264931480921 -65.780420254819930
-152.889706859865242 304.572704923629146 -66.913970599118983
-146.388648342319414 303.730269864507477 -65.511756782553164
-146.925780888912470 305.265533341413857 -64.826927918311000
-149.453763424234836 306.573067179598752 -66.485532940358326
-149.714679222499711 305.101952586444668 -65.648398564007536
-148.993825864530379 308.907096251979738 -64.974749864039097
-151.327679791496649 310.682994471594156 -66.172000820377392
-152.459307097544723 310.390158623744469 -65.142690672331526
-145.316531908832843 311.232245254083750 -66.223215254599666
-154.867500608796689 313.235817010186793 -64.165032348052947
-146.594493023378249 314.151735454515801 -64.939452816201722
-153.242650845558927 313.565662657109726 -63.978534427564199
-144.226061848468930 311.762141468639243 -64.939175597078830
-152.430866460877439 313.678448541647981 -65.275019365371421
-152.873247539602602 314.336821519929629 -65.045091590278034
-144.589692273675013 313.498217038019277 -65.710272617715972
-154.823318797232304 317.499213927889912 -64.632423214962870
-145.497042733310906 315.484080195311094 -64.528264005764001
-154.319490907238503 317.209211736639134 -64.915963096109024
-147.079940293264286 316.998143151188799 -66.230114067774593
-146.227229247995126 317.234984392966169 -67.035268015731745
-153.823140124852301 321.279482711370918 -67.343704948650739
-152.066341445627756 322.873840349237923 -66.007513991338442
-146.441095273073444 321.387641723540753 -66.065533756693071
-152.457753154420459 322.736638045652853 -66.017465289821203
-60.134287429110373 65.599270033883101 -63.898013006542286
-56.240763837804352 65.588276352619857 -65.463914556150598
-64.235460979205271 64.648439318381861 -64.164881495659813
-54.718197728845006 68.459476156482708 -63.675316382191085
-49.951474325351413 65.161429751655845 -65.501543360772700
-68.031374396677052 66.514315038745764 -65.093594795895754
-61.504514524856141 65.370101814009388 -65.037609728693482
-57.971081708202775 65.836497798567038 -64.547824707753477
-59.734251401473998 68.813446658773273 -65.745926652105155
-55.523674663325608 67.574407334791218 -64.702362938794181
-49.759744665057056 65.208175477921259 -65.109574612193242
-45.861825694510230 66.200442313830834 -64.476313905098820
-43.172211425649550 67.353922911161476 -63.961744508879477
-65.864707352989342 66.221126080220529 -63.335917821128561
-50.083273260784544 67.690467507738106 -62.809273138184352
-41.170127134416418 68.712761896386539 -65.170771239788422
-69.426150255076877 67.448166159699298 -65.462253542942534
-64.489213263206537 67.398278682952721 -64.284743040913810
-68.638851355480170 68.757645585973492 -65.192998730315509
-40.963189700104977 67.490489328962823 -63.797450865912793
-70.048128382650802 69.228214451356237 -65.824396035434731
-41.008446320020553 69.601528631051679 -65.702901862857459
-73.675328502634045 69.241724169130094 -64.972988147981141
-70.358276651583651 67.966484302748185 -65.011157832079945
-74.021191426459382 70.305099290353212 -63.367929166244267
-73.239554194652698 69.961120962641672 -66.287521315987263
-40.025293481580093 68.538442008198643 -63.541120756875003
-35.264750601190798 68.674244865174160 -65.355863386152620
-73.475507212663530 70.184297994532557 -65.295004741247823
-38.773065781947309 70.537443819956081 -65.487980893215081
-76.272668063148970 71.917516963495586 -64.081965020364237
-35.045618154489112 69.577830474781422 -64.411190360780182
-75.455640223212669 72.277467372434359 -63.801245268291240
-78.130740848461258 72.790833747404378 -64.364484787001018
-35.046618178447901 71.858363612629915 -64.653714552438586
-30.791714758126179 71.637376134916934 -64.399067694588041
-76.925413162416575 73.793010921727983 -64.903087757451743
-78.012184806773973 73.335746684579817 -62.646662971486265
-31.728984254628745 74.586526694181643 -63.392563827958909
-29.421098332996568 73.122743361414294 -64.828624236377010
-80.192418013766243 76.336397620397690 -65.918996815347811
-81.794547713174424 76.367465985822619 -63.823755731353529
-31.749301436212946 73.205508364876152 -64.028388043314408
-26.500765328651525 75.432796771379742 -64.623330790360299
-81.905855811044290 76.244185905208525 -63.408824647473779
-79.665139837523782 75.664775128604305 -64.608751532896193
-28.337094441651182 74.479416524464895 -64.122217511090440
-24.813630088606413 76.754984386055014 -63.268413559347550
-26.146996919483513 77.805091406709025 -65.165257129493767
-26.349345230520491 75.715638725841970 -65.673296301033375
-84.155791600314942 78.930424990677963 -63.458133589940374
-83.806384110289684 77.469030112020903 -63.823773222057355
-24.199057438755172 79.257012058203472 -64.836591113356633
-22.392356225958491 77.143819029756855 -64.747466678748609
-24.158890898648323 78.535835976734901 -64.521583100164321
-84.557741137398708 80.804938729907320 -63.252134590219143
-83.299038762591465 79.440919736512626 -65.234401926254620
-86.902495650779599 80.491101761616591 -63.261963571801545
-22.952857993085900 80.990220699480389 -64.849709577841935
-85.870878803651678 81.467513378006686 -64.286010582896310
-22.758335700864667 82.377391008584368 -66.378105393984441
-22.706603858395734 81.447801266393540 -63.607780698821713
-19.898634715115755 82.572339406070583 -63.837626762703024
-87.226559584236199 84.290525011265458 -64.829082372819585
-25.311591359032754 86.290838433137409 -64.538018969522682
-25.193984513234142 86.728618139460607 -63.653917688470088
-24.260308111811707 86.788596546955787 -64.735339902351456
80.054327715507213 86.043142802883594 -64.942473917048417
80.911363004716023 87.624888761233905 -64.651158126489335
82.623376720180090 87.504453470089729 -65.323982221806858
87.607375148176118 87.909983561059178 -63.907833232754271
86.757895904319597 87.315067557296274 -65.999932309854728
89.077636554105041 86.267475401233909 -63.172494822596903
78.434173854502561 88.113476898073756 -63.022833477253926
-87.141029280156644 87.219387606513138 -63.750864402486613
-28.262561897213391 88.297848208922957 -64.298743138622100
79.838146287230373 86.145147554729263 -66.969278217786183
85.401796277946758 89.230292149934158 -63.695109604394176
-31.623914034000805 88.363901955424325 -64.765690622577338
82.801971183234372 87.742818758320041 -64.403264925678684
-37.251165372977859 92.245016953528975 -64.614001215668608
76.939778996104039 90.258250698894528 -63.767176521878042
85.192768323392585 90.059375115343741 -64.031312739224902
90.474684481524008 88.555807104343074 -66.616546710117674
-34.288674472335821 90.831834293083105 -64.764722653097294
-38.630714059554329 90.277293971960702 -64.355812150098160
-36.747680012800423 89.118825476431027 -65.798278536253378
77.067244526571827 88.283269734165884 -63.432378535061176
90.844304166280210 90.657346607458521 -65.733196020697989
-89.917106142108679 90.724457336939778 -64.440723919205254
77.831516040145019 91.754641058693380 -64.598444669355942
74.243486764946738 90.734727963102628 -63.933799948722211
91.957655047887471 90.947833547533790 -63.320415907221218
81.084505226311222 91.878730501617440 -63.792654065826426
-89.194933792315453 91.635617825340717 -64.329194465297249
-36.827701904142160 92.105310413763391 -64.868615547951791
74.711558356894244 92.504154852160298 -64.919371240402270
77.429748536823851 91.299903073583096 -62.735812783942265
90.904321842954630 92.902590759352648 -64.079023289071088
91.596211370907938 93.365873450117547 -64.688361026970284
93.788416712618172 92.938302987814367 -64.611269129634223
90.272654869993005 94.239361605465177 -64.759308047112967
-42.103784103757256 92.919194835792396 -65.090729294056487
76.626357675951454 94.337881306430432 -64.317268813368628
75.521550900604709 93.488507149729656 -65.689082281586550
-43.094788598555624 94.578860848945425 -65.319160507557982
-41.842665880749458 94.155453414296431 -64.129250433100111
76.595006662237580 94.981300443672993 -64.347774618558176
91.400259028431208 95.173616152106177 -63.282704426418391
-46.199532690056110 97.523295954146136 -64.255351890945619
-89.625350212145108 96.553412819655094 -66.617166840397900
-46.543826192021257 96.194611772588928 -65.081546429001975
75.698356378018261 94.510382608110660 -64.320079940715416
92.373704905599482 95.324709037533694 -65.346678199640778
73.912749125124094 97.274080708907121 -65.704588557996345
93.433203903747355 97.570391711261280 -62.943128356347842
-47.901875740322382 99.546699247464730 -65.218918441200515
74.189805357051810 98.291146927066805 -64.247124001458872
92.813821828469855 98.202504008012497 -65.295439012619354
73.753298699869248 97.591059319552272 -64.358694607515787
93.929453588613498 100.114321945451351 -64.030898794084706
76.948836767790510 101.086813428971141 -64.115271917644947
-90.508096165349414 99.854325757341527 -65.854027891156164
73.785665204863193 98.027394632690715 -63.846645342576707
76.060859614125235 100.512918712558943 -65.507098793007103
93.529233760248061 99.643354580327028 -64.545725411112031
-52.255667583389702 101.225466408181873 -65.153800123637339
75.684171885033905 99.561441755769621 -64.564174389755664
79.286299981608806 101.200824995953710 -63.565331003813270
93.675724847475621 101.572709767843634 -62.946396209191619
73.983576387165741 102.871946744344285 -63.509400488697139
85.643110819258467 102.077467577148681 -64.442946558140946
76.994363963629880 103.415430827534436 -65.162691571393012
-91.751556516610179 101.842493476855168 -63.946430999148447
78.950393238358146 102.290946330815416 -64.657312233160482
91.870792362936953 104.691776688062120 -63.598790181437010
78.619850572665555 103.224227387777489 -64.175902607406229
89.913195879115733 106.230796381766822 -63.878367101758712
-59.915686452234517 105.124393773432431 -63.193699528506656
85.552956875870379 103.030476119006792 -65.434296694751310
77.178380168772165 105.021585319905753 -63.280657242531632
81.883811871386385 104.686522261229157 -64.048765074944868
-91.137778539114905 105.953668586777169 -64.596605936941515
82.606817019463335 104.204574525246912 -64.227530231889148
83.898411841965640 103.967763575148879 -64.186499863973310
52.922887353363414 104.932019809135596 -64.408290840470997
52.791700343446365 105.170277663618819 -63.851290403474735
55.543196567248550 105.598354446092713 -63.249619912061476
78.608173962821652 105.445313497358285 -63.079394675296996
84.369473196447444 104.692912393199578 -63.923410640131664
89.994521099813539 104.273726342130303 -64.328078954771385
92.627716929369342 106.372714414376190 -64.185041113474767
91.602367849703967 104.975297489821145 -63.882890564343370
47.830337833964094 106.617448190230448 -63.949301078106259
51.521389414370354 105.033774918746261 -65.732266896312183
79.770483318974158 106.739486302397594 -63.606958183957119
83.011992933832104 107.011547116508950 -64.042571270399321
87.589465397415310 104.537805945425276 -64.525722043545201
-63.994799473361027 103.988644484518602 -64.768552946577685
-65.093559209177457 104.812326292817389 -62.488539436773479
87.851925979760239 106.773560091519073 -63.577963341594995
48.302194042767205 105.433099052147185 -65.523722489224340
52.073018970378854 107.934409295010994 -64.831163167410963
49.694726788777224 107.200385956660199 -65.917186585466609
53.520296387096550 108.113732095118962 -63.138834505128088
55.346337930242704 107.470657575883692 -66.294743065132778
45.772459826817887 111.475962157723529 -63.569841193443722
-67.255321094202529 110.412644080356344 -64.778669422439634
-76.751395670661651 108.568316488799212 -63.285472442252484
