# This PCD file was generated using the MATLAB® pcwrite function
# from Computer Vision Toolbox®.
# .PCD v.7 - Point Cloud Data file format
VERSION .7
FIELDS x y z
SIZE 8 8 8
TYPE F F F
COUNT 1 1 1
WIDTH 812
HEIGHT 1
VIEWPOINT 0 0 0 1 0 0 0
POINTS 812
DATA ascii
83.480443890972793 82.785685260477436 -43.170459364539170
85.680112886002547 82.550758206522133 -38.781070635428442
104.146749192085082 83.870188546731910 -39.657975775591048
68.940381197837482 82.765492679082172 -39.988978109538856
66.709299547600807 84.246243100313691 -38.480579544772631
70.510473969693095 87.453923832194320 -40.454190225375619
103.205280120160822 85.549840364680506 -40.331185798542528
-97.383382818604346 84.935541582419177 -40.787217883817632
-41.027505790979454 83.714831160578129 -39.867209111351883
66.102228431039364 84.643168441678995 -40.728561781349285
91.277272847545774 86.400520165598465 -38.890091976247888
93.253773068565692 84.218822652411774 -38.868077092197119
-36.768054474199914 87.397491002993490 -41.301485533672356
104.732816873116604 85.123970751959646 -42.544024550921591
92.329482024650531 88.579518525356178 -38.533584204820301
-100.254071176806548 86.799892928124081 -37.778247584692721
106.135879264127837 87.301766952298308 -38.526817207481074
60.864762437786858 85.666062954863918 -40.238535744743302
92.905827279644726 88.184895675989395 -37.253312732642399
96.530034797894359 82.962989175767689 -39.301034267757039
105.746003938648926 88.191174021353390 -39.661360245984177
-99.777836420265103 89.023099044081917 -40.725617470153232
97.864075822174655 88.960510929315845 -38.452807197414764
96.690587510041240 89.553443570645769 -38.421470717542725
-99.577797650236420 87.440226854924262 -40.902889580513921
-43.636650346966533 88.367284245551829 -39.222213537478822
61.564615734120274 88.638926788825088 -38.083063103322708
95.167915528567605 90.302061145675225 -41.343438086493045
98.963539580024644 90.463180607840471 -41.214317532718631
-45.098892134033569 90.439988068439135 -39.931114000686236
101.295539162627094 91.571703926685402 -37.941578273689387
-44.088064323003188 90.342983756788982 -41.934250458073308
95.111872575605759 91.617121716021458 -39.607466261482195
100.810180673880438 91.415210693209957 -37.975882990967030
65.025033525992228 90.723471755639054 -38.226427112375994
60.820996061546907 93.156130916413019 -38.439669481749277
98.985567832910519 93.095846109643276 -40.852128230218057
100.175295246944287 91.486815422072866 -40.567850585335343
101.131017688942876 90.632684951770358 -40.903384768883726
97.796185912611364 94.797403686362273 -40.015359955800356
103.081518890493356 95.595326850396162 -40.253455776639470
62.966702103799939 95.735096999139458 -38.793028266254780
97.674913392497714 95.645248478628176 -37.579312935064969
104.736444426325235 97.532280762910105 -42.520082516947994
98.731184715015459 97.405324624051204 -40.367901609881180
103.829352357262465 98.486215341901527 -37.662466338097580
-59.988779693877468 95.385082047731416 -42.792704351545801
102.509940639866841 97.695682758693678 -38.933987255244951
-60.937308353161647 95.822974462188327 -40.406965100761035
103.066467192641525 96.922854964919821 -42.912521319019199
-60.233743432998736 98.757524702893974 -39.647612191084853
60.889935768767060 97.041654236650785 -37.658263380961593
62.383535444687567 97.667221127083891 -41.490271073458572
102.346805464057496 98.298822387220454 -40.685030744250923
-63.654542992686110 98.115904556384294 -41.120633590510771
63.316688172822197 98.913090121802654 -42.252933468697861
-98.431418831069308 103.735444332900627 -40.610816334458050
61.762343896889540 96.965527247911737 -39.746926091478301
66.143707232658201 100.088031275602191 -38.119153281877296
104.350388786501867 100.863977050227973 -36.269847099887663
-67.690923737675831 101.079904743444700 -40.688097204139552
101.574665733680305 105.593382147925269 -39.627940772728145
101.052730439583584 101.263725014093652 -41.666686475366838
101.081771687179256 101.661969230704997 -39.587392865189237
63.851482145507980 104.154394438124385 -37.962475742824175
64.591364560982768 104.125807171410386 -36.415679104527648
100.070161660325113 105.639288826710299 -39.370357716655299
100.375171508335825 103.631752444533575 -40.537004632190936
-100.080382739006254 105.607740823885777 -38.931765131626257
103.250306724451960 104.922836548966330 -40.755354192331708
-67.745717648588567 107.551990156395576 -40.541449747308462
-68.959681200998801 106.758066476499295 -39.791026109591058
63.819039073779166 105.322912355893124 -37.928109363136087
65.592284092061092 107.545443810989909 -41.098031129731787
-72.605301505945704 106.890852284606197 -40.195297910477244
63.341161033322187 109.188197659927667 -35.268715036097177
65.888608293167678 106.294084229796923 -38.224475122232853
66.074777882654118 109.637331059108547 -40.905356045906366
-98.250641146500215 108.873593950081570 -40.306359234752406
64.628623959475149 108.085675796318782 -39.144007420187322
66.017176968064547 109.578369185543721 -39.469523819855922
66.454747671037580 112.616208772925916 -38.989824109149559
64.122643758954524 112.000758988210279 -36.900709614366811
66.214427240215784 110.965895056583008 -40.938402395318519
-98.697159684102701 112.162669450665149 -40.793619402955407
69.579485694346744 113.054409523387562 -38.137914287916132
-72.340065387987082 114.300689736959427 -41.000564132098958
-100.627483768394796 114.043373483760632 -39.138584635410027
66.558045200438741 115.688216149580597 -39.652662920659317
-66.685640685256544 118.890046733645107 -39.540162690976473
-64.562181659219704 117.888635515742365 -37.978788200019117
-61.371482002187442 117.938155770685455 -38.210490426028095
-74.538999400570532 116.386419066108942 -38.144311618590550
-68.784045683387490 116.593130800592036 -39.313499060845821
-64.781808570353988 117.090941943915112 -40.620673556821210
-99.994289617154990 116.586698915216260 -38.863927632326892
-68.432799363113460 116.587273393693550 -40.136837769829711
-67.374984192446831 118.155291964456993 -38.546783870933368
-74.878462702072625 117.864117302003805 -38.898987654639008
-68.921997126603102 120.936356917470818 -36.782574646104351
-96.442560000810218 118.244760503813808 -40.623431488263229
-77.403705302942669 120.286351995532584 -41.098676338137686
-64.938592648536911 120.437030259295483 -41.194687126508775
-62.953745757515321 120.990452450083254 -39.665214440845112
-76.652213561310660 119.968622624882869 -37.130251996389049
-68.633983596677410 120.201525369254526 -38.436723510287123
-66.209802005711410 120.983506383474150 -39.183548776146409
-67.018193075947920 120.626035820342011 -39.871782473811315
-70.519132736756461 122.721260768397698 -39.953342508514133
-65.412364013199095 122.909292245551185 -39.277075520432142
-98.153867251062010 120.466192011512561 -37.294802555690758
-65.684335381195382 122.094222824528529 -41.377597587046971
-66.818947926496406 123.454048509291127 -41.279807608380509
-64.808101712348900 124.900877237200746 -39.185500934085482
-61.979839626070010 122.432812049025841 -38.692233166232327
-95.291036228592134 125.493438430971580 -41.109878356499692
-66.651034386328448 123.867672883830053 -40.233231115801544
-96.179543145236423 128.988513135820256 -39.424018391574663
-97.166822315997663 125.509228291561911 -39.169413034808180
-83.856072903825492 124.086166216181923 -38.869159158668488
-65.341451856274759 126.969537140747491 -39.973618264150730
-64.419293957025630 125.974814613698271 -41.359507929367709
-96.179661102928009 127.953587072053253 -39.536704653612745
-87.513282990284480 127.230260926320810 -43.501358046987647
-92.327924651843546 131.244749117592079 -40.201064008492743
-91.599102646664804 128.159335806590235 -39.364039228029860
-90.370490148056035 130.655084367542258 -41.336826495001475
-91.006855451374236 128.828293875368104 -40.099744161419856
-92.405610866290615 130.807489669335439 -41.623665439991548
1.514623885711598 243.362457088526867 -39.124339278607614
-0.262875286936715 245.144244563856432 -38.878198644265296
4.047273289192541 247.043073238901741 -39.076938351647897
8.992982017612546 244.257062074217146 -41.853833125284027
-3.244535146869699 244.704387414077360 -40.290987326400838
3.221153931181560 248.631483111443799 -41.354817098430637
0.583129045852458 246.608636618414579 -38.561438243281529
5.354663176857285 245.928231561045664 -39.296018545454288
9.619735046673247 246.504010071547469 -38.606079370044100
15.447083598419292 247.585159011202450 -41.467552909777972
13.229445192257771 246.775771395446213 -39.440326128875718
-3.587025464457059 245.963950539551149 -41.189047628813768
-0.645381251817231 246.879419533346720 -39.210499683207040
3.772846558732290 245.462051026239237 -39.493366884001738
7.665910175415064 245.954567962985863 -39.165067808553026
-4.309247345897840 248.723187154748416 -39.423560617677566
1.384731254996093 247.051140496167221 -39.613885594968067
8.786219209135387 250.920839810471335 -39.809648260809546
6.449393813896230 247.007186084758672 -41.322976797852519
8.684650807167028 246.764884404592891 -38.967792728760365
18.293066849255805 246.315779055417494 -43.749999534992519
0.692152908019335 248.352296918188699 -39.515315349750743
3.531825284137113 245.147171937461366 -40.181548170454647
2.921933838879677 248.167048588074806 -38.772226696518644
6.582256079005583 248.216405628223072 -40.551896822715349
8.535754614819250 246.522740240925913 -42.449274474895752
15.932430102753468 248.309175002449933 -40.308080409330245
5.633027060648097 248.505472029079442 -41.749632712410069
8.637647082697562 249.317404124970210 -39.285057263945234
3.859072732271959 248.647623220868525 -39.321231047808020
7.822001289297725 249.308932322457935 -39.254989366650420
3.514168641855103 249.963526655726497 -40.118486120238813
20.553867163379877 249.773942560531395 -40.666761094742895
15.759047564937825 251.823793490071949 -39.735620406684369
-3.411526594942691 251.762723356316485 -39.858821933344956
-0.314262659824965 251.487419099038618 -40.372572207307655
1.372941545970276 254.621522170684671 -41.802991613062169
-6.267346992319850 252.652774306303712 -39.077766442460174
8.769675562554289 251.589573275645733 -38.951327187064237
13.420809216188847 251.007636294930109 -38.148534847865690
12.376550593692794 251.366557528965501 -41.179602459435351
18.130348866385834 253.141216138849245 -38.634914560811254
23.198725237780096 251.931022671329885 -39.604238970557638
1.597721164855432 252.693421475745822 -41.763168135431876
13.514452946792348 249.810450882410464 -40.170103625807094
18.076991958125106 252.897692806784505 -40.570224760286564
22.768079333111931 253.434861714989268 -41.775637282245334
-10.411497262151890 252.915251095773442 -40.281912174540352
0.735968178673703 251.815238186491257 -41.169552628862704
5.258490074416392 250.960214118796301 -40.656490554743016
-13.022017959839346 251.462017432186201 -40.998512092134362
1.632760516206620 253.351824933370835 -40.304187497233556
9.814320500548762 253.517443419801594 -40.632629492680117
19.651593515641217 252.032625475713871 -40.454769732691240
-7.351221506785151 252.191581415397081 -39.821962928240964
8.416645136882469 252.700839467326574 -40.273710889378521
22.475260773579034 254.462619757230954 -39.901814468571047
25.035424348285122 253.106215391788538 -42.046010992976491
21.229619858003101 256.138930577459746 -38.195298563542899
18.769440402210137 252.109228304581251 -40.974300517471995
20.350633917606512 253.939136571663738 -41.394811033651933
4.796809724645097 254.921045359049344 -41.796454623414000
16.296258156414755 254.191712108571352 -37.479292372592482
22.548714527656955 251.849409472947229 -41.458511910869198
-11.380562115694428 254.637045194760901 -41.228274140835779
18.002192135063705 254.357775039427821 -38.172671273098025
18.859444608193154 255.043527082164275 -39.618724286466431
14.254826565352509 254.160556007102599 -39.560062765003458
-14.895129993147528 257.086682542313383 -40.734014728725455
24.463717435526210 256.053029710957389 -39.966867258188202
25.237615681634612 254.049521351865508 -40.192378519637813
17.436642728427408 257.071306525053160 -37.015554759194600
25.229120237568630 256.462852112784276 -41.455807364984210
26.320699823225180 255.361480946300617 -39.280542734709101
30.026477903354266 256.148714460243013 -39.743160344019493
-11.757153933512546 254.900761813643584 -38.351034623378034
19.005780894150583 257.053926428305317 -41.108668137968543
-10.136136165652225 254.626241571516061 -36.762653137126030
27.571601885158284 257.062242127531363 -41.299782046509883
14.247235819035220 256.152746399193404 -40.531704986280715
22.319651065215741 256.991590580717627 -39.348618563796819
25.189459058422401 255.590995562780165 -40.408021261596254
-13.119240491837450 258.097451038914073 -39.197450831068011
11.518644002513879 259.911686162785486 -40.671447166009870
25.254237790602083 259.749598541687249 -39.537408165587159
30.802200464935783 259.882512723815523 -41.544610988993178
28.389402259911726 260.605002932144771 -38.521258152579797
-12.808216723066259 259.876031992323533 -39.973428414902678
-12.105795399271067 259.069953742714915 -39.776214342840106
-12.513387967096971 260.327393105188548 -40.427764813618239
-13.507950597428795 260.416079287877096 -39.979457048508337
21.974989722250573 261.310479456202302 -40.632627427373208
29.626542870308366 259.930354781846859 -39.412906283162087
-12.895078332756533 260.546329758106708 -39.323034313980123
-8.981667155263690 260.545335068435691 -36.448735915428507
15.514192125634596 258.849637961223777 -40.091905057468303
30.125577599897074 260.571170110370645 -39.091268328155017
-12.947578306898247 259.717325646109430 -37.900823765982935
-12.062033292762480 259.213235731790064 -40.320588004738894
-15.529585875225617 261.136704947415808 -38.868521716694531
-12.370081394224592 260.966653302709176 -38.866831404002383
9.999201608400789 259.859435948441273 -40.481021127026317
29.217093349132458 260.556766224795695 -40.730674659430115
-14.432972929733850 260.582477170363859 -39.575467261077129
-14.333169429818396 262.916894326044371 -40.109679988914344
-14.194285282338344 262.889000353932488 -43.254427560544968
6.420901796423695 262.167064401776997 -40.672326176667276
9.987465682121877 260.352210046105995 -39.440443704543156
11.113657647432277 263.187531641226883 -36.828949924238700
29.851110989265653 261.261019844220357 -42.394836524684244
-15.874445852164033 264.602706614480383 -40.183273067510598
-11.908843522592719 260.745163257481977 -38.207341997807362
25.077909814752786 264.352068441348024 -41.183659896046635
28.645314747133188 262.061705208982289 -41.453942123962207
-9.813793572384192 262.856641286177592 -40.625630911583976
6.050918731869096 264.861859779228837 -36.718475903084624
10.959431619097472 265.076948257406343 -39.136419277657517
-10.387434821826883 264.069957795117944 -43.497186975805008
-14.270067347707808 263.614755641834449 -39.732039523751368
-13.568186186577996 262.043112627602568 -41.890157935644197
-12.443365315449777 259.269540668236118 -41.064497520311185
-10.280615985995777 263.606397365240809 -38.804429995935998
18.054517481749063 264.317798027417439 -40.562602435002290
-13.179924763071517 267.172230922147719 -39.883956972844508
11.092782366518874 263.655864576181557 -39.864524201452099
10.749069939363554 264.467569638930229 -40.687488232094424
13.315107365275519 263.927788957169923 -40.590958178795674
18.111074846238196 265.887528215367695 -41.662467018523742
24.815517869488936 263.724469516456509 -40.436234445395449
4.636051314172493 265.788557344833521 -38.819790140483313
-14.120720988472760 267.426711259631077 -40.207157800303001
6.589781303047872 264.618153680468424 -39.761625891206890
30.646744593227950 263.993417609885000 -40.587765124812151
29.449698985637802 266.012432328675629 -40.014866876719019
-6.728620746062308 266.143588664019489 -38.720821395632356
8.135695571912724 265.318285299705451 -39.226921571321313
10.909620392506843 264.031592699405451 -38.945789167416876
15.488861444775253 266.425394310988281 -39.879221515790228
8.339460502357037 265.043381533156776 -41.792082099722982
12.269479175262742 265.590862247903431 -39.123788679943473
16.459051417576827 267.377342453544088 -37.555809547833249
17.019547063421481 266.606630320729607 -39.362472675562636
15.447560896570927 267.334448830161534 -42.834337749321548
30.284352292950469 265.289943738479678 -38.901696307799021
-12.305324360930010 267.192662745985388 -38.246801235237072
-12.977354334620548 266.288510159693374 -41.298853621058377
6.749722608509454 264.785690343153988 -36.905021879132363
9.864446294496789 265.685754694813909 -39.185487717340685
25.310031874668244 266.026761796094036 -40.047004973208018
27.765032381419889 267.981132619030291 -39.811972020955004
-15.756506100370339 266.736847133593585 -40.345331847578294
-8.670815761659211 265.174459670796637 -39.730468380263808
17.000642879424163 266.671934674986915 -39.869883460309104
-11.842057270254001 270.361199611054928 -38.904744121451785
13.067086131718748 267.806636279320117 -39.138731439216535
-9.406396021099987 269.159521449109093 -38.138133643426528
16.737494649661407 268.217455824757394 -38.974417887726567
-6.372298709265016 269.319670811932951 -37.913890079270580
6.907619091692969 269.036251745336870 -38.803527483570953
10.081233333789214 268.762607054098908 -40.176609558501923
16.112324362326980 267.668012332762203 -38.947304640520052
26.913110053905609 268.854408490903552 -40.102377379632649
29.812812160901746 268.007655630679551 -38.859820057652797
-15.376191639561805 270.055247849100510 -39.593710279303437
-10.463384567020558 269.220612058481777 -37.139155257090621
-8.277144669090159 269.271113222627378 -41.737227131354246
10.311214579621206 270.187766118112222 -38.275880818862113
28.587032997743165 267.704077344482471 -40.083869276902234
-11.325873011082923 271.377893296237062 -38.892679909889409
6.732575100499393 267.322480457831318 -38.691084741894315
7.755941519700776 271.249655271736003 -39.007667402161175
15.496852196569542 268.974636490392186 -40.568482911661746
28.968074116277471 272.004450988356382 -39.420938623644837
30.798947921383501 271.215708171732501 -39.340044281906572
-4.859161963227484 271.857697915282131 -40.344018461787755
6.617954947010208 271.414652671611464 -39.393229737897599
10.783104109824482 270.590447064980424 -38.375472338618628
18.460518593193765 268.613361941005110 -38.746662355405221
-9.594516988574476 270.113084260913126 -38.702407508465903
-6.604049962733668 268.371857068044051 -40.172172154706402
15.084287800766537 270.510705517430779 -39.714759751786012
-6.961361135568278 271.951898985181856 -39.058397087928050
-3.969850710357042 271.673609879488708 -39.407902457820811
7.450638253108648 269.739782979657377 -39.254018783219628
19.112693146300398 271.330264329180125 -36.080808163419768
5.398718073249261 271.260804888426605 -37.882851230696254
11.671822797702671 272.287604330803788 -42.379142101463131
15.119976947220051 271.057496788500373 -37.721252097467982
18.561276367810358 274.520095834579251 -39.600908304206982
26.000189779557854 271.763390641835315 -39.898086753520168
-10.138199800315158 273.461713313202210 -42.343812716186505
24.922678826133843 274.761348563171566 -41.384310663649998
29.288793640664501 272.654112222620540 -39.880509694663928
-3.514626792488093 273.397534420920863 -36.990641657745172
5.724135964626189 272.065858574384833 -43.089052222615770
9.469406590398835 273.747794989215379 -39.996430223906515
15.593378199410076 272.743817706766436 -39.453196435763218
-9.380496859649918 272.662154463078309 -41.315521267976088
-5.248960411970180 272.809027748063841 -40.827521305330414
-0.875750124110898 273.511575138262003 -37.236678305947891
4.920630532956793 272.967073945081324 -38.408305947254291
5.955525960098585 274.177081177586047 -39.693413946830745
10.151454261608473 273.573587469638198 -40.636497585057711
25.592656068106887 273.960070487788471 -38.263867379916277
-11.382388857306101 275.291324332979116 -40.047639143086556
-9.245548520471504 274.116332385838916 -40.665620866851981
-5.096533925243138 273.703212522329466 -40.036584000743964
-0.672566534268228 273.918119509789562 -38.751791189413929
-0.247297876255585 274.766790963855954 -40.349487984607066
2.579597860782735 272.520717250564132 -37.932561669386899
27.519033992831279 274.842568688142080 -38.313734743418429
9.301639981420248 274.326354204119241 -38.450005543121499
14.950363707603014 272.368409865045692 -41.116599127264045
30.510217835514133 272.332400103047121 -40.844688605138380
25.942426765764345 273.344189216422933 -39.276841018872624
0.401880541888090 273.760551187742124 -41.184588646348480
18.687042070879375 275.743802646259837 -38.405158400583090
27.150144032858673 276.536387182957355 -37.916028527292966
-2.086278845582717 274.890093883514908 -39.319525772683818
0.016841543321514 278.079190431762811 -39.334349727845442
7.073078499522728 275.536650020691411 -40.248970749061954
10.319799066013569 276.875062974227205 -39.099081844822464
18.152890611667033 274.884623825646884 -38.322456406409444
17.411267399631640 273.460483678629885 -40.377971017256591
-10.237612023364527 275.245186338584347 -43.468407511045093
-5.328606504933509 273.557486980638259 -37.839642592637439
6.475844522323974 274.715228969577083 -41.117387900318256
2.598579630530017 276.053835218959478 -38.987709400338005
13.067629473227596 276.824034344635379 -41.306891118424517
27.645267123588400 274.871622049062353 -38.792201186684522
-6.616415293603556 277.642139676599982 -39.299114449438221
31.016443766718055 279.267308509209329 -38.924544805685272
-2.460358348534836 278.432581448148539 -41.909549086817940
-1.882744706232539 279.114715476874778 -39.665605938926539
2.703233769395343 276.863209134915621 -40.777076727753887
-10.254996625413387 279.555541595016734 -40.418732886282712
13.509756649676765 279.407519532677838 -38.565655311977110
25.789243811660004 277.615146145928861 -39.270467871880250
8.330547304498221 278.087681384001144 -40.718674166403027
-5.985621922111749 277.955465515244043 -42.657784414990374
-3.301305199968683 278.987894249859607 -41.274735846888333
4.724895682700593 280.456755184203018 -40.157699969925758
12.237163575463413 279.602299181868489 -38.082887819276117
14.983334495136219 279.840773425981126 -37.865505609882518
15.110421903630719 279.541147363340770 -37.774652197527537
28.346788642442842 279.974360115827551 -36.595019079153921
17.481451528775278 280.038714639245484 -40.317819901100400
30.015460582048039 278.459240197269708 -40.211077990661678
-9.810407852373235 279.477393508683804 -37.658360187046391
-4.824143537663991 282.729595674906250 -41.360960375670025
-0.197695045205924 276.081353131682704 -40.985431799841379
8.918778928622354 279.856958520393277 -40.236283773379434
26.158840765906827 278.724558309728309 -40.536809608807886
-0.999736595152021 282.268893902590662 -39.764090204620310
2.304111548097709 278.668505016060237 -39.230484507188883
13.434231445158183 278.349000190133779 -39.377456281616432
27.421977144548791 278.761486464761163 -37.696354248817570
-6.539911513176994 281.169791035922287 -40.800709638944539
-0.996238449730897 280.586976221687053 -38.243354558834127
3.140279540889416 283.351965092966907 -39.971929873553599
9.348171157214257 280.850154610320544 -37.418300702517300
13.584803235682603 281.828387496431958 -40.651978561915129
17.715002832587150 279.392427201376222 -39.470025665550267
-5.644325551211252 279.734221149582254 -40.443835326357991
0.668765847077473 280.548721428715169 -38.864063535952077
17.731937514149706 280.752608655007123 -41.587863439418939
28.095013632228760 279.836156765691896 -40.733665931211746
14.116039852498361 280.559317575792193 -37.153386007071425
14.666155551906563 280.205494957164888 -39.620993614390400
23.485801300863717 281.046894274635349 -43.566543968908988
27.398329663842826 281.202086302962925 -40.248332345532077
-10.148275128850617 281.808993223348523 -39.785851681486811
-0.086507451502014 283.824922508937107 -39.647529091835302
3.461031843073755 280.738022295888072 -37.829095442176033
8.511446448953098 281.033912166682569 -39.035454986826096
-4.800082497891037 283.375605350084015 -40.400096706191100
10.893792688491240 282.488207971683266 -39.300494106098540
15.703938510945534 280.616329795843171 -40.517916447151713
23.703654684534630 282.499700414152983 -43.213298095010558
25.644404432178536 281.638328001155344 -38.715477408354467
25.927171820832697 282.789117041687177 -40.575951691233996
26.124341948479724 282.859729842672152 -39.804909372951172
-5.634992225873379 283.001582020490901 -40.012606118427726
0.386141951276136 284.261107779654537 -40.332036276926729
1.392873804052569 281.332119180200436 -37.923315886654215
2.432615216635188 282.103639201892179 -37.261737367360666
9.020314650565547 282.891305494466621 -43.342490847893110
15.156054441345066 281.310619894442368 -39.296859482278279
17.131862670989410 281.869789254121997 -39.702849442768432
30.286997980309639 285.204805205476475 -38.035048607076142
29.899970729748297 284.876417912649913 -42.446973211510446
1.376253912598931 282.880071044136230 -39.971912154541180
7.096377761947973 282.875877663820063 -39.562129311715154
9.872713962487120 282.430261618043914 -37.100808189070825
19.339641123489379 282.462947042978442 -40.769564703931415
25.436948316377109 282.541894184487830 -39.661973321859591
25.122107591070190 284.343428225758714 -40.128241821140861
27.619505117543060 281.737030296512557 -42.601842740172842
28.683973454829939 282.455701693269646 -39.980949750226792
-6.635884437533534 285.019495208937997 -38.508893599078206
-4.905140503080403 285.517947831294123 -39.954528614951371
4.461943882424507 285.642914701710708 -42.281461614341914
26.745604117590418 285.482555763924040 -41.095087725445062
-5.045454758525985 285.040844975630478 -37.989296693893337
16.832017114997797 285.325265777356606 -40.716293028884508
-2.944679102365224 285.991361658765356 -38.146817455895032
11.418689475870975 286.304098502538011 -42.137444878874433
19.203712138071101 284.925608120154664 -40.648270900031541
5.369969340542299 287.643747725825449 -40.373426158978297
19.564838007782310 289.642436751598154 -39.893403212570519
6.816961458779438 284.943661991182637 -38.673053076063923
12.045313940864988 286.995090967797353 -39.421144456103455
13.794074833887153 286.982814298808307 -37.469503530462717
-3.016781075247061 286.452265708560105 -39.165204623537825
13.091071929880069 285.796412007109950 -38.308940575857825
24.599487064853943 287.585147778016847 -40.546836507215367
9.474631937088741 286.544386835975786 -40.350419508457023
11.936090455735362 288.722146506732429 -39.329637283784415
15.157493492166100 285.108168442080910 -40.976103127489594
18.251945403800146 287.029243625663980 -38.142178910657108
26.691644504689705 288.591858987779119 -38.931488265779734
26.001886253853314 286.706579874430020 -37.636623984703185
26.115488838665247 286.499156685782395 -38.556770546597292
3.554635872090189 286.744134591908391 -40.070401924955391
24.438592897461213 286.891924708681415 -38.234034647155802
22.895885388649074 285.451810627525447 -38.341008939410166
-2.468651308927198 286.965212735383545 -38.049961829372165
11.432530450268422 287.354592671617354 -41.637967584747294
16.050807120686265 288.984015059667001 -40.972249062653233
19.268581942912128 286.157412272121746 -38.967767208972987
-4.314852611167270 288.681876808757295 -41.826118857600726
7.080292458031314 288.949394285754806 -38.338214343338699
11.517945924522682 289.008844049991069 -38.989534982307951
19.669202411298137 288.882828693163788 -42.359931474153278
25.202490806350703 286.120533880777941 -38.099646366324095
23.964368805501088 290.240377055636884 -39.705000401576470
6.783312102455023 288.770791955874358 -41.260940014979610
10.772325587511174 289.864935404179334 -41.346649193137260
14.816903329881432 288.992855572217024 -39.851032105140881
6.848958643186204 291.345588341851112 -39.169635141395943
12.784395519513055 288.856550014141703 -39.013230635428783
25.453689432307595 288.236032307008145 -38.281579460910415
26.312142471593440 289.398764341221579 -40.931845679337336
27.420107184205925 290.199726659589260 -38.781986009881855
12.125868759350375 291.167327988680370 -39.587160562877315
13.100698294800399 292.435614353584072 -39.430945376928577
25.596698770268908 288.988119804385008 -40.751238255213778
26.576625418028804 287.211772283372738 -38.965974121991721
-0.238931167540012 290.884476578427723 -39.462405136700305
15.162545466213139 291.464969555337575 -42.669845641739762
21.047899892816815 293.091761111625146 -40.371768524132115
-3.037433990811405 294.689912184061086 -40.048002532446596
-2.498699950336595 292.112907584451989 -40.243745489276662
10.051218579637275 290.836754077592900 -39.513766587080077
13.418365960314050 292.759469809010795 -41.096113981601334
19.422156431659602 289.334829323814745 -40.392040299015925
-1.520412548739335 292.545612523637601 -39.223290235845099
20.433221172747256 293.254615330370768 -38.687337928289232
0.429861966290609 293.563611488920628 -36.666559137453348
-1.009076871198112 293.023106778965371 -41.813102379002054
-1.154524754785252 291.426785860569794 -39.411588331173135
3.082406806111554 292.417129944837654 -37.309786727199338
22.065951485185188 293.426078420017461 -39.158631481268827
17.292520071548036 295.229240721839403 -40.065853359801274
23.737042113626103 292.866460712240610 -39.344856305049554
2.466814014958954 294.819547509636948 -38.952057222339953
6.124229311614293 296.833476084044548 -39.601970905398190
16.560600433479021 296.347353043756073 -40.849124444476892
2.248471347126831 294.388661438992870 -39.882752258902393
18.284151855180539 297.776326751435136 -39.497499447207645
23.424170314752647 295.581658443003562 -39.884657113128796
-0.975623842594875 297.692302734893872 -40.225194554286311
6.101926968010945 295.336837274473908 -39.050742407585780
8.553612739671934 297.430153072315875 -40.137753780725212
15.806614010585097 296.495430266440394 -40.100565966331622
0.130333200017204 294.242444918006356 -41.354291896270411
3.042231677424227 295.968293449251746 -42.502304488583420
5.329578289080789 300.385604467431278 -42.059643829371005
16.539252246885415 297.291429833830762 -40.852397396293050
8.573995938203050 296.509943601576481 -42.551637900182023
23.444789926951710 297.095443281953578 -40.264303149168448
13.020988138008027 296.786590506237872 -38.213226294554033
15.999942795330726 297.466332729178816 -39.157525090734502
15.978908070340019 296.787673653767229 -41.249426832173732
18.209616952470689 294.948529818644033 -40.694743822976385
3.786286441971184 296.082349303161834 -39.977180667845637
7.288830666835041 298.881895284761697 -37.293845340146810
9.720071930800231 299.518254135978509 -37.434665273159382
20.805793712929930 298.057202183157358 -39.435397960840213
1.284277404163275 299.934497298375277 -39.743781237205972
13.889651084975839 299.412843470034659 -40.461940099947952
11.577346794091492 301.415105918038421 -38.085451345919623
12.706118272539930 299.764418274824038 -38.186780457091501
15.866655488009766 298.390549241671408 -40.149415793823295
10.381213854964386 299.638556140133232 -40.430172604393377
4.644302766719203 299.104802924128251 -39.904274288395911
7.716921268308204 299.178279711278094 -36.856582685793711
20.170618827037821 297.588096909780177 -42.188604054549529
11.654213319002787 300.907328824666990 -39.093770228093973
14.243017376050631 302.130008899879556 -38.427344414362501
2.052400221223980 302.455105080719306 -38.748125007937311
9.736642671354151 300.388588320924612 -39.993504990835831
17.149133098826269 302.068588377035553 -39.945134581215576
17.104850263011564 302.435740068735470 -41.154955622244401
4.070323642777575 302.686233842860645 -40.243254670556638
10.292718263973002 303.538138047609834 -39.141894119319637
15.660942527617305 299.003894350683538 -39.180372045095879
11.391695986138188 302.610283261486757 -40.273269060573554
9.035453888375944 303.091040004975298 -40.743620438136197
3.055110981523856 305.546140884228919 -41.078267472183171
5.250979977068650 306.410650363300874 -40.434182665786345
7.555944210523318 305.507953626293670 -39.714358000922921
3.069758305922344 305.318491019112287 -40.760564956673811
6.575871111013239 304.379591989830374 -37.773247059164305
4.582033119845129 303.276599382564712 -37.730131470049081
3.532646845236665 307.206855165247930 -43.402589903000049
6.977007771124249 307.933478305682456 -38.215840042670720
8.830319473588569 305.029827652606571 -42.421936119747009
31.281644159070051 23.480555220816630 -39.996004913264109
34.261035228007948 23.498097849056879 -38.225785125666363
38.008002681288687 23.434280161435254 -38.362766184974966
30.924350196672645 23.964019310980120 -39.002738971923286
35.764130633649820 24.134600133750595 -38.885233323683799
41.385868036338934 23.713234489107045 -39.735678532758520
28.882288822552844 23.323778829539222 -38.870507587832975
30.675298862393738 25.618644357043358 -39.491637941974147
34.801200745995949 23.947834750924883 -38.248078087464521
42.381008444959328 24.724320892388373 -36.861595462812616
27.552334188182332 24.486618433908937 -39.514538350922528
37.340616011834257 25.258873447920919 -38.300609175884041
40.664327096952768 23.014375018440195 -37.937962540509986
43.950443011220209 27.237301330895445 -39.437483161175798
27.163126371329160 24.971757529213427 -38.073197479748231
27.386431560999235 26.001123177384752 -36.903879253968690
35.972879953491265 23.896787969720911 -37.972120270901826
34.788718710809768 28.270320512131615 -38.241735819441985
42.610635948495016 26.181391943336859 -36.750995350303370
42.529285415984248 25.253618855823902 -37.185504290040576
26.583131225831035 27.987921596027061 -38.341938641667099
32.996042016578137 26.081609331436514 -39.073914173504996
32.844024293801155 27.352264601782888 -39.840288264584522
32.920338700940178 26.855403383890092 -38.663255591000045
38.145427724698642 26.459431507695946 -39.710436083757877
38.863458734376835 27.238411368942270 -38.042342111665619
42.941604632957336 26.418366120988210 -39.946219401981132
29.736815013685526 27.472125401290988 -40.041605188025073
34.386286496197734 27.591612216505364 -38.591264860089844
38.516742154610668 27.560256829626759 -39.572163546658167
43.756813628064350 27.021983178740758 -39.256472783925162
27.329797651731390 26.415220596629808 -39.898450219295555
30.837989911214745 27.268202473377556 -40.784530825670664
38.706868817027640 26.564935867181973 -40.300479890036854
43.446940317431611 28.323689155519173 -36.794561902724098
46.484122761369605 27.928775409601037 -38.790251492841072
44.417013402427592 27.304250407483313 -40.046118027272705
44.179509462307848 28.748254742631236 -38.317131022412831
26.804600361250159 29.249575409224246 -40.977281222598911
38.862534899496126 29.998582905028385 -38.673361495511934
49.130866009540235 29.703236471298787 -39.603200732380174
28.220733985526842 30.057436180460389 -40.200116563667429
40.009131922835095 29.141016386892247 -39.729132897693709
40.279631060208480 27.395862655603416 -39.764391820596053
25.763109799958418 30.239339696137211 -39.207547071780333
43.924557202264552 27.451870711100113 -40.253472967775252
44.187537089619973 29.024862885781953 -40.402301452375994
45.655460758467875 28.672809594221793 -39.353008252429127
24.892833493595916 30.255532587384419 -37.489809699814053
45.658272553901924 28.917681636010549 -36.890499419821083
50.095878811481583 29.859920574784425 -39.309058455768593
43.142035309817700 28.826816483398762 -39.021529509553957
40.594621710687804 31.920626398171880 -36.701127711630399
48.261310431506658 30.222971386772336 -38.194466191909761
47.192652739182336 32.111459282990872 -38.487655025401175
42.138846858158118 31.914449019669139 -40.907803544978677
44.197281707142182 33.558897533440074 -40.092570099780367
49.164408197526100 36.160172868275083 -39.640871415560753
50.646747059232332 34.397205985416846 -37.318676849579987
43.538591697521149 34.702670891685315 -39.708857664087880
45.038331435441513 33.633550132821682 -38.340573516998631
49.353617485778045 32.777726577504424 -39.153138907690106
47.832590427445865 33.464991314111998 -38.110848483071166
46.468498672329765 35.186609757020932 -39.701611871392473
50.604611814504999 37.463753154692533 -38.332258534156864
49.301482074171886 33.380872213479194 -40.204710141579795
43.657247725176767 36.819765119326604 -37.667942049395421
49.096513361588244 35.885887436447170 -38.895480373807487
43.424302266859939 36.892566421071251 -40.130017876847816
44.415222481214315 37.239423256439736 -38.954147763472221
48.612445745902541 36.848329126664765 -39.887931813248827
44.841966264255475 39.261256506760112 -39.247042755075633
44.410641335985233 39.199900536070864 -39.560369435097769
49.996085935945743 40.990530083713097 -41.337949683757337
47.069833888297708 38.770816051915745 -39.214037284366569
43.334696541407531 41.289070532668646 -38.836596054650919
44.105517061623935 41.393364437875654 -36.568135538585615
42.192863818143152 43.927884136154859 -37.984055043622966
45.788062821915709 41.867694228826593 -37.419927759701494
44.069153861254513 41.548403735230224 -39.625463846475704
45.315746537361257 43.290177074137361 -37.851611376801031
47.745687659857495 40.508374632605936 -40.213317455613769
47.466604512678884 42.541606474430509 -38.723081364819350
42.784543832578336 43.750854458715047 -37.491531392740612
47.217804139879938 45.575832641057652 -38.782670728361168
43.264843866190546 44.068678080115639 -38.896602760944063
47.322534030891120 47.995020361809814 -38.258077050612272
38.544980088302658 43.267337500106009 -41.026164776181560
28.088906404881474 47.197609278331697 -39.767087498589007
39.815006275621272 47.151556009851021 -36.080681127941276
46.767440258965948 45.574188204237998 -38.232297154136724
46.544551269284568 43.989017530584633 -38.912329449859008
41.030537106471243 44.327020686791023 -39.672660679287858
41.675179921579236 45.489653990297981 -38.537063678995423
29.754381721655335 47.758847578452993 -36.616152439938304
39.945304333896949 47.977332860187481 -40.390939205931687
43.934000962249911 48.936466598885602 -38.575155851836215
47.462602022336334 45.591526655617457 -38.913108583830613
40.630706116473547 47.919561579222190 -38.213487362293911
43.063572108269526 47.777767108683747 -38.570002415450574
36.115875792437421 48.302561124268145 -38.486185242437649
27.754698923280962 48.371205491748420 -38.824370823018263
31.175918598903060 48.280020723628851 -38.468327339202013
29.537633263708493 49.831196816038776 -38.877294069264110
37.355429633633783 51.036653495131638 -40.112859627045232
41.853050833541886 50.664950101148378 -38.658927311362937
31.304806398696812 49.228379299529912 -39.560797104370124
43.617751260238677 47.206976573074947 -38.841696097161986
40.207500135241311 49.186361163044111 -40.866819905579483
36.264491205267589 50.724382876004555 -40.218629021326322
36.565547174966078 48.711745344327014 -39.975362386647625
-73.170456374442594 52.581659654055422 -38.442828137594468
-58.688261150103500 55.905285494813128 -35.708724130816890
-83.793173574808762 55.020627943345787 -39.695886204871670
-51.991443554657700 55.356521279801726 -38.824749666451638
-46.758565284721939 59.198874316390139 -39.181669875914537
-41.674394452294642 62.634778416834237 -39.730144828798444
-44.551126805517541 57.980291941572901 -36.746430956099537
-38.399376958469865 59.577555309110195 -39.600192002969145
-39.603094791366011 60.897935275489871 -38.311024202328895
-31.467390842520270 62.049936453806176 -39.284154583903408
-33.250172156353692 61.878331025730446 -38.463660080302340
-17.883272680184159 60.086260344198962 -39.391419287472104
-28.973902326633674 63.462709657276100 -38.485881360810062
-12.833406319850091 62.670364777211027 -37.659338340859769
-18.711845014875220 60.713997310904290 -39.396013459796521
-95.115832057374803 62.989267606224921 -38.901387102762904
-9.440165193753673 64.088123823787114 -38.404007705566471
-8.228868155182871 64.165337944692823 -41.458436065712149
-94.363071563092220 64.606578363962626 -36.668792215296492
-63.586872997245720 63.683033894422309 -36.093539356422070
-97.129601033728107 65.380382062681463 -40.112059544807913
-59.985930897565382 66.291399855352893 -38.601423422314276
-62.950445495839809 63.854405773023842 -40.628496291993358
-62.535903215423659 64.824153557277739 -37.216122365670749
-97.168066033941102 65.157153947840328 -39.464242320777615
-97.253358195757102 65.810674676956353 -38.261433385564395
-64.446880612596843 65.737316753035742 -36.423023058754225
75.018408094176053 66.322767646305905 -38.586486298183452
77.533539035769536 68.468622066839089 -40.160887517727822
78.721365004769467 66.849998522761780 -41.002939743840436
-57.719738517353228 66.311245962771736 -41.851924642072312
-95.151725342400937 67.787527990641308 -39.890166764044345
-8.416797272080334 66.892029854238089 -37.891754059605773
74.288276502583130 69.616067586746411 -39.161682638493183
91.390505072288491 64.756032408400017 -39.529857951865957
91.404234419450489 67.813911911326386 -41.879215375880349
81.619184344013590 69.213491395419766 -38.484886029380768
91.450684863621206 69.326841985821602 -37.842609620254130
-61.336106507667004 69.869022648081824 -40.068461998943633
-11.354831302094052 69.726438374787463 -39.217878810361455
70.664121976457835 69.008214168594463 -38.859694010687278
83.740384061205887 68.706803821781563 -40.666288317201825
84.811932041790982 71.083136622367874 -39.195226550296347
-20.631080734169327 69.889872597334644 -41.022205079199921
-98.894147240588040 71.417450383378650 -40.372465966435335
-64.084921838509132 68.156420362658309 -39.678285769633924
-65.265459081248807 69.683575035388230 -38.506827184964308
-59.119863582668621 68.777902705974327 -39.808343319338171
-22.698650337181309 73.103751159519561 -40.298597868800194
-25.109822584671821 71.927948827617641 -41.352403950215532
68.171567563129543 72.092438146387749 -38.543211596103198
-64.952382488986643 73.085480622788737 -36.278450404548224
-96.393305163070721 73.938590240308201 -38.553013964453747
97.252077436033730 70.245595240093550 -38.536695690172969
-99.431963384618115 73.555435484171596 -40.820711774822669
66.768526708652175 73.031119933753303 -37.653470072042964
-33.596760444981008 75.562064960310735 -40.525567439502446
-67.414829776030345 74.228983069582000 -37.393514082284909
98.990827392747107 73.788915064425112 -37.709629344793612
-34.376915908177203 73.679039180738158 -39.133886751406884
64.770889440019786 71.374471495409068 -39.780570251543722
-63.583660246959056 76.040673699921513 -38.323351028900753
67.674691531109545 74.775957812372909 -37.935107764112658
-32.303108606397096 74.730447775508026 -41.557942079287869
98.908532815186234 74.686378847413891 -40.399785477477252
-63.245067422567203 75.924738968144055 -38.569095300480342
-33.589527600797297 76.542518654838872 -38.306201579446018
66.943135292586803 79.025301270684977 -39.208899756580351
-97.548673488094096 74.896381088723473 -38.927642798675350
100.080392374848444 75.844673478538908 -38.359024180813378
65.793665375661860 76.973192935727752 -40.740784102205630
70.506932464002986 76.183500888425996 -40.218095630751378
102.284893880728404 76.442604723429824 -40.823591699865624
-35.536818998389215 79.593210032518130 -39.265708675261564
64.092426376720965 77.669262705354242 -37.499300478611374
67.112036635068876 79.109363688274172 -38.312298806389180
68.640698077982691 79.011720465192440 -38.033513418756364
71.828390752116817 77.130884429001483 -38.936306884108880
75.771454066053579 78.374439680934969 -39.633592594773290
77.016559786364439 80.026546470864659 -37.603814203604671
65.702848857934526 77.265547715127681 -37.434906381311436
64.915399004283572 79.857277084977682 -36.510387904367789
75.946257782195190 77.123839714060324 -37.417803227757787
67.077928280332770 80.165491389971137 -38.104727998080762
65.987808773153589 79.628045603649838 -37.876250755149520
68.867303826935739 80.933650026479398 -39.632395539002452
72.685542146226638 78.613272444940549 -38.766749977035332
78.142803001408524 81.381267002092471 -41.128719487091772
75.751188691482653 78.398754200865355 -38.505500597602428
80.505599101426384 80.217759189821336 -40.299208258485500
-37.789776706702661 80.525923166564283 -37.175282534840342
85.313833637870658 81.240759563059783 -36.785632866978283
84.520301842120887 82.104612725577326 -40.671009391925544
86.371770367795946 80.012348883655889 -36.596652581440644
83.850303888450597 81.023073634987043 -38.057968625891057
102.726672326103895 81.918509051263072 -39.376815184809644
-37.787183880879340 80.057737047311790 -38.746593068665462
65.998733451213312 81.131287749322851 -36.730616619672332
64.221973075393961 83.127680957529620 -38.619713756672226
90.464569193039907 81.461739563602720 -38.516339446883919
86.531588027470008 82.607760399442853 -36.620227391496087
64.589004159621055 82.978853564834679 -38.436992539310410
68.050191895071478 84.446754338962990 -38.769699416983940
103.958168588521261 82.842090348868751 -38.292839222850006
-40.357156927011317 83.977610863333794 -36.149098888297644
63.213102485209191 83.682200987040702 -36.752988130625724
90.294197123090555 84.363532371765118 -37.888660992701851
100.607696961788221 85.598424176546331 -39.121309645704933
-99.912487483581828 84.580722578617952 -39.617254380166528
94.600920943982132 87.031538052563576 -37.144477136821720
65.502142752209508 84.693937412309921 -36.415263325179751
63.676383639913126 86.515302363817753 -39.679185455068129
66.817087320738182 85.775540304766949 -36.936813170580798
98.561833787254585 86.842297467261147 -40.180875460172231
101.701692110363823 84.729199678033780 -39.960287062005506
92.920047989050801 84.296125868817498 -37.718056261030313
100.166790462674285 85.238268908307731 -38.588547424753692
65.060197232653650 87.683535874112650 -39.659583556505474
97.662586669408697 88.322957354803535 -38.211824089688442
99.549674816202511 88.825921469316782 -40.569495383905085
-41.834861882156517 88.011166367085906 -37.660018466603731
96.827437384035036 85.692482897518119 -37.145873752657245
100.956068594112921 85.714283103069505 -40.147467032114825
101.753569603470439 87.931722307241614 -39.953625386454114
-40.945946732528952 87.525352111422123 -39.317946080055677
-43.694162967013526 89.824163758181655 -40.061617102097145
-43.274211555361134 90.168008699580042 -40.148029366207354
65.263478259094711 91.959748164774595 -39.645319035216282
-46.592761518929876 89.615251649712604 -38.072683805764441
-50.061586357858438 95.343860863886732 -39.325758681103771
62.053757083135423 92.630912047851737 -40.217419106831400
-52.018706568484468 90.925516844238430 -39.821920182111057
-53.086964796833577 93.312782436408980 -38.038410609258527
-55.614935006024297 94.369922909712358 -39.883514119867023
-99.028299642722303 93.108411012322719 -39.694900127608193
-53.851441948496351 94.984358887286149 -39.871789808998358
64.406964230432251 91.487284917068735 -40.160566799878168
62.546791558271920 96.396012833149612 -38.738751353144018
100.052760787850559 98.869224246303176 -39.078663693559413
-57.861268085515633 97.011024448947524 -38.501147315099445
100.091663672431821 97.156165563301940 -37.697512572968435
104.700738199713328 95.718002230161389 -40.088798865093807
100.447858643569916 97.996586465855685 -38.519771692886060
100.119838372699249 92.750174884077552 -37.836783971432908
-99.141581081030381 97.105459489920065 -39.448901942708183
101.872352827767770 94.857512859035864 -37.607749130320144
99.858443789568014 98.553422797746322 -39.683347194843378
102.786517820857100 100.211808134872612 -40.370007401148314
-61.318475650146837 98.110708374090947 -38.639150530447537
-63.288059734028046 101.211453597143816 -38.297755046378214
99.223343092115229 100.920323452890841 -39.078883786369907
62.146061272935334 98.275159447466905 -39.647290252382874
103.090719873298255 100.529239661676073 -38.575183480513260
64.743448057545876 99.806706861229955 -36.751553604161607
