# This PCD file was generated using the MATLAB® pcwrite function
# from Computer Vision Toolbox®.
# .PCD v.7 - Point Cloud Data file format
VERSION .7
FIELDS x y z
SIZE 4 4 4
TYPE F F F
COUNT 1 1 1
WIDTH 1456
HEIGHT 1
VIEWPOINT 0 0 0 1 0 0 0
POINTS 1456
DATA ascii
22.537195 220.412415 -67.258064
-22.262735 219.185257 -73.110931
-77.933304 224.224152 -66.164230
94.307732 215.739990 -67.520164
-81.360611 225.656845 -64.049179
-147.329254 229.478439 -69.222328
-77.820709 227.071213 -71.744080
-15.230268 221.644958 -70.114449
-21.803577 227.692612 -71.532990
25.001482 221.034882 -66.412003
-4.890302 220.512360 -66.417961
-78.512451 229.957535 -68.574753
91.344040 224.813644 -69.119553
-93.439713 223.676331 -70.831650
-144.002060 236.423218 -77.405067
-9.692242 226.373398 -71.645523
17.271498 225.191544 -69.073448
-104.036827 228.761795 -66.567711
10.570108 228.646500 -71.629265
-27.340618 224.971695 -72.974632
83.046532 234.830704 -71.864830
-145.301086 229.208496 -66.955498
9.652220 235.946472 -65.633179
-4.344947 230.882339 -69.384605
17.401079 230.502808 -64.107269
86.586212 238.065857 -65.308624
-12.982266 235.654770 -70.162544
-128.160355 238.899292 -73.817169
-5.291810 235.067169 -74.304886
17.698334 244.170410 -66.986473
-125.751686 231.221970 -67.225060
-150.097900 240.704666 -71.311432
-138.535934 239.132874 -69.407021
-129.852295 238.909119 -68.064713
-8.317873 237.042236 -68.180702
72.261147 239.480194 -68.232124
-140.595947 247.639694 -70.353790
72.389519 235.943344 -65.867279
-13.577091 235.306503 -71.515022
-141.728836 242.129257 -75.144516
77.274681 244.470917 -74.272316
16.571648 246.624710 -73.891541
-140.940536 247.678543 -63.611858
-148.093674 247.657471 -69.686569
12.476789 245.201935 -62.518082
-1.325150 249.754654 -69.969482
-22.656258 255.543655 -65.328362
-5.201500 250.239777 -68.475410
-161.621155 246.532150 -70.608757
10.190239 255.522263 -68.318871
-162.507874 244.527130 -67.103996
-17.252687 240.335007 -67.107162
69.694679 248.906387 -70.417183
-6.099434 251.156784 -66.823486
-25.440750 248.693604 -69.418785
-25.745234 251.163483 -65.189445
-14.001128 256.443268 -65.230469
-141.892746 245.626480 -66.845840
10.480289 253.656784 -72.279228
66.057678 249.832291 -73.261726
11.890418 253.217087 -70.096298
-161.947723 249.422668 -67.201195
-46.462360 254.382080 -72.773567
8.122465 258.217804 -72.145172
18.702326 261.328308 -62.430367
-58.607830 261.443970 -68.720856
-2.445036 251.508331 -67.904572
21.348394 262.544312 -72.268822
-165.429337 255.012939 -68.263084
-71.466980 265.341583 -72.312912
-52.972935 257.655914 -65.235474
-79.453247 257.523376 -66.355003
-161.915222 251.162308 -67.005814
-151.822342 260.870544 -69.246651
-58.675049 264.604828 -63.639606
-68.068443 260.313416 -75.801971
-154.009338 262.171112 -66.595100
-152.129822 258.256104 -65.525879
-77.231041 259.677124 -68.260292
-91.480690 261.250824 -63.376808
-161.562531 261.497650 -70.446732
-153.607666 260.556427 -67.706909
-134.541977 267.585419 -63.715057
-80.576744 262.195465 -72.066010
-163.374954 264.679413 -63.759365
-147.835007 266.421326 -74.262863
-93.654854 263.908508 -68.591583
-100.977928 269.927277 -61.225368
-148.547684 268.984680 -66.397232
-96.869698 273.579285 -67.797737
-151.663727 262.818420 -67.058784
-99.606216 264.832764 -70.821014
-166.916458 265.227905 -73.391304
-162.261780 267.257996 -75.044968
-121.760735 265.754425 -65.957649
-147.517899 267.865265 -74.019615
-106.505646 269.144165 -66.588585
-13.665975 270.085663 -74.919884
-142.334351 271.033081 -66.406723
-125.840691 271.731079 -67.279900
-155.823227 275.495178 -67.449265
21.879660 277.458557 -69.967369
-152.756561 293.741089 -65.115372
-167.901627 289.971741 -65.543327
-4.252509 293.169861 -74.790520
-148.784958 289.027496 -71.109619
-5.754691 286.508301 -66.773109
16.410231 296.272705 -68.874847
-132.020813 297.463959 -65.463318
-68.709946 290.585388 -72.687737
-40.643818 291.240356 -66.984207
-115.284859 298.452454 -65.269676
-89.316795 304.214752 -67.847496
-89.647682 305.828003 -67.217957
-47.788555 297.779419 -73.587662
-114.147736 302.934937 -63.044022
-106.725838 302.465271 -69.033936
-31.264505 301.259247 -72.254066
-115.600273 298.315643 -70.446815
-125.312180 298.681000 -71.933655
-144.067139 304.795532 -71.562027
10.676519 297.092072 -65.426949
15.880518 303.116455 -70.618431
-155.125854 304.455811 -68.161720
-154.051514 314.313049 -67.425941
-145.533691 320.312988 -71.316483
-149.812057 317.291443 -64.295052
-151.283554 323.445190 -72.106827
25.845163 24.265623 -67.426369
26.162146 32.432011 -65.303009
25.448858 29.610521 -67.198364
28.592014 50.009663 -68.398270
-51.037865 65.812561 -59.693306
-63.375927 62.989948 -65.419258
-39.144829 62.437702 -66.324249
-80.942757 70.149673 -68.912994
82.246582 90.295319 -73.644341
-17.869406 85.256310 -64.439278
91.844704 76.921089 -71.415146
96.913010 89.659874 -66.401642
-91.344551 92.294640 -66.441803
76.744560 85.104225 -63.025555
-39.227451 94.857262 -71.134308
103.158684 93.821648 -67.791367
-55.042290 100.231537 -70.334373
51.596077 97.598320 -66.632256
73.698784 95.778381 -68.815811
58.050957 103.689545 -72.504425
48.125343 114.351006 -65.524391
68.327400 104.443550 -70.312935
49.378662 107.143242 -59.643402
102.172897 113.655457 -67.828972
114.481247 117.497459 -69.170143
76.695190 109.862740 -64.046432
90.760071 114.702248 -67.387123
102.557259 111.404358 -65.303131
106.751030 110.160339 -57.628605
41.155437 117.238838 -75.280731
108.843033 128.677277 -68.910515
116.116211 131.979935 -70.211296
34.056805 127.670776 -66.612587
40.131744 128.542068 -69.149429
107.612778 139.664322 -65.109871
39.296494 136.120499 -72.396576
116.874252 140.663422 -63.335579
111.379105 137.817215 -66.240601
26.138224 146.721008 -65.007530
-46.629944 141.666031 -71.772964
-56.250305 151.105743 -68.821091
116.467674 142.599564 -65.781685
-73.980637 153.180588 -70.896034
-74.175369 148.323334 -65.773270
-57.820702 148.915451 -70.563240
34.927193 148.231552 -68.859642
105.769714 158.298355 -65.454872
-62.387486 154.683136 -69.641563
-43.435863 154.154327 -62.967113
41.824577 159.790680 -73.556770
-62.352337 161.964340 -70.718239
114.318565 154.159698 -60.239792
110.286842 166.063171 -69.647377
111.129364 157.762131 -69.669762
-37.325325 166.022110 -67.253677
-64.559914 165.576218 -67.310539
-68.255974 162.368225 -58.223827
29.626984 162.249344 -63.494007
1.274117 173.856461 -70.541840
108.809700 165.523392 -66.385857
109.365723 165.731949 -62.181271
114.977791 168.014267 -66.702194
-63.524269 169.184494 -73.560822
-46.093742 171.296234 -69.705414
6.700585 180.252365 -70.912415
-23.669199 182.971451 -64.838470
106.894081 171.452316 -67.905594
-35.307884 170.894409 -64.374748
111.437592 177.748444 -70.360748
-40.395100 181.287872 -64.633011
111.959183 177.784805 -70.736320
-149.979507 191.619476 -63.080376
-30.762403 184.327011 -65.717575
-19.631695 188.794952 -63.043045
32.264935 184.625580 -73.147713
15.967969 188.356766 -65.909645
23.361029 191.256271 -69.490082
106.804588 197.931274 -72.196213
-151.959869 197.464371 -63.085674
-20.941120 196.983917 -67.786629
106.054138 187.967484 -66.960991
103.852440 201.234985 -66.283691
105.323685 190.540283 -68.560097
96.453102 205.532013 -73.113708
-155.764786 207.714050 -78.012871
98.456200 212.627197 -74.064316
-32.375591 205.714767 -67.553123
98.288979 205.443481 -64.751488
-127.671921 201.483856 -68.093613
-30.878611 200.779831 -69.947655
-141.266968 213.042252 -68.377129
90.941978 208.651993 -66.670525
9.717415 211.371719 -66.360420
24.569622 206.039703 -70.546318
-149.494400 208.697769 -69.900826
-136.665451 217.608521 -64.850075
-15.592068 216.455322 -69.454582
-125.176346 214.017319 -75.429390
-147.356400 210.819458 -70.217690
7.437249 208.730881 -65.287369
-25.453588 214.583359 -66.759911
18.716082 217.718994 -66.794907
6.517805 219.623398 -67.948250
86.313248 223.271118 -67.937065
-25.584337 221.220200 -59.743912
94.957588 220.949753 -66.766129
102.675591 216.794540 -68.169785
-142.193893 229.475220 -62.513878
95.044212 220.205154 -63.324211
6.777698 219.020508 -62.793350
4.403664 219.140320 -65.941353
-33.678844 219.775421 -65.485565
-91.894936 223.816772 -62.461273
-34.039223 223.990860 -67.606064
84.953987 226.151642 -69.079025
83.697258 226.809631 -69.714981
-38.361721 225.415848 -61.810925
-76.876541 235.120377 -58.974552
-2.777133 225.208359 -65.808853
89.354889 228.365753 -69.011436
-146.317245 230.750641 -70.950516
-169.969360 221.288589 -69.768829
-157.623917 229.340088 -66.549309
-18.728764 238.494080 -71.032822
-151.648758 233.536652 -71.844986
-6.643765 238.198761 -74.623825
6.513268 227.418640 -65.366127
-160.825714 230.546997 -73.825188
-163.840424 235.356171 -66.171478
78.019386 239.761337 -66.982628
5.951808 239.765137 -69.217468
-148.406631 231.681122 -69.860756
-142.691742 230.202774 -68.700699
-20.970310 235.679871 -70.377892
4.233505 232.554932 -67.988716
84.704544 231.765518 -67.701500
-157.786392 239.806808 -69.884117
-145.697952 237.968018 -65.347603
-125.457100 240.182968 -63.793461
82.787674 241.284073 -72.323845
-114.890839 242.346222 -62.683716
-144.870010 239.043488 -70.804123
-153.485641 238.745422 -73.221832
-146.473114 236.332077 -67.309792
-150.938843 240.105118 -63.096363
-166.379929 247.705719 -63.005325
-136.705170 246.214417 -67.256454
-135.809814 243.221436 -65.938965
-155.292343 238.090530 -67.257553
-145.132416 241.016296 -66.250137
-151.486023 242.958984 -63.077991
71.624046 228.021423 -66.405045
68.666618 249.050400 -63.328072
-160.979599 249.615967 -65.477051
69.524940 243.666061 -68.416801
-20.626034 245.768051 -66.214539
9.465123 249.601654 -67.737587
18.279779 244.595718 -72.322510
-140.348618 252.888123 -66.637108
17.181688 253.646378 -67.261948
67.079041 246.805618 -69.350471
10.227382 245.096848 -66.392487
5.273793 254.644958 -71.385757
-7.578274 249.745300 -61.629612
-17.505482 257.545807 -72.563034
1.845915 251.669830 -72.247536
3.482221 250.915009 -64.966728
57.039978 250.304962 -69.949554
-58.917583 255.757690 -69.190216
19.141518 260.351959 -68.936668
-57.070415 255.495728 -65.615654
-6.513061 259.912659 -66.874931
-63.422428 263.895386 -64.510162
-83.584648 261.057526 -74.822189
-80.371925 262.525452 -72.917358
-17.159790 261.564850 -66.370155
-123.754364 272.177979 -73.034004
-14.984571 265.997406 -62.126060
-123.204086 265.371063 -66.777000
-118.266838 268.502136 -62.913792
-103.546844 266.848907 -73.104500
-141.480942 269.110382 -65.812363
-145.825104 276.762054 -65.050667
-166.393326 275.079529 -63.546177
14.062200 291.763306 -70.107895
-61.082890 292.958435 -71.698540
-64.744141 293.203247 -69.322235
-44.611931 294.275024 -70.282516
-25.414095 291.648987 -69.928596
-90.822571 305.739319 -68.037323
-30.066526 298.520966 -65.690765
-0.272140 294.814972 -61.277470
-163.729736 300.047913 -69.859436
-15.689625 300.790680 -70.444321
8.288981 300.234192 -62.391655
15.817110 301.736786 -60.573944
-54.489765 302.400665 -69.679031
-27.271673 295.449921 -72.827560
16.818012 299.179932 -64.805054
-66.873352 304.632751 -69.915154
-37.413364 300.141968 -67.250999
-15.638207 301.697845 -66.702797
9.280889 301.830963 -67.320580
-13.962122 298.346008 -71.751892
7.709219 302.584259 -65.510910
12.308734 301.933472 -68.507141
-133.185333 299.501984 -71.527206
-139.082718 312.307220 -69.509041
-149.627808 319.939026 -72.851845
38.206524 21.345463 -56.013424
30.138050 17.623201 -65.563927
40.501606 24.121248 -66.143570
20.941038 31.323704 -66.324585
41.694748 36.305550 -66.216949
20.277275 28.550070 -62.512524
23.848274 40.183998 -71.186241
22.276775 46.025414 -69.265579
42.182652 44.117882 -62.180050
26.961884 48.751171 -64.978432
39.198753 40.906792 -66.556801
34.258656 47.040344 -61.889591
29.756697 50.947468 -66.579056
32.820602 51.602242 -63.408539
44.448490 54.471634 -65.923859
33.772289 55.352058 -60.240070
-38.057785 67.401024 -60.734055
-29.188353 52.730804 -60.874741
-89.139175 65.549316 -64.835365
-86.568550 73.446060 -68.772751
81.488632 75.183754 -66.017807
81.880699 80.082138 -66.695442
-14.147726 86.038322 -69.684021
-84.077682 81.215843 -68.066566
-23.526062 89.937744 -65.713432
-49.113556 100.807770 -72.472519
62.671711 94.702644 -66.686966
56.168846 100.544273 -61.578377
96.244179 96.425621 -67.528381
76.308136 104.739700 -69.711006
-62.936478 101.464516 -70.558784
-64.303795 105.586967 -63.578148
44.618946 106.157272 -66.672058
70.898140 109.836990 -73.820610
50.155689 110.248093 -71.009377
102.469643 106.662224 -71.211716
-87.228195 116.841621 -67.775734
40.558170 119.114952 -74.304192
108.110992 117.981041 -63.833107
46.200878 119.946388 -62.397255
104.211525 116.356483 -63.186302
-82.661179 125.242073 -64.521584
36.159386 127.707832 -63.942055
112.526146 129.124710 -69.497017
101.315353 126.657677 -66.713608
107.450081 124.437386 -70.946846
110.418518 125.356140 -72.999779
32.164112 124.865089 -68.496902
34.098278 127.631142 -72.260681
44.584808 121.333344 -66.091957
110.377563 133.914200 -67.377014
41.866234 133.204285 -64.601685
112.139229 142.087738 -69.590622
115.822968 137.522873 -64.613480
32.625313 129.287338 -65.458015
-76.744865 134.185913 -70.753601
117.904396 145.521881 -72.895790
-60.201881 152.696991 -74.530983
33.704369 146.014236 -69.190994
-73.706726 149.614838 -66.781303
29.951397 144.587158 -64.630760
-71.067230 151.792343 -69.800316
-41.998814 159.607376 -70.089806
-72.658951 144.688904 -72.381264
110.246178 147.438507 -59.911446
118.686653 149.364120 -68.590370
126.217972 156.219604 -66.700706
-71.345573 154.953781 -69.873886
8.910409 159.632736 -66.153244
-58.413025 164.111832 -64.183876
-45.382336 162.419296 -70.957985
109.780716 169.010681 -64.369041
-38.136803 161.309525 -70.754028
10.565073 171.682632 -64.355820
23.345385 169.716675 -65.120445
113.420036 173.437225 -68.128609
33.703537 168.643295 -61.186604
-2.441036 167.880768 -72.588562
31.831375 173.368118 -65.663406
-68.731621 167.600510 -59.147465
-60.802330 168.274780 -64.720589
-65.682274 171.589706 -64.902260
112.210388 171.085327 -65.851540
-45.964138 173.530838 -63.349617
17.080667 181.906250 -73.162476
-61.909031 185.164978 -70.842812
-59.010277 184.504639 -70.549004
-43.544296 172.849976 -69.916534
-37.629112 176.008972 -58.306408
114.057396 184.805466 -61.151073
-33.728584 183.256348 -68.417351
16.968550 178.844269 -65.993332
106.318451 201.695770 -73.320671
-153.007431 186.963028 -70.148277
-141.809525 183.714050 -68.444183
-151.365128 187.291794 -65.357803
-143.754715 190.594788 -62.064999
-25.496227 189.474182 -64.495583
-24.898491 193.677780 -66.093422
23.680059 200.655563 -62.392921
-140.679230 196.957626 -66.865723
-143.022507 192.416122 -64.554245
-22.452557 196.357193 -57.423237
15.282096 191.735626 -71.977592
-138.243103 202.431229 -68.015533
-36.043999 190.077194 -71.875427
102.638809 198.992905 -71.423584
107.652840 204.657623 -64.237656
20.734270 197.985886 -66.957008
-20.563602 199.884247 -73.249687
-24.080713 208.659409 -71.512329
-145.476486 206.967453 -62.632256
-134.292847 208.843796 -65.097992
-121.981491 203.964996 -65.609375
-123.695839 207.208923 -70.584961
-16.205269 203.956970 -66.238190
12.697318 202.465103 -70.215225
94.571556 208.954391 -61.626476
-145.368683 204.972168 -67.913223
-145.752731 213.239456 -63.234879
-145.203796 208.177780 -59.654816
-155.133453 211.196487 -61.251953
-29.198195 210.678207 -65.503883
-12.985191 202.727921 -73.532867
-142.817413 204.505493 -58.378254
-19.216864 204.371155 -70.821724
-162.817200 209.510101 -68.272331
-129.972153 208.693848 -66.884933
11.040633 219.700775 -63.227718
-161.289642 212.358078 -65.183655
-142.590103 211.597275 -69.199646
11.800265 210.609467 -69.658737
-155.670380 216.834488 -70.861427
-22.661005 211.112518 -68.602440
103.494438 209.157974 -67.206566
-152.342224 223.957977 -66.776253
-161.931885 223.987991 -67.873146
-79.227676 224.049637 -64.316475
93.997749 219.029648 -66.730309
-3.318646 221.591141 -67.277977
-153.435577 219.931305 -66.991562
-89.157433 225.829361 -60.105957
-4.901376 218.218353 -66.893547
16.035490 231.419815 -63.600487
-142.663162 228.154861 -68.478683
-2.141568 228.748840 -69.423424
-13.441510 229.001892 -60.626217
-19.741457 228.148224 -62.579372
87.407692 223.990936 -68.520988
-21.701441 223.579193 -61.475544
-27.976519 228.241913 -67.294044
-101.816803 230.283844 -66.527878
-14.201800 235.684082 -66.217766
90.110313 227.999390 -65.830818
82.070152 227.641235 -65.482994
8.229119 234.849518 -72.212791
-12.397162 236.068512 -65.645767
79.944168 231.346771 -76.109398
-128.596680 232.072388 -66.511864
-23.179295 230.791870 -69.670189
-102.344643 235.409714 -64.197975
-106.960892 239.112274 -69.948578
-133.404083 237.737839 -64.594002
78.441589 232.795242 -68.184669
-126.762962 238.150238 -69.432251
1.042489 240.217224 -66.126900
73.186417 232.704987 -67.189445
-14.460953 240.501862 -68.579201
-7.735854 239.579361 -68.821426
-5.021646 242.783340 -64.715439
7.957692 240.141296 -68.246834
82.925774 234.883942 -67.331703
16.887852 241.781769 -68.084015
3.032629 241.896164 -68.434158
-4.102755 234.100098 -69.622063
-5.085129 243.579117 -64.459816
16.239132 241.891022 -65.004059
-8.158293 245.119629 -63.665661
75.125259 245.119293 -66.204948
-7.941793 242.977676 -64.181671
23.340305 237.042496 -67.156082
-159.983459 253.419250 -62.042744
-4.596427 252.748840 -66.753502
-9.772055 250.458481 -66.454903
-166.179382 269.461334 -64.891129
-8.787861 253.084656 -68.285065
20.018911 252.145981 -70.436501
-147.004395 261.386108 -70.249428
-66.062721 258.233063 -66.889198
-56.701599 258.895386 -64.476631
55.079147 257.209534 -65.201805
-76.323387 255.472443 -67.367462
14.601770 254.011536 -66.949150
-77.031906 260.276825 -68.235916
-18.911749 256.408356 -67.517502
-149.540619 265.316467 -68.317741
48.741398 258.218903 -64.284630
-83.483757 257.587769 -62.602947
-94.029457 265.771545 -67.739143
-94.749817 261.903778 -74.331772
-123.941055 269.920929 -67.499077
-108.755844 267.016998 -63.633823
-106.944344 270.014954 -63.795918
17.204485 267.768829 -66.265152
-128.613510 276.594543 -62.648720
-7.243969 286.713379 -70.657959
-145.946030 292.456909 -70.871643
-168.522308 292.375946 -65.410431
-127.820007 298.154083 -67.632294
-115.734573 288.764709 -69.460274
-79.566048 297.729034 -62.072075
-55.337204 300.171661 -60.768707
-44.234673 296.021820 -65.593559
-12.090264 299.601379 -65.405815
-9.541213 297.060974 -65.188652
-33.820663 299.493042 -68.094597
-33.997978 296.882965 -65.827156
-19.863529 302.937988 -62.937702
-73.176453 302.472351 -69.790237
-53.462608 305.179230 -63.044060
-12.033490 300.777588 -61.350857
-14.392698 300.795319 -66.863243
-4.266072 301.643860 -65.920258
4.549495 305.938660 -61.451641
-86.457420 293.818359 -65.298248
-146.843704 297.083069 -64.140862
-116.806755 306.603424 -67.745575
-152.959702 313.280243 -71.080032
-154.747040 308.801178 -68.045517
-142.528519 314.065491 -66.390251
45.817081 35.912220 -68.666367
17.547293 33.996513 -65.544510
50.383636 35.095165 -68.091736
49.287956 42.227917 -70.254715
86.413383 76.553810 -60.196529
98.144371 85.331703 -63.184689
96.301491 89.805244 -64.693787
95.298920 98.770042 -63.349529
48.658031 96.827751 -65.961235
50.859383 101.170532 -65.810806
60.363644 102.269974 -63.213326
-64.942375 102.427490 -61.444771
72.973503 100.050629 -66.976242
103.006699 100.534218 -64.542732
73.728523 109.006172 -69.822136
93.616058 104.782303 -61.500374
-81.132370 111.261879 -67.480179
46.478672 114.117249 -66.245735
-88.603500 119.685738 -69.795021
50.563358 123.107414 -67.302437
42.849697 116.025085 -60.784214
102.072914 115.673721 -69.082138
40.895630 118.072731 -62.343311
41.828304 124.492455 -69.438454
40.864437 126.354416 -62.409626
103.138443 127.504707 -59.819229
-80.633469 129.157333 -64.741692
114.223663 130.143158 -68.805061
39.692974 126.034668 -59.309406
44.513451 125.267502 -67.487778
32.573269 129.138290 -67.335732
-54.602039 141.321442 -64.796844
29.479940 131.222473 -64.187187
-77.939713 146.358185 -67.602264
-60.739567 144.135666 -64.882141
-75.421829 140.150116 -63.475697
34.506996 135.779892 -65.367836
-55.275780 141.441849 -63.762287
40.313347 141.371216 -66.105812
-76.662056 148.097702 -66.576111
-56.667976 150.692551 -68.922928
29.277218 147.779617 -64.809593
112.572685 155.770432 -70.374321
119.919655 147.449371 -66.697136
34.370346 149.961136 -65.041626
-47.836235 154.380295 -63.167667
109.559906 168.569366 -65.663368
-72.815132 159.120544 -65.377655
-47.898830 147.385651 -67.938133
35.786190 161.550079 -71.087654
-68.200615 152.444107 -67.601135
-69.488457 154.380112 -68.310806
117.588455 155.940247 -60.940491
-62.600094 156.922943 -63.450508
-40.484547 159.537033 -63.913044
32.163486 162.936142 -60.137772
-75.319809 157.893570 -65.038345
8.007771 170.382370 -68.421738
34.957493 165.816208 -61.860832
25.407831 160.941193 -67.112610
5.879460 164.573135 -70.384621
-47.285095 162.873962 -62.993706
24.695948 160.617065 -65.892517
-47.610970 159.221207 -68.426231
6.675926 158.834839 -68.389503
20.922913 157.145691 -67.304497
-72.253754 162.110352 -70.526421
-44.344246 164.706238 -66.487526
-71.187950 171.976105 -62.487366
10.779766 175.451614 -57.708195
18.451149 154.256165 -66.903198
1.499126 172.397995 -63.265057
22.822166 163.959320 -60.969452
28.762917 170.881241 -66.484085
-45.616749 172.139709 -68.408699
-31.910543 169.653198 -65.273552
-35.961887 170.559158 -64.199173
31.498268 173.230759 -67.652473
-45.845596 174.602264 -65.691933
-43.285889 171.874496 -66.731308
20.936451 170.839157 -69.103416
-42.268925 181.907410 -65.279037
33.911327 183.483521 -62.315495
118.665337 171.602814 -62.903843
-31.780504 183.051468 -64.926567
105.808899 178.362061 -62.281487
-32.700249 187.340897 -61.444771
-38.539108 188.732727 -66.694672
18.076809 183.933578 -67.960396
102.966209 186.722931 -62.277061
-28.332388 191.655350 -65.019424
-29.806419 183.349609 -58.262623
-21.356890 195.989212 -69.229721
-144.874268 197.179031 -71.610268
12.941675 191.182510 -69.202202
107.240402 203.601089 -64.083893
-158.911026 203.665207 -65.476746
-25.071104 199.280106 -66.334259
-114.384422 203.793411 -62.553005
-129.531799 207.012955 -66.334213
-106.266739 212.275970 -63.052071
-109.345062 208.865036 -60.308975
-15.893021 209.341293 -61.363720
19.097881 207.222229 -68.083893
-22.432045 209.672836 -56.455902
-125.382187 211.719589 -62.509819
-26.704842 216.729858 -63.626526
-128.461502 212.599365 -70.354126
-10.200127 209.906937 -60.542252
-143.692490 212.442230 -65.607628
90.728592 219.108780 -65.148209
-164.544876 213.800339 -65.600037
1.342548 222.587189 -67.243462
14.783322 221.936508 -57.730305
9.122729 225.441254 -60.138309
83.892113 227.518463 -65.242867
3.217945 226.668076 -60.399963
16.197451 222.461426 -66.341797
-13.293696 219.995224 -71.570305
-87.493790 223.018341 -66.111145
-102.101685 227.354935 -67.838989
-2.150898 230.200607 -64.752197
-169.043686 242.468369 -66.065361
12.086517 227.577728 -62.493862
-141.656174 232.423904 -67.620102
12.888631 235.199539 -61.854946
-133.957764 230.077271 -66.656227
-114.693802 238.781097 -64.473267
21.408501 234.595871 -58.515579
74.490112 239.793167 -64.699387
3.243763 235.470261 -62.474728
-115.461662 228.108994 -68.374557
73.880180 235.228165 -64.458923
79.175407 240.740723 -67.995270
-121.237167 239.359467 -66.395203
-120.885536 242.240799 -68.570236
-10.421926 240.671310 -64.956665
69.395714 236.993484 -69.079796
68.545731 245.140274 -63.089886
72.445610 243.105789 -64.157104
-133.087479 248.435471 -69.188454
68.868919 242.436340 -72.202927
64.735786 244.112076 -70.171143
-167.236984 236.483826 -69.271278
-0.342944 251.698944 -68.009674
15.414436 255.618179 -64.423767
-2.012458 252.811981 -68.951477
15.514129 253.930145 -70.563843
70.874969 249.817184 -67.709099
10.506103 248.535706 -71.206009
-6.191518 254.187897 -62.806705
-5.390055 256.694244 -67.985863
67.320824 254.861679 -64.784920
7.090394 256.042938 -69.158066
-9.791389 248.093353 -65.826996
16.001684 256.640411 -68.872391
-164.337006 250.644760 -59.346771
62.514835 259.490936 -63.788479
53.518730 261.839233 -65.234772
57.725334 250.309113 -70.597054
-14.220105 263.048401 -64.727280
53.831791 253.978210 -70.099312
-73.623894 258.265564 -68.895020
52.373112 260.803375 -68.155235
-87.590706 265.379730 -68.871208
-128.170319 263.156281 -69.099174
-134.799530 260.965759 -59.632084
53.993183 267.509521 -63.751617
-137.837067 266.888885 -62.083820
-104.047958 260.526764 -75.301071
-110.413544 267.822632 -65.155647
-84.485481 259.447662 -66.849609
-112.117004 273.495911 -68.152588
-124.579262 276.604004 -61.566109
-143.580887 275.347717 -66.032143
-10.822192 269.075562 -68.311424
-173.264923 277.827301 -64.473938
-7.294187 280.236847 -70.543228
-157.064575 274.675079 -59.171551
-154.505005 280.957947 -61.287159
-168.701630 282.274506 -58.086472
-11.639307 285.981018 -62.694061
-132.768799 292.659821 -66.041176
-155.826935 298.598969 -61.376236
-141.793121 291.525635 -65.029640
-136.149597 293.971527 -68.404160
-8.681380 289.371826 -67.087906
-122.976257 291.745605 -71.168747
-141.210205 295.474030 -66.623009
-112.714470 294.607971 -63.481956
-78.009094 300.626404 -62.713734
-60.912476 291.258209 -66.864853
-4.522154 297.576080 -67.224190
-48.212006 299.705536 -68.157585
-62.536949 296.235657 -68.877808
-68.970581 300.795227 -63.646156
-86.420540 306.884827 -67.283356
-106.045959 297.358795 -58.927967
-158.015594 300.016418 -65.684631
-153.219330 297.289459 -63.860523
-126.432823 307.123505 -68.601868
-144.313690 301.907898 -65.308266
-157.287888 307.977936 -63.050995
-146.188797 327.839508 -66.420868
46.256432 30.444397 -63.306709
19.781246 34.467701 -74.788673
46.848137 47.321396 -66.487671
-19.539957 74.713326 -66.771446
80.491325 75.892448 -63.936905
85.680519 82.277954 -57.743793
76.408844 83.887848 -63.147057
78.936081 76.886589 -64.630371
98.664352 83.166435 -66.012390
-96.699646 83.674438 -68.284348
68.758354 88.069061 -67.691666
-34.881447 85.989952 -61.640907
99.075935 96.172768 -66.293526
66.652855 97.712723 -72.940353
111.839836 98.566887 -63.910774
106.962906 107.318703 -69.382042
72.551193 105.381523 -68.403534
-78.301659 108.448807 -66.031128
56.922119 119.911255 -67.157303
109.213646 115.093697 -67.204094
49.532734 124.830757 -72.298859
87.032585 110.408348 -66.437737
44.459496 120.754684 -72.058426
106.743362 107.996300 -62.754799
49.226257 116.771629 -64.038864
113.178787 122.247978 -69.378403
107.924713 125.851593 -65.018372
-78.369011 123.351349 -54.958637
-74.236961 123.646690 -64.265816
42.871155 126.688606 -65.052948
117.452728 126.221909 -59.768959
117.188332 130.504211 -62.086697
-78.852409 135.311218 -64.763588
109.417831 130.429169 -64.168358
-66.888557 145.537537 -65.178635
-88.755760 136.910492 -61.228306
-73.560600 138.668823 -62.912838
-56.530743 133.700333 -58.206192
37.753628 139.919754 -64.227303
44.326637 143.840057 -63.516251
-73.998970 143.911133 -66.392609
29.094576 138.724289 -61.960060
104.880363 143.375778 -68.350784
-36.903465 158.971329 -65.811615
26.248840 154.312561 -64.346275
110.221359 155.772247 -57.540958
36.370560 153.617661 -67.772079
111.891045 153.137741 -67.571121
-55.033443 156.565628 -65.221275
-65.869652 159.022339 -68.481171
-53.389492 163.850174 -68.718285
-45.498501 179.190552 -63.490582
0.928435 162.134125 -62.567947
110.473404 163.722488 -58.978889
108.009483 171.306213 -62.963955
10.225644 169.800491 -58.407757
0.610202 168.886185 -63.372799
15.466247 169.618652 -60.535965
20.206800 156.577728 -63.490242
117.337669 174.487869 -70.425255
107.215561 183.314911 -67.561134
28.058672 183.195908 -63.934689
28.116585 174.312302 -63.409035
116.631615 171.510117 -65.164803
-31.497841 182.932617 -62.555386
114.021454 180.762070 -62.927479
22.067099 189.491226 -58.686283
15.320252 174.423203 -68.359772
109.064110 188.282516 -63.623306
23.602055 179.134476 -65.277122
110.731033 190.169739 -60.768375
-40.360489 186.802124 -62.018265
28.049870 180.755066 -60.777691
109.131622 195.692520 -64.199821
24.968365 185.310654 -61.797493
-152.928940 188.751083 -59.453590
-32.777355 197.562546 -65.390511
25.703470 195.403366 -67.208641
-112.553368 205.180527 -64.321068
-113.285973 199.205658 -66.521790
21.929653 202.831436 -60.267925
12.633523 196.310867 -66.001709
-25.773113 201.854019 -68.260582
-27.180887 195.624603 -65.150726
-24.369932 195.054855 -67.023956
22.428173 187.673920 -68.974922
-153.203033 202.552185 -63.557152
-146.447083 211.208160 -67.026176
-141.112717 201.573502 -63.822262
-16.899437 201.224091 -60.062115
16.987822 208.118454 -64.393997
99.336678 205.931854 -66.689308
-115.792351 213.967438 -63.725460
16.493073 212.239639 -61.810837
-15.411079 204.389099 -62.852898
-18.202145 204.129013 -63.297215
96.294586 211.403122 -64.280670
8.359753 207.588089 -67.660530
-27.531174 203.538818 -63.787823
-120.906258 212.414688 -66.206467
-134.096909 208.096588 -62.216686
-108.073067 218.150299 -61.314472
-146.450302 213.804398 -64.514053
22.142920 206.668320 -66.703598
96.348747 217.749908 -68.428078
-166.250320 216.088272 -63.070015
102.339935 212.564163 -65.407425
-14.736688 220.864182 -64.217323
91.028717 223.955963 -72.891602
92.353195 228.525528 -61.638988
10.693010 221.180679 -63.011253
14.757920 219.832626 -65.272392
9.879207 222.961197 -65.192268
-8.252692 227.723694 -63.028358
-98.884003 228.736511 -63.387218
-6.363027 230.731827 -67.229607
92.393387 223.233353 -63.512974
-91.564064 231.524078 -67.853424
-101.188637 230.802338 -67.690430
-95.476212 228.940704 -61.973938
90.191353 231.282425 -69.912857
-133.977875 236.962845 -68.317566
-131.946381 242.691666 -54.810268
-120.140289 237.806732 -63.627834
-112.429955 234.955338 -61.770390
-131.316315 229.264816 -60.700161
-105.727936 237.001266 -73.128448
-113.908623 238.217316 -59.780945
-12.675138 233.197693 -61.229382
-20.760221 236.570847 -67.966354
-0.434184 242.811310 -65.376503
-7.745155 239.254761 -62.324005
16.468575 241.092392 -67.328552
-18.500864 236.346802 -66.392593
-159.262314 233.032074 -65.403641
-1.780365 239.229309 -63.579906
83.356232 237.999390 -66.160736
7.963810 246.822540 -62.858215
-10.424664 236.307404 -63.573193
-154.145676 241.380707 -58.846760
-137.165985 243.342728 -66.875870
71.263451 246.088898 -59.878361
-7.513915 242.513992 -63.497932
1.085744 245.102219 -63.029896
74.705193 249.361008 -64.524292
78.033913 246.321030 -66.052277
66.295319 244.663651 -69.292656
-2.850123 244.866440 -60.955418
54.509781 247.330490 -65.050972
-14.600168 247.897156 -63.706440
-14.750691 249.176620 -62.177990
9.744077 248.052200 -65.351372
66.892891 256.494476 -64.436668
59.459354 248.496735 -65.599503
54.454029 256.494995 -60.078876
62.603085 254.150848 -68.366318
-16.780855 255.013489 -60.605518
-83.751839 256.332977 -60.944626
-77.089256 263.281067 -58.927120
41.666908 260.465881 -64.191154
-142.270081 257.904846 -59.467625
41.802361 268.880402 -65.349014
-83.267899 261.592957 -65.061409
-153.048584 266.039337 -65.309166
-143.895111 265.520782 -62.816795
48.839859 260.980682 -66.577682
-127.482681 260.559204 -62.460342
-117.641464 265.951721 -64.095131
-95.782372 262.483673 -63.794739
-17.505865 263.893188 -71.704788
32.755413 269.551300 -65.403305
21.107515 271.167358 -69.438736
-154.891205 264.411407 -63.252712
-112.412819 273.752655 -63.881695
-11.216066 267.666290 -66.245499
-134.290024 275.433868 -62.691521
-11.459691 282.534851 -62.352386
-160.971161 289.743195 -63.844910
-9.272082 284.488922 -59.365440
-163.036667 300.739594 -61.380932
-156.426392 286.779358 -63.670551
-151.655960 295.077850 -61.884892
-169.382996 292.857422 -62.881001
21.326622 297.690430 -58.777607
-104.954514 295.910919 -69.487442
-88.456741 294.845337 -62.016308
-170.618591 293.499847 -63.113007
-88.364792 299.725250 -66.464928
-157.586288 299.093475 -69.828316
-75.708572 302.282227 -66.737793
-66.499779 299.933868 -64.595161
-81.419281 299.944489 -62.445354
-2.180953 296.809540 -59.056797
-84.199142 302.032562 -65.671402
-96.559380 300.778198 -64.960815
-118.203506 303.039001 -62.851563
-115.867729 305.449860 -61.705441
-139.653290 302.078705 -58.382805
-141.195190 309.336060 -72.312752
-145.049881 320.338989 -70.155304
26.220222 27.317621 -64.020065
29.600994 34.439137 -60.118095
30.355511 26.190807 -67.867760
47.280376 36.983940 -65.855881
20.529207 41.122326 -66.503525
-80.923721 60.924450 -62.145458
84.202309 74.465019 -63.619129
-11.928603 76.884140 -62.653107
101.902229 81.201912 -66.905403
95.185005 89.054108 -59.254829
74.331535 92.354637 -70.386414
68.333344 96.930923 -61.484432
-50.117962 91.502342 -62.188488
58.860752 90.210091 -64.063019
-100.205566 98.674690 -63.827763
-48.157963 98.498344 -64.293533
-56.832954 93.095528 -67.353043
95.051376 106.375496 -64.690880
56.234737 112.231407 -64.888611
61.148888 100.925186 -60.354012
-94.362999 104.329979 -62.277298
109.436340 103.022385 -59.889690
47.852730 102.662361 -63.457840
101.768311 106.451324 -61.402222
106.383812 116.611832 -63.304741
100.063530 112.924126 -62.208809
75.368889 114.320251 -62.755634
85.338852 117.380783 -62.921196
46.044891 119.535034 -66.958870
107.348991 117.562164 -60.974419
47.232719 119.284500 -64.492081
47.152290 110.972244 -60.757141
106.012245 126.973343 -67.036934
-79.336861 116.731827 -59.295494
47.899910 124.226624 -61.131542
35.248955 120.697243 -64.587891
107.382240 117.170387 -65.402184
43.394585 123.127403 -62.892056
-89.720047 129.261093 -61.896572
-97.907166 126.223328 -62.035172
109.454025 132.594711 -60.670715
-91.593491 125.322449 -67.809326
39.929642 133.203674 -62.644218
36.922737 126.461632 -63.223106
-77.831284 132.356354 -65.048225
28.148926 137.151413 -59.828194
109.492737 143.862976 -63.497646
-46.913101 148.881897 -64.253212
-89.221092 141.197662 -64.957870
34.728512 148.381027 -64.239639
-85.822151 145.167877 -63.917122
-90.761131 143.779221 -66.548439
-47.249752 144.831268 -66.318039
-73.042931 147.910095 -64.780540
-49.578350 148.797485 -63.421150
114.497520 147.572891 -61.071346
-75.030617 150.556290 -57.731258
36.245537 138.160461 -65.360535
-74.726685 148.217133 -58.111954
-79.379120 141.128143 -62.062302
-86.734970 145.012589 -64.731461
-58.384708 161.872238 -62.245712
31.561638 161.434525 -61.245857
34.459545 162.192886 -63.717487
20.794970 154.681427 -61.843536
113.490959 160.386642 -67.948036
-97.932915 166.318008 -71.412399
17.882694 154.446762 -63.847870
-68.623634 155.038696 -66.884705
23.273600 158.141388 -61.791546
-43.272488 162.652786 -61.192257
6.599365 157.130295 -59.338024
6.087461 165.249268 -62.025028
16.573254 171.037445 -62.204872
-46.512173 174.956573 -64.930962
-41.183872 162.052078 -56.269627
-47.473560 165.103989 -61.698746
-99.694252 178.973938 -61.856140
16.317575 180.669632 -58.653507
-37.801476 183.807907 -66.090492
12.260026 187.663635 -53.950306
-146.844910 180.028564 -68.712914
-35.344051 185.358124 -57.705002
-151.283432 185.722610 -58.916924
18.136005 190.242096 -65.230804
-33.785366 180.346008 -69.400566
-108.423401 192.912735 -66.904175
-103.625153 191.936905 -63.255390
-35.176842 189.238235 -60.903748
-16.519693 199.372116 -63.306007
13.379753 198.656433 -64.561401
20.667238 205.851120 -63.260384
18.415766 197.578827 -56.223423
-138.765717 193.827606 -63.078182
16.284840 204.505661 -63.342812
10.393046 207.667999 -64.282974
-140.537476 206.211700 -59.907070
-118.610764 209.938812 -64.787537
15.804336 208.088806 -60.286133
-111.784218 200.690918 -66.648933
-109.082893 201.490891 -65.773071
-162.689941 211.360550 -67.059662
-15.129950 214.291153 -69.928436
16.066936 212.118820 -58.376896
-137.564865 207.667221 -58.929516
-134.410339 218.448425 -64.840752
-19.351831 216.249176 -61.358696
-12.205586 214.032990 -60.107845
-14.232482 220.428726 -65.618011
-146.489716 217.961029 -66.972771
-21.456667 210.532776 -66.090103
-12.217604 218.339783 -59.890533
15.437953 218.021378 -62.124008
-10.604789 216.785522 -63.627911
11.157594 222.097855 -58.431335
-6.730148 226.805008 -66.775925
-14.366134 220.263290 -67.058563
9.798594 235.480408 -63.285496
-5.237200 228.177338 -63.786816
13.108241 231.297348 -61.625565
-4.156441 232.603104 -66.345665
-159.363266 229.914795 -64.205902
85.568024 231.391418 -64.614334
-134.280457 230.197479 -62.641167
-134.062225 233.849503 -62.766342
-7.934879 238.318802 -63.100971
14.056506 244.465317 -66.360970
-149.603851 230.114197 -61.157024
85.154953 231.669037 -59.670597
-8.649190 233.306091 -63.851151
4.038042 237.077713 -65.351677
71.166862 237.925552 -62.358662
5.525488 241.814819 -66.006157
-17.905132 240.486603 -59.736641
-119.790245 246.861084 -67.896812
-5.267326 247.872162 -63.452332
-1.205401 242.188721 -65.191093
69.265938 244.546967 -65.411667
-162.857452 247.917465 -62.979633
-8.783885 257.015594 -61.702595
-165.642349 249.182953 -65.199829
8.558640 254.558823 -64.898544
-166.964844 247.418396 -62.973064
-154.693710 251.684250 -59.218651
54.446365 263.122803 -69.047081
63.693008 253.499481 -61.018536
54.156136 252.884460 -62.776211
49.728222 257.765045 -68.115074
-160.598389 255.523422 -62.480785
-150.934250 259.614929 -64.197823
-15.579121 256.045929 -62.865952
-154.402756 257.069641 -61.497742
20.642523 266.541229 -66.174370
-164.928192 260.787689 -61.873016
-169.860474 252.579254 -56.667839
-79.734055 261.486847 -60.886513
-171.873993 275.491547 -64.463875
-85.979713 270.539368 -65.292503
36.021519 258.315887 -57.136799
25.037811 265.637024 -67.369301
-157.166901 268.066010 -59.557461
-102.341377 270.742950 -59.163219
39.663536 268.221161 -62.287716
-100.866692 268.076874 -63.326920
-150.824356 267.072449 -60.767879
-106.385109 266.843170 -59.754578
-161.953918 267.584229 -63.294247
-113.169594 271.342010 -64.465172
-154.751999 278.601044 -64.509720
-157.222382 272.407867 -65.937950
-167.021790 274.558990 -67.369919
-159.026566 275.053192 -63.683502
-165.568863 277.961426 -59.135750
-164.003540 276.681885 -56.701294
24.169390 273.064850 -64.544853
-148.188660 277.699219 -61.164852
-148.447525 297.867035 -61.130737
17.962242 289.567719 -71.309090
-7.154783 285.481903 -62.227898
-126.105850 294.387634 -67.680588
-137.293701 298.729156 -70.806938
-138.050552 295.749359 -64.515198
-129.776077 294.092529 -58.952446
-115.763199 298.529785 -62.713615
-108.059258 296.572693 -66.324417
12.734567 302.073547 -61.888912
-90.741798 293.804626 -61.678925
-145.125061 305.151154 -65.207680
-98.924217 297.671204 -60.678967
-129.697266 301.591919 -62.776142
12.606126 297.892059 -70.459999
-115.448555 304.123657 -67.058495
1.845109 297.588257 -64.176994
-142.302475 298.121399 -66.246178
-156.669815 312.285858 -66.463890
-165.475983 316.849731 -64.459366
-152.328278 320.235748 -64.555740
49.221828 34.695755 -69.150314
19.552914 40.578625 -63.913765
35.436996 47.487652 -65.208748
-50.587788 61.769955 -61.613670
-12.713659 71.298775 -60.437778
94.297043 85.251358 -69.518234
66.206772 76.149742 -60.627537
-19.411486 83.721375 -64.507133
-92.763374 90.350868 -61.421631
-37.596176 89.667046 -63.684696
63.585766 89.280136 -64.636642
55.768726 92.051559 -70.623276
57.563347 96.247581 -65.825516
-55.614895 93.339462 -66.328903
68.873566 96.665680 -61.699261
45.145744 105.192589 -68.838432
66.806526 98.743294 -67.580544
-62.460030 106.882439 -61.521301
55.339798 106.547546 -58.227825
47.362938 106.870720 -65.724617
103.993378 103.213684 -68.017921
-70.199127 108.612183 -71.057945
111.003174 110.997421 -65.686310
-80.382286 102.744919 -60.763500
56.691166 116.985504 -65.252159
50.588314 111.466484 -61.589771
96.495514 107.523842 -62.994781
88.492172 124.361366 -54.141338
57.087582 113.382401 -67.730370
-68.781937 114.006691 -64.816246
-80.655426 118.492409 -64.498642
-84.958282 129.693481 -66.708511
-94.776131 124.683289 -73.299004
101.283638 123.555893 -65.879135
-86.219765 129.257568 -59.425625
-79.684502 128.876022 -59.835804
111.489891 125.866669 -61.144978
-62.932823 126.637222 -57.195690
112.235931 140.531952 -67.463440
107.742477 139.741592 -63.089214
113.110146 125.528160 -63.074127
-93.938751 142.325806 -60.428009
-53.557289 147.808594 -57.757545
-75.774658 155.856583 -66.226265
-68.364609 160.248184 -59.601048
-73.700722 152.802765 -61.243538
-52.906521 157.477829 -58.031910
-47.437298 162.139496 -60.048580
20.066387 154.126526 -65.789024
-94.573692 166.229797 -56.629261
-42.835052 157.193832 -67.226921
-54.973995 162.191406 -61.724594
-44.790066 165.409683 -57.251225
28.281487 168.124130 -68.219231
-47.902283 165.960938 -62.460690
-95.565392 157.278793 -64.041534
-41.900043 169.644562 -61.718060
25.176313 168.052063 -59.967350
-100.071381 173.732498 -63.865479
22.143814 168.244873 -61.313583
-103.845428 180.726089 -55.699467
-100.252968 173.632156 -57.526455
22.742611 179.087479 -55.867004
25.637665 176.881958 -59.858391
-107.404747 183.402115 -65.299072
-144.321579 184.654282 -62.232536
-25.182350 195.906097 -60.401485
-20.824099 192.952362 -58.869938
-113.094475 199.124008 -60.128254
-140.464005 198.580093 -61.695175
-104.742798 189.477798 -66.684227
-148.979187 208.439529 -67.467064
-128.069000 201.707260 -65.847954
-137.477631 204.625290 -61.197708
-21.401310 202.766846 -56.411514
-119.253899 200.193466 -63.174793
-113.268471 203.337830 -58.917316
-16.427614 202.761490 -66.450592
-154.187134 202.373734 -57.499199
-136.361755 221.570618 -64.891014
-123.139336 213.112396 -58.297470
14.622248 214.761627 -59.563431
-160.699753 215.069397 -62.917118
12.154918 219.541595 -66.781998
14.487043 223.490814 -69.952438
-18.194672 218.259308 -62.166164
-5.603653 221.928970 -63.552521
-166.633972 223.258804 -63.395287
-158.765869 227.776505 -59.515453
-103.539085 227.234665 -63.436058
-99.960648 236.880402 -60.211407
-157.431671 228.416595 -58.999859
-106.852783 231.750839 -62.114876
-17.504265 227.614410 -65.025055
-123.822235 239.315750 -61.308205
-145.372620 232.452820 -65.315552
-8.441059 238.138382 -66.768158
-131.558594 235.841461 -59.272556
-125.873901 236.535065 -55.790119
-110.006615 241.194885 -64.737175
-0.816870 240.212250 -62.470066
-108.523712 235.921310 -59.260223
-157.486740 230.397171 -68.768845
-146.030548 234.571243 -68.198471
-164.374313 237.588272 -63.049866
-6.527957 238.230194 -61.128448
-9.434775 239.495987 -50.754562
76.767647 236.664886 -51.691299
3.682464 243.968491 -59.089485
-143.534943 242.641190 -60.318653
-12.031605 239.823944 -64.942162
78.176704 231.229706 -68.452667
68.296059 240.885010 -63.005260
-128.555756 239.734421 -62.013500
-161.000122 236.197342 -61.407047
-110.110535 240.518585 -57.653584
-118.245720 242.771149 -61.188129
-169.905121 242.711609 -56.669735
-157.978027 248.309174 -59.653561
-132.888672 251.087296 -60.641579
-9.806133 241.681290 -69.167244
-2.238459 253.949173 -60.708313
-159.965637 252.011169 -59.122524
9.673155 250.352463 -66.161873
9.890720 249.738083 -60.734707
-164.411545 251.858582 -61.031960
13.115022 251.427444 -62.018078
51.951275 258.001434 -61.210049
52.891994 263.175629 -58.355465
-5.382399 254.020325 -63.386959
51.187828 254.963684 -59.775990
-162.177032 265.751617 -62.630302
-165.165390 258.594604 -58.963833
-163.664230 255.410034 -64.545914
55.842133 264.873199 -59.905758
-90.280678 262.354797 -66.575317
-123.506561 261.248260 -60.519245
-107.851807 263.269318 -64.171173
32.304428 265.574188 -62.550945
37.722969 263.833252 -63.620823
-95.848022 261.579498 -62.146652
-91.511169 266.796906 -60.513046
45.548897 266.383789 -60.099339
40.320469 263.263458 -59.506077
-157.135223 269.862305 -63.080063
34.016434 262.515991 -58.310516
-137.726929 275.552002 -63.925625
-118.080421 268.124329 -57.767265
-130.893768 275.999786 -58.233929
38.026627 274.067200 -67.539665
-127.748726 273.257782 -65.689896
-9.304310 265.640869 -58.379341
21.361296 285.335388 -65.006775
-14.066346 277.595673 -60.676102
25.663837 294.725189 -58.150223
-149.133698 292.433472 -64.438110
-11.586114 284.349426 -66.697311
-153.687378 299.526825 -64.839684
-126.830368 294.050018 -61.009159
-160.842026 299.545197 -63.583508
-123.978500 294.907684 -61.484100
-106.084038 300.472382 -67.025604
-8.585673 299.357239 -62.826019
-111.327316 303.930725 -63.169601
-118.678032 299.881866 -69.245842
-122.614632 300.935547 -66.124199
-137.486786 299.735352 -58.975750
-124.337212 303.296051 -67.500496
-159.951752 298.116455 -63.408520
-144.828690 306.703125 -69.864006
-152.803360 306.239075 -61.601009
-154.046753 314.935303 -58.961876
-159.891022 311.259460 -59.847202
-147.880966 321.878204 -64.793114
-149.433502 322.965698 -64.238823
33.858231 27.698275 -61.849228
45.316788 29.206430 -64.644310
32.345329 42.081276 -58.336735
52.934597 40.229744 -59.784977
33.226490 47.693008 -59.069622
43.433102 44.699585 -67.882088
-53.362076 54.363464 -62.601768
86.113243 67.836761 -61.595264
85.982742 75.728142 -60.875591
-93.667152 73.796036 -57.189194
-13.585416 70.263847 -59.474575
-84.865166 76.253510 -66.004333
98.338234 78.526428 -59.569191
-15.694132 76.059639 -58.479836
69.950668 87.793091 -64.050888
-38.736359 86.332680 -63.856079
-28.920744 90.433945 -66.138725
56.419285 96.699448 -57.168026
-46.673153 98.276733 -72.312119
62.194557 88.498055 -56.480560
54.348198 93.781448 -59.951244
49.826424 101.603653 -66.288177
67.384315 102.162773 -60.017700
59.403942 109.481369 -60.563393
105.162758 104.467064 -56.630314
104.498444 104.713524 -66.251801
58.781090 107.396629 -66.791016
110.546082 110.038185 -59.985317
-69.897812 109.748466 -70.527008
-70.730995 113.398926 -65.866295
106.749290 105.946739 -67.395920
55.452587 111.650215 -59.883602
72.560997 111.870857 -64.720009
-66.246124 108.874634 -52.109280
-78.401764 116.158592 -58.761402
96.366127 121.767654 -59.831108
44.189579 112.264618 -62.056084
101.859367 111.027977 -62.059845
44.309719 119.514801 -59.660660
115.602814 119.346863 -57.523994
-86.205925 116.751259 -55.830662
105.365257 120.547165 -55.963703
-85.954544 124.194412 -57.358452
-57.886433 132.521317 -63.514610
-59.602097 139.014114 -60.507690
-71.988358 140.283081 -64.578659
-48.735298 140.788254 -63.427933
-86.932831 143.486450 -61.760715
-77.765312 144.467438 -66.286499
-86.195572 137.924423 -62.270409
-52.745209 146.667618 -65.665291
-71.336693 148.711990 -60.427517
-59.625980 143.819946 -61.909550
-63.487171 146.657272 -64.142570
23.402126 149.248001 -65.444756
-84.470795 154.225937 -65.239304
-45.169563 158.037796 -66.345009
-97.628441 159.930893 -59.132568
-103.136314 162.465942 -60.104973
18.429798 163.569855 -68.521873
15.786550 170.444748 -66.645859
-101.178375 169.515396 -62.693302
-98.407791 167.605637 -59.219276
-92.936386 177.387817 -60.779217
17.879280 180.569855 -58.248898
-114.831490 175.350525 -66.084854
19.490908 178.609528 -64.747635
-144.307098 188.547958 -66.036407
17.335373 185.778229 -61.971581
22.551682 197.164566 -64.510567
-152.971512 197.485947 -58.888454
18.605555 190.225998 -66.420898
13.769834 187.038284 -60.598320
-135.720688 202.879654 -70.695885
-150.644470 199.615921 -65.072372
16.300411 199.455978 -61.099270
21.979219 194.814331 -59.330086
-147.211472 201.782333 -61.247154
-108.412148 202.535660 -68.045959
23.102045 205.726852 -60.877720
-126.543396 200.399734 -57.664776
11.405011 207.581329 -64.406708
-132.077942 205.106033 -57.650158
-148.442017 202.024582 -62.471638
-161.467438 212.400467 -65.786301
-163.114716 212.404160 -60.010326
-19.015720 214.742157 -58.435307
-166.379974 212.030075 -61.283123
-19.744078 204.548386 -60.526318
-15.811186 206.880295 -60.385811
12.076618 205.193222 -61.997952
-158.356628 205.733658 -58.223179
-110.597801 211.861160 -59.633087
-15.937821 218.449326 -66.008987
-154.932571 208.728165 -64.172874
19.464975 209.193771 -57.650776
-162.914963 208.214722 -62.010696
-120.022026 215.202774 -65.449875
-107.967216 218.503693 -61.137718
-127.097679 218.717300 -56.893761
-14.093481 211.479202 -66.002411
-20.076490 213.342072 -58.242954
-161.412994 218.737122 -58.220764
-160.357712 222.279526 -59.624252
-165.805557 227.756485 -63.658321
-149.973984 216.242172 -65.774612
-143.188766 234.212921 -60.271152
-6.590532 230.489929 -59.521275
-15.070329 228.790924 -60.568157
-102.210228 232.192047 -61.504829
-7.895326 227.222595 -60.198372
-164.885254 235.300415 -60.282780
-115.133781 242.096329 -56.469440
