# This PCD file was generated using the MATLAB® pcwrite function
# from Computer Vision Toolbox®.
# .PCD v.7 - Point Cloud Data file format
VERSION .7
FIELDS x y z
SIZE 4 4 4
TYPE F F F
COUNT 1 1 1
WIDTH 1415
HEIGHT 1
VIEWPOINT 0 0 0 1 0 0 0
POINTS 1415
DATA ascii
-124.722214 -71.922974 -291.513489
-161.733536 -70.047630 -292.168884
-135.797409 -71.229065 -292.455170
-160.604675 -71.794167 -293.476685
-124.154411 -74.416428 -293.555511
-126.220917 -73.012253 -294.231689
-142.658142 -71.573242 -294.443634
-155.599533 -71.410599 -295.991913
-155.701569 -73.122368 -300.341064
-155.211502 -69.326340 -301.174530
-143.707962 -71.081375 -313.609070
28.602705 -70.053200 -13.251475
49.365849 -70.311531 -21.216576
19.885513 -71.668747 -27.107975
44.136288 -69.575478 -30.107054
41.523666 -71.209221 -31.228886
48.350494 -70.003006 -35.890759
25.700695 -71.566841 -37.486897
-54.815277 -69.239006 -47.846539
-57.730511 -70.600151 -48.055138
-68.297112 -71.137070 -48.900974
-73.350746 -70.185272 -50.628220
-90.209900 -68.290970 -63.245102
-15.705375 -70.760651 -65.128159
83.172264 -70.238106 -63.978386
85.869385 -68.900246 -66.061554
76.681892 -70.226135 -67.181900
74.213364 -69.870087 -67.623550
93.980179 -72.617516 -69.753281
94.226143 -72.939468 -73.303749
-92.600456 -71.495163 -70.903000
72.606186 -71.622711 -71.554146
-93.204834 -70.196465 -78.212547
-35.747452 -70.385406 -75.476791
-29.254322 -74.227654 -77.939354
-44.489033 -73.058945 -82.047882
-96.544823 -70.354370 -87.471626
54.149307 -71.022507 -86.992455
58.346504 -69.824066 -88.883606
100.970985 -71.757164 -87.820229
-56.999130 -71.499321 -90.049431
61.782227 -69.458794 -87.794350
97.660149 -72.766228 -95.887787
47.692234 -70.674957 -97.537086
97.641441 -71.204338 -96.774712
45.992081 -70.485786 -97.436707
104.141762 -72.832596 -95.841812
59.987411 -71.163895 -97.641754
69.713150 -70.635406 -97.359833
105.105881 -71.342407 -98.412338
69.127495 -71.472595 -97.204041
-74.732277 -70.410835 -98.690857
-72.763870 -72.689163 -101.999222
54.890472 -70.135841 -99.533112
97.731255 -69.431114 -101.760941
103.634819 -70.987091 -102.787651
105.376991 -70.196854 -100.833885
82.435715 -71.263481 -104.076744
110.580284 -71.438255 -105.261002
51.848114 -71.607086 -104.221825
89.021751 -71.344444 -104.030029
81.393456 -72.172073 -105.358421
43.087528 -71.286827 -107.387314
107.692520 -70.363892 -108.271049
49.421394 -71.470566 -111.698524
48.410824 -70.153267 -106.597328
-78.085915 -71.079048 -113.147636
105.117760 -71.074806 -113.557549
105.689011 -68.043991 -109.710350
42.350266 -69.281601 -110.433960
112.184158 -71.208488 -111.898193
44.683319 -69.773407 -111.090057
109.103493 -71.049202 -112.250595
107.564285 -67.575569 -112.730690
-79.238350 -70.196915 -114.295830
-77.796875 -70.674629 -114.789619
42.856796 -69.443428 -121.018944
-83.825935 -70.757339 -119.819962
46.440346 -71.259155 -119.472893
36.774891 -69.477318 -113.648651
114.636215 -71.479538 -116.179291
114.544586 -70.971344 -123.890701
-80.127541 -70.692711 -122.902153
40.697731 -69.419693 -123.299095
108.229622 -72.216743 -125.285141
-84.939873 -69.721146 -128.991455
-78.376488 -69.211853 -126.440483
-74.904320 -70.502380 -127.959427
33.685047 -70.358360 -122.592674
-55.151932 -69.513260 -129.121979
-60.404617 -70.098335 -128.710297
-55.042267 -70.327850 -129.346100
-88.531639 -69.264397 -131.318893
-75.890610 -69.776169 -132.587814
-79.655212 -70.578537 -133.478119
-53.674736 -70.720741 -133.152176
109.253204 -71.847015 -133.798538
-88.719360 -69.983536 -135.233414
29.742231 -70.093437 -132.512268
-75.118942 -69.892632 -135.749649
37.463165 -70.855415 -137.015381
-76.605873 -69.541809 -135.110504
36.174122 -69.555458 -141.413605
29.741056 -69.511307 -134.391739
109.838997 -68.723755 -136.016846
-48.420521 -69.123032 -141.400955
28.036091 -68.144608 -143.314209
-73.342270 -69.969017 -142.346558
-68.591354 -69.564766 -142.537186
-44.469566 -70.839966 -148.051224
34.966480 -71.399513 -145.335953
110.598038 -71.390587 -142.128723
-43.004211 -70.903511 -144.296722
24.746407 -68.529373 -148.436127
116.815987 -70.091942 -146.790649
34.125813 -69.454422 -146.949188
111.019073 -68.951920 -143.680527
-55.023197 -70.373116 -143.922653
23.375305 -70.988434 -145.749466
-76.071617 -69.385635 -147.105957
-55.047443 -71.568642 -148.610382
-69.349419 -70.466187 -148.771713
17.966375 -70.316757 -146.964767
-46.428871 -69.853287 -147.866577
-53.431248 -69.077812 -151.282623
-51.012909 -71.019722 -152.488266
24.639959 -68.927330 -154.144913
113.163208 -69.009163 -148.959961
-68.836693 -69.923698 -150.239456
-46.683853 -70.785614 -149.528961
-67.874733 -69.487434 -156.054581
7.646973 -70.353065 -153.121109
6.932212 -69.253723 -156.978470
-42.311588 -71.295769 -161.624039
-48.794216 -70.088943 -159.453934
3.958540 -71.262306 -158.043304
13.588454 -70.005707 -156.702728
110.781822 -69.438660 -154.874359
115.324448 -70.784088 -158.775238
109.963303 -69.658630 -159.096985
7.653385 -70.306381 -159.599655
8.795845 -71.161362 -161.015289
16.475883 -71.104477 -157.260559
14.948454 -68.935616 -158.178787
22.929375 -69.228439 -158.871964
114.149467 -68.724655 -157.039047
110.799332 -69.939171 -160.015579
112.529121 -68.570038 -167.228195
25.818213 -70.167175 -162.238480
107.952797 -69.377289 -165.017456
23.995722 -70.278938 -167.401413
26.875317 -69.218964 -166.776505
112.680229 -70.201141 -164.823334
110.432213 -68.360176 -168.683899
-31.113800 -70.649826 -168.319595
108.108276 -68.645851 -170.928406
17.450348 -71.465050 -171.217514
23.289608 -69.457558 -166.045685
112.279007 -71.389671 -175.250443
111.287247 -69.227501 -170.469666
18.380466 -70.945259 -177.332230
26.320482 -69.866417 -170.876694
-35.555340 -68.901878 -177.701965
108.574249 -69.669754 -175.469803
-104.785316 -69.368919 -175.717667
-141.173889 -69.954613 -176.222305
109.635979 -70.624184 -183.084717
-33.478317 -70.264984 -180.696869
26.991013 -68.667648 -179.776749
15.657032 -70.638870 -178.695999
108.671402 -72.108261 -181.868225
26.613441 -69.555847 -184.014450
23.581425 -71.589043 -180.810257
-152.264587 -69.025360 -182.447357
-33.051609 -71.127182 -184.889313
-110.628693 -68.743561 -184.549911
-30.343582 -70.128281 -185.216675
14.640388 -68.926323 -181.860321
22.890409 -69.699669 -187.427979
-110.163528 -69.288620 -186.735580
-108.816536 -70.593231 -187.502701
23.225718 -69.742958 -188.154526
104.891373 -69.938599 -187.775513
12.677506 -70.642662 -184.723938
-25.037008 -69.996086 -190.313950
-28.879313 -69.456451 -190.042511
-24.203075 -71.096024 -187.001770
15.709651 -70.620430 -186.737549
20.328133 -69.411201 -194.580231
-150.532547 -71.728325 -192.660751
-144.134995 -70.349861 -193.332260
-16.711981 -70.018677 -192.638031
-124.836823 -69.501701 -195.576874
-22.008442 -70.501175 -190.190506
-141.180298 -71.832138 -195.841415
-21.717346 -70.274834 -192.134705
14.331202 -71.334694 -196.979675
-162.459305 -71.425934 -196.132050
97.914940 -69.758003 -195.889450
-113.373222 -68.619781 -197.750031
-24.368486 -70.049225 -198.813980
23.073032 -70.018394 -197.105606
-17.392071 -69.935631 -196.565521
12.565429 -70.446693 -200.001205
19.187931 -69.856613 -193.669724
-18.934601 -69.631020 -198.306793
99.322220 -69.578934 -198.179031
9.315378 -68.241013 -198.508240
-111.704590 -70.890625 -201.846664
-21.739969 -68.446831 -195.514236
-120.440758 -71.296997 -202.857101
-134.407928 -70.586853 -202.913574
-122.147095 -70.360603 -203.598175
-112.126991 -70.842918 -203.343338
9.484350 -69.639374 -204.551956
12.948870 -67.895882 -201.772858
-141.600037 -70.696716 -202.975983
18.237865 -70.525497 -201.952698
-141.246597 -70.436417 -204.876144
-23.906948 -70.915421 -196.297638
-11.583705 -69.812126 -206.002670
15.854330 -70.001945 -206.455139
95.037384 -69.406517 -206.101974
-168.307083 -69.881950 -208.919571
-7.808545 -70.452148 -207.584991
100.785591 -71.032066 -205.499084
-20.345644 -70.674141 -206.180862
8.093548 -69.391174 -213.205658
92.668404 -70.289055 -211.369003
-19.537054 -70.381187 -208.399475
11.987065 -68.905434 -206.013809
92.944649 -69.231392 -212.641006
14.514707 -69.176888 -202.666107
18.484161 -72.154938 -207.828354
91.470871 -69.887512 -212.129578
13.729826 -70.162971 -212.438843
16.714205 -70.484444 -213.721588
-18.414989 -72.368393 -212.749496
12.402236 -69.839333 -213.023941
-142.476471 -71.166412 -222.004181
-11.066284 -69.220612 -217.812363
87.155243 -70.388519 -214.630539
-15.854759 -71.511147 -213.975311
-92.496971 -70.232574 -216.152802
15.182953 -69.822624 -218.072540
-94.737473 -71.195869 -218.297852
-8.721143 -69.202187 -214.360031
84.598602 -69.146996 -217.561172
89.402412 -69.780289 -215.469482
90.487122 -69.712822 -218.112137
-95.108101 -69.243500 -220.892471
-167.066452 -69.819092 -220.041763
-102.818901 -71.144073 -220.238235
-94.599304 -71.868393 -222.627502
15.997311 -69.357742 -219.579895
0.567458 -70.802177 -220.244507
87.962387 -69.787804 -221.574615
-134.580170 -69.616219 -224.234055
-133.858643 -69.157982 -224.832916
-116.028473 -69.825699 -225.121490
-109.980721 -70.256546 -223.224472
4.208859 -71.054123 -223.655060
-133.983475 -71.846504 -224.970123
-111.380890 -69.137962 -224.602936
-16.652546 -70.690331 -223.790161
-8.073989 -72.174370 -228.518066
76.183395 -71.152779 -226.242874
-113.902679 -70.845741 -228.427689
-6.049647 -69.849838 -225.619080
-16.247139 -69.889275 -225.125137
-3.116277 -69.963982 -229.715302
-1.854073 -70.403053 -225.412933
-9.050812 -70.057846 -228.438858
-105.806923 -68.897804 -228.057510
14.556931 -70.817551 -229.738724
-17.825155 -70.650848 -226.301987
83.250153 -68.854889 -226.528641
-166.913864 -69.462158 -229.942230
-112.648567 -70.088837 -231.393097
8.044120 -70.934273 -229.975067
-2.191309 -67.742058 -233.770309
77.951813 -70.601540 -232.621048
8.888259 -71.399963 -233.598007
-15.163744 -69.305077 -230.314774
-114.845253 -69.856453 -232.239685
-134.263931 -69.818474 -234.213791
12.526119 -70.624786 -232.203247
-152.857483 -68.753326 -233.866379
-7.034739 -71.089287 -234.236038
-155.453049 -68.368073 -236.937973
-140.313858 -70.443428 -233.036789
66.094002 -70.486496 -232.828156
-5.716283 -70.149132 -236.378296
5.110231 -73.364258 -235.146500
68.871941 -70.581642 -235.265869
75.921997 -69.893959 -235.059189
9.878631 -70.738358 -237.430573
67.306145 -70.774940 -239.428696
70.748871 -71.935532 -240.481247
-0.767470 -71.996605 -238.930817
64.547668 -69.726654 -238.449005
-2.411644 -70.816032 -238.894592
62.293705 -68.629311 -238.467621
-167.160706 -70.711014 -235.788422
-14.884123 -70.090691 -239.056412
8.978951 -72.093582 -242.687744
0.280942 -69.289009 -240.825623
11.219331 -71.728912 -238.981979
-15.502960 -69.862556 -241.672012
9.017062 -69.144333 -241.331894
60.847855 -70.870537 -242.515137
-156.783340 -68.635551 -245.596588
-152.319748 -69.457191 -243.416702
58.696907 -68.581146 -242.228561
-10.858796 -70.299835 -242.026718
52.928040 -69.741081 -246.078644
57.997566 -70.551598 -245.111771
-143.253998 -70.379028 -247.491592
-15.631776 -68.838730 -250.328308
53.285275 -71.482178 -247.060776
20.271654 -71.165955 -250.444809
46.679455 -71.702820 -248.143494
-78.011253 -72.154099 -249.414444
-77.620049 -69.365662 -249.937561
50.546021 -69.707291 -246.834259
-83.533394 -69.255058 -253.563156
-75.428368 -70.035667 -249.315857
43.988899 -71.856171 -249.921661
-89.719757 -70.054466 -250.911285
-73.938553 -69.884315 -252.476700
-79.852219 -71.099060 -253.116928
-14.998883 -69.974304 -252.313660
-146.360168 -71.411789 -251.566833
-155.913849 -68.851936 -251.132126
35.322750 -70.115692 -252.932480
-95.609978 -70.617264 -253.803329
-15.625642 -69.468361 -253.385422
-153.923767 -68.690605 -255.733368
-142.431076 -71.529808 -253.700272
49.203335 -69.810074 -251.777527
-137.121506 -70.194336 -255.926651
-124.332672 -71.002884 -255.016174
31.357489 -69.046364 -256.582550
-123.394913 -69.947960 -256.529022
-116.431458 -70.373283 -255.075806
42.366024 -71.753181 -255.277756
-93.610634 -69.493164 -258.004333
-156.757935 -71.086014 -256.265778
22.763765 -71.833504 -257.158936
-14.264576 -70.364609 -255.760651
-99.315529 -69.814148 -259.571472
28.588079 -70.726204 -257.895081
27.809755 -70.966965 -258.244873
31.765862 -69.632401 -258.506470
-102.263390 -68.852547 -260.535950
24.154802 -69.222267 -261.141388
-108.400558 -71.255638 -261.744110
-167.639526 -70.370483 -259.593140
32.448307 -70.386589 -261.414459
-117.090797 -70.552528 -263.168640
-155.092163 -70.434181 -260.571777
-115.711510 -70.804626 -261.643860
-15.060218 -70.532471 -261.589447
-124.875542 -71.411575 -263.517151
-129.468704 -70.182426 -265.531799
-159.512955 -69.531647 -265.646271
-158.975403 -70.080688 -267.296234
-13.794496 -69.045502 -268.041687
-167.498505 -69.700188 -262.547760
-11.937285 -69.650848 -269.724670
26.527075 -70.488266 -270.378326
-161.083817 -70.731552 -273.653137
-166.157654 -69.382713 -274.562225
-161.313110 -68.530273 -272.517242
-12.744408 -70.336380 -274.097076
-152.495514 -70.847969 -279.168732
-144.764847 -70.499809 -273.869080
19.649248 -69.151405 -281.369873
-10.853811 -72.169876 -282.161041
-167.961136 -68.984375 -282.893921
-165.981766 -70.221634 -275.856079
-161.674850 -71.506531 -286.208313
16.948736 -69.092293 -283.917267
-163.403992 -69.482841 -279.749512
-144.111389 -69.667320 -285.709595
-167.140778 -69.908165 -283.308289
12.676584 -70.069489 -286.385040
-114.188988 -71.740028 -286.799469
-107.992340 -68.739594 -286.295624
-99.532776 -71.056740 -285.919708
-99.672585 -69.021103 -286.830994
-86.298492 -71.362923 -286.394135
-165.214264 -71.099213 -286.638275
-79.684357 -69.930939 -286.887054
-162.233643 -69.733948 -288.273224
-150.945709 -69.037506 -288.509705
-74.497871 -69.359413 -288.675812
-75.245308 -69.421898 -288.698273
-77.603653 -69.369370 -290.944946
-67.111397 -71.025391 -288.482208
-148.017288 -69.056786 -289.150543
-82.718910 -69.400467 -290.038696
-87.662277 -69.470184 -289.888702
-6.167788 -68.853210 -290.508881
-163.637726 -70.849350 -290.432312
-161.024170 -69.355865 -291.017487
-89.211723 -70.085243 -290.314331
3.635133 -70.527496 -291.049835
-100.098595 -69.745895 -292.848785
-141.294342 -70.865593 -292.273804
-125.071259 -69.403557 -292.214905
-113.791862 -71.053734 -293.486267
-108.464325 -70.195816 -292.341949
-116.650497 -69.065788 -292.330048
-155.881042 -70.795883 -292.618805
-134.216110 -69.110550 -293.570160
-156.421936 -70.143608 -293.857819
-146.570114 -70.748871 -298.805267
-144.838196 -70.983246 -300.992035
-156.645111 -69.287987 -306.962585
-144.099045 -71.993256 -311.133698
-149.878448 -71.243240 -313.050232
23.858597 -71.588463 -16.976748
31.808277 -71.879471 -17.307669
41.527855 -72.188492 -19.091347
44.160927 -69.176430 -21.985472
27.721203 -71.793884 -20.923836
44.050327 -70.726807 -22.404768
26.448092 -70.220276 -26.169182
27.472425 -72.262558 -30.975348
28.610373 -71.074959 -32.201851
27.479778 -69.834778 -39.904228
32.422077 -70.381065 -39.934460
37.047543 -71.702896 -40.299381
-61.100555 -69.573975 -49.273090
-71.129181 -67.232048 -48.426857
-45.397041 -67.905281 -48.205173
-36.244751 -67.043823 -49.643860
-30.244452 -69.596207 -51.772217
-81.916245 -68.593689 -53.088928
-84.850159 -68.454025 -55.142838
-21.360600 -68.298019 -58.030884
-12.332746 -68.381981 -64.529419
88.282532 -69.421852 -65.092682
91.502853 -69.402481 -65.092102
-15.485800 -70.617172 -68.768486
99.747406 -69.139465 -74.401772
68.676651 -68.693794 -74.264862
97.163857 -71.337067 -75.079216
99.276962 -68.905258 -77.271103
-97.041786 -67.867279 -75.564529
67.951500 -71.261269 -78.414124
67.922852 -72.980019 -80.928955
-45.347454 -73.141289 -84.322517
61.737274 -70.549232 -84.712456
-95.298744 -71.192673 -89.920250
58.265030 -70.283691 -86.317970
-50.556725 -72.943794 -86.493050
-52.022495 -67.150040 -87.260307
65.252930 -70.266556 -87.451118
-51.979015 -76.649483 -90.341339
67.355263 -69.460670 -93.118073
64.674728 -70.139275 -89.083946
99.631241 -72.212807 -93.177017
46.773132 -71.185188 -94.380943
58.489655 -72.208595 -94.960052
61.717262 -70.606644 -94.698647
-95.727127 -68.296646 -96.203056
109.263115 -70.804070 -96.495926
46.873787 -70.168350 -97.037132
100.244263 -69.556664 -97.927185
104.245674 -69.222893 -97.735321
42.349121 -69.789383 -102.083725
101.333778 -67.448982 -98.592133
44.277912 -70.533417 -103.057678
72.836929 -69.088387 -99.619965
104.868584 -68.915924 -102.485329
74.618790 -68.775307 -104.034004
103.512863 -69.388870 -105.837662
73.623772 -69.141251 -102.879982
83.238892 -69.221672 -103.866318
88.527519 -70.217201 -105.070313
52.125450 -71.463875 -104.894455
110.111099 -70.742630 -106.403702
44.996861 -67.714500 -106.173141
42.220711 -69.563194 -105.699173
111.897926 -69.670822 -111.526398
-95.735123 -71.634392 -109.265541
-76.524460 -69.084976 -108.865944
46.855038 -69.721954 -113.556808
40.528824 -69.695534 -110.418839
-79.100342 -70.153214 -114.093742
104.932121 -69.648407 -110.544922
-81.525085 -68.982155 -113.580971
41.938969 -68.015518 -110.290871
38.325180 -69.100578 -113.964821
-89.029350 -72.318306 -114.193245
-95.312538 -68.840668 -116.102028
45.225761 -68.843857 -112.973534
106.074265 -69.336716 -113.588440
42.941105 -67.117096 -116.185448
-95.385773 -70.896675 -119.614166
-94.248985 -67.893692 -121.391273
-85.814171 -68.909637 -123.563553
38.456207 -68.848076 -122.488892
113.693436 -68.340065 -120.228592
38.166023 -68.754807 -119.676987
108.068130 -70.141846 -121.059532
-79.905090 -68.671089 -121.216805
110.204437 -68.902809 -125.276306
114.163818 -67.941673 -131.531830
-84.119446 -68.143578 -128.308945
34.699097 -67.147987 -128.481781
110.002609 -70.743324 -128.381790
-60.279030 -68.638329 -128.957001
-59.363216 -69.187790 -132.339569
-88.222321 -69.211502 -128.022507
-77.160431 -70.082542 -131.140579
-53.678822 -69.396873 -129.553345
-74.904297 -70.036743 -131.725494
35.946747 -67.407494 -129.732925
-72.642372 -71.637360 -133.654312
-51.750790 -71.388847 -134.512924
-88.667404 -68.783958 -132.501709
37.487438 -70.126389 -132.745895
116.452103 -69.696198 -132.735367
111.268372 -68.329391 -131.089050
-93.083008 -69.172356 -134.093582
-85.879417 -69.289146 -131.333878
-87.431442 -70.034630 -133.227783
-75.806862 -69.078346 -135.956863
-48.815025 -69.697891 -136.546402
-45.794865 -70.916473 -138.788422
-70.882851 -70.236473 -136.227310
113.541809 -68.033951 -138.762344
114.534050 -70.937645 -136.480789
-71.390114 -69.253250 -139.376892
-49.593346 -68.227020 -134.531403
113.353516 -70.812569 -136.963730
-75.723907 -70.122078 -139.371017
32.658562 -68.647552 -135.818466
33.454117 -69.665779 -135.820496
-78.043442 -70.022652 -137.724136
-74.018188 -70.316582 -142.779037
-75.025429 -68.718475 -136.355927
-90.698715 -70.443420 -138.841385
-76.117287 -69.711952 -142.509567
-90.880463 -68.301369 -143.257202
-56.941013 -68.403763 -140.425644
33.276390 -69.003632 -141.081238
112.866516 -68.671852 -142.032120
-53.122791 -69.839943 -147.673752
31.482410 -68.979744 -145.071945
30.258698 -67.507858 -141.991745
28.447676 -66.137009 -147.792206
17.436544 -67.236908 -144.773239
112.981834 -69.955032 -147.029068
-93.946838 -68.893501 -146.359634
-56.579525 -66.884392 -145.747635
-50.641155 -69.857765 -150.372391
21.083252 -68.141869 -143.856598
-97.356949 -69.573235 -148.707077
-72.179794 -68.911247 -148.710144
18.764240 -69.897346 -149.736099
-97.635941 -67.365883 -151.724594
-69.592865 -69.157707 -151.994995
-40.689903 -70.073326 -153.197983
23.347464 -69.340027 -151.363632
31.506632 -68.191925 -150.177139
-50.380985 -68.091507 -154.188370
10.594876 -68.417580 -152.208252
14.989697 -70.065712 -156.483475
-45.871368 -68.910202 -158.601578
-97.159653 -68.582649 -156.747299
10.299958 -69.292915 -156.922241
11.958872 -71.746056 -159.647049
19.742338 -71.424667 -159.703094
-100.184456 -68.171547 -159.142868
-36.003014 -69.218239 -163.869247
31.066057 -70.441910 -157.278351
-103.268547 -70.203438 -163.018280
-46.601200 -70.202187 -160.835495
-34.798447 -69.396309 -163.297394
-42.475845 -69.229980 -162.188858
-39.587234 -68.961334 -171.382095
27.987963 -69.737335 -167.150101
-39.116280 -68.388367 -170.712173
-105.846352 -67.960617 -171.704147
22.002081 -68.193718 -172.188324
-36.641716 -68.484467 -175.494080
-32.386745 -69.293640 -170.314255
16.896936 -70.751038 -175.783752
-145.486359 -71.368225 -174.375061
-151.154312 -70.071167 -175.754761
-34.366375 -67.959694 -173.173645
24.105022 -68.578918 -171.386566
-31.546074 -68.403908 -181.736496
-28.144249 -70.645699 -174.479034
-152.644775 -68.291901 -179.158966
21.283840 -69.435684 -178.516907
20.178619 -69.243225 -178.014404
-27.732588 -70.023727 -178.845596
-107.737175 -69.682770 -178.293579
-106.453354 -68.653297 -182.038605
21.335049 -69.510651 -185.298935
20.158802 -68.952141 -183.820114
-28.760578 -69.706299 -185.626831
-22.620687 -71.115448 -182.964142
-151.113602 -69.438347 -187.292999
15.809357 -68.017731 -190.477005
20.991201 -69.070145 -191.742844
-28.653866 -68.593735 -188.490143
13.442779 -69.185104 -185.793518
22.410011 -67.909233 -196.416687
-143.443817 -70.319138 -187.552032
18.435520 -67.506516 -191.243866
-107.606117 -70.491074 -188.217346
-113.233734 -69.289642 -192.105927
10.509400 -68.894249 -194.517487
-20.376829 -68.045151 -190.515854
-140.320816 -67.931175 -195.092697
-116.655518 -70.470573 -194.641464
15.218559 -69.245117 -195.550140
-113.182060 -70.039635 -196.295654
-108.815544 -70.680794 -193.364273
-163.354126 -70.075233 -197.845169
-15.405316 -67.799530 -197.463516
16.823408 -69.223610 -196.431564
20.499199 -69.545601 -200.922943
-22.217840 -69.319420 -203.635529
17.052816 -70.227592 -200.037048
-167.771759 -69.672081 -200.250824
19.494736 -69.545135 -207.022049
-140.792831 -69.356087 -203.076935
-133.657593 -68.514435 -204.929382
-15.022997 -69.686737 -202.197144
-16.845724 -68.145599 -200.238388
-18.061733 -69.009102 -206.132416
-166.138596 -69.271454 -203.248169
-11.275192 -70.432404 -203.923386
-15.793245 -69.394897 -205.793198
-153.863892 -68.203751 -206.754608
-143.938782 -69.688011 -206.113190
16.761665 -68.636818 -208.500244
-14.854979 -69.623459 -210.650574
-18.373621 -68.174568 -210.146469
-13.197723 -67.948952 -212.495331
17.112167 -69.661293 -213.021088
9.034739 -68.889633 -214.749191
-11.739947 -69.742119 -210.725861
-165.934418 -71.030762 -210.897873
9.867322 -68.786613 -212.787720
-158.050476 -68.344658 -212.265427
-9.889973 -69.292381 -216.397736
-14.709291 -67.975533 -217.567215
14.588206 -68.800026 -215.446609
-152.548538 -67.922455 -214.581940
-98.195702 -70.536949 -218.093628
-101.432259 -69.473808 -218.566467
-95.236382 -69.728546 -218.327835
-4.956653 -69.311150 -217.278473
8.570210 -69.919815 -222.286972
-1.927259 -69.102074 -219.939209
-96.280823 -67.043495 -222.423141
10.557167 -69.199738 -224.210464
13.071168 -68.751617 -223.150970
-6.007695 -69.187424 -219.454117
-6.253053 -69.238449 -223.451141
-144.676117 -69.622917 -222.631104
-7.282397 -69.422081 -218.870895
86.736809 -69.862915 -220.515076
-158.039810 -69.272957 -220.970993
-156.923767 -68.752876 -224.729309
-11.119235 -68.772591 -221.540375
79.965302 -70.378708 -220.968674
-135.217331 -70.480568 -225.891418
-123.721512 -68.162445 -225.870316
-133.220291 -69.830338 -225.407333
-99.607666 -70.762833 -223.436752
-10.077465 -70.914940 -226.086990
11.847386 -69.220490 -227.859222
79.356514 -68.304543 -225.515152
-167.198242 -69.910027 -223.356415
12.101828 -68.819511 -221.942291
-155.121140 -69.867882 -226.705002
81.906204 -69.548965 -225.160294
-3.468584 -68.822021 -225.951370
3.029334 -69.119278 -226.217468
-1.660565 -69.627144 -225.933350
-14.039272 -69.479462 -227.970184
78.177795 -68.532272 -230.770432
3.528623 -70.142189 -227.939926
-3.435964 -69.200165 -228.532791
71.431221 -70.282242 -229.383270
-16.703573 -71.068001 -229.896881
73.932976 -69.617058 -228.166870
0.764940 -70.942093 -231.827698
3.461128 -68.281570 -232.616959
-122.530510 -67.720245 -233.853302
-11.555870 -69.187950 -233.917526
-125.629089 -71.310608 -235.836914
70.243958 -70.051849 -231.616867
-132.856110 -70.393784 -236.228241
-129.904968 -69.591110 -235.532089
7.283981 -69.778961 -234.130112
-166.963791 -70.998283 -239.355225
-142.853348 -70.704445 -234.874039
-1.294334 -69.254768 -236.199951
6.560269 -68.695343 -234.598328
63.717930 -66.082146 -236.153320
3.120529 -70.670509 -236.227600
-0.810318 -69.334518 -240.193802
71.659920 -68.173119 -238.133255
-157.277344 -68.707550 -240.198959
-145.481857 -69.011429 -244.307632
63.526058 -70.130913 -241.049835
59.157719 -69.019203 -242.965546
-158.180450 -68.374992 -238.673065
-8.837122 -70.693451 -243.274216
66.180794 -68.426933 -242.426041
-168.401764 -70.171234 -243.039871
9.464653 -69.360077 -244.028809
8.579601 -71.743500 -242.518036
-164.435394 -68.868851 -245.140594
-159.086166 -67.275803 -244.148041
-163.911804 -67.428551 -241.275864
-161.828217 -69.583023 -243.258423
14.420268 -71.746689 -245.573303
55.985130 -68.020607 -244.499954
59.953201 -70.039803 -244.065582
58.042149 -69.695984 -247.594009
17.547112 -68.639626 -247.843536
50.784668 -69.421906 -244.611298
61.204754 -67.599167 -247.260101
55.183792 -70.259148 -244.853149
59.223869 -68.646538 -248.999512
-162.297989 -68.691010 -249.078339
50.830292 -69.229080 -248.162643
-157.446350 -68.736931 -247.630753
-158.160004 -69.345596 -250.992813
-158.374191 -69.564201 -249.626511
48.956512 -70.576256 -249.182999
-165.780960 -68.286293 -244.231903
-15.125388 -69.018181 -248.719986
-150.887054 -68.776840 -248.610565
23.074539 -71.564346 -251.047989
-167.710938 -70.387764 -250.234436
-166.128113 -68.910263 -250.323181
42.159779 -69.767059 -250.016464
42.930771 -69.509567 -251.557892
-145.429932 -69.007820 -252.745926
-83.952026 -68.878471 -252.258560
-166.252182 -68.296898 -253.209274
34.651684 -68.538864 -254.448456
47.852161 -68.462532 -251.566956
-84.797333 -69.854561 -255.054428
-100.637901 -70.513550 -254.031937
40.308304 -69.533257 -253.396576
22.392063 -70.034241 -252.241776
-14.556677 -68.651833 -251.148254
-140.753342 -70.160728 -254.796005
-87.671059 -69.597923 -253.438446
-87.543335 -70.178856 -256.912079
-112.516113 -69.280312 -257.032013
-106.909500 -67.098938 -257.413940
-150.137650 -67.774834 -258.419037
-163.508682 -69.452614 -259.238647
-159.431137 -69.443901 -258.855408
-97.307907 -67.675468 -259.485931
38.361980 -69.532646 -257.597839
-15.008046 -70.194809 -257.312134
-103.853477 -72.589523 -260.732697
-167.332947 -70.136795 -260.583588
-154.335480 -70.764206 -261.187469
-104.744423 -68.504456 -261.360870
-165.521835 -69.315887 -260.944611
-161.974335 -69.047112 -262.796814
-109.306290 -70.617455 -261.103149
-108.488831 -68.411362 -260.846069
27.241652 -70.479874 -263.583221
-114.360535 -70.939957 -261.421112
-166.440903 -68.716499 -263.053436
-152.432037 -68.920715 -264.376709
-158.984390 -68.878387 -263.477631
-167.052185 -69.604652 -265.180634
-161.975632 -68.905640 -264.290344
-164.567825 -69.809280 -266.503815
-161.821182 -70.391640 -267.747620
24.964266 -70.633141 -265.634827
-11.272322 -69.165688 -263.793976
-145.200684 -67.501183 -276.647552
-153.596527 -69.428970 -264.904755
-11.621089 -67.705811 -271.403870
21.026173 -72.076614 -274.356567
-147.779160 -69.804131 -281.626770
20.302832 -68.184357 -275.081451
20.713156 -70.952927 -277.265472
-10.552103 -67.489540 -278.345856
-127.028053 -69.533150 -284.319733
-135.927811 -70.004570 -285.320465
-135.988831 -69.120590 -286.691528
-124.706635 -70.324921 -287.965851
-115.971870 -69.988419 -287.409058
-94.119179 -70.089851 -289.014801
-108.286842 -68.168526 -287.534729
10.563661 -70.221497 -289.092926
-89.947212 -67.994484 -288.786499
-98.882736 -68.399170 -287.990021
-86.282135 -67.974869 -289.160522
-52.429268 -69.481560 -290.171356
-150.327805 -69.653831 -289.167847
-99.396416 -67.745865 -290.243164
-94.879890 -69.464073 -290.093414
-50.289707 -69.963158 -290.096802
-106.892456 -67.453995 -289.338684
-99.867470 -69.216240 -291.028931
-125.513779 -67.926170 -289.835602
-108.132080 -66.987640 -291.199554
0.001693 -68.950272 -291.765106
7.064878 -72.025948 -290.270844
-143.884003 -67.714783 -293.081085
-107.104340 -69.920853 -291.060883
-120.752296 -68.290077 -291.954987
-114.192261 -68.379951 -291.525848
3.369655 -69.448105 -293.228363
-144.379959 -70.455551 -292.430511
-126.107399 -70.274513 -294.992981
-152.290863 -69.648415 -295.091217
-152.308502 -70.119164 -297.096497
-145.286697 -67.526367 -307.312927
-154.767944 -71.842461 -310.804901
-151.910080 -71.616760 -313.880066
36.237797 -70.115318 -12.518909
31.817219 -70.216667 -10.827063
49.064133 -69.569183 -20.870697
50.799423 -70.572472 -24.207279
20.571632 -70.173103 -32.591232
21.887888 -71.310188 -36.368565
33.334194 -70.827713 -36.203304
43.250668 -71.268768 -39.329567
33.475296 -70.208321 -41.066113
-59.803238 -69.407837 -44.810009
-52.643822 -70.494514 -45.838696
-48.789288 -67.357559 -46.637188
-17.977961 -69.449211 -58.636105
-13.709879 -68.806313 -62.502384
79.436905 -70.862244 -67.088669
91.746460 -70.327446 -69.227226
72.265327 -67.920303 -67.458809
-16.813347 -68.471939 -70.937134
-22.665125 -69.226578 -73.734238
67.890656 -67.112045 -70.759148
-24.171144 -70.190666 -74.517723
-28.164968 -68.297882 -76.785736
-35.641781 -67.760109 -78.838577
-96.100800 -69.245384 -81.959114
-42.229923 -69.582520 -76.779671
67.164162 -68.578217 -81.727753
63.490746 -68.842896 -84.954620
60.188755 -67.615456 -83.312141
59.290257 -66.879013 -85.782677
56.752716 -68.135376 -88.596649
-55.953346 -68.100586 -87.662003
-59.215042 -69.363029 -91.271088
67.378136 -67.363121 -90.625031
63.976311 -69.965370 -91.885674
-97.737793 -69.191589 -91.447800
46.121128 -67.226524 -95.349197
66.358711 -69.237709 -96.430138
58.018478 -70.992165 -95.607979
-65.621521 -67.493408 -96.148811
50.842609 -67.512733 -93.710594
43.726124 -69.196579 -100.032112
56.749287 -68.640305 -97.356163
-68.002975 -67.708282 -98.644524
59.851891 -71.583618 -98.970734
102.708893 -67.884422 -98.409988
-67.499214 -69.360893 -100.049561
53.923714 -69.897797 -100.500725
108.775955 -68.939133 -100.004417
-78.573738 -69.246391 -100.480225
56.877045 -70.011536 -101.025024
46.286858 -67.199104 -100.605530
49.319923 -69.553329 -105.689026
107.773079 -69.775528 -103.866379
95.141418 -68.105034 -103.273705
48.095032 -68.997498 -102.192703
-74.857597 -68.674416 -108.444283
103.006050 -67.204201 -103.639565
-83.148819 -68.179909 -105.899200
93.853668 -70.466011 -105.467377
80.634995 -67.626953 -105.732491
50.137695 -68.965889 -107.047211
-96.476784 -69.092392 -103.178452
110.469200 -67.250473 -104.291008
-74.000343 -69.904266 -108.663559
-86.243568 -68.127380 -109.113647
109.135971 -67.166786 -114.307373
-98.707336 -66.839546 -107.479813
106.536339 -68.138336 -113.109596
45.123615 -68.020096 -111.454285
37.770309 -67.747375 -116.569786
-76.623322 -70.134979 -113.139130
-79.450195 -69.882668 -119.072426
-89.695763 -70.306129 -116.935120
107.010925 -66.918434 -115.553513
-92.144295 -70.368301 -118.142220
-85.216202 -68.720100 -118.875397
-79.227287 -68.511223 -119.664490
-61.305862 -67.665878 -122.424210
110.240074 -66.751228 -119.495995
-77.834366 -68.837181 -123.250671
112.028297 -66.953331 -121.976883
-62.016567 -67.854080 -123.127144
113.282387 -69.112068 -127.685875
-62.180996 -67.477409 -125.881401
109.780586 -67.473602 -129.251129
-80.820999 -69.342270 -126.995880
112.305656 -67.528397 -128.309799
-77.060188 -67.940620 -128.479202
-81.503944 -69.298843 -128.448593
-81.549919 -68.585709 -130.563385
-87.590881 -69.304680 -136.356735
-92.934120 -70.191833 -138.711594
-56.101131 -68.294922 -142.950409
-48.630154 -68.566154 -139.341736
-46.027405 -67.340042 -142.501877
-71.599678 -66.645157 -141.177933
-48.766407 -69.657921 -141.562805
-75.096924 -67.024796 -143.874756
-69.409859 -67.944710 -145.933273
-52.819111 -69.074203 -144.804031
-49.484402 -68.108612 -146.920609
18.129129 -69.361282 -145.108124
-96.415482 -70.639366 -145.058029
-72.971474 -67.409523 -143.299683
-69.491714 -68.321114 -148.969666
28.793886 -67.285385 -143.677567
15.981693 -68.400948 -147.478531
-55.213371 -68.745056 -148.178070
11.640505 -69.299034 -150.338898
-50.023262 -66.247459 -149.515091
-43.959396 -68.481804 -147.245895
-49.897888 -69.097466 -150.029938
-41.651115 -68.518761 -155.025635
-93.574303 -67.127083 -153.055283
23.679974 -69.051964 -155.217255
-45.430904 -66.223557 -154.433136
29.802803 -69.451797 -158.858139
11.111402 -68.085136 -155.541626
-44.300766 -69.077576 -155.393692
7.198790 -67.284149 -156.666397
-99.671158 -68.643768 -154.279282
-41.276299 -67.519257 -159.561646
27.495064 -67.963379 -151.468582
29.541176 -67.474586 -152.729935
25.539494 -66.705757 -161.003860
-98.472885 -68.245201 -158.655472
23.190350 -68.897232 -157.332001
-102.727264 -68.248940 -166.805450
21.452114 -69.395851 -161.067139
26.260578 -69.896011 -163.485947
-105.781258 -69.003853 -170.208862
-101.739243 -68.520195 -165.821671
20.906101 -68.068581 -165.786804
19.991188 -67.967735 -169.110260
28.183229 -69.838661 -172.019180
-103.425034 -67.930344 -172.107010
-106.704941 -69.561348 -172.043671
25.272900 -68.206352 -168.397369
16.674723 -67.573174 -175.907913
-106.201607 -69.232117 -175.580307
-140.868149 -69.391052 -181.877106
-109.506004 -69.020943 -179.987045
-26.609854 -68.551636 -183.899719
-105.387810 -66.880524 -181.563797
-111.319420 -68.188927 -186.421768
-21.780405 -68.405838 -188.040497
-26.079645 -69.193481 -186.648056
-112.266022 -68.213661 -190.134857
-143.185745 -66.272758 -187.510986
-107.283150 -69.915108 -187.115585
-22.353704 -67.576271 -190.170547
-154.423309 -68.873535 -193.457169
-149.923538 -67.952988 -192.943787
-157.098007 -69.293839 -193.020706
-160.309082 -69.635185 -194.416580
-131.157547 -70.677963 -194.610443
-128.649948 -70.398315 -194.256897
-132.366837 -69.730232 -195.230560
-134.042358 -66.914253 -195.955521
-25.131138 -68.111786 -197.010132
-23.702406 -68.601997 -190.730392
-18.621124 -67.561722 -193.815811
-121.971016 -68.599030 -196.257553
-121.855614 -67.953499 -196.403549
-115.142540 -67.412323 -197.770630
-22.996159 -67.470261 -199.121094
-155.600876 -68.917549 -201.307114
-158.543213 -68.208893 -205.190109
-124.341850 -71.062363 -204.911407
13.966631 -67.670158 -199.544785
-128.102722 -68.447060 -204.571625
-164.671677 -66.604691 -202.759125
-124.706978 -69.614288 -204.206451
17.478703 -67.474762 -201.681763
-13.017447 -67.711647 -205.102310
13.868730 -68.510307 -209.462723
10.612185 -69.705276 -207.511032
15.249926 -67.616341 -208.041092
-19.134396 -67.338142 -206.462738
-7.350169 -68.016739 -211.461472
-144.693314 -67.129021 -214.080231
-167.218185 -67.503067 -207.816376
-160.704117 -67.843498 -212.835251
13.259334 -68.983337 -214.814850
-167.425705 -67.979568 -214.309830
-158.813324 -68.508018 -214.307800
-14.346523 -67.780693 -213.343613
-159.885284 -68.233047 -221.083130
-2.901143 -68.461372 -221.499222
-151.318756 -69.011429 -221.176575
-98.720184 -68.351845 -220.116913
-143.279800 -69.600113 -223.438644
-98.324814 -69.947052 -223.291077
-160.771942 -67.009377 -219.929276
-106.759987 -68.698700 -220.487320
-11.038299 -68.340912 -218.314621
-157.735321 -69.193153 -223.695526
-125.939369 -68.913994 -225.836243
-132.099121 -70.256897 -224.674866
-139.071655 -69.014328 -224.884918
-1.108101 -67.721001 -222.279541
-133.209793 -67.845474 -226.123184
-112.897003 -68.230156 -226.191589
-166.203049 -67.828842 -222.033051
-124.213684 -69.751297 -225.949432
-114.736664 -69.754913 -227.100998
-115.943611 -69.569038 -225.722977
1.898126 -68.019295 -227.076004
-4.543114 -66.283005 -226.644043
-106.768646 -67.904579 -229.979752
-158.199280 -66.723923 -226.073776
-148.298264 -68.055397 -226.124054
-165.839386 -67.361008 -223.776886
-159.334641 -67.848953 -228.951309
-147.471878 -67.755547 -231.703857
-6.936769 -71.311234 -229.831802
-9.627269 -67.334999 -231.362488
-9.839580 -67.959709 -228.330399
77.161934 -69.965454 -229.829727
-164.067261 -67.695724 -232.093399
1.463677 -69.227707 -230.871368
-140.905640 -67.107033 -232.432617
-12.883909 -68.650940 -231.092285
71.463509 -68.543175 -233.071167
75.117867 -69.425743 -234.417938
-134.320892 -67.048454 -232.936111
4.058631 -67.825371 -233.426468
-158.040237 -68.780113 -229.880096
-115.370155 -69.682991 -233.697754
-124.880737 -67.679123 -234.617615
-164.768799 -67.426590 -234.769150
67.757614 -67.688927 -235.104050
-158.878159 -67.587486 -236.095978
-144.742523 -67.925110 -236.466324
-3.115618 -67.978401 -235.883987
-162.134384 -66.387123 -237.468002
-6.920095 -69.305252 -237.221497
61.798149 -66.982880 -236.934570
-0.634929 -69.256104 -234.182159
-4.813440 -69.702019 -236.211243
-166.422897 -67.409691 -236.543976
-2.301279 -68.755028 -238.547440
-160.877060 -67.344421 -237.252960
3.241245 -67.298363 -238.904663
7.502663 -69.002785 -241.503555
8.449084 -68.897049 -237.914093
-162.552139 -67.157211 -241.244995
-151.033157 -68.830521 -235.434769
11.626266 -70.543037 -241.556091
9.126980 -65.899620 -242.097839
68.521225 -68.805290 -237.907242
56.593281 -69.256371 -241.797653
15.586818 -67.702972 -244.572189
-13.412373 -70.672874 -244.953003
-146.802612 -69.589218 -243.604187
51.734837 -68.418236 -244.275726
53.575104 -68.560455 -246.785690
49.429733 -68.821793 -247.340424
-14.305168 -69.087120 -246.540268
47.892483 -67.157181 -248.558334
53.568733 -69.301270 -247.432007
42.891663 -68.219360 -247.836929
51.466618 -67.654945 -248.030518
-164.842941 -69.671631 -252.232239
-163.360016 -66.384659 -249.018829
-159.686066 -67.660210 -250.512863
35.445793 -68.462997 -252.026779
45.643265 -67.599777 -250.124435
52.759304 -71.166534 -251.883575
46.685162 -67.762436 -254.075912
47.771202 -68.738701 -251.706985
-89.633133 -68.441338 -253.646133
-125.678040 -71.154457 -255.335739
-97.723442 -68.841949 -256.492462
-134.399170 -68.528427 -254.172195
-11.907307 -67.571617 -256.379944
-124.124649 -69.481163 -255.406662
-105.535629 -69.017982 -256.667542
-93.509041 -67.044731 -252.682312
29.498470 -68.810219 -254.921463
39.660339 -68.154457 -252.974625
-101.570847 -66.903122 -254.312698
-115.965744 -69.632515 -257.219360
-91.791504 -68.586456 -256.097076
-96.174019 -66.801666 -257.857391
32.183491 -68.138992 -257.175385
43.174614 -67.917854 -254.092255
-123.662834 -67.531326 -256.444885
40.485420 -68.758568 -256.910645
23.889406 -68.083336 -257.547089
-157.100815 -69.724388 -259.475952
33.575222 -68.442902 -258.163086
33.656212 -67.590179 -261.092804
-141.320648 -70.413734 -261.663025
-140.452271 -66.442665 -261.306915
-116.060127 -67.326729 -262.467529
-112.077972 -68.201675 -260.695007
-135.008484 -70.172272 -262.793182
30.133408 -69.231018 -261.654633
-7.417796 -68.093536 -261.236420
-134.730469 -69.307777 -262.513458
-126.707222 -69.180382 -263.258789
-8.092889 -66.687263 -262.453705
24.684172 -70.127960 -269.867981
-7.758389 -67.003853 -267.198334
-8.653522 -68.252235 -269.530701
-151.313629 -68.201851 -264.183044
-7.789980 -67.405708 -279.521393
21.495220 -68.371056 -278.642365
-151.976013 -66.965057 -281.532990
-9.644110 -70.140617 -279.347748
-154.261749 -71.052513 -282.931396
-134.927536 -68.249191 -285.673706
-126.170967 -69.857674 -283.928284
-156.639496 -71.435196 -286.095551
-115.584923 -69.664772 -286.804382
-109.955284 -69.744888 -287.459106
-114.006447 -68.306641 -288.542297
-5.355719 -68.666763 -287.978943
-136.612274 -66.862381 -288.616272
-112.814545 -68.184570 -289.825378
-155.409317 -70.413849 -289.013367
9.794364 -72.292953 -289.277710
-142.049240 -67.271500 -290.239807
-114.163315 -69.661568 -289.688690
-115.656578 -69.589607 -291.789276
-135.128601 -67.325630 -290.227051
-123.934067 -68.154312 -291.342682
7.703059 -67.156685 -293.221100
-156.446030 -68.649170 -291.134827
-135.011078 -66.552124 -291.637939
-146.167145 -70.870132 -293.518707
-151.413589 -67.392433 -297.421173
-151.860336 -68.431702 -300.719116
-152.780090 -68.168823 -308.013733
-155.960007 -70.446060 -306.288391
-144.733475 -68.727760 -311.214691
-151.294525 -66.040901 -312.779694
37.870155 -69.770699 -12.250534
42.424274 -70.930824 -12.764199
43.379349 -70.438942 -14.880116
29.229750 -71.269943 -19.513054
50.475613 -68.263542 -22.411295
24.822649 -67.803848 -25.391638
49.845108 -69.448006 -28.757397
29.889805 -67.654480 -34.694923
35.565800 -69.751045 -36.894463
-64.934952 -67.432076 -45.310390
-42.640133 -67.430542 -48.659470
-76.160934 -66.453003 -48.903820
-23.148880 -69.173050 -55.747692
86.411697 -68.438362 -64.355255
77.206268 -66.746346 -62.823666
75.511589 -68.396271 -63.095917
-11.102468 -67.423843 -63.893314
-92.432022 -68.581947 -65.880348
71.621864 -66.821724 -66.330086
-14.291655 -67.896606 -68.359009
95.978989 -69.988052 -71.620316
-17.528759 -67.304428 -68.917412
98.495461 -67.876419 -70.556068
-23.497902 -68.776665 -70.902321
-94.419281 -68.475967 -70.655327
68.338440 -70.176193 -74.850235
-38.739212 -69.536606 -77.451096
-29.650259 -70.781189 -78.880768
57.410538 -68.242325 -83.748283
65.661598 -68.828049 -80.988487
-96.212234 -67.066055 -83.385155
-49.564754 -69.706039 -84.535873
-49.300568 -70.568718 -84.354340
64.689873 -67.318787 -87.568192
53.251766 -67.990067 -88.158661
101.968979 -70.716133 -83.735268
103.215485 -67.610558 -88.437286
50.031082 -67.786484 -93.587418
53.262383 -69.144745 -89.549065
63.990025 -68.106567 -90.130104
62.314945 -66.580002 -90.610916
103.569557 -68.865204 -92.276352
61.478714 -66.838531 -94.423660
101.556473 -66.988380 -95.811333
105.186920 -67.966797 -94.465057
61.415176 -67.389626 -96.849480
100.466400 -67.177261 -96.788597
107.021439 -66.821304 -95.969780
58.840431 -69.588829 -100.140587
-75.635941 -68.000153 -100.485947
69.724251 -70.482697 -100.570358
101.474289 -66.330307 -97.852722
53.890514 -66.072563 -101.202339
69.726768 -67.572807 -102.479614
44.022041 -66.343140 -99.610657
-71.594215 -66.394028 -103.348068
-81.957092 -68.653427 -102.678040
-74.181290 -66.491280 -103.456940
53.717602 -67.928032 -102.514656
42.976219 -64.931335 -107.061096
44.809006 -68.796066 -107.857422
47.320518 -67.022148 -108.703041
108.632210 -67.451241 -109.248795
110.050110 -66.622566 -112.032898
-73.538864 -68.040520 -111.436424
-79.401665 -66.609901 -110.797310
-90.215790 -68.394768 -116.329506
-77.191872 -67.462433 -117.645340
-86.222313 -68.837067 -120.672279
-58.693172 -68.232666 -125.544243
-55.890663 -68.825417 -125.779991
-89.807816 -66.938354 -127.718285
-73.700668 -69.473526 -130.287872
-51.534332 -69.594559 -129.216187
-75.801384 -67.530823 -131.435654
-82.495613 -68.485268 -130.062439
-59.850086 -67.157570 -129.749725
-78.767479 -66.939003 -133.132385
-77.003708 -67.087852 -134.791885
-80.223457 -68.550278 -133.758835
-57.934483 -68.820801 -138.118942
-78.713379 -67.364418 -140.328506
-61.156170 -67.871300 -139.435196
-51.957947 -66.594566 -141.102417
-59.248337 -69.071846 -142.068893
-52.990376 -67.552238 -141.949036
-94.627693 -66.500992 -143.623260
21.467447 -67.087189 -141.552139
-89.278648 -68.979439 -145.541946
-46.236553 -67.940353 -143.854141
20.370836 -67.959152 -146.590561
19.473713 -68.095909 -151.315475
-98.998947 -67.809654 -150.618271
10.576643 -67.157097 -153.562790
16.841316 -68.918701 -153.040344
13.324570 -67.595299 -157.115067
-93.052299 -67.398033 -151.049286
-97.070610 -67.301224 -158.531357
-103.064117 -65.901611 -161.918655
-106.548828 -68.433372 -168.563980
-101.298233 -67.312859 -168.170883
22.723763 -67.278572 -170.787521
25.856329 -68.053406 -167.015579
-102.198494 -67.364410 -171.422699
-147.513992 -68.369583 -175.392380
-108.981934 -67.646584 -173.072632
-151.263916 -69.082489 -175.079193
19.786459 -68.768791 -172.258652
-147.164612 -66.112251 -175.935272
-147.000870 -67.416283 -177.203384
-148.054428 -68.161812 -181.074554
25.439034 -68.604721 -180.337982
17.597668 -67.874252 -177.499222
24.681887 -67.023781 -174.315338
23.149397 -67.290794 -185.046814
-154.290222 -67.555954 -185.944901
-141.504761 -68.764572 -186.530106
-142.602753 -67.023834 -192.510574
-106.886116 -66.646164 -194.671051
17.120214 -66.939102 -189.813858
18.969130 -68.604210 -197.596985
-124.298012 -69.052322 -195.152084
15.036513 -68.696312 -193.696518
-154.438477 -65.747528 -192.071045
-141.027191 -68.533440 -193.531815
-133.543213 -68.841080 -193.759766
-163.039673 -69.241295 -197.632553
-106.535576 -67.732910 -197.509583
-165.580551 -68.541321 -199.567749
-22.406616 -66.207001 -195.051315
-154.145172 -68.126060 -198.260147
-15.113747 -67.763222 -200.276428
-110.394783 -68.212578 -201.549026
-140.775436 -67.295647 -202.536362
-156.391937 -68.259354 -202.177155
-153.035385 -66.249611 -203.151154
-133.690796 -67.458786 -203.756775
14.804031 -66.475296 -203.057999
-121.738869 -67.470901 -204.557022
-116.557198 -66.569443 -204.747208
-143.404404 -67.206787 -207.025085
-151.784454 -65.560341 -206.719269
-8.800180 -67.734970 -212.722168
-164.002640 -67.606537 -210.758682
-160.874695 -68.292526 -214.519348
-164.449783 -66.327110 -215.868408
-143.022308 -68.431709 -217.291016
-9.004430 -66.720963 -213.675354
-144.514282 -68.059273 -221.054031
-103.488159 -65.926613 -221.681931
-8.232762 -67.974609 -221.671616
-99.675819 -66.643425 -222.381729
-162.211624 -66.305679 -222.422165
-102.085655 -68.924194 -224.059036
-134.527939 -67.522377 -224.874039
-164.466415 -69.068893 -225.014435
-1.567363 -66.418915 -226.564728
-111.595161 -67.812904 -229.883133
7.656017 -67.635033 -232.365082
-1.740829 -67.654602 -230.681000
-116.923912 -68.608902 -233.872696
-3.568363 -67.283905 -233.523804
-124.894539 -70.766922 -235.700516
-8.211933 -67.455833 -234.494278
-0.368278 -66.884850 -235.190079
66.687096 -68.897369 -238.607407
-8.057625 -66.358727 -236.869659
71.425438 -67.168045 -234.037415
4.733880 -67.256111 -236.397766
-12.981874 -68.305687 -238.094101
5.164676 -67.185425 -239.352249
10.626163 -67.657616 -239.279373
10.515229 -67.813095 -239.060410
-0.736025 -67.499344 -239.333450
65.325989 -66.796219 -242.481094
10.988322 -68.262817 -243.918716
52.061298 -66.721138 -243.807327
47.521309 -68.234085 -246.849716
38.793648 -67.536583 -250.718857
48.383480 -67.279976 -250.682755
51.287609 -67.142471 -250.726227
31.691338 -66.417244 -254.214188
-12.499880 -66.675308 -252.766968
41.461773 -66.140694 -252.458755
-154.117493 -69.961380 -255.106979
-131.108032 -68.426041 -253.784164
26.103462 -65.937561 -257.932312
41.768162 -68.678680 -253.782471
-116.223396 -67.031082 -257.578735
24.721291 -69.061249 -255.647125
-114.304192 -67.201027 -256.997223
-100.785782 -67.555130 -257.760345
34.755920 -66.852219 -254.480560
-150.684402 -68.339317 -258.251312
-101.207718 -68.318962 -259.131256
-6.059698 -67.996552 -261.126099
-147.021545 -67.993896 -257.827240
35.453514 -67.438637 -258.721893
39.526783 -68.505165 -258.075531
-107.607231 -67.929558 -260.494415
26.485201 -66.777847 -261.311859
30.295732 -65.960121 -261.711060
-149.168076 -69.128387 -260.307800
-135.915619 -66.626488 -261.783966
28.369667 -68.633797 -262.273926
-142.835342 -68.019882 -262.794434
-124.863457 -67.334663 -264.066071
-133.507172 -67.086143 -265.385651
-118.362946 -67.689522 -264.537994
-5.325196 -66.489273 -266.344421
-146.082214 -68.219437 -263.070068
-5.496193 -67.227158 -274.398163
-152.448242 -66.623711 -274.233093
23.228529 -67.839302 -272.165833
-153.107498 -68.878998 -282.280487
-143.852325 -68.218880 -282.937500
-8.155664 -67.517845 -283.705566
15.382176 -68.800713 -287.475311
-132.035370 -69.136024 -284.485229
-127.782806 -67.052490 -285.242310
-7.397559 -66.588051 -287.194061
-136.080734 -68.043137 -286.617004
-124.127121 -68.804550 -287.241669
-114.966133 -66.006966 -288.757813
-116.785797 -67.724182 -291.074707
-137.278214 -67.760750 -293.425140
-131.423431 -67.194832 -292.262451
-124.767242 -70.011238 -293.365051
-150.960266 -69.094261 -296.052795
-152.844147 -67.225510 -299.888123
-148.548828 -68.858559 -300.531219
-145.822311 -67.331436 -300.784119
-146.240616 -69.730179 -305.271240
-149.686951 -66.207428 -310.597778
-153.970779 -66.420944 -310.691162
-146.989853 -68.272095 -312.194641
48.116398 -69.156204 -16.646000
44.621052 -70.786057 -27.075502
20.595339 -70.763115 -31.003668
43.005085 -66.529503 -31.582838
26.424681 -67.279884 -32.756542
48.000607 -69.949104 -33.660011
35.561672 -70.800369 -37.441547
26.515429 -70.295952 -38.856014
33.436230 -67.629044 -40.564842
