# This PCD file was generated using the MATLAB® pcwrite function
# from Computer Vision Toolbox®.
# .PCD v.7 - Point Cloud Data file format
VERSION .7
FIELDS x y z
SIZE 4 4 4
TYPE F F F
COUNT 1 1 1
WIDTH 1456
HEIGHT 1
VIEWPOINT 0 0 0 1 0 0 0
POINTS 1456
DATA ascii
28.849430 -51.732212 -19.563295
47.296532 -53.754642 -18.379097
25.853676 -51.609604 -21.097858
40.573540 -51.681545 -21.117970
49.394066 -51.580494 -22.049086
42.400776 -51.327374 -21.604847
21.144396 -51.192947 -21.603037
42.881443 -50.281559 -23.889565
49.562477 -51.403030 -26.649364
44.295895 -51.488510 -26.697857
20.268085 -52.611759 -26.803167
19.844872 -51.660290 -31.584860
24.360516 -51.653492 -26.992092
22.830404 -51.254738 -26.419020
43.396091 -52.072803 -31.406937
48.785496 -51.273052 -31.643717
25.351278 -51.085812 -29.986353
48.742802 -51.591713 -31.434656
20.339489 -50.778233 -29.261114
23.918142 -51.859600 -36.909107
24.921923 -50.578773 -32.297783
41.173176 -52.107208 -34.148842
20.694944 -53.258739 -32.643719
27.792175 -51.109974 -32.802608
29.924805 -51.706413 -35.698536
38.908760 -52.590389 -35.712666
34.853840 -51.719223 -37.624565
46.566776 -53.055576 -35.274593
23.145943 -53.255688 -37.935040
25.819632 -51.598465 -39.437786
33.573502 -50.905766 -40.568058
30.143070 -52.281857 -40.614403
30.671276 -51.405422 -40.484375
33.345715 -52.297482 -41.191525
36.990211 -53.135391 -42.468086
-66.050056 -51.035988 -44.438316
-89.207016 -52.330303 -50.482922
-41.638851 -50.673065 -49.072880
-28.497021 -55.941818 -49.972797
-20.392868 -53.251324 -51.238495
-16.071039 -51.101555 -52.255684
-14.220613 -55.319138 -49.769939
-95.135185 -51.559464 -56.224735
82.327248 -55.076332 -57.843090
77.974419 -52.590103 -56.926983
-61.832058 -52.286743 -56.603649
-7.426682 -54.976139 -58.295238
80.971092 -49.794949 -58.676300
87.009102 -51.431904 -59.002857
93.520874 -51.211975 -58.958443
-8.287832 -55.594181 -60.375717
-62.631622 -50.375267 -55.931046
92.647453 -53.287758 -58.560066
69.957886 -50.952087 -60.528339
97.282661 -53.425362 -60.857067
-97.985809 -53.589073 -62.983589
-61.206181 -52.905788 -59.145142
98.272491 -51.613239 -66.122543
-65.947906 -52.818653 -68.444138
65.174797 -52.848972 -66.753090
101.422142 -51.021446 -66.683121
64.879616 -50.829414 -73.061554
-38.675713 -51.706951 -71.388779
72.276779 -51.193325 -72.467049
78.647476 -51.021141 -72.350685
86.409378 -51.304703 -72.818542
69.448761 -51.443798 -73.877998
67.832726 -51.543892 -73.780998
88.034119 -52.452110 -73.498535
97.188675 -50.932018 -77.763046
95.995117 -51.094631 -80.300636
99.793724 -52.117123 -80.636742
94.650826 -51.395332 -80.100182
-100.163048 -53.273106 -82.921532
62.145744 -51.491901 -76.474365
-50.716724 -53.022938 -83.393806
101.472755 -52.349468 -80.835953
104.383575 -51.773315 -83.375641
95.652481 -52.922173 -88.976547
62.369827 -50.402103 -92.684738
102.693695 -51.743374 -88.309654
102.600578 -52.255299 -94.992790
102.388931 -50.518009 -94.639671
98.534317 -54.446476 -98.131355
101.254166 -53.988255 -98.247765
-63.326233 -52.944210 -106.520035
-63.086521 -50.740574 -106.754807
-98.918739 -57.577805 -105.199135
-72.678772 -53.348156 -109.581276
-97.705223 -54.982689 -115.347435
-63.760700 -50.882584 -111.634041
-95.733719 -56.498886 -119.648117
-95.843224 -51.876125 -117.541718
-91.703598 -51.814941 -119.080879
-90.082291 -54.244720 -120.920990
1.764331 -50.093018 -235.860260
-1.165658 -51.353302 -236.241959
-3.710788 -52.480999 -237.727142
-0.365075 -49.993145 -237.442001
4.143215 -52.762047 -237.507568
8.580021 -52.947128 -236.596252
10.058833 -52.548885 -237.726990
3.148251 -52.557911 -237.373413
15.586102 -52.841614 -238.204285
21.146723 -53.304699 -238.972519
5.461656 -51.590370 -238.533127
3.439421 -53.021450 -240.159271
12.746524 -52.366116 -239.961975
20.493198 -52.699142 -240.717926
-3.355922 -51.654152 -241.470581
9.266057 -51.372097 -240.470581
20.018431 -54.144772 -241.683105
5.617023 -51.865467 -242.605682
-11.526012 -52.617798 -243.712616
-4.989036 -52.961590 -242.375427
7.907797 -52.351349 -242.593018
17.750721 -50.631336 -243.225571
17.945768 -52.923054 -243.382065
22.870800 -53.560638 -244.454956
25.847557 -51.728981 -245.428253
20.193703 -51.001198 -245.562057
-10.990918 -50.565178 -246.652313
27.744026 -52.108028 -246.078644
-11.707136 -52.588615 -245.648849
-11.575565 -51.565983 -249.130707
24.217945 -51.039921 -247.592621
13.184814 -52.156635 -246.849579
21.355679 -53.070770 -247.090591
-10.744756 -51.744381 -249.325394
29.700954 -50.656025 -248.972031
-12.124215 -52.944527 -249.235229
-12.377304 -52.680058 -251.322296
-12.949271 -52.933495 -249.538452
-11.632425 -51.051411 -250.840134
-13.474199 -52.019066 -249.683792
26.279501 -53.816959 -251.901505
-14.371215 -50.273834 -251.822266
31.503374 -52.585300 -251.857254
-13.552712 -51.168411 -252.514114
-13.046625 -50.579292 -252.222122
-12.885992 -52.670750 -250.877289
-12.705382 -51.063107 -252.804611
-13.891237 -50.843121 -253.591324
-12.300728 -50.925106 -254.826004
26.216614 -52.012833 -253.069611
29.441992 -51.078686 -254.916260
17.017429 -50.864487 -254.105896
-15.499780 -51.910904 -254.867401
16.334484 -53.404243 -255.555099
16.560160 -51.822182 -258.892365
-14.167668 -51.857346 -258.154358
16.860260 -51.725990 -263.571869
17.255487 -50.627728 -255.107407
28.162434 -51.419704 -259.009369
7.407711 -50.668510 -261.623596
-12.175808 -52.494938 -262.294495
26.856934 -52.836506 -264.616211
29.841251 -51.945229 -259.621185
17.076860 -50.657627 -263.177917
28.526020 -51.502747 -264.909393
-12.334022 -53.145096 -265.382233
-7.589920 -52.012993 -260.510315
9.456703 -51.506992 -263.280853
-11.470634 -53.458244 -261.735107
3.894141 -50.961586 -266.117126
28.259693 -52.977219 -266.345490
-2.754724 -50.417233 -269.434052
27.237534 -51.325367 -271.661621
-8.674011 -52.835381 -269.433563
-6.781376 -51.397587 -267.087585
0.051184 -50.917923 -266.014221
28.110586 -51.931873 -268.567780
7.638990 -51.482643 -268.719147
3.544854 -51.433231 -272.531830
7.633051 -50.259808 -270.892395
16.677120 -50.193996 -269.623383
29.497307 -51.908218 -273.162506
25.576647 -52.136063 -273.557861
27.974699 -52.899433 -276.974121
15.648427 -51.089218 -276.268188
16.116289 -51.862991 -271.854401
20.594698 -50.770424 -277.011383
24.677382 -52.341858 -271.623199
9.085711 -52.305210 -278.839935
-5.770122 -51.900723 -273.171082
-5.872052 -52.996498 -273.928040
4.022054 -51.417660 -278.884644
24.347340 -51.870197 -279.784393
12.137105 -51.216385 -282.954346
19.294811 -51.703968 -282.839142
13.120104 -51.646946 -280.127106
21.630508 -51.758018 -281.445068
17.326656 -51.674950 -287.134857
24.062017 -51.536068 -284.177368
19.929686 -53.527203 -285.807831
-0.347990 -52.028557 -282.115753
7.047489 -51.765499 -287.266327
22.679878 -51.946949 -285.348022
13.975410 -50.397114 -287.635101
3.159652 -52.115261 -290.439911
17.271086 -53.711262 -291.211121
12.702787 -51.346966 -288.863373
12.401637 -53.555920 -291.381317
4.516001 -52.075554 -291.159393
9.790968 -52.875011 -291.923706
13.866185 -53.034603 -291.827789
8.954654 -53.567932 -294.814880
3.339174 -51.707184 -294.300568
4.230276 -52.212818 -295.602966
42.199673 -51.301991 -12.718526
37.271809 -49.980072 -13.685054
27.010408 -50.531918 -14.689146
39.905560 -51.789551 -16.784338
34.396973 -50.986401 -14.539498
37.982685 -50.736412 -17.460667
28.974493 -49.771080 -16.655991
32.628941 -50.314205 -17.793804
23.200403 -51.321033 -17.593464
27.363838 -49.792740 -17.842922
41.816998 -50.179729 -19.840879
44.491402 -50.351082 -16.435720
25.225500 -50.704483 -21.097235
49.370682 -49.423340 -21.672546
44.150913 -50.484791 -22.209024
47.030582 -50.939499 -25.695108
48.600876 -51.972950 -29.962360
43.364601 -52.143433 -27.201887
45.931908 -49.617729 -26.556425
47.843067 -48.832695 -32.347042
47.791142 -51.036591 -33.804974
41.041855 -50.273579 -33.252464
40.858616 -49.297913 -36.040913
30.314346 -50.305489 -36.713974
33.141418 -51.943817 -36.693859
36.084980 -51.342854 -38.484112
27.500845 -50.817112 -38.741135
44.384678 -50.013157 -37.773804
44.466030 -48.928429 -37.062160
44.006474 -52.100704 -38.749245
32.047886 -51.588100 -39.616463
40.871971 -50.508137 -39.617641
35.442616 -49.949902 -40.208382
-78.974037 -52.314133 -44.802765
-92.649689 -51.293999 -50.663219
-37.389618 -50.803104 -50.430367
-7.553181 -54.978771 -53.730885
-94.972160 -53.649918 -57.093124
-8.578922 -48.910908 -55.031326
-65.297905 -51.550430 -62.520020
-96.614090 -51.822945 -59.670979
95.147820 -49.662186 -62.202377
-28.838556 -55.096199 -62.379757
-60.971146 -53.647854 -64.459679
66.326027 -51.075943 -62.482487
98.047386 -52.071503 -63.517830
99.321510 -53.037842 -64.025803
-62.570370 -50.727448 -67.333549
-99.830467 -52.967548 -66.942162
68.459457 -51.019188 -68.657654
83.617859 -50.578915 -68.412735
67.136055 -52.131844 -68.937012
75.503014 -50.502754 -68.603401
102.697830 -52.014236 -71.854362
81.560219 -52.001633 -70.077332
89.835754 -51.016594 -72.624954
61.809772 -48.840134 -74.997681
66.654434 -49.760284 -69.362137
102.843407 -50.680992 -71.899559
97.760338 -51.437222 -76.242455
103.298401 -51.929058 -76.419868
87.889977 -50.316162 -71.158539
-39.945076 -53.263790 -80.162628
99.659874 -50.366024 -77.457596
64.394081 -50.920376 -74.989487
102.907425 -50.834270 -84.649384
60.334816 -50.411320 -82.338768
99.643372 -52.018879 -86.674858
100.801147 -50.649826 -86.862968
103.370209 -49.020039 -89.333214
98.775955 -50.159645 -91.542450
61.684872 -51.753841 -90.339104
63.533661 -51.234409 -86.973297
100.100922 -52.616028 -96.041374
62.720089 -50.662643 -96.934807
-70.626266 -53.669647 -98.638451
65.589981 -51.945259 -98.160942
65.127541 -50.239662 -101.938568
65.573982 -50.325523 -101.699623
-99.726654 -51.327343 -106.402222
-76.280731 -51.806007 -107.114449
69.796791 -50.758392 -106.978493
67.817696 -50.971134 -104.677032
74.974541 -50.216049 -108.180992
-69.143784 -51.211964 -110.640739
-67.775269 -51.104542 -106.392303
-79.644226 -54.289444 -112.673576
-95.836136 -55.224922 -122.286880
9.051086 -51.130104 -235.497330
4.508530 -50.791611 -235.634277
12.124589 -50.632904 -235.026306
8.448277 -50.084049 -236.469681
7.818989 -50.173199 -238.117508
3.954940 -51.013561 -236.627441
14.443315 -49.847672 -242.019760
12.804124 -50.348545 -241.242264
-9.786438 -53.704319 -241.775223
7.377772 -48.863335 -243.475204
15.977571 -51.369434 -240.910980
22.792871 -49.577690 -242.045044
0.730853 -53.194328 -241.937561
0.535087 -49.052853 -243.280029
14.064265 -50.489571 -241.138992
17.082867 -51.776550 -242.283356
4.074955 -49.361153 -243.661606
-12.811528 -51.577477 -243.084610
-6.449480 -49.747532 -242.841553
-0.903759 -51.637066 -243.571198
2.255883 -49.607693 -243.597305
5.726063 -53.704945 -243.444244
19.192162 -49.922527 -243.240173
16.879248 -51.198029 -244.534882
17.161116 -51.096863 -244.346329
16.105730 -52.343864 -244.588623
17.738729 -49.823925 -244.698441
10.658165 -50.425240 -242.941208
12.927034 -49.848965 -245.348541
7.220979 -50.880741 -243.309265
25.414392 -51.408016 -242.613220
-13.832338 -52.919178 -244.298752
4.908001 -51.578968 -244.219376
14.440186 -51.684250 -244.334534
30.188862 -51.976139 -248.921860
-10.853411 -50.466080 -248.498779
-10.581592 -50.355057 -245.565369
24.243319 -51.392879 -246.346786
-11.232517 -52.270908 -248.106979
-11.144461 -48.840069 -246.960999
-11.838532 -50.747498 -247.885361
27.755627 -50.952637 -246.451355
21.422897 -51.836002 -249.265518
29.693094 -50.322853 -248.826523
-12.067406 -50.340405 -250.379044
-9.649165 -51.318741 -249.652405
-10.584333 -51.296780 -249.840607
-11.443077 -51.233368 -251.087082
1.535590 -50.603855 -248.702042
6.736146 -50.287472 -249.666458
-12.773765 -50.986286 -250.711426
-11.923573 -50.788044 -250.601669
15.588714 -51.100494 -249.585510
-12.615839 -50.612850 -252.346344
8.370784 -48.982101 -252.805054
3.081037 -49.548470 -251.905685
16.648699 -50.946125 -254.431854
30.559288 -52.544754 -251.836594
-12.006038 -51.241066 -255.243805
-8.786534 -49.930080 -260.128113
31.406549 -49.606327 -251.998337
-7.694979 -50.157776 -251.850388
6.998918 -49.969627 -253.946030
28.667116 -50.896740 -255.309326
-3.713233 -50.961029 -256.061005
25.238771 -51.290169 -256.785736
27.863304 -49.771584 -258.698730
-12.062022 -51.337551 -254.165192
24.148027 -50.818058 -259.325623
-10.346473 -50.805294 -259.079529
-5.347910 -50.623558 -259.296906
3.121595 -50.375820 -257.755920
1.146937 -50.237598 -261.533875
31.737936 -52.206238 -257.374878
-1.525857 -50.936314 -262.344513
27.433632 -50.702110 -264.761475
23.977718 -50.159550 -264.138763
-4.950299 -50.464718 -264.472382
22.362978 -51.690620 -268.820374
-3.142727 -49.974552 -273.108032
6.975397 -49.634533 -273.460480
17.920589 -50.558609 -272.209259
22.505037 -51.798725 -271.390839
3.825126 -50.377888 -274.463470
0.718545 -50.835056 -276.704895
9.221416 -49.314400 -274.985535
26.266144 -50.474548 -275.995575
-1.665733 -50.922668 -278.822540
18.329565 -50.902126 -275.868988
22.638876 -51.991886 -276.904907
25.536196 -51.748909 -279.945770
4.523929 -49.783752 -279.738556
14.563712 -50.216022 -278.259644
23.132441 -50.321346 -282.153473
16.891191 -51.086250 -282.431702
21.700045 -50.337341 -286.185059
13.672454 -49.691311 -284.601959
9.512596 -52.068672 -286.539795
21.075550 -50.210060 -286.801910
19.975897 -50.947731 -291.151123
17.060917 -50.702793 -289.971802
15.653527 -51.868855 -293.389221
15.512469 -49.589699 -292.468536
11.321881 -50.126465 -294.790070
13.990073 -52.178616 -295.934296
6.306909 -50.252167 -294.819031
9.535489 -50.158279 -296.005707
6.967377 -51.909286 -296.619843
-77.701202 -47.778763 -44.708332
-80.700058 -52.871525 -45.922287
-49.932671 -52.518772 -47.106762
-88.069458 -46.363926 -50.864597
-36.224720 -49.537693 -51.410454
-27.316753 -52.292824 -50.681465
74.747261 -51.714912 -58.397072
78.057899 -50.459591 -58.044086
-59.561749 -49.423866 -56.310791
-8.541758 -50.814171 -56.757813
82.332855 -53.341484 -59.426304
-17.954773 -53.208462 -60.134933
86.306503 -50.055893 -60.455917
-22.162367 -50.191906 -61.387218
-60.589970 -49.113743 -60.386791
-22.818247 -53.208416 -62.062553
-64.884026 -51.457439 -64.770874
-62.653034 -51.331409 -64.526581
65.944031 -50.455055 -65.877869
83.591393 -49.384548 -68.022560
100.528152 -50.227600 -65.907906
74.902328 -49.526081 -68.461601
-37.728477 -49.327087 -66.450356
79.041847 -48.382156 -69.895645
88.535583 -48.128716 -71.921417
64.937531 -48.610050 -71.853882
102.967316 -50.291100 -72.586441
95.909538 -47.997406 -73.776260
99.997383 -49.997849 -75.521378
-42.165478 -51.235588 -81.038391
-44.676796 -51.675484 -80.260559
65.429398 -50.466518 -80.612785
63.808838 -50.321598 -86.404953
61.126812 -50.223259 -84.958069
-101.737984 -50.869217 -86.536842
63.904266 -49.914955 -87.820694
60.865604 -50.044727 -92.980721
62.966564 -51.747215 -95.016853
65.097763 -49.553738 -94.504517
-71.291687 -49.053307 -101.357712
-99.254089 -54.862823 -107.626381
80.076981 -49.497524 -107.966850
71.485359 -50.595303 -108.549324
-98.995773 -49.898682 -109.921822
74.046898 -49.870625 -110.323357
-96.759087 -52.515728 -116.392654
-84.040329 -50.595177 -115.961815
-88.813004 -51.412941 -119.936600
14.450747 -50.464783 -237.296234
16.599424 -49.970463 -237.391342
16.482378 -50.154190 -236.572388
21.819107 -50.958069 -238.923447
17.137497 -50.051014 -239.108475
20.258308 -50.501926 -239.602539
1.258266 -49.974426 -241.451401
10.387501 -48.510803 -241.585602
21.775679 -48.620327 -242.115143
-6.162666 -49.923027 -242.696487
17.363121 -51.887291 -241.754074
18.610628 -51.017689 -244.371597
22.578741 -50.126820 -242.184708
7.533634 -49.811172 -243.596832
-10.349827 -48.939857 -243.292175
-10.133892 -49.861588 -242.717209
0.106335 -48.719803 -243.521240
-9.741043 -49.541866 -245.530823
3.552386 -51.060120 -245.023773
-8.612799 -49.736076 -244.215347
15.968922 -48.732883 -244.123047
18.560486 -49.401505 -248.220291
-11.833574 -49.433239 -245.826904
-9.580358 -47.837952 -247.638031
-7.207265 -49.818985 -245.460266
-4.648899 -50.214474 -251.006943
13.575969 -49.558170 -249.939865
7.415436 -49.853916 -247.448700
18.395233 -49.058533 -250.893234
-12.607816 -51.396088 -248.984573
-13.600438 -49.626740 -250.142136
19.701614 -49.664131 -249.437225
3.719825 -50.154057 -248.120407
17.840195 -49.947620 -251.901337
-10.856509 -49.367237 -250.969955
2.430005 -49.615211 -254.699402
-7.741897 -49.076347 -255.492310
14.605550 -50.507084 -256.747314
16.220070 -50.246754 -259.668640
25.094124 -50.799500 -250.707336
9.235559 -49.311245 -255.748337
21.302048 -50.875038 -253.371399
3.203088 -48.666859 -256.419617
-1.466604 -49.079479 -255.174255
17.858660 -49.570919 -261.681763
1.172840 -50.407310 -263.210632
11.757798 -50.678532 -259.976166
21.763506 -49.449734 -260.643127
-5.312233 -49.758179 -260.281738
-1.480360 -48.622204 -267.232788
8.767612 -49.904373 -264.453003
6.815895 -49.794224 -267.780060
14.598351 -50.551979 -266.168091
-0.956261 -50.408283 -270.411774
14.839571 -51.003059 -268.780060
14.116960 -49.285435 -273.308289
5.706240 -50.171772 -272.798523
10.180613 -51.572414 -274.562317
-58.991749 -50.582966 -43.613823
-55.766914 -50.206417 -46.062519
-45.926334 -53.185589 -47.702362
-21.119659 -50.790848 -51.511360
-12.059454 -48.676601 -53.370922
75.750664 -47.604874 -56.319153
83.869827 -48.579098 -56.794903
-64.322884 -50.221035 -60.563675
76.453903 -49.007893 -59.012825
-10.356381 -49.716801 -58.316029
-10.839415 -50.357208 -59.041992
81.782021 -49.050457 -59.257133
95.423347 -52.233376 -60.303516
-65.090553 -49.047829 -58.253262
72.129700 -49.437756 -64.155624
69.524017 -48.950272 -64.479790
72.617760 -49.494343 -65.067627
84.006195 -50.110168 -68.496544
102.267578 -49.613602 -70.154106
67.640213 -49.828369 -67.335854
66.146828 -50.487076 -69.520325
88.342125 -49.153706 -69.221092
94.353882 -48.873039 -71.365746
98.186142 -47.031464 -72.784554
65.035202 -50.412582 -74.250847
-100.414772 -46.281559 -76.212700
63.942867 -49.164421 -76.771683
-43.567043 -47.049648 -78.583382
64.786484 -48.080196 -86.079285
60.193745 -49.192146 -79.769157
-57.074539 -49.579380 -85.616051
-57.744713 -52.698528 -85.932457
62.083927 -50.030239 -85.175003
62.877754 -48.577148 -80.017113
65.397018 -48.830563 -91.219803
65.470322 -48.722179 -90.156548
64.750504 -48.762939 -90.061234
66.775917 -47.737900 -90.227257
61.137150 -48.152939 -89.226799
-100.608231 -51.385117 -93.908035
64.859726 -50.114323 -95.824730
66.876717 -49.907524 -98.425354
-98.951370 -51.625568 -100.470688
62.718216 -48.502472 -98.769821
63.532215 -48.945789 -98.020737
-71.279655 -50.450420 -98.133186
71.406120 -50.095879 -104.983841
66.253204 -49.527031 -103.587532
-74.900803 -50.762474 -104.302498
66.679504 -49.109840 -104.906334
74.036713 -51.533749 -106.811302
77.372543 -49.225060 -107.773308
69.821800 -48.901745 -107.939629
82.752686 -49.256069 -107.705643
83.064056 -50.440048 -109.080223
83.489861 -48.898628 -110.766968
-83.230759 -49.771187 -113.937454
-88.577751 -49.597607 -118.665619
-92.149178 -48.651852 -117.565659
-7.136371 -47.576088 -242.869095
-5.179443 -49.071125 -247.176559
-9.639925 -49.095879 -243.388306
0.100809 -49.215061 -245.531174
-9.133158 -48.353615 -248.125046
-0.394180 -49.189644 -252.134705
-6.778281 -49.017078 -253.707336
-80.093918 -48.664063 -43.710712
-61.704853 -48.368729 -45.487907
-56.009624 -45.053455 -47.683937
-87.297607 -50.291084 -48.747543
-50.753059 -47.422585 -47.765316
-62.080456 -50.991173 -53.844078
-42.300541 -48.182770 -50.595985
-61.496231 -50.157635 -52.340260
-61.931351 -49.481022 -54.226601
-63.542683 -50.350239 -56.233162
70.040054 -50.167702 -57.340557
-58.953800 -48.204849 -56.801189
89.202072 -49.633183 -57.840736
91.528412 -49.543537 -56.543076
84.542694 -48.618549 -60.817902
70.590874 -49.363174 -58.836315
-62.992401 -49.244968 -63.416039
94.376984 -46.822037 -59.527519
73.879570 -48.714817 -62.196163
63.971115 -49.711445 -67.715248
81.050179 -48.151077 -67.020584
65.797005 -50.662418 -65.949486
68.981995 -48.656849 -65.714417
66.020363 -47.731426 -70.276001
88.237839 -48.618198 -67.488617
64.775810 -48.944462 -70.085281
96.800812 -46.945053 -68.640503
90.746719 -47.995991 -69.179169
67.131668 -49.270256 -68.802559
101.092064 -47.452396 -69.710640
65.886383 -48.591572 -73.403221
-39.770496 -49.717300 -72.744400
59.005863 -46.780083 -75.739281
64.614227 -48.427956 -75.253281
64.924171 -48.267628 -78.016006
-45.975914 -48.214828 -80.905754
62.276508 -47.329796 -78.634003
60.139141 -49.627834 -80.027390
-52.968735 -51.913219 -84.111755
60.648678 -47.988251 -82.343651
61.414177 -49.412613 -81.041374
66.405182 -47.332676 -80.699257
64.833427 -48.150650 -86.270073
60.206341 -48.221329 -84.222511
63.910473 -48.300304 -90.746651
65.922882 -48.995934 -90.689880
65.301888 -46.201893 -89.791092
64.400604 -47.123196 -87.336067
61.222420 -47.297798 -90.157494
64.548500 -48.826237 -90.300377
65.121933 -47.043774 -89.027809
65.546082 -47.259903 -90.149139
65.860970 -48.633598 -90.074997
66.271255 -47.879730 -91.447411
67.643379 -48.611359 -90.807594
60.656761 -48.255184 -90.328651
-66.478157 -52.716789 -91.440430
61.817791 -47.112415 -92.596512
68.791618 -48.482178 -95.749969
-67.688789 -48.740280 -95.189095
63.425877 -49.165344 -93.858170
64.957741 -49.023575 -93.869385
60.932297 -47.449539 -96.093170
64.983047 -50.348186 -99.007233
-72.244301 -49.568459 -100.276672
68.247452 -47.553612 -98.642517
68.619987 -47.689274 -100.344360
66.747108 -47.655491 -100.901802
68.785851 -47.205170 -99.869972
68.462898 -48.750683 -99.919373
63.298912 -46.835091 -99.611763
65.868919 -48.928261 -100.907280
-100.415092 -50.231300 -102.026299
61.638306 -48.735832 -100.804535
70.455238 -48.582901 -101.283302
64.292213 -48.488537 -103.925613
96.497765 -48.354740 -107.906235
-78.378990 -43.049988 -103.353912
73.556778 -47.445774 -105.130257
69.230347 -49.573708 -104.134064
77.091385 -47.651093 -106.995003
-77.390221 -50.559196 -107.115509
73.092201 -47.175415 -106.021980
66.512878 -49.078728 -105.129082
75.575157 -47.767162 -108.084137
76.086006 -46.452854 -107.278847
81.411736 -47.515118 -108.367516
92.122986 -48.430038 -110.090759
-78.235764 -50.019474 -110.093773
88.456131 -49.278587 -109.541969
68.746101 -45.741791 -109.621071
-83.095245 -46.726429 -110.408295
73.429504 -49.049679 -108.523643
80.294266 -49.457848 -108.290352
94.780495 -48.011757 -109.783607
75.598267 -49.001595 -108.867020
81.298897 -48.684277 -109.656624
81.611275 -47.352024 -112.363907
85.077759 -47.502880 -111.560989
88.185623 -47.834270 -111.647186
-96.904655 -46.897865 -115.193794
-83.262367 -48.159256 -46.603626
-43.512589 -49.267475 -50.389954
-60.939816 -49.304459 -52.924629
-62.940315 -46.613499 -51.648750
-35.916191 -47.847202 -51.710251
-29.938543 -50.539848 -50.867519
-26.032209 -46.763939 -53.065495
-21.961298 -47.730659 -55.230164
-9.792233 -50.373058 -52.664272
-63.087727 -46.807625 -53.452473
-93.591949 -47.453178 -54.338589
73.671165 -45.756641 -55.927406
-96.874855 -49.478729 -56.450802
-62.281967 -48.141567 -61.770958
78.061867 -48.779575 -58.446331
80.488266 -46.334984 -56.051758
86.252319 -48.949623 -58.682198
72.688400 -46.975422 -58.955296
68.208687 -46.700054 -63.593468
94.923317 -47.537632 -60.804104
74.648872 -45.905342 -59.476288
-96.749504 -45.930824 -60.390690
-98.790512 -49.932247 -60.895741
67.718651 -47.558430 -63.473835
74.213570 -47.282822 -62.426090
-33.399193 -49.392632 -64.376877
96.416603 -48.477955 -64.269905
81.389374 -47.882717 -64.025604
81.238495 -47.517799 -63.428749
99.585297 -45.515213 -65.099518
71.923180 -46.818531 -62.749916
84.943253 -46.264591 -63.141415
-98.497536 -50.724937 -62.717968
69.464775 -47.848141 -63.624039
65.431656 -45.793251 -64.924133
89.702538 -46.937641 -65.860268
100.771049 -48.336086 -64.856644
61.759300 -47.007954 -68.032990
70.287346 -46.665924 -67.955490
-38.214092 -49.354980 -70.036591
63.442612 -46.343742 -68.352135
70.614075 -46.728649 -65.203209
70.146095 -47.800537 -69.454109
67.604774 -46.288513 -70.918076
61.251472 -47.603718 -70.830223
61.501041 -48.503464 -72.428345
69.135643 -46.051701 -71.021492
67.390015 -47.242023 -69.320915
61.868431 -47.489834 -72.335266
69.888779 -46.161354 -75.975937
68.033142 -47.029892 -70.781837
65.479507 -47.157085 -77.233498
-40.849934 -47.919483 -77.899643
104.269142 -46.128124 -74.496277
65.196762 -46.061123 -81.767715
-43.219135 -45.887539 -79.442978
105.477760 -47.212498 -82.120621
75.641792 -46.418079 -81.066925
69.076149 -45.839622 -82.657898
65.762230 -47.171001 -85.994308
79.397896 -46.901497 -87.916298
-58.791386 -46.369114 -87.246841
72.207962 -46.620945 -86.793938
65.070221 -47.901020 -89.927704
66.153366 -47.934948 -89.423546
65.557419 -46.862949 -89.929619
66.989151 -45.996296 -91.318588
75.194214 -48.147957 -91.115280
104.488136 -46.545189 -88.911163
-100.779701 -46.328045 -87.207169
65.170219 -47.735870 -96.412758
102.769310 -46.938663 -96.292542
74.350624 -47.033955 -94.006325
-67.619377 -51.028713 -95.132622
80.646637 -46.814819 -93.130188
62.168236 -47.507027 -94.797607
67.586754 -47.266323 -92.641754
64.987946 -47.840675 -96.932419
60.312920 -47.783943 -98.599075
68.002220 -47.099407 -99.140869
-99.910881 -47.967693 -96.235794
73.365433 -47.120609 -99.399048
83.630989 -45.519936 -96.231552
100.377670 -46.173611 -101.156815
82.249802 -46.156910 -101.292908
69.701599 -46.493977 -101.730598
67.470398 -47.393070 -98.314026
100.887276 -46.629097 -100.031723
67.225555 -49.312576 -102.779541
-73.334877 -48.864323 -103.782219
74.272156 -47.100117 -100.918747
70.549728 -48.056866 -105.558228
-98.677116 -46.809307 -104.199234
77.133118 -45.695580 -106.115860
-74.792618 -49.209232 -105.302727
80.936852 -48.574635 -105.346733
82.341652 -47.567440 -105.293198
98.383034 -47.564060 -107.141899
65.422188 -46.120377 -104.850861
65.595619 -47.107918 -105.307083
82.148941 -47.734146 -106.935791
90.686897 -48.940701 -109.683578
70.850891 -47.678844 -110.156448
-97.586563 -48.483162 -109.718918
81.136169 -47.028286 -109.513443
89.153587 -46.639431 -111.206261
87.036613 -47.547832 -110.065094
73.268463 -45.765404 -109.122971
72.129440 -47.824020 -112.524422
86.761642 -47.733032 -111.648140
-82.892662 -50.310280 -111.791298
-83.861664 -48.503208 -112.390106
88.607132 -48.472076 -114.519867
92.182274 -49.350002 -111.543739
-96.364555 -45.548141 -114.442116
-94.466881 -49.336960 -117.468712
-88.059532 -46.431469 -115.850174
-74.318352 -46.101307 -47.002022
-52.652515 -46.482491 -48.497227
-62.876526 -44.806431 -51.276691
-59.925053 -46.905457 -51.717983
-58.477459 -46.785389 -52.485905
-64.282402 -45.657471 -52.747429
-16.394720 -46.309441 -54.057602
-60.739071 -46.984108 -55.251457
79.265205 -46.813377 -55.149738
-61.785507 -47.290615 -55.889759
81.030525 -46.269772 -55.011776
-60.109585 -45.021954 -53.800457
-95.791710 -46.667534 -57.967361
75.805779 -47.131847 -55.856400
82.033478 -46.904240 -55.792774
91.166489 -47.592831 -58.088875
70.375732 -47.118221 -58.596378
89.684753 -45.372402 -58.145828
96.269096 -48.400135 -59.125153
86.727425 -46.451668 -58.691593
-11.956417 -46.317883 -58.820438
-10.271519 -45.577877 -58.591217
79.665703 -46.856247 -58.739719
83.983810 -46.569698 -59.973988
76.443985 -47.192524 -60.680481
82.689430 -46.368103 -60.131962
82.725990 -47.186596 -60.343666
78.620407 -45.837345 -61.370544
-24.369904 -47.732655 -61.984894
99.408943 -47.723137 -62.106236
-31.731785 -45.477947 -62.836853
69.380028 -44.744808 -60.956799
73.460152 -46.203728 -61.460644
73.636551 -44.671616 -63.803505
72.681427 -45.056149 -60.486156
73.666077 -45.113155 -63.165504
67.910103 -46.976948 -62.465111
74.174942 -45.871655 -61.857983
101.794830 -47.140800 -61.822323
67.246132 -46.035439 -63.522354
90.900238 -45.158779 -62.496937
99.059860 -47.383461 -64.635910
75.275497 -46.129902 -65.535439
96.209862 -45.158710 -63.835430
71.987900 -45.309444 -69.634659
97.578972 -45.550766 -67.137589
101.523521 -48.004395 -68.943108
68.739044 -46.356571 -70.869644
68.653557 -46.113102 -71.201347
67.722466 -46.007523 -72.265633
103.245750 -45.621658 -70.214828
74.131187 -46.060932 -69.783768
105.206566 -47.227680 -69.218231
73.573143 -46.625916 -76.686295
68.178375 -45.506493 -74.689697
82.033745 -45.506924 -72.339691
-98.860886 -48.862072 -78.170937
102.124077 -46.473423 -75.488419
84.136742 -45.881721 -79.209846
79.106979 -46.460979 -77.015465
68.326477 -45.054691 -78.822166
106.092621 -46.417126 -78.750687
-47.059601 -46.908966 -81.904694
-52.667564 -45.619797 -81.017593
68.086624 -46.129215 -87.966408
104.770226 -46.668056 -84.874222
-58.032505 -49.067501 -86.615791
79.677376 -45.552063 -83.426025
89.704720 -45.242462 -88.939552
70.165298 -46.080204 -88.594620
106.495880 -46.710281 -88.483246
-64.669609 -42.328300 -93.978897
84.433006 -46.716064 -91.558113
75.310860 -46.623878 -92.458519
103.713722 -45.605064 -97.286430
100.790436 -47.348797 -98.409554
86.754463 -45.262642 -97.169464
68.870506 -46.446499 -97.664345
80.651405 -45.220375 -94.616173
84.977051 -46.149017 -100.360199
95.728157 -48.117226 -106.282272
74.644958 -45.998978 -104.395111
80.841835 -45.376019 -105.671036
90.778008 -46.468704 -106.694969
76.889198 -45.485508 -106.822571
84.480537 -45.403687 -107.708588
87.094147 -45.600788 -108.235634
95.775002 -45.901897 -106.841103
94.399864 -47.124329 -108.646706
87.394615 -44.357468 -108.908592
93.557426 -46.857647 -109.786041
70.248634 -47.061604 -109.462036
82.642319 -45.713615 -109.940636
77.289757 -47.016148 -110.066010
84.164719 -45.699558 -110.842812
89.808685 -46.976147 -111.665352
73.829018 -45.760445 -110.617050
74.723557 -48.388344 -111.997093
79.345558 -46.649441 -112.387283
84.858299 -46.001968 -112.766876
-67.778305 -47.405598 -44.894947
-61.063602 -45.071789 -47.729645
-57.309086 -41.658974 -49.090775
-39.181335 -46.425850 -51.568794
-22.356737 -46.546482 -54.404751
76.731331 -44.465927 -54.608387
80.867981 -46.524773 -55.772995
82.822525 -45.297058 -54.793633
81.971321 -43.728741 -53.990768
-10.535964 -43.325439 -55.786175
-9.165812 -46.690727 -56.767693
76.664169 -45.312511 -56.232533
90.385780 -44.111172 -57.235001
72.021507 -45.014881 -59.962772
84.340271 -45.563232 -57.470840
88.057732 -44.248260 -58.015472
88.998825 -44.835163 -58.196419
87.016014 -45.233639 -57.885876
87.246933 -45.191227 -58.121033
92.240677 -46.350746 -56.790279
86.968407 -43.831131 -59.301632
-15.416531 -47.246933 -59.651485
77.734077 -45.435390 -59.824680
-19.238716 -45.597435 -59.129829
91.798447 -46.249989 -60.297375
94.526627 -46.131031 -59.333923
77.309990 -44.798939 -58.965092
-25.010630 -43.464180 -60.335201
85.179764 -44.887161 -62.042137
87.949028 -45.162060 -60.360790
95.428360 -46.454235 -62.084942
74.616203 -45.032337 -60.522270
78.591965 -46.175304 -60.644726
91.689423 -46.651997 -61.233364
73.809959 -44.495892 -63.082138
82.684654 -45.292713 -62.150993
103.145180 -44.380264 -62.538002
-36.436821 -46.644146 -64.178688
98.782021 -46.083370 -63.915997
81.311577 -44.030125 -65.185890
-99.864006 -48.699665 -67.330383
78.447578 -45.345337 -65.192223
73.324638 -44.746880 -64.439270
75.625786 -44.423603 -69.956711
73.018570 -45.220844 -72.113007
-38.239212 -45.650650 -69.414238
100.276726 -44.381096 -70.928078
84.155334 -44.632439 -70.583382
-39.829849 -44.691460 -73.471306
106.382393 -44.606815 -72.980377
72.824883 -46.195827 -77.076324
78.640182 -45.519180 -79.697357
100.709663 -44.110710 -78.892906
103.428856 -44.287739 -77.851479
-50.160954 -48.132767 -82.261925
106.063133 -45.284462 -83.996933
88.266869 -44.672371 -78.487411
73.593529 -45.740376 -86.435593
-55.024151 -47.286388 -83.690269
73.786652 -44.496124 -83.115593
93.979637 -43.249092 -79.536034
104.619179 -45.684761 -82.450104
91.021935 -44.821365 -85.498253
104.296059 -45.810257 -84.455452
103.407822 -44.586285 -84.521255
93.109268 -44.814976 -86.006737
105.046692 -45.396698 -89.974106
81.282600 -44.994038 -84.135719
83.610786 -44.036678 -87.274757
-59.766998 -48.327202 -87.553627
-100.828995 -47.766071 -96.409279
82.629021 -44.790627 -91.210876
92.058655 -45.573856 -91.873093
102.593658 -48.062065 -92.942535
89.775658 -45.640957 -93.592873
90.673889 -45.230751 -97.153229
97.072884 -44.679260 -95.625008
99.210678 -44.572857 -96.291122
102.974815 -45.739296 -96.333298
80.890320 -44.335255 -97.767601
92.990982 -45.436710 -92.920853
-100.059998 -46.841919 -100.822617
79.244362 -44.055195 -100.021072
93.200272 -45.209751 -99.631203
100.805077 -45.438950 -95.899513
99.741737 -43.511536 -98.365524
-74.221161 -46.380016 -101.726074
81.334595 -45.482563 -102.086525
99.707924 -44.483486 -99.915047
87.965179 -45.709904 -103.579971
100.153496 -46.200954 -101.565895
95.508141 -46.188663 -104.772697
101.722801 -46.391235 -103.935852
99.713654 -44.884056 -105.577118
84.782188 -44.632229 -106.527328
90.902061 -45.609364 -108.536728
-96.388618 -46.065792 -111.907181
96.756081 -45.635517 -108.964211
80.117989 -44.908039 -112.882065
86.552673 -45.295414 -112.484398
82.208977 -45.290028 -113.145363
90.139091 -43.573174 -111.162056
90.835922 -45.776379 -113.127281
86.639633 -44.692047 -113.963081
-93.856514 -45.932003 -114.896278
-62.309242 -44.526245 -47.308830
-61.682957 -46.453823 -49.924667
-57.671917 -47.186947 -48.395191
-52.367279 -43.725101 -48.356461
-90.989243 -43.890900 -51.211781
-61.086918 -43.937279 -52.997696
-40.661625 -46.831757 -52.869473
-32.688503 -44.989426 -53.699825
79.392265 -44.744621 -53.947147
89.435539 -43.911964 -57.436779
84.069733 -43.946632 -54.467419
84.891502 -43.789482 -56.079735
94.289780 -44.389381 -55.461327
92.141006 -42.906948 -57.144566
85.049614 -44.385445 -57.159752
93.701477 -44.171841 -56.881824
99.449745 -44.478039 -58.534519
86.333748 -44.940132 -58.708149
88.220184 -44.067673 -58.447186
97.663246 -43.697289 -59.570599
98.531158 -43.541649 -59.507324
82.209213 -43.484474 -60.116817
-30.146477 -46.483261 -61.212784
91.935516 -44.083172 -61.341904
84.858765 -44.784847 -62.233818
96.107903 -45.258953 -63.422226
96.591576 -46.453274 -61.839279
101.412560 -45.374786 -64.823990
-97.369553 -46.921967 -64.173241
88.764664 -44.900646 -62.442173
85.449356 -44.669453 -63.954258
90.069168 -43.910557 -65.275856
100.993904 -44.769524 -66.439827
99.451714 -44.743893 -63.479450
77.626740 -44.588306 -64.816132
99.524315 -43.694248 -69.045563
77.988617 -44.621506 -68.716553
101.073364 -43.573509 -68.183578
103.525772 -43.617672 -70.499466
89.643311 -45.300762 -68.464012
91.689064 -44.880802 -76.165840
-100.895317 -42.974972 -69.462852
102.601395 -43.508293 -73.845482
-39.894547 -48.969807 -76.918694
103.507988 -44.086906 -72.005981
-101.189812 -47.434658 -72.780251
89.425331 -43.316380 -68.999710
103.924477 -44.156696 -74.663475
103.545219 -44.852783 -72.435883
-44.040581 -44.389294 -76.018723
86.111092 -43.959961 -73.240570
101.799393 -43.463318 -74.638351
94.637192 -43.851692 -76.220985
85.185410 -43.882942 -79.847725
102.643494 -44.122604 -78.583916
-47.673328 -43.734871 -80.274445
103.124168 -43.478180 -80.873787
-55.469872 -43.639904 -79.116348
102.136185 -44.124142 -78.852417
104.544098 -43.559349 -78.679039
-47.197739 -44.668236 -80.226425
99.852158 -41.938728 -80.440536
-56.288651 -44.395065 -80.635330
106.912064 -43.806309 -84.290192
104.051186 -43.705154 -82.593445
103.291878 -43.706036 -81.382622
104.402306 -43.309776 -82.919075
101.737213 -45.087780 -83.349915
102.353790 -44.361179 -83.263840
104.071732 -43.784168 -82.979462
104.018639 -42.775532 -83.611847
103.380516 -43.954971 -83.482681
104.585213 -44.711906 -82.400360
103.984795 -43.457924 -83.761848
92.793060 -42.397945 -87.604034
104.362610 -43.537914 -83.156120
102.323669 -45.322971 -84.582062
102.533943 -42.399071 -84.536674
98.987473 -43.166386 -84.178246
102.719162 -44.211899 -87.009460
84.055763 -44.050125 -83.095116
103.343170 -45.393486 -89.165794
105.368095 -44.027386 -89.600052
101.139664 -44.449677 -92.288452
103.207977 -46.051899 -93.482864
-99.385201 -43.148792 -91.649323
-63.127274 -44.019493 -91.534523
101.785728 -44.304024 -90.486061
97.489304 -44.410053 -93.115593
105.275574 -44.711800 -94.146225
88.953613 -43.079834 -92.774521
85.519630 -44.254402 -93.914299
91.570900 -44.184921 -95.068390
100.610855 -43.997704 -91.196014
102.335167 -43.495445 -94.158180
104.775848 -42.797291 -97.267334
88.289314 -43.755505 -95.116837
99.726227 -44.387085 -99.645432
-71.671280 -45.824757 -99.011940
97.678139 -42.673435 -100.048546
-71.741455 -45.660225 -101.518196
98.962433 -43.613159 -100.865753
104.206215 -45.295467 -98.083138
102.516258 -44.401566 -99.576942
90.643227 -44.302391 -104.064476
101.661476 -43.435429 -103.601250
-98.376945 -44.872200 -104.659752
102.062355 -45.489017 -101.478165
94.455170 -43.031246 -102.226555
-98.115456 -46.820919 -107.186188
91.763443 -45.086552 -107.248154
93.443558 -43.834473 -105.614647
98.173111 -44.393063 -106.364227
99.559814 -44.207054 -106.624977
96.253578 -42.414909 -110.261307
94.719315 -43.465149 -110.574356
94.155434 -46.123924 -113.783417
-88.124352 -45.344101 -113.996681
-90.935371 -46.416172 -118.161331
-75.626091 -44.646366 -45.563015
-79.881866 -44.764004 -47.290264
-58.727581 -43.274086 -50.069584
-47.069908 -43.580296 -53.562717
86.956734 -42.830357 -54.674709
-11.266172 -42.825626 -59.784973
-22.210178 -45.522808 -60.858128
101.353920 -44.269894 -59.920170
94.889992 -42.818645 -61.631153
87.035721 -43.054241 -62.899696
91.366379 -44.301830 -62.664677
97.449982 -43.276707 -64.207481
96.847351 -41.927204 -63.975761
100.544014 -44.331799 -62.067474
102.229050 -42.656082 -63.436600
99.904198 -43.826218 -67.677727
103.789444 -43.420425 -67.868950
-37.598595 -44.096611 -69.408012
-99.244247 -40.665802 -65.515800
95.013100 -42.324707 -66.522331
97.779655 -41.878551 -68.713120
104.252495 -44.507118 -68.546112
105.780396 -42.521019 -70.122749
83.317902 -44.818329 -64.026031
103.152222 -42.836449 -70.564537
105.967316 -45.376102 -69.819946
87.503387 -43.667847 -66.941978
94.919716 -43.860519 -73.371422
106.233124 -42.773426 -71.890381
90.096596 -43.188950 -75.312668
107.000526 -43.532509 -77.676979
107.152756 -43.408096 -76.730392
102.073166 -42.886742 -72.016998
-54.702148 -43.956455 -78.113930
-100.259689 -45.423939 -81.016800
94.917465 -43.790199 -80.603752
103.680580 -42.299156 -80.133217
103.576569 -43.063206 -82.107605
104.321236 -43.183647 -81.919792
103.482643 -42.991051 -81.094139
104.444122 -42.763351 -81.034401
105.525826 -43.516094 -85.420601
103.808670 -43.856575 -81.615852
102.580864 -41.389133 -82.664818
101.576248 -43.620975 -83.958427
108.035835 -42.109985 -78.749191
102.441902 -42.963985 -84.512985
107.266289 -44.417538 -84.604408
94.010460 -44.273132 -88.420456
103.701080 -42.608730 -84.527153
101.732956 -43.134571 -84.584686
-101.192589 -44.220306 -85.946487
106.395706 -42.586311 -88.452347
98.401947 -41.566921 -83.715454
104.977898 -44.242840 -88.105019
99.931999 -44.165653 -91.371193
105.454308 -42.782654 -93.925415
95.009193 -43.732224 -92.506821
100.498390 -42.165276 -95.451981
98.222710 -43.855469 -96.559021
104.289703 -44.151718 -98.326591
-80.625137 -42.886238 -106.609749
-85.934425 -44.599331 -110.375534
-84.628090 -45.745487 -111.416687
-65.554359 -42.698235 -47.436142
-60.435104 -42.866573 -50.016464
-59.794548 -41.266872 -49.561470
-52.877853 -42.105133 -50.250389
-91.643852 -44.342766 -53.444016
-41.218754 -41.794327 -54.390240
-31.732513 -40.991787 -56.215378
-12.798086 -42.644512 -54.346191
-21.184750 -41.341694 -55.942341
-9.690498 -43.188889 -59.592400
-16.257605 -41.938042 -60.766800
-33.460335 -40.739483 -59.788849
-35.472267 -42.410931 -63.667011
-39.980320 -42.820000 -67.707664
96.007187 -42.354717 -64.542252
93.447929 -42.229862 -68.689636
98.041275 -42.072720 -67.271957
100.708878 -42.735359 -72.708191
95.136681 -41.795132 -72.945328
-56.040665 -43.473686 -77.305733
-43.044807 -42.092480 -76.185303
-100.829865 -42.698906 -74.941635
-50.037754 -41.444187 -76.317627
101.462730 -41.877800 -77.344612
97.564705 -40.742344 -74.151466
99.906769 -42.270672 -80.283508
-57.856617 -44.973537 -83.119644
101.362106 -42.046299 -82.153404
-100.685516 -40.870987 -86.667747
-60.410099 -41.052563 -91.410362
-75.883736 -45.627464 -103.097954
-97.724785 -42.831406 -105.245941
-78.189850 -41.613377 -48.056049
-82.053810 -43.456120 -49.376480
-49.472351 -43.534374 -50.907890
-13.282601 -41.385071 -55.802032
-18.116247 -41.108677 -56.364796
-36.663960 -42.619659 -56.427280
-24.154694 -43.713741 -56.255138
-37.612179 -41.648560 -57.738880
-12.767070 -39.906742 -58.110287
-28.136900 -41.434135 -57.556034
-96.935310 -44.125298 -57.801689
-27.231712 -41.141781 -60.287727
-95.882629 -46.191711 -60.444645
-28.787128 -41.861641 -62.051697
-37.165089 -41.417709 -63.332542
-40.197186 -40.995068 -71.947479
-54.795300 -41.200272 -73.865051
-45.189049 -41.801281 -77.121658
-58.851231 -44.632732 -85.916458
-81.047340 -41.920593 -105.104485
-84.093269 -45.197296 -108.420708
-85.483711 -41.979179 -108.378769
-94.209389 -40.451508 -112.007683
-90.950813 -43.452488 -115.154434
-71.553917 -45.872475 -46.887421
-76.133537 -38.987053 -48.312206
-88.275215 -43.570484 -48.939541
-59.485401 -38.885887 -53.451488
-47.893517 -40.951954 -53.158478
-29.451799 -40.547440 -57.702625
-38.891090 -38.363972 -57.690765
-32.306911 -40.588039 -58.665684
-33.583652 -40.431862 -60.494621
-30.657240 -40.230461 -59.061375
-19.017782 -42.933071 -61.795929
-26.999495 -42.437721 -61.507324
-18.937948 -40.470493 -61.947826
-37.859726 -39.401970 -60.499657
-38.858379 -40.870865 -66.616417
-58.584484 -40.114338 -75.660828
-100.253418 -41.513603 -80.430771
-57.406094 -41.815887 -84.981529
-60.205563 -44.800991 -86.382736
-58.988914 -44.154995 -88.197296
-99.375984 -42.593254 -95.886604
-99.516075 -42.954620 -98.592735
-98.483170 -40.935055 -97.367149
-97.439705 -41.824165 -103.941689
-72.783134 -40.618721 -101.708511
-97.596252 -35.840374 -96.777336
-73.403984 -43.386440 -102.207336
-95.492325 -42.822639 -107.096107
-96.192940 -42.707050 -108.679268
-88.090622 -42.057163 -112.644005
-70.328201 -42.038834 -46.402943
-83.103859 -40.813320 -49.160297
-62.527149 -42.147900 -49.776638
-50.651608 -39.522503 -54.471569
-41.312855 -41.357605 -59.582123
-45.619389 -40.305527 -55.967312
-25.745300 -40.317593 -57.412003
-14.270924 -39.964218 -58.263138
-17.166288 -39.829014 -57.744072
-22.673582 -40.359135 -58.828579
-14.965595 -40.781612 -60.735023
-25.194717 -37.997429 -59.543026
-16.393343 -38.954914 -60.336922
-22.362492 -38.801476 -59.723938
-41.870438 -38.122040 -64.489548
-98.330238 -41.469353 -62.820286
-56.211670 -39.959511 -67.466675
-41.155796 -40.378170 -66.428841
-54.870342 -39.903690 -70.422691
-49.194996 -40.623978 -73.057213
-41.501007 -39.272537 -71.527626
-44.857674 -40.756535 -73.458382
-46.126995 -40.158413 -71.644638
-60.735218 -43.966248 -88.235336
-63.694759 -41.020264 -92.996613
-68.459900 -43.890148 -97.919449
-98.104477 -41.718067 -99.675865
-69.872101 -42.761692 -101.067383
-75.046440 -38.537746 -103.301956
-89.785034 -42.146851 -112.806488
-86.401054 -39.073307 -51.548962
-48.559792 -36.932293 -57.293087
-97.651848 -40.380081 -61.458954
-54.288174 -38.853065 -64.855545
-44.563484 -39.026627 -67.513390
-46.821640 -37.542641 -71.799881
-99.028160 -41.745079 -69.315231
-100.350403 -39.977737 -71.293968
-99.714539 -39.592598 -77.200142
-94.862335 -41.814053 -110.188797
-79.406937 -37.127869 -48.783760
-74.419250 -38.849659 -47.366940
-70.357826 -36.467995 -50.679005
-60.036392 -38.964451 -51.343887
-88.216408 -39.421242 -54.281998
-51.273338 -36.832981 -56.126556
-55.896072 -38.206741 -57.615433
-43.812012 -37.576820 -58.656425
-48.465843 -36.628159 -58.873627
-48.962223 -38.015022 -68.832886
-46.454517 -38.616196 -63.202713
-47.135323 -36.122105 -65.717010
-49.998772 -37.661892 -64.463715
-98.801903 -36.945560 -68.616859
-58.720001 -40.040062 -73.363777
-98.401886 -36.156723 -80.238914
-99.833031 -39.047825 -81.657082
-99.308784 -39.957832 -88.807671
-100.140587 -36.509151 -88.995377
-96.434525 -39.639812 -104.711746
-97.182793 -38.294434 -103.234932
-76.654350 -37.930431 -106.232895
-91.824493 -39.268707 -111.971855
-89.791611 -36.317810 -110.815231
-83.183746 -38.764622 -50.003708
-65.764389 -36.103958 -52.472897
-84.716072 -35.072845 -52.944016
-91.311813 -31.052019 -58.631409
-56.035603 -37.232704 -54.588627
-94.417038 -42.155582 -57.777027
-53.651989 -36.482010 -60.323734
-56.355549 -34.606922 -60.790905
-50.548759 -34.975842 -59.850204
-54.893085 -36.797504 -61.372799
-95.988068 -36.506821 -64.018135
-47.659794 -37.141060 -64.157372
-56.632980 -38.118565 -64.874168
-97.962677 -36.368179 -66.747154
-58.369343 -37.562046 -71.733620
-58.647484 -38.170837 -76.328178
-100.484039 -36.901928 -76.651848
-57.525188 -40.908577 -82.984619
-97.676804 -37.479156 -93.790184
-67.456406 -36.144756 -98.750427
-95.662178 -38.262764 -106.224823
-85.302910 -36.727558 -109.904465
-86.629471 -37.992172 -111.933159
-83.182594 -34.815655 -51.117699
-62.656044 -36.400230 -52.737411
-91.999825 -41.154938 -55.628719
-58.904530 -34.888966 -56.099140
-57.322720 -36.640991 -67.209770
-58.583504 -37.489624 -87.964218
-97.336975 -37.605160 -95.791092
-83.562515 -39.464912 -106.508385
-93.398506 -36.092278 -107.267288
-91.725342 -39.213039 -110.566216
-74.425209 -34.657951 -51.145229
-57.096626 -36.412098 -58.421070
-97.886284 -37.148624 -64.758812
-58.304928 -34.343014 -86.726395
-59.438938 -32.370869 -87.257813
-97.439423 -31.920427 -84.218834
-62.686844 -35.493565 -96.389824
-91.414230 -33.663364 -106.531281
-94.103104 -38.468834 -107.293633
-83.935349 -35.106167 -107.641556
-99.735695 -33.221199 -74.127655
-97.604973 -33.647598 -80.829529
-58.296265 -31.235954 -80.303917
-98.942909 -33.912731 -84.635811
-59.444710 -32.562840 -83.857330
-59.037502 -34.175327 -89.028305
-98.454712 -33.683216 -90.123840
-68.169617 -35.475464 -101.655609
-94.045891 -34.403458 -103.582527
-74.216965 -34.264252 -103.884834
-78.756302 -35.314705 -106.474380
-89.337120 -32.957348 -56.074341
-97.065750 -34.163162 -66.310104
-98.595963 -32.807880 -78.270195
-56.362045 -29.864580 -77.872925
-60.094704 -33.248188 -91.368416
-96.085114 -33.077526 -90.335457
-94.750450 -33.372337 -99.738708
-81.691620 -34.476299 -105.865822
-84.690414 -32.880444 -109.379440
-86.353043 -30.704929 -106.241486
-68.151558 -31.969654 -51.774914
-81.367630 -32.744186 -52.287170
-63.010632 -33.398930 -54.565006
-89.630852 -35.770149 -54.955360
-92.664566 -32.580902 -60.972057
-60.686714 -31.873318 -59.453529
-99.258690 -33.808704 -71.034187
-97.927910 -31.431074 -82.259773
-58.726227 -29.625221 -83.063667
-62.323845 -31.810390 -95.598763
-64.858276 -33.148563 -99.577797
-71.163803 -35.027309 -104.698494
-91.445206 -33.542961 -104.744911
-90.362526 -31.924500 -105.803543
-83.817978 -32.365517 -108.114845
-77.602661 -32.676453 -52.590454
-87.596504 -30.281898 -57.620663
-60.493542 -28.948195 -59.887459
-97.274063 -33.424492 -61.983841
-58.597961 -34.754223 -62.447617
-58.447346 -28.410795 -70.523048
-98.839279 -30.237598 -74.950150
-58.878853 -30.927179 -87.598259
-96.739357 -32.343784 -96.648758
-61.819347 -32.446247 -95.675148
-88.796005 -31.899992 -108.330345
-79.106926 -32.197796 -105.177811
-71.661430 -32.397869 -50.698254
-68.037560 -29.240324 -55.767639
-84.748009 -33.181870 -54.276260
-59.514080 -30.404297 -59.939701
-59.630001 -32.087067 -61.384914
-58.286297 -33.548241 -67.132019
-96.765755 -28.362253 -69.116554
-56.995037 -31.871290 -72.975815
-61.798351 -32.924107 -91.575775
-62.160843 -31.561968 -95.287369
-68.946976 -31.665588 -103.607849
-74.838112 -30.284876 -104.849281
-77.703499 -29.112839 -105.310066
-81.204453 -27.692026 -56.273689
-58.779518 -26.698170 -64.793869
-97.658684 -29.214548 -85.078926
-67.092804 -31.565239 -101.216705
-92.183113 -29.754517 -100.103546
-88.061668 -26.689278 -99.506996
-72.064133 -30.504366 -103.486954
-78.063194 -28.891222 -53.700714
-59.460487 -28.199333 -62.698658
-93.662529 -28.776596 -62.059250
-92.900703 -29.008442 -64.919044
-58.888184 -28.351801 -66.911568
-58.824936 -29.731520 -70.091034
-97.672752 -29.799700 -78.808914
-96.659698 -29.594873 -87.264481
-61.320267 -28.126669 -87.662796
-93.547668 -29.337334 -97.171761
-61.727596 -28.967375 -94.235687
-68.314133 -29.097822 -101.798485
