# This PCD file was generated using the MATLAB® pcwrite function
# from Computer Vision Toolbox®.
# .PCD v.7 - Point Cloud Data file format
VERSION .7
FIELDS x y z
SIZE 4 4 4
TYPE F F F
COUNT 1 1 1
WIDTH 1415
HEIGHT 1
VIEWPOINT 0 0 0 1 0 0 0
POINTS 1415
DATA ascii
96.885651 -76.545372 -201.293411
-149.664902 -74.909477 -199.229843
-148.046768 -80.570023 -201.376724
17.776564 -77.709358 -193.336319
-41.571766 -80.186096 -200.656342
-33.756672 -74.777878 -203.581070
-23.840425 -78.438545 -204.284836
20.411554 -77.373489 -203.425980
-154.086044 -75.136703 -203.883270
-39.507744 -78.153809 -198.286346
-37.359138 -75.791794 -200.250214
100.672127 -77.552910 -201.513458
-18.022036 -76.614151 -202.665802
-148.065018 -76.056587 -203.898071
-34.648151 -77.326981 -204.700272
18.854280 -77.815071 -208.317001
-141.182236 -76.292137 -204.507980
-34.475132 -74.101303 -209.230499
93.800133 -76.546310 -208.286575
-26.982309 -74.978920 -206.418640
-79.384361 -79.589912 -208.228668
-149.546982 -77.227951 -209.606567
-75.693077 -74.731354 -208.033920
96.560905 -76.222900 -209.704193
-29.099270 -78.588470 -205.790634
93.009033 -75.625801 -212.130859
-71.020050 -75.664116 -208.907898
-30.576744 -77.476212 -211.398529
-15.662536 -74.945610 -209.798782
7.634351 -76.498451 -208.752869
86.294640 -76.039268 -212.724625
-74.665298 -76.440132 -214.092377
93.243698 -76.135345 -209.939133
-74.635704 -79.461250 -212.879791
-25.279722 -76.717354 -209.681229
-4.179144 -78.083313 -216.104584
91.304100 -77.212990 -213.016769
-17.888021 -75.836578 -213.911285
-77.966743 -76.571602 -214.674530
-13.092205 -78.123039 -216.646973
9.585289 -77.081833 -210.241302
17.182934 -77.360847 -218.959045
-146.138290 -77.843903 -217.265839
-29.041502 -73.172722 -216.633743
-10.220177 -78.075012 -212.337479
-28.826004 -77.509506 -214.808365
8.127852 -76.105537 -217.376419
86.478165 -75.665840 -217.002884
-3.949535 -75.471878 -217.851730
-93.635834 -74.243454 -219.660202
-25.953573 -76.374733 -217.006210
-88.395401 -77.558617 -215.534683
-22.305288 -73.701767 -216.269318
-20.431887 -76.018494 -216.657227
90.072227 -74.774696 -216.147690
8.325453 -77.798546 -218.116653
15.172024 -75.776154 -217.829361
82.569778 -76.254036 -221.509476
-1.195014 -75.415085 -226.495117
88.161400 -76.431534 -220.682129
-21.316534 -76.621979 -223.034805
-17.782627 -76.575912 -221.255310
16.920351 -77.642090 -222.781784
-145.401123 -77.679153 -222.695816
-152.009384 -77.762787 -228.296494
-16.126091 -76.765114 -226.606400
1.407347 -79.969391 -230.427933
15.113981 -75.798294 -227.114059
-153.741165 -78.050911 -229.413193
-137.632355 -74.689888 -227.920883
-149.056503 -76.798729 -228.307846
9.326261 -78.602257 -228.717316
-5.187368 -76.187492 -227.589447
5.141030 -75.656296 -233.192657
-9.667993 -74.261383 -232.441101
-141.479736 -78.471313 -227.056366
-134.945557 -78.244652 -229.724350
-3.517195 -76.292603 -230.155914
7.277967 -75.429092 -228.003677
-137.383362 -73.052628 -232.303635
-141.337692 -77.358002 -227.377304
8.070442 -75.422737 -231.756805
-144.143646 -79.260368 -234.240982
-148.758484 -75.793694 -234.212250
-146.669006 -78.154572 -233.619919
1.425634 -79.143272 -237.621033
15.091156 -74.789604 -234.675186
-147.126907 -75.186157 -235.981110
5.426315 -77.743958 -238.484390
-28.196552 -77.570549 -237.886322
-148.988617 -76.196846 -240.921677
17.617947 -74.380875 -238.926788
2.728560 -77.164917 -238.677368
-151.358734 -76.711342 -239.511688
-148.704056 -78.065720 -242.069916
-41.945198 -76.266357 -239.113602
5.826304 -75.074799 -238.388443
-47.532902 -78.963898 -241.511917
-28.601040 -79.678467 -243.874146
4.739374 -75.321831 -246.326874
7.221439 -76.154419 -244.788589
7.015321 -75.115715 -242.095123
-41.587013 -75.782593 -241.607117
-35.854210 -73.271927 -242.567871
-0.614643 -78.783028 -247.229584
22.347340 -78.925354 -242.822418
23.511265 -76.639877 -248.366013
-47.567444 -76.120262 -245.729385
-8.208217 -77.154968 -247.778748
-148.265152 -77.502350 -254.071899
-53.704464 -79.399826 -247.942780
-10.075700 -79.176140 -250.849930
-147.924286 -73.420067 -253.306274
-71.276863 -75.036179 -251.178543
-66.438103 -76.274544 -250.663177
-11.847636 -75.841133 -253.371689
-150.210938 -82.538200 -260.340668
-131.776993 -76.736443 -257.504822
-151.077347 -75.601517 -260.491333
-14.416119 -74.673080 -266.040741
21.726059 -79.122543 -264.316132
-147.728226 -76.354118 -266.591217
-149.745850 -78.074226 -265.506348
19.665283 -75.771126 -268.494843
-7.114963 -76.405457 -270.935760
-146.046707 -75.443764 -270.826263
-1.037052 -76.958069 -280.085205
-1.205327 -76.973129 -285.045502
-42.815285 -76.374908 -289.262543
-131.398773 -74.695847 -287.410339
-131.965897 -77.891502 -287.673767
-126.667374 -75.675087 -286.271515
-51.074776 -73.975517 -282.563416
-13.959324 -75.654610 -287.183472
-61.738995 -74.874435 -284.597687
-12.265525 -76.480797 -288.612122
-125.587868 -77.687828 -287.390839
-68.744583 -76.678093 -286.184235
-147.047607 -81.502937 -288.432007
-120.222504 -75.404839 -287.365936
-75.520950 -77.856613 -287.337982
-67.630684 -76.540268 -288.396545
15.447615 -76.634270 -290.256927
-57.867481 -77.391144 -285.416992
18.721544 -74.420082 -289.852966
-141.726440 -75.109756 -285.766113
-117.058777 -78.941742 -291.483154
-60.258007 -77.352455 -287.446259
-140.764877 -76.726601 -287.635895
-117.321487 -75.365845 -287.745239
-48.277775 -75.944824 -289.850372
-36.376923 -76.001717 -287.958313
-24.824665 -76.408752 -292.863556
-133.513535 -77.583984 -291.876892
-124.711884 -73.864609 -293.303528
-18.322592 -75.950516 -290.828613
2.601547 -79.801720 -289.266510
4.903861 -76.400703 -290.734375
14.071896 -75.098450 -291.017273
15.297733 -74.941299 -291.858459
-150.138306 -79.603813 -296.962097
-147.004639 -75.499763 -296.570404
-150.053772 -74.938614 -299.593933
-148.357315 -79.162178 -301.015320
-148.688812 -76.236084 -301.385773
-143.924744 -78.141098 -299.806915
-154.700226 -72.938446 -307.579651
-145.411667 -79.375092 -306.943848
-51.059845 -78.298691 -53.515823
-57.968079 -75.532059 -56.503082
-71.644821 -76.505348 -57.101448
-64.695435 -76.608398 -56.158627
-36.065773 -75.980927 -55.559853
-80.733894 -74.931961 -59.402504
-26.228912 -74.343735 -62.481152
-25.338945 -73.729156 -65.412750
-90.547546 -73.095848 -69.853539
-89.687416 -76.728065 -75.781700
85.835144 -75.164345 -73.337250
85.499146 -73.745247 -76.347954
80.785645 -75.431244 -74.916512
82.155479 -77.898026 -76.441422
88.699593 -75.701050 -78.494118
-24.800138 -77.931160 -75.899422
88.507172 -78.392853 -79.157806
-35.968079 -78.390915 -78.694298
91.069893 -75.753052 -75.533554
76.089111 -76.242531 -81.191208
92.067062 -77.484932 -85.471283
-88.852448 -76.776482 -81.695389
-45.889099 -75.744926 -86.616783
94.280540 -75.966438 -89.171165
-64.042244 -69.002090 -92.698524
91.023727 -75.791420 -94.967773
74.724915 -74.413651 -94.427895
-68.803024 -71.724037 -95.803925
92.516296 -74.993454 -96.110588
79.243408 -75.970985 -97.880119
87.781212 -74.506447 -94.960335
78.121338 -74.888374 -98.854561
88.165764 -76.583557 -95.125412
57.713310 -77.865128 -98.856308
-75.897263 -78.475952 -100.485268
-82.487877 -76.249130 -100.499542
46.595036 -74.896202 -98.398041
-75.464195 -77.567581 -101.842453
53.367741 -74.046043 -100.707687
-90.767105 -78.443481 -100.469170
51.102909 -76.652077 -103.065224
42.303780 -76.037788 -108.787659
-82.903870 -76.084091 -109.248344
-90.612724 -75.083214 -104.943825
36.174026 -75.892700 -117.104607
-92.696907 -77.348022 -113.823814
44.682713 -76.261444 -117.175125
109.782730 -78.170662 -125.668953
36.202515 -72.679192 -120.473045
35.008419 -76.543900 -122.921921
108.494072 -78.294594 -115.872025
114.091675 -78.527328 -125.724380
112.939377 -76.404716 -133.252487
40.851414 -74.470154 -129.638458
29.624233 -76.720512 -134.673492
110.879456 -76.658516 -127.413750
28.355291 -74.864990 -128.146530
113.647560 -74.658882 -135.402176
-54.275528 -74.247810 -139.469193
37.117317 -77.585579 -138.158844
-49.497700 -76.365852 -138.294937
35.095459 -75.214165 -139.497284
-46.651203 -76.483170 -138.153915
111.322838 -76.445480 -143.718689
-48.653503 -80.206566 -147.882462
33.259834 -74.519974 -144.934174
-54.106209 -75.700241 -142.283600
-56.177422 -76.065681 -147.359863
112.768608 -78.836479 -145.517944
-55.478626 -76.839653 -143.537277
33.342976 -74.276398 -145.250748
-69.670074 -74.927177 -151.672897
-51.613319 -76.191216 -148.169128
30.292017 -77.711937 -148.668655
-44.198715 -75.186531 -148.549179
-66.873833 -75.489555 -150.762054
113.910568 -75.563911 -154.313232
-38.432549 -77.581612 -152.450073
-54.251389 -78.175453 -150.823685
-47.446430 -78.250923 -154.123276
108.398849 -75.701210 -150.334915
-51.414658 -73.378014 -155.220291
21.659754 -79.515472 -156.242050
109.105438 -73.833359 -157.079971
-68.753876 -75.425095 -157.642731
-70.257805 -80.070419 -157.623199
-45.036522 -77.726418 -157.616013
6.638815 -74.799744 -157.273087
-67.699104 -76.998566 -162.061951
31.682087 -75.217133 -164.007507
110.910713 -77.967484 -158.633850
-58.081451 -78.051994 -162.415024
-42.484127 -80.080719 -158.792252
-2.656299 -75.796982 -163.061615
-43.465679 -77.340157 -164.009491
-39.086670 -77.443192 -162.297028
19.599228 -76.767937 -161.172226
-33.493809 -76.392799 -160.293579
32.434261 -77.606682 -165.880112
-60.743294 -74.214035 -164.347961
-54.223454 -75.425446 -170.864380
16.435604 -78.107277 -170.376770
-60.527084 -74.685478 -166.615662
-31.337389 -77.562080 -167.823853
-10.626759 -76.703468 -171.977036
-27.647867 -81.017639 -169.716675
-39.403576 -76.065559 -168.118866
-61.810707 -72.830231 -173.832870
17.718130 -76.852280 -173.595566
-37.132179 -77.093521 -177.297211
-11.038607 -72.245338 -172.358978
-57.562336 -75.261368 -173.907776
-6.650723 -75.955231 -175.685699
112.596123 -76.224922 -171.164581
15.673187 -77.779938 -175.364807
18.189884 -76.624619 -173.648621
110.632111 -73.668907 -175.886337
-57.046417 -76.538490 -181.294922
-23.954279 -78.708038 -178.065369
22.632080 -75.829910 -181.453064
-35.229614 -78.489769 -179.141296
113.184387 -76.142250 -179.442673
21.168949 -75.546089 -184.801224
-23.714657 -73.943474 -181.128769
-48.313801 -76.689827 -183.400650
-32.648674 -77.533897 -182.197540
-57.938393 -77.956543 -183.147110
-144.115845 -73.990471 -187.776337
-22.989367 -74.865028 -184.739807
-145.192108 -74.162018 -192.386566
-19.297829 -78.781021 -191.895859
-147.637650 -72.882576 -188.757797
-149.010880 -75.638268 -186.322372
-45.179031 -76.024887 -192.311295
112.326958 -79.266632 -188.742172
101.457466 -74.857666 -188.628159
15.541160 -76.054695 -190.523499
-144.508011 -75.260956 -191.325775
-142.338425 -78.097008 -195.662933
-142.068268 -74.697609 -194.849899
-153.266815 -77.038612 -194.670776
12.324759 -77.855759 -198.325043
21.467617 -76.790718 -192.183655
-134.700912 -73.120590 -196.851974
-136.109421 -74.213165 -196.043854
-23.305489 -79.836632 -197.051437
102.844147 -73.351051 -200.757889
22.321272 -76.558075 -191.074173
-140.652832 -74.389450 -195.481796
97.243065 -74.401398 -196.854187
-45.900330 -75.372215 -199.474976
12.380829 -76.447403 -195.368164
-136.751938 -71.933411 -202.729996
-136.942474 -73.862457 -199.539886
-8.414419 -76.163185 -207.058289
-42.033813 -78.768562 -206.197952
-20.481890 -76.251152 -201.199844
9.066368 -76.560684 -207.683640
-150.870667 -74.588440 -208.040070
91.896561 -69.737106 -200.786240
-11.823843 -73.391594 -205.744751
99.529953 -74.546249 -205.651291
-29.511578 -76.239258 -204.294586
-10.625696 -73.860558 -213.562698
-6.866520 -76.256767 -209.211548
-74.554390 -72.101807 -211.878235
-149.074814 -76.373459 -210.381271
-77.436554 -75.717545 -213.358368
-34.126930 -74.873917 -211.427628
-14.250477 -79.102859 -209.094559
10.070470 -74.476715 -208.562515
-85.144913 -76.790283 -210.652130
-80.132690 -73.390717 -210.067017
6.405839 -73.396217 -208.821426
-146.060852 -77.043304 -215.398132
-32.965107 -75.503738 -211.917831
-86.310501 -76.866966 -211.024033
-30.019829 -76.431488 -212.113953
-23.597052 -74.654198 -211.676773
-73.941429 -75.929123 -212.029022
18.950806 -74.159943 -212.950790
17.327087 -75.376068 -212.478256
-147.898300 -77.071663 -213.204895
-90.823013 -75.212585 -212.323425
-25.142757 -74.241737 -215.908981
-28.367039 -73.245300 -218.157669
-16.965925 -77.595543 -216.661346
-81.624634 -74.597961 -216.020691
-25.454035 -73.770378 -214.864044
-82.573814 -73.088303 -216.779175
7.559602 -74.895546 -211.311264
-89.121025 -76.733917 -215.311508
-96.145866 -72.937088 -218.562241
-31.063892 -76.515488 -219.095627
-22.715092 -76.067886 -219.605560
-1.822431 -76.335915 -223.446503
-148.437973 -75.427719 -216.945663
-3.254233 -78.354439 -218.093292
17.922880 -73.522049 -221.296265
-24.040344 -75.301544 -219.142578
1.532082 -77.571495 -225.187424
88.528046 -78.205208 -223.586807
-20.399920 -76.186188 -219.588531
-145.590805 -76.376305 -223.391724
-10.921870 -77.286392 -224.507828
79.348740 -75.891197 -228.127487
-142.920120 -78.451042 -226.392624
-12.224478 -76.992607 -227.251099
15.981855 -73.261353 -224.178329
-149.208466 -77.374565 -227.777817
1.512343 -76.805069 -225.218338
-8.607158 -75.860458 -225.856796
80.961296 -72.819794 -230.463257
-146.562881 -75.947762 -229.608841
4.050514 -75.381882 -230.170990
18.029299 -77.327309 -221.811340
-141.931107 -75.648827 -228.971191
-15.762680 -75.808739 -229.494141
78.252777 -77.182083 -229.266342
-3.640339 -78.328087 -232.961121
74.181900 -75.667183 -234.709763
-152.489288 -77.079865 -231.833923
2.315021 -76.189842 -234.869568
7.862899 -75.138000 -232.596527
71.068123 -74.033264 -237.933044
19.184301 -75.291901 -235.377182
-24.855503 -78.490685 -239.012405
-150.140762 -73.708138 -239.235718
-18.052124 -77.750160 -240.341049
-47.455788 -74.233856 -239.549789
-18.796352 -75.118843 -239.854202
0.549492 -79.643150 -240.459549
8.416967 -76.550865 -236.012680
-47.747944 -72.919922 -242.910309
-25.324711 -75.072830 -245.228729
7.610889 -80.164871 -245.931473
-55.749828 -76.957741 -242.685043
-27.829435 -75.674225 -245.524490
-59.500874 -78.708717 -243.356506
-31.798334 -72.747391 -242.787170
4.685394 -77.307129 -244.548553
13.456673 -77.243935 -243.460526
-65.061317 -75.365692 -246.644272
-41.066025 -74.941307 -245.114868
-42.179821 -76.138573 -246.315826
-149.871674 -75.607742 -246.473129
-45.650356 -77.977249 -247.046783
-71.900002 -75.943115 -250.278244
-55.533897 -74.067787 -250.866394
-64.342354 -76.721390 -251.470352
-10.266071 -77.106583 -249.454269
-74.268242 -77.766029 -252.505753
-76.831802 -74.426018 -247.208939
-80.473549 -71.821075 -250.931137
-79.106773 -76.539200 -250.956589
-78.746109 -76.714767 -254.211472
-157.853516 -76.945213 -255.248337
-142.342773 -76.069382 -255.126205
-147.978561 -72.209785 -256.248474
-12.315075 -79.946594 -261.375000
-139.425262 -77.078934 -257.814209
-129.550598 -75.413643 -262.131927
-126.765984 -76.100426 -260.800995
-157.995804 -74.610359 -263.915649
22.946672 -76.509933 -268.911285
-11.578704 -78.004005 -268.553833
-151.254242 -79.388344 -271.213593
-150.612488 -76.293144 -280.038055
-141.615448 -77.267166 -283.420380
14.687978 -74.769775 -285.308716
-28.851261 -76.693230 -287.636078
-158.590897 -77.332214 -290.270874
-50.526535 -77.379517 -284.197723
-40.471104 -76.635750 -287.702026
-28.612671 -75.053917 -286.440277
-9.667330 -74.041641 -287.419586
-68.270470 -77.744942 -286.222290
2.020880 -72.698326 -286.300323
-75.516670 -74.604317 -288.767365
-2.683219 -76.733879 -287.362457
-83.909981 -74.224663 -287.479614
-6.481221 -74.609001 -287.929352
10.975231 -76.175362 -287.949493
-149.209854 -73.357750 -288.640503
-133.175186 -78.378342 -289.942871
-125.010139 -75.385849 -285.679291
-89.137184 -73.405762 -290.007233
-77.796829 -75.556564 -287.804535
-146.211517 -76.949989 -289.458069
-154.183243 -75.546104 -287.192017
-77.609398 -74.087463 -288.314117
15.753760 -74.392220 -288.297546
-97.562714 -75.031540 -290.403503
-70.195297 -79.497536 -288.429291
-92.340744 -75.248848 -289.389282
-137.897385 -74.090454 -293.128601
-82.540352 -76.646072 -289.319946
-63.740124 -75.996979 -292.725616
-42.664917 -75.254593 -290.039001
-142.010422 -73.385353 -291.856812
-28.582651 -75.164658 -291.735199
-17.296873 -76.030327 -290.646240
-10.429586 -79.539375 -290.610992
-0.912057 -75.480713 -291.553619
-155.759323 -76.171295 -291.596497
-152.340851 -71.663673 -295.062805
-151.198456 -74.996078 -297.897125
-153.863220 -76.558556 -301.285950
-147.548813 -77.941956 -303.831543
-155.183640 -77.145790 -306.548981
-56.150818 -77.253510 -53.215843
-51.256836 -77.124275 -54.082272
-66.767258 -76.020134 -56.064247
-65.951065 -73.183411 -54.047421
-41.890285 -75.313454 -54.778622
-42.557003 -76.550804 -55.975380
-36.892006 -73.640663 -53.942524
-76.662399 -77.045120 -62.093029
-34.533096 -73.294113 -56.115311
-29.016163 -73.333092 -58.288055
-25.188309 -73.410339 -64.795654
-21.397861 -74.866379 -69.897858
-19.928667 -74.116951 -71.223129
79.034729 -74.138405 -72.953018
86.504128 -72.499741 -73.948265
86.332443 -73.114342 -76.021217
-31.602356 -73.474518 -78.729599
72.345810 -74.460999 -80.227943
96.827461 -75.050034 -80.426361
71.583488 -73.093697 -82.583656
75.818916 -74.414001 -83.247108
95.390976 -74.800629 -83.838013
75.767014 -74.791489 -88.724174
53.434956 -78.045761 -94.846252
53.600327 -70.146584 -91.834824
49.508499 -74.629166 -94.427963
51.966896 -74.236076 -94.160172
-68.267914 -78.020103 -96.911385
-72.148438 -75.451469 -100.561363
-72.139595 -69.438850 -101.187325
47.768257 -74.892303 -100.346268
53.304050 -75.026154 -100.304520
-82.071388 -79.065895 -106.650673
48.781868 -75.128426 -106.029060
-92.656334 -74.117340 -112.221985
105.066505 -72.682030 -104.889305
-88.403175 -76.053001 -111.418518
49.999153 -75.702820 -115.439560
51.274021 -73.869347 -111.366592
109.246231 -76.706848 -111.085617
108.687393 -74.501450 -109.459015
49.503654 -76.255104 -117.998253
32.033981 -76.439240 -116.856377
109.642654 -75.756050 -117.995377
47.474575 -75.346939 -116.793449
42.126556 -76.657166 -125.800484
27.560568 -77.554756 -125.183907
111.666710 -76.063217 -126.277519
111.614677 -75.619476 -125.975494
41.079983 -74.807869 -123.002602
42.566612 -77.178772 -132.880920
-53.022598 -77.323570 -136.407471
35.056488 -73.212341 -131.292313
109.428154 -72.013420 -134.608505
113.649536 -74.026482 -136.384232
-47.813519 -75.651390 -141.668106
28.691919 -76.025841 -139.730148
-74.753624 -74.607605 -139.011658
-71.720703 -73.529892 -144.627014
118.671371 -74.348801 -145.156769
-72.647682 -73.063965 -146.703796
-54.739334 -73.462914 -145.778336
30.556406 -75.443420 -143.292892
-42.531498 -75.252190 -149.021072
-41.099361 -73.751244 -145.373734
-76.158661 -75.392426 -152.801498
-71.517563 -76.568863 -146.260193
-39.501644 -73.796677 -150.701355
-69.009163 -75.151817 -152.366409
35.734142 -73.800957 -151.329041
112.516922 -77.213577 -150.179077
25.167704 -76.080620 -153.229538
21.039307 -74.988777 -152.480850
-72.913948 -75.875389 -155.214981
112.436859 -75.998650 -158.392807
20.694578 -74.331573 -153.341965
-36.598061 -74.126228 -155.542267
112.328033 -75.019745 -151.173965
4.741144 -76.325928 -154.937042
37.782555 -75.141632 -156.174133
-65.458267 -74.779663 -157.368149
-63.074680 -74.518051 -158.578598
116.179504 -76.222252 -159.058533
-64.369591 -73.315331 -159.371704
8.900601 -72.951576 -159.755066
30.836178 -74.512794 -153.611435
-65.212639 -73.573219 -163.262543
-65.017471 -73.911423 -161.832794
-47.023659 -76.594551 -163.191132
-60.357365 -75.386116 -162.990936
28.923443 -73.458122 -164.328247
-68.224167 -74.770348 -165.230621
-1.143540 -74.678139 -163.343155
19.068676 -76.715622 -160.832748
20.275961 -73.025795 -166.843033
107.724411 -75.367470 -164.594803
-62.586693 -75.498817 -165.793610
-66.849274 -71.837105 -168.027893
-27.242645 -75.993439 -167.691238
112.253906 -75.468086 -160.956207
106.002754 -74.728477 -170.432388
-5.198479 -76.206261 -165.446365
-4.064155 -72.330772 -168.463409
109.756775 -74.181313 -169.555542
-5.712733 -75.792175 -171.254303
-29.202572 -77.179070 -171.443054
-63.459152 -73.425560 -173.542480
-26.752348 -77.281540 -173.704330
-56.238388 -76.424522 -174.826111
-51.883419 -75.954834 -177.095383
25.544590 -75.775856 -172.336243
111.890388 -75.018364 -169.325531
110.926956 -75.069443 -174.811310
110.628166 -75.242897 -176.313446
13.096390 -74.372139 -178.149765
20.159986 -76.871002 -176.162445
-39.507278 -75.838028 -175.903015
-51.951118 -74.230293 -178.540146
103.214256 -72.564064 -185.557678
-18.345661 -77.231796 -183.547150
29.022007 -75.237183 -181.580551
107.967087 -74.769493 -181.792374
107.120628 -75.534401 -183.097534
-147.282028 -71.619614 -185.099380
107.196381 -76.348846 -184.710556
-52.049961 -72.526718 -186.682602
-50.008812 -74.653885 -185.493439
24.854563 -76.727097 -184.064682
-55.363037 -73.709274 -185.522095
-31.722652 -73.435959 -189.789337
-50.151958 -73.641396 -190.006500
-16.588123 -74.965248 -190.754364
-48.865372 -75.197548 -189.949326
102.306366 -72.904221 -188.233734
-149.923187 -77.837601 -192.870407
-39.627167 -73.804184 -193.790161
-139.423508 -74.490395 -193.453079
-46.570545 -74.620972 -194.543259
-16.794378 -74.023499 -192.411179
100.346756 -74.413521 -193.306305
-43.964725 -74.649200 -192.507034
-16.481218 -73.041801 -193.397949
26.358936 -75.456253 -188.741257
-138.782318 -77.087746 -196.914612
-43.409588 -72.769066 -198.011139
-18.136213 -78.615479 -195.283539
108.706749 -79.338898 -193.561600
103.695900 -74.841896 -192.627716
-46.443779 -75.624512 -194.210541
-26.806343 -77.539185 -194.660812
94.522400 -75.377708 -199.915680
-146.413132 -77.728462 -198.044815
-25.801149 -75.299698 -201.333023
100.710144 -74.096123 -200.245178
-157.117966 -74.565964 -198.930695
18.658243 -79.229614 -199.583359
-14.042164 -75.299240 -204.338608
9.142191 -77.270729 -199.950775
-154.810013 -77.609192 -204.000107
-38.744850 -73.479088 -202.746658
-139.161758 -76.093613 -203.361816
-36.040714 -78.517204 -201.463257
100.923866 -73.719055 -201.560059
-40.236134 -71.507225 -205.130234
98.748016 -74.826874 -200.477280
-33.414619 -75.048950 -204.071747
-144.726532 -78.081696 -204.417496
20.046394 -76.032829 -203.635040
-35.452057 -73.511086 -206.490845
-18.963879 -73.433029 -209.444046
93.546738 -72.840973 -209.771713
92.661453 -72.203674 -206.187439
91.159912 -75.809799 -208.464386
-3.481925 -75.835861 -210.777115
98.027542 -74.143105 -210.545624
-34.043064 -75.523323 -211.700043
-83.150070 -76.409767 -209.392258
18.963287 -76.513557 -208.459549
-77.286980 -73.604187 -214.452469
8.450748 -75.307426 -215.935089
-0.756861 -74.677597 -213.073563
-95.009491 -73.955582 -212.677887
-20.849691 -73.845467 -214.588654
-152.943253 -75.914192 -212.229797
-23.320787 -74.469818 -220.198746
85.993805 -76.314529 -215.461029
90.974106 -74.417160 -218.428513
-20.570889 -72.946014 -217.357193
88.750832 -73.793060 -217.225510
-5.613424 -73.957741 -224.490189
76.711624 -74.098511 -221.183380
91.208969 -74.663330 -217.870651
-101.785065 -75.515671 -221.129028
-17.491745 -74.398285 -224.426956
-11.949672 -72.412697 -219.297760
-9.808225 -72.097610 -226.206543
-146.567917 -77.360603 -224.995911
-144.959396 -77.250626 -220.434113
-16.796274 -71.892899 -220.211334
76.860954 -71.818993 -224.612946
-26.964224 -74.781242 -221.531586
-12.450418 -74.719124 -226.412140
-3.824670 -74.642494 -227.415833
-148.800903 -77.968513 -226.710724
-123.499702 -75.301880 -228.979309
-25.782286 -75.456070 -221.358841
-122.648262 -72.782204 -227.839417
-134.332596 -75.043571 -224.751602
-9.279610 -78.477692 -228.399628
2.818761 -72.532227 -228.457367
18.404928 -74.547478 -224.892288
-127.856346 -74.178009 -228.863968
-7.326033 -73.480034 -229.998260
19.755520 -72.123055 -230.028366
-129.515457 -76.123718 -230.711319
15.675485 -76.901550 -233.267853
-153.275101 -78.599289 -232.945358
-125.635521 -74.984734 -231.429581
76.314362 -72.115723 -231.012604
-5.789056 -74.864334 -233.688919
-2.670307 -74.523201 -231.976303
-5.352921 -75.352837 -234.976242
-3.598086 -75.200356 -236.058395
0.553105 -75.559540 -234.441666
66.943428 -74.303856 -235.973648
73.078476 -74.657799 -235.347733
-3.977519 -77.665848 -237.534744
18.468468 -75.957565 -239.045532
-33.502441 -75.419327 -242.702682
-27.200459 -72.450500 -241.332504
-34.766953 -71.428238 -240.392105
8.821007 -72.149719 -237.263672
-43.582050 -73.498901 -240.534378
-34.917229 -75.416855 -241.521957
-30.563381 -73.232452 -240.787766
-20.972330 -73.755066 -244.781372
-47.801376 -73.919632 -240.526428
2.922262 -75.675720 -242.184448
4.944711 -75.326859 -244.108276
-53.337128 -73.195511 -243.375122
-41.055229 -76.220978 -240.528656
1.461799 -74.230164 -242.888870
-60.981720 -76.897804 -245.184464
-45.114830 -72.840416 -246.717529
-67.511749 -71.577866 -249.093323
19.460123 -74.383797 -246.798279
-70.400627 -73.931213 -245.061157
22.363033 -75.879395 -245.122467
-146.196045 -76.575661 -246.697937
-160.803360 -73.863441 -248.279694
-75.006485 -75.909073 -248.165192
15.956831 -79.029678 -248.713226
-164.822403 -75.131538 -249.564026
-84.028908 -71.477409 -249.418900
17.481474 -74.929405 -250.597946
-79.920494 -77.093842 -251.479019
-73.718033 -74.873901 -255.310776
-89.596611 -76.840248 -254.441788
-79.578545 -72.465027 -252.773453
18.728413 -74.196739 -254.717194
-90.342575 -74.922806 -255.314056
-129.494934 -77.217751 -257.058502
-139.579041 -74.238235 -255.122269
-148.387024 -74.853386 -255.288864
-118.322464 -72.539505 -257.940155
24.479536 -75.742065 -258.616577
-147.780975 -75.475876 -258.118561
-142.650314 -72.969658 -255.458145
-134.506943 -77.335304 -257.263031
-126.068741 -76.160645 -260.160980
-12.638265 -76.201492 -255.682693
-154.507477 -73.297005 -258.000275
-131.844147 -74.592651 -260.626709
-148.061066 -73.998177 -263.879425
-141.298798 -76.955727 -259.289124
-132.586304 -73.997551 -258.195587
-131.331375 -73.133423 -259.511749
-126.887161 -77.956909 -259.637634
-162.246628 -74.513847 -260.730560
-124.501343 -74.283768 -262.973907
22.509190 -74.173889 -258.999146
-133.083084 -73.562592 -265.337585
-166.534866 -75.827415 -260.588776
-165.128616 -75.383186 -264.227173
-151.393738 -73.803612 -267.455017
-159.917923 -72.006775 -262.958679
-153.559631 -72.874710 -265.336731
-154.443344 -76.394630 -267.993988
-149.482010 -74.130905 -262.285675
-165.449768 -77.284439 -271.524658
17.069220 -77.285622 -275.600830
-165.840851 -72.632797 -273.117310
-154.132172 -74.335167 -275.610718
-6.333499 -74.840858 -275.797516
-157.712509 -74.117088 -272.469574
-146.245667 -75.090347 -277.750122
-153.847610 -73.038437 -275.569397
-5.152995 -75.017685 -279.857941
14.277732 -79.168961 -276.894714
-151.982681 -72.778885 -281.600983
-165.062317 -72.171745 -276.944763
-147.346771 -74.179527 -283.434509
-6.122372 -71.746346 -282.628021
-144.577332 -74.092941 -280.067413
-151.481903 -76.133698 -282.045166
-165.934326 -75.359367 -285.885864
-162.238220 -73.349159 -280.459747
-155.521332 -73.366684 -284.737274
-166.644974 -74.262291 -282.985535
-136.045258 -74.617111 -288.903046
-63.184261 -75.361877 -286.179535
-33.895214 -73.323700 -286.718964
-26.667955 -73.549797 -286.488220
-12.211573 -74.153175 -282.539185
-4.299782 -77.403572 -284.639557
-0.478380 -74.846161 -285.705414
6.666776 -78.087585 -284.256958
-99.126198 -73.806915 -290.228058
4.546907 -76.193947 -285.729523
-121.531570 -73.396805 -287.497162
-111.528587 -75.149940 -288.955750
-149.735458 -73.625679 -287.574036
-148.924744 -70.987366 -288.353973
15.729531 -75.603699 -291.408630
-100.537956 -73.742561 -285.654358
-152.085220 -78.641739 -289.572571
-147.838715 -75.666405 -289.654510
-124.989212 -77.717705 -290.963196
-110.444756 -74.436279 -289.338837
-80.877472 -76.721306 -292.368256
-66.623550 -74.502029 -291.263275
-162.275406 -72.673683 -291.316559
-164.268616 -73.918633 -290.700653
-121.254890 -73.404854 -293.650146
-38.593826 -74.370964 -292.671356
15.553303 -77.435265 -289.966888
-154.979324 -72.575577 -289.202759
-28.331429 -78.065849 -291.171356
-137.885849 -75.710075 -291.594238
-13.117842 -72.059731 -291.183960
3.412544 -76.688629 -293.543640
-125.001068 -77.560211 -292.591125
8.287113 -75.433472 -291.839478
14.653312 -76.022369 -291.384277
-133.614075 -78.743668 -293.505951
-144.403183 -77.450081 -293.153717
-144.604095 -77.340355 -300.727325
-153.202438 -76.217369 -310.383301
-144.152237 -75.450813 -311.838623
-70.432793 -71.960793 -53.124706
-66.127182 -72.362999 -54.460022
-43.756561 -74.494812 -53.395332
-31.824114 -74.550148 -57.834702
-26.733110 -71.468262 -57.796051
-25.502426 -74.228210 -62.443935
-22.891428 -71.597260 -60.791428
-91.207611 -70.807953 -67.022469
-20.415300 -74.724258 -66.412285
87.570053 -71.541206 -68.936272
79.231750 -73.858650 -70.487289
87.581787 -73.654060 -70.305595
-22.987110 -76.599525 -76.477242
76.654991 -75.068420 -73.524223
90.701294 -75.762611 -75.446632
-37.640892 -74.789902 -79.326027
72.762604 -73.309212 -76.415611
91.415466 -74.842285 -76.566353
70.754166 -73.799637 -80.156128
68.309624 -75.764534 -82.621063
-47.875465 -74.446068 -86.506180
73.458557 -72.560966 -84.849510
-94.232208 -75.693298 -87.089592
58.075516 -71.432091 -87.460663
70.864288 -72.416962 -87.389992
-89.413811 -78.176773 -88.529282
58.099949 -76.210419 -95.955933
50.658745 -77.357605 -96.287720
72.519997 -73.683289 -97.761894
94.487663 -74.137108 -96.565933
50.456661 -74.548409 -97.998680
-95.788902 -71.830711 -93.809593
81.464172 -75.118492 -96.035423
91.072304 -72.944359 -99.272530
74.735428 -75.410301 -97.576286
90.805138 -75.324684 -98.816498
80.275719 -74.683830 -96.476288
84.670647 -74.116013 -99.648994
82.961418 -73.836906 -96.288681
85.588501 -74.913658 -100.177277
42.466728 -72.717163 -101.369682
40.947819 -73.898285 -104.489716
105.326775 -76.447273 -102.688522
-80.877510 -77.889320 -100.959206
-95.953751 -76.787392 -101.684502
39.236908 -74.954002 -110.877068
106.460068 -73.080818 -105.404610
108.909302 -73.256210 -111.020447
107.800705 -74.821358 -111.609093
36.381222 -73.848885 -114.568970
44.614994 -73.684944 -118.243111
32.744507 -74.407471 -121.906982
46.261456 -75.141991 -115.555397
108.005997 -72.421455 -119.034561
114.565697 -71.803848 -126.661995
110.264656 -72.853096 -131.365540
113.792648 -72.966164 -133.766998
-51.883083 -73.612541 -132.705307
-55.851059 -71.598305 -129.831680
-50.076241 -73.901634 -134.420181
30.297405 -74.798904 -127.044167
37.880638 -73.358788 -131.963715
110.671501 -75.205063 -127.789841
28.129789 -72.995506 -136.833328
-50.231857 -75.018761 -139.461731
37.215240 -76.981651 -140.468155
110.739876 -74.773079 -139.826736
-70.011627 -75.368034 -138.680267
25.350281 -75.299637 -141.907867
-69.585938 -74.107338 -143.217819
26.354694 -75.521523 -145.274521
-64.833908 -72.185333 -148.381775
-54.214432 -72.979355 -148.928070
-43.501957 -76.456154 -145.385162
113.785919 -76.705368 -142.396698
114.279655 -72.458466 -138.057678
108.250664 -75.203323 -143.869995
33.220333 -74.337776 -147.496399
-54.595421 -73.256134 -147.380371
-76.484009 -76.229729 -146.008652
-38.223629 -70.490051 -154.645279
-69.249687 -77.060318 -153.855011
24.284054 -75.427963 -149.102005
-71.872963 -75.478172 -151.128632
-60.180435 -73.977692 -157.038818
113.054367 -73.032372 -149.737213
-49.358658 -75.075317 -154.702469
-66.866013 -71.743927 -151.345490
-37.440483 -74.570160 -154.810959
34.437340 -70.572701 -154.970016
-68.455727 -74.744774 -154.555405
105.546822 -77.044197 -156.486221
20.049465 -71.667091 -158.993744
114.665123 -74.878136 -148.796860
113.256332 -73.074669 -159.019394
-65.641876 -74.205833 -157.089294
-47.754120 -73.993919 -157.883224
9.893623 -75.840141 -158.939621
-66.043571 -74.544601 -160.522842
-65.694489 -71.727676 -163.816116
-66.794960 -73.942711 -158.700394
23.624380 -75.740746 -160.161636
-57.687740 -75.159348 -166.655685
-35.020863 -74.930824 -164.846603
7.039947 -74.839363 -162.674347
111.187820 -75.156761 -157.179184
105.801788 -75.298271 -164.071747
115.787689 -73.030037 -161.008423
2.599546 -76.054741 -163.797668
-31.923405 -74.813080 -165.714493
1.591049 -72.561256 -167.108353
110.981270 -74.248764 -165.767151
-3.173614 -73.773239 -165.598053
28.070192 -74.017593 -168.805679
112.143074 -73.436859 -166.564194
-42.796669 -74.670593 -168.477661
114.027969 -75.183983 -167.475769
-40.435459 -72.665977 -168.903000
-25.241974 -75.900932 -168.030457
17.104906 -75.491386 -171.148758
30.410362 -73.459442 -170.545639
112.469543 -72.425728 -168.801910
-55.367676 -74.467705 -175.653259
-39.028526 -75.995995 -173.813370
-26.091856 -77.652832 -173.828674
-63.026489 -70.965820 -170.467545
110.934158 -74.796303 -177.431198
106.427887 -75.682816 -175.973801
-59.535675 -73.736671 -173.208405
26.995615 -70.831329 -174.790588
113.121986 -73.557411 -176.399597
-58.299667 -72.263390 -176.087357
-34.450947 -73.939507 -181.812363
-24.108320 -73.880798 -177.473419
107.356407 -76.089928 -182.057220
-140.653885 -75.520416 -176.554199
-59.843266 -74.048622 -180.503357
-22.394405 -75.062660 -182.051575
108.322685 -73.701378 -183.980637
-148.224823 -75.745956 -181.206619
-53.132320 -73.861465 -183.269958
-30.807371 -76.317871 -183.696655
-19.987267 -76.149544 -184.813934
-149.469437 -71.676651 -180.785385
-143.994598 -75.534248 -183.576950
-33.578110 -74.461296 -184.628677
13.036369 -74.965271 -182.947296
-147.085907 -73.990410 -185.260574
14.929798 -73.395332 -184.337662
-144.521362 -74.985924 -184.971558
-33.677715 -74.884193 -183.050949
14.223018 -77.730766 -188.759933
12.891269 -78.019630 -192.212814
25.775248 -75.363358 -187.769913
105.915398 -74.126205 -185.839523
-31.374659 -76.483986 -189.055405
11.955015 -74.904037 -189.609772
106.549423 -74.901688 -187.703629
21.096600 -73.557388 -197.555420
-144.149567 -75.170944 -193.123199
102.512077 -74.765709 -195.707092
-15.325899 -73.658058 -194.015778
100.277779 -71.153511 -193.782028
13.880052 -72.738014 -196.562057
-132.713058 -74.144287 -196.962051
97.573982 -72.715904 -200.867630
-148.333237 -74.376373 -197.325638
-133.311188 -74.235825 -198.598709
-144.256073 -81.844131 -201.432816
-139.426544 -76.974167 -199.458725
-154.639877 -72.108673 -203.617050
-24.569180 -71.999962 -201.700439
-12.690042 -70.734032 -201.215149
18.979544 -75.215309 -208.249161
-39.353806 -75.197433 -198.122787
21.395441 -74.083046 -203.436935
96.013321 -77.423370 -199.076538
100.347511 -73.829445 -202.442139
-10.234651 -78.420471 -202.124542
-12.989045 -74.526398 -201.990677
8.948665 -74.019127 -202.061615
-33.604980 -74.528702 -210.596283
-151.146103 -72.556068 -204.322021
-144.839828 -76.137032 -205.935135
98.058578 -73.360756 -203.147827
-78.499840 -74.834717 -211.549286
-35.649803 -72.818260 -204.393661
20.047430 -76.334412 -209.889526
-29.650969 -74.636101 -208.342438
-79.707588 -76.120934 -210.265442
-78.190170 -73.263344 -212.957581
-144.341843 -75.991699 -210.564682
-75.923538 -72.271896 -209.839600
-15.729562 -76.754341 -211.874817
8.706505 -73.784103 -208.310989
-29.636185 -73.946594 -212.616455
-4.930795 -73.774139 -213.775681
92.483826 -73.198357 -210.053543
-88.906990 -73.867348 -212.687332
-82.751640 -73.484100 -210.674225
-23.776403 -75.061752 -213.115784
93.908928 -75.363129 -212.867416
-4.915209 -75.790413 -209.904312
-90.531815 -75.383987 -213.383148
-149.498474 -75.803871 -217.080322
90.133331 -73.126938 -210.102036
92.506180 -76.721199 -216.185425
-79.119179 -73.928802 -212.988251
-11.517881 -74.294846 -215.334412
-18.905058 -74.705933 -215.580414
20.567625 -73.695618 -210.545929
-6.131537 -75.204025 -215.947189
-87.729477 -74.892891 -219.289078
-26.075224 -72.367645 -217.952805
84.219551 -75.044586 -216.043930
89.948654 -74.676964 -215.822357
-16.525944 -76.294609 -219.230911
-94.369484 -75.881767 -218.304718
-149.672653 -76.837708 -225.753571
-22.838848 -73.255554 -221.281738
16.868334 -72.393265 -213.848587
16.791815 -76.726685 -218.988602
-101.698433 -75.458450 -220.656128
-18.583200 -71.318527 -224.024628
5.037205 -76.045784 -219.809479
7.629391 -73.056229 -220.406723
-96.061020 -73.990646 -220.166733
-16.861202 -75.588440 -221.277588
82.385765 -73.556015 -224.703293
-147.134659 -72.717873 -219.948959
0.859701 -76.021774 -224.266998
-23.997791 -74.727386 -222.284485
-11.511315 -73.900307 -219.685532
19.253611 -72.341347 -221.192657
79.957870 -70.661034 -221.339767
-13.050903 -73.349510 -227.851822
-132.791626 -71.789192 -224.857758
-127.745644 -74.447983 -223.143463
-10.970834 -73.495377 -222.785126
13.465504 -73.286568 -226.195068
-132.295288 -71.795105 -227.360535
-140.478394 -77.294739 -228.478546
-119.996475 -76.976173 -226.637161
-16.318438 -73.044075 -228.252960
-147.872864 -71.504128 -227.741592
-21.368118 -71.211342 -228.968399
70.474739 -73.966675 -226.739227
-141.721970 -71.846443 -229.308075
7.704333 -76.986595 -228.321136
-133.893356 -74.849060 -228.501480
-14.032139 -73.157379 -227.264725
72.667320 -70.920586 -230.372238
79.891113 -72.927406 -227.219788
-141.294617 -71.096161 -229.984192
68.836594 -75.798721 -231.352432
-15.454987 -77.148193 -229.532028
-145.319595 -75.001038 -230.704163
6.613115 -75.445473 -230.507675
-131.700546 -75.809067 -234.025482
79.210907 -75.158836 -228.924484
-127.250130 -72.446175 -236.414703
8.857765 -76.610481 -233.437775
78.810043 -73.428436 -234.575195
-145.733749 -76.530266 -235.481506
-150.805054 -73.760086 -233.977020
-12.402978 -73.093628 -231.747025
-161.565338 -76.306091 -233.866699
-158.954636 -72.472923 -235.456696
17.385765 -73.411461 -234.964890
-161.235886 -72.332932 -233.439301
-0.485253 -73.260818 -234.024139
15.368800 -72.752731 -233.121536
-13.204637 -75.277122 -237.368073
-24.261410 -74.582451 -237.728210
-1.515991 -71.776672 -238.838669
-148.067734 -73.237839 -233.264282
-0.615296 -76.479286 -238.922653
-158.688232 -72.625282 -235.863892
11.530917 -73.837296 -242.717712
-161.953827 -72.836464 -240.087845
-14.590832 -74.278503 -239.067780
69.686867 -75.178917 -236.901978
-25.101299 -72.378937 -240.597870
-15.238135 -73.357788 -238.132492
-160.914536 -73.604622 -241.625519
-28.140705 -73.173462 -240.037704
60.779728 -71.847679 -239.524139
-27.617008 -75.368889 -240.091080
64.508293 -75.131180 -239.082321
-24.515661 -73.657753 -240.288025
22.467979 -73.618355 -242.060410
-17.646021 -71.671844 -241.394623
-4.163229 -72.973526 -242.200790
5.502360 -75.148758 -241.672546
1.537376 -76.495499 -238.796875
4.907395 -73.855309 -241.858597
-146.106857 -76.734550 -245.221939
5.962452 -71.029930 -245.557587
62.977882 -74.932083 -244.099991
-151.627090 -74.409462 -245.991623
-54.633797 -69.987030 -244.895248
-49.442162 -71.910919 -244.809677
-0.141125 -72.406311 -245.495682
12.548124 -73.918411 -246.849426
15.634070 -70.315170 -240.693100
-156.870544 -73.428421 -242.400360
-155.745361 -68.418762 -244.115891
-48.145000 -73.604042 -247.418411
-3.919483 -77.193733 -248.578812
-150.561050 -73.823410 -242.592346
-47.703156 -77.125603 -248.262131
15.663403 -72.857018 -243.182358
-54.712696 -71.165848 -244.490204
-2.012240 -73.363289 -246.559769
21.442591 -72.042213 -249.528885
-68.149368 -73.949753 -248.252228
-151.721237 -72.759315 -248.538818
-164.488846 -75.135361 -248.441833
-73.826286 -73.279213 -247.418198
-8.225449 -74.520576 -246.073257
13.262880 -76.453117 -248.235748
-48.576221 -75.233253 -247.972916
-77.340950 -75.007462 -246.732224
-59.133785 -75.980072 -250.707565
-159.006531 -75.229065 -250.106918
-150.685883 -77.000664 -250.057739
-66.764511 -74.715210 -249.081390
-165.781219 -74.505478 -249.871887
-145.575165 -75.836914 -251.027390
-87.570045 -74.388214 -247.228500
-68.599754 -76.313789 -254.501404
-151.587112 -73.106468 -254.199295
-164.071732 -74.221992 -253.904068
-154.022675 -75.682640 -251.570541
-73.546455 -74.931885 -251.496201
-93.321434 -76.928581 -252.570953
20.011196 -74.426376 -252.233521
-163.462830 -74.369133 -255.234528
-98.609993 -70.759392 -256.112030
-93.870415 -72.362442 -252.911957
-87.059013 -71.896881 -251.534637
-164.477051 -71.383728 -255.956970
-156.628128 -72.902344 -256.633606
-132.324356 -74.756721 -252.729141
-84.585556 -74.310745 -253.348984
-163.018478 -73.085091 -253.293396
-143.435028 -74.286942 -255.651596
-123.028862 -75.556595 -256.274200
-85.219681 -72.515106 -255.771667
-97.369377 -75.765800 -257.361176
-136.639969 -72.314255 -258.772369
-116.656662 -73.237442 -253.905106
-94.958961 -71.975845 -254.808441
-87.268303 -74.307495 -253.197861
-92.970932 -74.727333 -253.745163
-147.450974 -75.534927 -258.037872
-98.935860 -70.664970 -256.395447
-92.224495 -72.644691 -255.108261
-151.929550 -74.656151 -259.204895
-106.344292 -75.967041 -255.176559
-99.305389 -75.276680 -255.925552
-166.852631 -76.628838 -260.479980
-158.234497 -73.796844 -261.154266
-146.848557 -73.681488 -258.812134
-116.675156 -72.794563 -257.759857
-124.737793 -77.965919 -259.299957
-106.909767 -73.824982 -259.928741
-147.521851 -73.706841 -260.643921
-139.937378 -72.485214 -262.586975
-113.861473 -75.633797 -261.676971
-12.357804 -74.974014 -264.709167
-158.956131 -74.709808 -264.125244
-141.632355 -73.730179 -259.256104
-121.070564 -75.720291 -259.682831
-135.593811 -74.304161 -262.248108
-154.331161 -75.963783 -258.232056
-157.461746 -73.904930 -263.716766
23.462286 -72.498581 -265.294586
-153.401596 -76.466652 -262.819427
-10.547404 -74.127762 -270.448853
19.520126 -72.856926 -272.567688
-146.003159 -75.209290 -275.671936
-165.175583 -74.338264 -271.369598
-10.992188 -74.479523 -275.935120
-7.307198 -74.183029 -278.434570
14.374422 -75.739571 -279.382782
-147.239609 -76.851845 -280.701355
-6.483807 -74.111046 -284.214417
10.890310 -73.416161 -282.537109
-141.844498 -75.861763 -287.050995
-135.205246 -73.468231 -287.580566
-59.416969 -75.711311 -286.495148
-68.120018 -76.365189 -285.028412
-40.521873 -71.579079 -286.590240
-31.690598 -74.010574 -282.597443
-80.811378 -76.600410 -287.750427
-32.358532 -73.782471 -287.078613
-25.309816 -71.369392 -286.520477
-123.139969 -74.519913 -287.915314
-119.165169 -74.993393 -288.044464
-115.282211 -74.902214 -289.063568
-92.408501 -73.820557 -286.164490
-91.110870 -74.334717 -287.261505
-105.153236 -71.963882 -289.714081
-167.233124 -74.453270 -284.884979
-113.602501 -75.503532 -289.140320
-113.547920 -74.016930 -285.686615
-168.243530 -75.537506 -288.343323
-56.965755 -77.588524 -291.350098
-95.393257 -75.485504 -291.694580
-92.261810 -73.334488 -291.213318
-78.685364 -75.234909 -291.866821
-42.782776 -74.197838 -291.007385
-116.739868 -72.892700 -288.913818
-113.370529 -74.602623 -288.374207
-111.355080 -75.144676 -292.173615
-27.949905 -71.743088 -289.144684
-120.324806 -74.635635 -291.111755
-115.488075 -72.163902 -293.089386
-104.714447 -74.824257 -291.698761
-18.213188 -74.005249 -292.709015
-122.928268 -71.879044 -293.200256
-143.392181 -71.942581 -297.206238
5.885404 -73.246613 -293.371979
16.618584 -75.131470 -292.069244
-161.316620 -77.174622 -294.398651
-157.327225 -73.045242 -293.478394
-130.550690 -75.728600 -295.999573
-155.739899 -75.201500 -296.902588
-151.202713 -76.380013 -296.774689
-147.171692 -73.512398 -300.409760
-153.168564 -77.412193 -303.177765
-141.932922 -74.153465 -308.404175
-154.289490 -71.050461 -306.406219
-145.708969 -74.581734 -311.090637
-151.244980 -70.832138 -314.507141
-148.480545 -75.930862 -313.092712
30.628571 -70.785004 -16.421755
25.975546 -68.938232 -14.538074
26.625132 -74.460777 -19.062569
22.658905 -72.198685 -21.655981
20.412178 -71.153191 -28.418852
23.131264 -73.872536 -25.106678
22.318806 -72.676384 -33.309994
26.044409 -71.213669 -34.142097
23.596994 -73.810242 -37.637802
31.100033 -74.379158 -38.406197
-64.264206 -72.262901 -49.669060
-54.688725 -70.916878 -50.709759
-47.447914 -74.312027 -54.137424
-63.985439 -71.819763 -54.168098
-47.844418 -73.460495 -53.094627
-39.062099 -73.879509 -54.464054
-73.637238 -75.576530 -52.236530
-31.142935 -74.997650 -57.042404
-81.455322 -74.345772 -57.218735
-15.514575 -74.827225 -66.716843
85.189514 -73.818619 -71.612846
-18.986353 -73.466995 -68.218155
89.412857 -71.313316 -71.768700
91.450722 -75.246132 -75.068520
74.561104 -73.879997 -70.813560
-92.295372 -72.824280 -74.781395
71.400513 -74.051117 -78.177017
-26.425356 -74.126724 -77.537369
-37.167393 -74.298393 -74.189301
-31.957651 -71.891464 -76.362526
-38.963333 -70.672112 -74.002380
96.907890 -72.566444 -76.608200
99.131065 -73.473511 -79.811485
-90.875488 -76.289093 -77.953178
96.303596 -72.209618 -77.672874
70.836693 -72.698425 -78.692947
-44.830181 -74.559479 -82.035744
-93.295532 -71.049812 -81.079163
98.058647 -73.245392 -87.567169
-42.850533 -76.976852 -83.050682
-53.885029 -76.340324 -90.446297
98.031853 -72.993492 -88.857903
54.189400 -69.938545 -90.567253
98.550652 -73.394760 -90.272011
-55.517426 -76.125267 -91.982742
76.104530 -73.670708 -91.094650
95.907188 -74.682159 -93.273445
56.249722 -73.397316 -93.998917
54.769741 -72.691986 -96.331825
72.130646 -76.151260 -94.043839
47.033669 -76.023575 -100.092621
105.270966 -74.809273 -98.437508
-78.672791 -74.680428 -100.692993
100.757317 -74.853020 -97.655724
107.252640 -75.625420 -99.344765
84.935059 -71.177284 -99.814545
89.166870 -77.462158 -97.179565
89.392799 -73.294838 -104.348557
103.535812 -75.210022 -102.568672
108.110260 -73.179359 -109.393715
39.137341 -72.806473 -103.904190
52.525833 -74.616943 -108.928085
36.533035 -75.604759 -108.537277
50.929390 -74.940987 -111.694122
-89.070206 -76.184303 -116.131340
33.663891 -74.556244 -114.480469
112.607712 -74.507698 -112.267128
-93.801872 -70.466927 -121.388130
103.048233 -71.521065 -117.596611
-92.263191 -71.676079 -119.667290
34.303455 -71.908707 -120.797165
106.917305 -72.103378 -119.606369
107.993301 -73.187088 -119.990875
115.517105 -73.688179 -118.028091
44.451462 -73.409897 -124.324471
109.139328 -71.985359 -124.112236
32.390568 -72.114395 -124.656036
41.496387 -73.766289 -125.434967
29.666183 -69.653175 -131.029968
41.476322 -75.014061 -128.664490
115.768990 -73.415604 -127.131920
111.931419 -74.380386 -127.658646
37.466698 -72.961037 -127.727669
112.424797 -73.094536 -130.297318
39.733078 -70.074959 -129.025421
-54.314732 -71.426521 -129.001083
108.315033 -74.433784 -124.596458
26.092649 -71.716721 -136.639160
107.394989 -73.864731 -130.714722
-49.967609 -74.995468 -135.524048
-51.320683 -74.845390 -140.156830
-74.657043 -72.147247 -137.919586
-51.883316 -75.872337 -133.783493
-56.317616 -73.904045 -139.586395
112.710625 -71.253952 -136.280029
36.606907 -74.652573 -136.937729
115.952309 -72.811424 -132.641251
107.932587 -72.542358 -138.467880
113.825745 -73.591438 -139.052475
26.309242 -71.895103 -139.651505
-71.757477 -74.092865 -142.704239
-73.553162 -74.402412 -143.202988
-57.148117 -72.453712 -143.893967
34.975231 -73.510498 -141.155350
112.810043 -72.651924 -142.405533
-41.712765 -71.987541 -146.965942
26.400789 -75.633713 -141.346909
-72.794647 -73.499069 -144.896423
-68.169647 -73.481117 -145.561615
-42.809937 -71.564308 -146.468323
-77.132782 -72.725494 -141.874664
36.366013 -72.153015 -145.352249
28.657793 -73.723923 -150.661255
117.216171 -74.527710 -147.706650
-74.220024 -71.932892 -150.504837
-69.847839 -72.938095 -146.632751
-55.132118 -73.569481 -150.917603
-67.147644 -73.085220 -149.815948
114.135941 -70.783150 -145.138779
-66.537056 -72.586693 -149.427750
113.327271 -72.872238 -152.656143
-43.581547 -73.402260 -151.737747
112.284279 -72.366127 -154.498520
7.035934 -75.252586 -152.772873
20.069464 -74.053513 -153.963440
13.736083 -75.439964 -157.992645
119.861946 -73.935982 -154.365768
-38.978878 -75.250366 -153.286926
-68.493408 -70.970299 -155.826385
4.151895 -72.139503 -157.600906
-69.850838 -73.518494 -157.392715
33.457962 -76.095436 -151.910141
110.785347 -72.077293 -148.200623
-0.659087 -74.976463 -160.808426
109.593697 -72.853775 -163.395889
109.625534 -70.763199 -151.690613
-35.070255 -74.091568 -158.578262
111.613541 -71.510735 -158.329773
-67.164093 -72.483757 -157.030273
-35.743916 -74.167435 -161.520950
113.238159 -73.594315 -158.362625
-45.047707 -75.665436 -162.736588
23.716677 -73.022682 -160.397217
6.595088 -73.942200 -161.195251
4.506661 -73.260704 -162.212997
-64.305138 -68.369347 -160.807434
-41.961319 -77.102043 -164.023727
-1.323131 -70.999580 -163.405457
110.825813 -69.233307 -163.299408
-2.638718 -71.620811 -164.891464
2.372123 -74.645424 -164.578873
