# This PCD file was generated using the MATLAB® pcwrite function
# from Computer Vision Toolbox®.
# .PCD v.7 - Point Cloud Data file format
VERSION .7
FIELDS x y z
SIZE 4 4 4
TYPE F F F
COUNT 1 1 1
WIDTH 1420
HEIGHT 1
VIEWPOINT 0 0 0 1 0 0 0
POINTS 1420
DATA ascii
-22.143675 -69.845047 -294.174561
-87.421677 -71.131523 -294.697968
-15.535310 -77.055405 -289.735443
-4.341351 -71.196342 -293.972656
-94.835396 -74.286797 -291.071289
15.438120 -76.054115 -290.720428
-10.659348 -73.344254 -292.567383
3.151947 -70.922455 -289.888306
15.713407 -70.150795 -289.094147
11.779965 -75.338776 -292.605652
-138.496536 -72.586990 -293.580658
-145.386063 -79.101372 -307.318756
-154.428253 -72.809875 -310.081573
-155.285583 -74.191605 -310.962524
-143.750946 -78.755409 -315.089325
27.840683 -69.555771 -13.065862
35.685284 -71.487602 -14.666062
38.807220 -70.950974 -9.413317
34.190205 -68.525604 -14.538677
37.988842 -70.782471 -16.267208
32.277477 -70.895287 -17.602032
36.836071 -70.322830 -16.036175
40.625385 -73.920937 -15.236749
45.377602 -69.989944 -17.322596
25.293692 -71.903732 -21.167788
46.485207 -68.833801 -19.416595
44.931637 -70.751465 -22.715816
27.879101 -75.518082 -23.739025
51.604218 -71.707893 -23.127197
17.853022 -75.237999 -21.090656
27.314278 -70.713058 -31.901218
20.006693 -69.948883 -29.754086
48.610516 -71.210632 -32.926624
41.734127 -71.227745 -35.731556
28.388229 -74.473221 -35.041759
39.102768 -68.115425 -34.799084
40.422176 -69.857529 -32.345707
47.371212 -71.979591 -33.425671
35.847866 -71.079552 -35.224144
37.395657 -69.071556 -35.155163
32.511089 -72.808708 -38.651985
38.511215 -72.200615 -38.340839
33.452572 -69.313225 -35.202251
-69.262421 -74.497581 -50.095119
-48.206642 -71.640846 -49.567444
-40.276550 -74.230698 -47.575218
-35.422375 -73.439011 -54.165474
-27.779238 -72.445801 -58.109997
-83.425087 -69.229210 -59.317707
-88.814087 -72.386055 -68.409683
84.467308 -72.565468 -72.564064
83.020317 -70.693214 -74.120888
70.716843 -73.022537 -72.298561
-20.826948 -75.670250 -70.653679
-87.846420 -72.250000 -68.288605
-17.820612 -72.052856 -77.926651
68.344017 -71.053001 -87.357407
-49.470032 -74.508347 -84.063614
64.757935 -70.747414 -87.537529
50.977734 -76.092613 -89.857719
52.481480 -70.412323 -93.496262
93.108742 -71.215591 -89.747849
48.540127 -70.465355 -91.410538
59.591110 -69.770782 -92.448494
-64.988937 -72.760757 -94.744804
-64.706001 -70.965981 -89.523239
51.125034 -72.061226 -91.364426
75.803825 -67.588440 -99.102051
-70.476234 -74.545937 -92.650169
106.303604 -74.211716 -97.843323
-63.129646 -68.767105 -93.402122
98.394447 -69.472137 -97.951195
47.692387 -70.308052 -95.989967
108.798615 -75.537437 -98.197403
-74.021957 -72.699409 -99.155891
76.206184 -70.027885 -103.975235
53.232468 -72.192551 -100.887169
97.119362 -71.113373 -99.078667
106.687241 -71.089378 -103.576355
101.116066 -70.201225 -95.804779
42.014393 -72.080643 -98.399193
-95.084129 -75.117798 -103.680367
104.824272 -73.399521 -102.199852
37.331474 -75.572853 -110.538826
107.782494 -69.444565 -106.049202
50.246502 -73.537430 -106.153961
99.894646 -71.873383 -103.847389
-88.265213 -74.078323 -111.535355
44.537407 -69.955231 -115.385193
37.907959 -70.612457 -110.624001
39.725830 -72.154854 -113.231209
103.543938 -73.580658 -111.530052
106.052231 -76.543839 -112.855217
110.196465 -73.409462 -112.318474
107.563179 -68.904182 -118.738632
111.376869 -74.436760 -115.551476
112.389496 -75.197372 -119.568321
40.362652 -70.612457 -115.375549
30.289776 -73.076279 -120.117828
44.649761 -71.499420 -115.923172
101.860573 -71.332039 -120.114365
37.854603 -74.760368 -121.761482
42.127476 -72.050507 -123.530487
103.904068 -70.510887 -128.776947
112.756905 -67.674332 -127.810760
36.187653 -72.039917 -119.032394
109.418701 -64.232597 -119.322876
-72.853691 -73.149544 -132.974594
-77.490662 -70.267548 -132.964737
108.395050 -71.556763 -131.955902
109.861916 -74.965569 -134.469040
114.595535 -71.591324 -134.607285
37.738075 -69.896996 -125.769173
110.260986 -70.434769 -135.635880
-57.953369 -74.929550 -136.761841
35.040203 -73.608139 -134.163651
-71.950417 -69.804581 -137.076828
-59.014317 -70.783531 -139.434418
-50.175434 -70.561554 -137.150742
29.507381 -74.854195 -135.098129
36.520603 -72.352692 -141.430664
-74.928566 -72.749962 -138.823242
-47.569317 -80.152779 -143.400970
108.731598 -68.945808 -137.735611
-72.477661 -69.649834 -137.223770
113.803421 -68.740524 -148.091843
-71.525009 -72.676086 -144.972351
118.857086 -75.803658 -143.296844
116.587906 -69.973724 -143.364838
31.158085 -69.624046 -146.000595
-40.574642 -70.088509 -142.269180
28.042103 -73.031654 -136.813660
-67.149696 -71.058372 -148.587738
21.840939 -70.611282 -147.447006
-68.555870 -70.277489 -151.927704
21.413252 -71.602119 -147.875381
11.651432 -70.191528 -152.618179
-52.273254 -70.721863 -148.452072
14.892375 -72.320358 -147.066422
-51.152546 -74.183121 -155.731125
-53.145985 -76.947044 -150.652298
113.654648 -74.992210 -153.407776
8.334112 -68.504738 -153.042419
33.679611 -73.718506 -154.420029
109.322205 -78.801315 -160.206833
-42.423260 -75.121338 -157.880600
-70.744621 -72.731377 -153.868011
-45.378986 -69.827965 -160.244705
-43.762482 -71.755707 -157.935806
13.109914 -75.056244 -157.977829
21.953377 -71.637886 -152.017487
-63.339108 -71.327896 -159.868546
119.225189 -73.275322 -153.374176
29.817661 -69.668648 -158.272949
8.525073 -74.651360 -161.618713
16.937809 -69.566872 -161.330765
34.683372 -71.845879 -153.092041
-34.197674 -69.235626 -164.914108
3.899905 -73.285789 -158.180023
-42.480110 -74.453651 -164.919556
34.017433 -75.362007 -161.540649
-66.608612 -75.766975 -157.478302
-61.859512 -70.784920 -163.049622
29.701466 -79.297684 -162.136490
-69.399368 -68.565430 -167.132858
112.448654 -70.227875 -161.004272
-41.332703 -70.314232 -161.315460
24.437113 -69.797432 -162.975830
-67.239166 -68.802864 -164.932419
107.339081 -70.741913 -164.318893
-62.912647 -72.519188 -170.018723
-36.148186 -72.494125 -157.960022
114.376846 -73.743645 -167.746124
-41.677620 -66.249489 -168.559250
-32.151424 -70.833748 -167.719849
-27.817726 -72.602859 -171.861481
-27.832209 -74.181091 -169.075089
107.136223 -73.934349 -174.005310
114.699348 -72.314331 -174.768005
-25.808773 -71.386948 -176.759827
-37.885723 -72.034874 -173.439285
15.314790 -72.521950 -168.475357
108.859154 -77.084076 -173.827652
-147.025711 -72.480370 -173.536514
14.511576 -70.188835 -176.572845
27.902803 -72.504410 -174.234558
27.572561 -71.473999 -181.241730
-142.217926 -69.241142 -177.875839
109.900032 -70.252205 -177.509201
-26.649958 -70.581062 -177.929611
-148.673706 -65.167450 -176.929016
-141.712540 -67.686195 -175.148529
22.232632 -76.006744 -180.245529
-143.804077 -69.644264 -183.472031
-34.072510 -71.287666 -187.428314
-22.752480 -71.739944 -182.975906
-27.817957 -75.170128 -188.382462
-26.881628 -72.541473 -184.400558
16.091650 -72.640511 -180.668869
24.387596 -76.128212 -185.308960
-140.516434 -68.207123 -188.675186
-139.014679 -78.125786 -188.490204
-16.620857 -68.612656 -188.565262
25.337393 -70.909065 -185.996277
-28.505672 -76.303932 -189.296402
17.005398 -71.558800 -186.481125
-152.215057 -77.057632 -191.678253
-29.842213 -77.835297 -189.696640
-17.999134 -73.679749 -188.536316
11.702705 -70.714195 -192.280304
103.265831 -72.195366 -186.983521
23.455118 -70.232323 -193.010925
108.801872 -73.839020 -189.365555
27.956161 -78.223595 -190.334564
-17.203381 -73.242531 -193.202316
-24.757750 -72.768425 -198.293472
-154.754196 -70.737236 -198.734985
-130.775391 -71.779388 -199.276260
-124.066406 -75.542213 -191.745728
-17.995874 -70.472115 -197.935898
-156.974854 -70.621986 -196.331680
-123.514847 -71.946777 -192.878250
-22.449183 -70.353447 -196.506821
10.053864 -75.894562 -192.822769
102.039703 -73.149384 -199.829102
-145.704239 -75.270500 -199.355850
-13.935396 -72.050499 -195.905640
-153.287857 -69.760735 -196.390945
-144.866577 -75.509354 -197.816681
-13.721528 -67.961288 -203.776840
-150.202362 -70.643112 -199.170517
-123.571350 -74.530952 -196.327072
-112.770554 -67.969299 -201.787979
-153.325455 -67.765732 -199.207870
-25.685492 -77.208206 -202.790314
-144.672775 -75.694374 -199.402588
-146.835480 -68.536896 -204.312378
-124.427559 -78.410980 -205.996384
-113.445190 -69.467346 -200.003632
-16.182072 -72.171692 -200.283127
-148.264420 -72.440071 -202.579239
-25.589935 -69.656792 -196.936737
-14.441589 -76.262421 -200.743011
-164.641861 -72.359459 -195.920059
-134.713486 -72.017876 -199.933624
-141.629089 -69.889931 -205.195038
18.048523 -71.481232 -204.441986
-123.909035 -72.593666 -203.967026
-154.712860 -73.172173 -202.394669
-160.124954 -73.724403 -203.273895
-150.271881 -72.035439 -208.808502
-139.216202 -70.023438 -208.139938
10.271153 -70.955536 -200.256073
-154.757492 -71.156212 -208.010880
-20.810118 -66.484077 -204.859695
96.249054 -70.145248 -201.983658
103.251694 -75.797363 -200.814560
-155.276550 -74.154938 -213.915344
-9.994006 -75.376259 -204.217102
-168.225296 -73.152496 -214.588806
10.836720 -67.999168 -214.690613
-75.971748 -73.287086 -210.687744
14.807021 -73.951866 -205.532089
-77.396408 -74.676514 -212.239471
90.109009 -69.851830 -213.101013
-84.188278 -71.998405 -209.008499
10.883889 -69.784706 -214.153412
0.833507 -71.832428 -213.581238
-154.208832 -73.380814 -215.697647
-95.575577 -73.109940 -218.294479
-83.136070 -69.796089 -213.236404
-12.011378 -73.585312 -216.715408
14.750089 -72.775558 -215.251205
-142.822754 -69.677742 -221.315811
-8.232656 -72.178879 -218.049408
-90.903374 -70.768028 -216.665207
-1.833578 -70.569771 -219.487823
-24.854393 -68.368210 -215.059387
-12.539884 -71.786896 -220.273773
93.652885 -75.788094 -214.310120
-21.870026 -72.051842 -220.008942
-91.163437 -73.210388 -218.043213
-28.291803 -73.386154 -220.117538
-101.091690 -69.470238 -219.383347
-18.351128 -70.081551 -221.133987
92.449944 -69.182152 -217.955658
80.300079 -72.270996 -215.641251
9.025343 -73.372559 -218.836182
-100.590279 -69.922714 -219.874390
-10.191458 -77.848930 -226.393921
86.139877 -72.106827 -228.210983
72.473251 -74.442818 -226.266647
-124.567581 -69.744286 -225.243591
-20.245920 -71.170906 -221.925110
8.047735 -73.139626 -223.220016
84.220940 -70.239159 -223.653061
-140.488678 -73.837128 -225.201309
-102.425110 -73.228188 -223.229370
-103.793465 -74.762962 -226.467499
2.126789 -71.636765 -225.472824
-165.624329 -72.742996 -221.887329
-132.926239 -76.871696 -223.163620
-1.239592 -73.202988 -228.453369
78.553406 -73.950180 -226.206787
-126.556137 -73.591965 -228.368713
15.249243 -75.610664 -227.610382
12.339122 -71.012611 -226.521774
6.425673 -75.871223 -226.528931
-114.216797 -68.485901 -229.473312
5.088807 -72.110435 -228.990158
-114.102028 -71.436348 -228.229736
-12.389585 -69.765137 -231.097336
78.989082 -69.191391 -226.676895
-11.692616 -73.936211 -233.088394
-11.996936 -69.619751 -226.554993
-2.545439 -70.233948 -230.101166
11.249074 -69.915398 -227.833740
79.553581 -68.999222 -230.353241
17.039881 -71.424370 -230.190765
-124.404564 -69.391472 -232.475540
-113.692993 -73.335587 -232.209702
79.128036 -68.736404 -229.733749
9.128614 -74.555298 -233.820236
2.748815 -78.555656 -229.446838
77.086151 -72.676880 -232.021820
-142.813812 -71.889114 -232.512497
-14.192723 -73.897598 -237.505905
-7.690473 -72.452423 -230.217972
13.966722 -72.157936 -236.068527
-8.350022 -70.549423 -234.858948
20.404243 -69.536842 -233.818741
-8.251873 -73.098259 -235.914490
72.719704 -73.774704 -241.966934
-16.859919 -75.570625 -241.076416
-14.474994 -72.627869 -235.627838
-4.089772 -69.067383 -239.630630
74.348938 -71.061180 -233.139404
-11.132766 -73.332268 -235.111786
-21.047644 -70.898514 -237.948914
17.491169 -75.053711 -235.979507
-10.391285 -75.268204 -242.284668
-2.599455 -69.562408 -239.526886
-169.180435 -75.707970 -244.254425
-21.481827 -72.291183 -237.659363
-8.346769 -66.379860 -240.884781
63.362709 -70.415947 -238.869202
66.085373 -68.999496 -240.243698
-15.993308 -76.470398 -240.563217
0.059629 -70.029007 -239.077682
5.566929 -75.681000 -245.147095
11.138535 -71.282829 -237.771454
60.179752 -70.247116 -241.917450
-166.673523 -74.347679 -243.962585
-65.577049 -69.329834 -247.829819
-8.778037 -72.014397 -243.358932
15.719016 -69.239037 -244.642456
56.130859 -69.462021 -247.051193
-57.246922 -72.898018 -247.124466
-145.352173 -75.856262 -243.571930
-71.015915 -72.685265 -247.591171
-63.231632 -74.650642 -246.097778
-65.596657 -74.923897 -249.434464
52.590454 -73.091293 -246.376770
-79.229454 -75.536560 -248.169846
20.044357 -71.469200 -248.008514
20.347900 -73.232750 -247.416443
-61.173763 -70.219048 -248.038071
46.376884 -73.945679 -248.541382
-92.524979 -74.637421 -249.582840
-67.617546 -73.466957 -247.622650
48.627476 -68.376541 -250.949921
-10.782526 -71.132858 -251.065384
-146.944550 -73.010452 -253.279953
49.160938 -71.111183 -249.273682
-78.054825 -75.987595 -257.020996
-103.641518 -70.793411 -253.798904
-139.645126 -70.864677 -253.132965
-102.156708 -73.084274 -258.174042
-119.923798 -71.934837 -255.278351
-112.441200 -70.320656 -253.837891
-105.176308 -78.101013 -257.606567
-111.525505 -75.795822 -254.331589
-109.967728 -68.875732 -263.626740
-138.511002 -73.689468 -262.077148
-137.089294 -72.628517 -260.422119
-120.128075 -74.927750 -263.206390
-137.728897 -72.882858 -260.325012
22.534355 -71.465157 -265.253357
-135.760391 -74.090462 -263.399780
-131.003540 -71.782722 -261.415680
-16.169329 -66.791275 -269.191040
-14.876164 -68.923347 -277.275848
-167.626175 -73.848022 -285.305481
-142.685669 -73.676926 -278.172241
-135.155548 -72.584450 -281.291504
-5.751253 -66.232590 -292.654144
-170.841248 -74.423088 -282.247223
-123.292320 -69.033005 -284.245056
-99.363083 -69.459625 -291.214233
-82.714630 -73.908028 -282.944733
-65.396011 -69.888329 -288.280426
-55.951141 -72.727440 -285.773163
-108.681145 -72.681389 -287.455017
-54.316700 -72.681175 -286.213837
-44.788498 -75.980042 -286.420990
-16.967329 -73.355812 -289.851807
-160.427582 -67.748245 -289.419891
-42.407921 -72.827919 -288.550934
-38.628468 -73.759407 -285.371490
-21.226009 -72.881660 -292.902679
-27.146765 -73.191551 -285.743317
-30.834044 -71.275169 -286.314819
-14.408135 -71.154068 -289.081482
-44.807568 -70.560211 -293.513519
-42.712097 -72.232094 -290.561554
-24.880802 -69.511108 -291.456360
-16.023651 -73.495850 -289.315796
-4.027773 -69.609596 -288.621063
-55.713345 -71.364929 -290.604553
-16.934486 -73.444580 -289.311432
-69.751480 -73.974731 -294.452820
-55.050106 -68.973732 -291.426422
-49.766827 -73.517555 -294.417755
-16.140980 -71.821045 -290.476898
-17.534491 -74.207771 -295.731110
-0.513090 -69.929329 -291.187225
-3.347431 -74.738792 -294.317200
1.566027 -72.593292 -293.132538
-107.880463 -70.700256 -291.259277
-95.710030 -71.430313 -292.488708
-83.178658 -72.899872 -289.743896
-161.508331 -72.563606 -293.812408
-140.058929 -72.831337 -289.066376
-116.270103 -73.853714 -294.341125
-134.777390 -72.197853 -295.816864
-146.707565 -73.825554 -297.467865
-153.951340 -74.009453 -296.816833
-155.088013 -71.534599 -293.014099
-148.854752 -74.450371 -299.491333
-157.173981 -69.795837 -310.035553
-140.939651 -71.621475 -305.334808
30.233437 -69.744728 -15.231024
41.789631 -68.313667 -22.316849
50.323681 -71.871513 -20.495108
42.498646 -68.829132 -22.091995
19.591812 -69.762131 -23.134495
49.808273 -69.293755 -28.667284
45.454922 -68.221672 -22.581974
17.544254 -74.921898 -31.600813
50.949894 -76.969910 -31.680847
30.628628 -76.618622 -34.812138
41.622593 -73.408463 -35.904659
49.157681 -71.345192 -33.947258
43.773087 -74.016579 -39.983921
36.730057 -75.489532 -39.210667
-67.769188 -69.440285 -48.039158
-57.428703 -68.725639 -49.202679
-51.525093 -68.246292 -51.044247
-75.812157 -67.206367 -47.799194
-29.766895 -70.727028 -55.885853
-17.314045 -72.465149 -68.877731
86.027435 -78.601265 -72.431633
85.666901 -71.151360 -69.690094
97.430710 -72.134972 -65.007004
-21.071960 -73.749687 -75.845222
94.817612 -73.710693 -74.750122
94.304604 -66.987480 -80.676903
-41.490311 -66.491264 -79.945206
95.853119 -75.905289 -80.762871
99.743530 -74.233368 -83.874161
59.447758 -71.584412 -86.703911
65.134850 -68.066483 -82.367805
60.667301 -73.285004 -94.393242
49.945698 -72.553223 -89.141922
61.792850 -72.327339 -92.109787
98.764893 -65.703018 -88.510498
-60.511063 -69.039124 -91.484467
66.215019 -73.196724 -94.474190
47.831882 -73.149239 -97.761475
53.628017 -70.774818 -100.655884
-69.153595 -68.185616 -100.311104
-79.221123 -71.953308 -98.273529
70.179001 -73.093636 -98.987335
104.201820 -67.533493 -96.864273
74.120300 -73.910973 -98.781532
104.448387 -67.084915 -103.241058
96.783371 -70.243324 -103.591843
-80.155334 -73.707695 -99.265251
44.007385 -68.225647 -102.027885
51.395836 -70.561661 -106.261024
76.339203 -71.684692 -105.280602
86.172142 -69.736359 -103.941109
91.584190 -66.462456 -106.565407
-87.063629 -72.876572 -107.349319
90.252274 -72.162407 -103.758156
51.531826 -69.821922 -107.675308
39.048096 -73.275917 -103.239868
41.287983 -71.703796 -109.431038
105.824509 -70.875893 -107.492661
-84.888344 -71.042221 -111.401970
106.364197 -69.931900 -109.541290
107.420464 -72.326202 -113.381683
37.509758 -73.849617 -113.719398
43.583836 -71.081421 -106.974457
36.455338 -69.120995 -118.517693
40.955070 -71.921219 -117.861656
-92.261230 -71.831665 -117.299911
45.679501 -70.584793 -117.580879
38.257595 -69.309639 -119.096916
110.733253 -67.951080 -118.491783
110.896805 -71.796150 -121.844536
111.885979 -71.139755 -112.680153
111.163597 -72.952499 -118.956482
-82.843254 -69.077095 -118.654671
-88.865051 -73.015656 -126.114517
109.477936 -73.138428 -124.607620
31.586771 -70.460236 -123.206184
113.406799 -72.242134 -124.732796
38.406967 -73.491463 -125.015831
41.668789 -71.268578 -121.260078
35.137562 -75.116966 -118.414429
32.243771 -69.105438 -128.363052
112.107964 -69.297714 -122.542259
-76.731323 -73.219688 -124.880737
-52.956291 -73.150612 -123.485947
30.774263 -73.465401 -123.398758
-84.206200 -70.526352 -131.746826
29.578001 -69.636734 -131.549957
-77.267044 -69.750671 -132.114029
-60.812210 -71.735840 -134.355240
36.796825 -68.987427 -132.412903
-46.634537 -71.065918 -134.773926
-54.158543 -72.115570 -136.046249
37.254520 -71.284111 -135.240387
-77.463051 -70.531998 -138.780334
-63.761353 -67.648590 -130.242111
-42.751289 -71.395088 -133.874542
36.788857 -68.155167 -128.165710
-73.773743 -71.169304 -138.589859
-60.899342 -75.794159 -138.826096
-46.613136 -70.181938 -139.179138
33.756207 -72.733681 -135.282623
-71.191147 -71.284302 -140.166824
-58.797260 -73.558189 -136.244293
25.942175 -72.150124 -140.338638
110.462181 -72.059761 -137.831924
-55.693985 -74.297905 -141.236603
116.154243 -68.616356 -139.023743
-63.455681 -72.807381 -142.509857
28.168760 -69.891090 -137.341934
-71.207382 -67.888908 -141.193604
29.609081 -70.684265 -141.079819
-48.859783 -76.181969 -140.652527
110.647789 -72.456619 -145.626648
29.090788 -72.627022 -148.994080
-74.171562 -72.416817 -145.060501
-55.176769 -69.408463 -144.792862
32.524635 -72.739922 -142.973984
-77.961830 -70.795006 -143.522141
33.132442 -72.179008 -148.438126
-69.560051 -71.830147 -143.443909
-75.823555 -70.726097 -149.095520
-67.768860 -77.453491 -154.060883
112.780380 -66.594406 -147.017197
-62.006908 -71.387642 -152.240707
-38.340733 -70.206123 -148.777298
32.610153 -70.407372 -148.339874
-77.548676 -66.370537 -149.966156
16.230745 -67.520905 -147.800842
33.059784 -73.732399 -149.675415
32.024006 -67.841751 -155.591003
28.727360 -72.096756 -151.586075
9.564289 -72.176163 -150.028046
23.871756 -71.299667 -146.079163
-51.466927 -70.126244 -150.496857
-51.651508 -68.954292 -149.394150
-69.256165 -74.863815 -150.579010
116.808708 -70.503647 -149.514343
14.780999 -75.273994 -153.136795
26.799746 -68.426315 -155.124451
-48.798691 -72.644249 -155.273895
4.719039 -72.872368 -154.258484
14.392155 -74.844788 -159.823288
22.750647 -69.618713 -150.922897
10.975319 -71.680779 -154.738678
-36.109798 -72.486168 -151.584793
10.654730 -74.136368 -161.603165
-66.796936 -70.265121 -154.635178
-42.793179 -75.595947 -157.764420
-69.901924 -70.892815 -156.792496
17.112183 -75.575890 -155.336884
112.897453 -69.518311 -152.953476
-69.396271 -75.525490 -158.520386
-49.184216 -67.297783 -152.896515
15.256544 -68.956467 -160.634659
31.741108 -71.921455 -152.723175
-51.019974 -72.042984 -161.014069
20.056959 -70.954323 -155.754257
2.066533 -71.764626 -162.349976
18.946075 -70.387711 -157.649689
-41.723576 -70.974190 -159.179413
31.523823 -74.344391 -162.987976
-45.993992 -73.433472 -156.537842
-26.899347 -70.978706 -161.850082
20.938374 -74.042877 -167.153412
-44.569790 -74.252228 -165.230148
-37.345505 -76.128265 -165.194870
19.410013 -68.855087 -165.939545
29.607828 -69.034248 -162.168732
-42.015423 -76.855286 -167.939056
26.592354 -68.272621 -164.837982
28.582777 -69.378784 -168.122879
-43.378185 -68.186905 -166.185638
20.318649 -71.299637 -170.017166
30.399969 -69.149223 -168.906357
114.666809 -66.804108 -167.292786
-38.778416 -72.610970 -170.976440
-34.571819 -69.879738 -172.969391
30.815378 -75.135391 -175.460266
111.118996 -72.517197 -174.331299
-32.203899 -71.862030 -171.084839
-30.089785 -72.119881 -179.642899
105.489716 -69.906937 -177.028427
-28.959148 -70.813759 -175.592499
-36.851059 -69.866844 -184.517639
16.930092 -71.041893 -173.911530
-24.968700 -68.742714 -179.185410
16.437372 -72.248367 -182.119125
-20.285717 -73.107460 -182.049423
102.425087 -70.573997 -176.533691
-26.990177 -68.695328 -184.099152
105.738266 -77.469337 -180.150497
-32.327927 -74.089996 -180.155716
-151.041458 -69.599350 -191.536438
106.453911 -72.946785 -185.142532
-23.944456 -73.579391 -183.949661
109.879318 -67.716774 -185.430237
101.152046 -65.091225 -185.973175
18.670944 -71.606712 -193.641876
-27.930960 -72.295395 -187.496231
-20.696947 -70.644135 -186.236038
-16.980278 -77.461327 -185.012222
-150.263397 -70.771805 -188.425446
-141.359314 -76.372681 -198.126312
17.711676 -72.490837 -184.427841
21.448246 -71.313774 -196.375763
-117.853600 -70.674484 -195.685074
106.764481 -73.034515 -188.485703
99.321236 -69.838608 -194.830521
-157.433609 -71.312317 -196.352020
-22.646931 -75.081535 -194.265625
8.385686 -71.079498 -198.683090
8.726867 -72.895287 -195.757523
-118.476242 -69.482140 -195.488937
-118.787315 -71.580811 -197.921600
-129.262772 -73.594292 -196.658127
-106.812614 -70.079613 -199.905594
-16.073929 -76.181419 -194.060257
-118.166214 -72.190536 -197.243378
-111.229256 -71.607285 -198.082947
-12.818422 -69.491722 -198.290665
9.900050 -69.326103 -199.210541
101.474518 -70.308205 -202.598709
18.369307 -72.780663 -197.577881
-166.197571 -71.405510 -200.916733
-16.983187 -71.594490 -201.044037
101.025513 -72.795601 -200.449631
-135.104202 -72.309708 -197.370743
-120.265564 -69.616966 -202.703873
-26.040554 -75.770859 -204.545364
-131.115921 -69.675423 -204.498169
-133.992096 -76.125862 -206.135330
98.451530 -73.423477 -200.367767
-8.593110 -74.146469 -208.021729
10.615515 -72.042000 -207.468506
-144.117798 -73.202629 -202.370163
16.479650 -69.981186 -207.834198
89.803711 -70.053909 -206.271194
-169.165451 -76.486656 -203.277130
-7.604136 -74.689484 -209.563232
0.671013 -75.635323 -210.845383
9.884186 -66.082878 -218.604294
8.669651 -70.607384 -215.915833
-90.456612 -74.924561 -212.374817
82.582733 -68.268051 -220.177628
-92.774796 -67.750145 -217.667953
-86.900032 -76.190918 -214.837280
5.028549 -78.812012 -210.125366
12.855405 -71.724129 -215.567795
-15.952770 -75.980667 -213.969742
-14.771175 -71.576942 -214.691895
-93.007874 -69.322929 -215.189362
-102.402397 -69.279305 -215.460464
18.614231 -74.328651 -216.859192
-97.631645 -70.773972 -214.759262
-6.889715 -75.133186 -217.276154
-12.423195 -70.172752 -221.429428
-2.228652 -68.200775 -220.214447
-166.043549 -72.409981 -217.203049
14.261588 -67.714340 -220.119263
88.396790 -68.519493 -220.707809
13.178873 -68.635139 -219.010056
-143.345306 -69.027069 -227.228485
13.207811 -70.458038 -222.130447
-126.599518 -71.882500 -223.711777
-98.151901 -70.485901 -220.286392
-9.857979 -70.841019 -223.381973
-113.913094 -72.315048 -223.655655
-19.607002 -72.363937 -222.127151
-11.544929 -72.019768 -222.593063
-134.043137 -70.844788 -220.232071
-116.178970 -69.835510 -226.899734
21.640776 -70.686432 -225.978317
79.056732 -69.740868 -222.433670
5.324225 -67.859070 -220.046555
-166.538651 -77.574608 -226.041565
8.399950 -73.468933 -224.480591
-107.543648 -72.221329 -230.922745
79.268867 -69.118507 -230.692322
79.185722 -70.617371 -229.598450
-109.054131 -71.406944 -230.975616
-2.244304 -71.453506 -230.832077
-123.641373 -69.579895 -231.167862
-114.818474 -69.093750 -231.676712
-5.602177 -69.591805 -235.083603
76.272659 -67.008980 -230.854004
-6.821324 -71.596252 -232.457626
-133.968857 -70.949097 -232.276566
8.292425 -70.810165 -230.391830
75.406357 -69.608414 -224.299850
66.911842 -67.499649 -234.487686
74.730255 -68.378265 -239.021484
-133.394150 -70.261246 -234.758881
13.729517 -71.185257 -235.029984
75.791519 -68.981628 -233.200195
-8.881282 -75.138054 -237.783646
-4.374635 -71.993622 -235.419952
12.060781 -66.894836 -236.675903
70.409302 -75.486534 -238.309189
67.836174 -73.623466 -239.198044
63.669872 -73.663803 -241.257095
-163.632767 -69.411331 -237.651718
-143.189026 -71.001671 -233.935242
11.117819 -68.574661 -232.468170
0.449582 -77.790207 -237.348557
20.129967 -69.558678 -238.527893
49.678253 -69.018501 -242.444901
-7.606038 -68.178757 -241.308105
15.711639 -74.847069 -245.141403
59.222103 -73.429588 -240.126053
-19.870935 -74.812424 -240.713791
7.395150 -69.745544 -243.068832
-11.816346 -64.731384 -241.383667
3.162339 -71.390442 -246.691330
9.809490 -69.452309 -239.247055
65.407318 -69.468239 -237.299210
-9.078370 -70.142876 -242.526566
8.458631 -68.767136 -244.790329
-142.011047 -69.757813 -242.550476
-12.195195 -65.937561 -244.223282
-168.909195 -68.406837 -235.918457
56.448589 -74.712990 -239.676849
62.237869 -67.618599 -244.563873
14.348813 -74.126976 -242.958511
-163.710907 -69.784821 -246.130280
59.282768 -70.051025 -246.011856
57.701935 -69.484474 -244.611694
51.308102 -70.287979 -249.463852
-70.228531 -72.324272 -248.328506
-11.276484 -69.682045 -247.844315
57.847214 -69.241188 -252.800018
-68.029396 -73.515228 -247.878189
-68.493294 -67.397690 -246.222000
-69.249908 -71.837578 -255.130722
-86.151909 -68.786018 -252.577057
-68.119247 -71.617470 -255.567261
49.231464 -70.629799 -246.639771
-96.993652 -69.144569 -252.898895
-79.744583 -72.977943 -254.244751
-125.841553 -73.796783 -252.613480
-165.076965 -67.086678 -254.673904
-132.865173 -73.229523 -253.622635
-81.561249 -71.701065 -255.914963
41.705151 -70.952225 -252.287842
-135.499512 -72.240532 -255.208481
-108.948029 -70.782112 -255.126602
-86.421928 -71.635643 -256.209564
32.210453 -68.590385 -259.243866
-118.001320 -70.124329 -257.723175
-89.081512 -73.454712 -254.400909
-99.650970 -73.895538 -257.394257
31.934301 -70.212135 -260.099548
-16.175631 -73.257385 -261.502045
-108.911278 -75.744019 -258.974213
-143.641983 -72.461273 -261.223053
-128.742035 -73.406853 -265.806671
-154.828049 -72.794746 -264.932617
-129.051224 -71.069748 -268.020416
-166.700424 -69.961418 -263.421661
-142.705536 -71.304382 -266.259247
-151.205399 -70.604126 -264.571014
-11.379420 -64.576881 -265.111969
-167.792801 -72.971725 -267.056671
-15.251459 -75.642769 -267.301056
-159.312057 -74.318115 -271.138000
-153.369247 -71.048103 -276.970917
-171.298416 -72.559753 -274.469116
-157.833252 -66.219337 -278.604218
-12.838744 -67.175430 -278.177917
-158.447632 -67.211685 -278.995270
-152.388138 -72.552040 -281.569153
-133.732071 -75.086510 -284.481415
-161.357254 -71.404160 -288.128723
-147.885376 -75.079926 -281.526093
-134.998779 -74.179810 -287.609985
-12.677078 -72.068520 -283.879822
-123.671852 -71.455063 -282.169495
-140.194168 -72.851967 -287.542206
-140.633789 -70.204987 -284.890747
-112.685791 -73.393967 -286.344025
-96.771629 -66.462288 -281.909058
-77.585251 -70.009354 -283.023163
-76.816231 -69.126686 -287.438934
-64.046364 -72.442612 -281.608307
-60.155544 -67.553360 -290.519501
-57.957272 -68.154015 -290.674622
-5.266996 -76.054443 -288.398315
-51.490417 -67.239464 -287.135681
-57.523335 -69.371803 -288.842194
-50.870678 -68.220947 -288.384491
-68.131279 -71.385597 -289.945679
-53.375134 -71.649971 -286.343811
-60.320877 -72.607887 -293.328827
-87.835136 -72.062775 -290.048431
-80.565353 -70.411049 -295.785828
-1.134207 -71.078880 -291.738556
-98.082413 -67.284805 -291.615692
-126.118225 -72.655983 -288.957581
-162.993683 -73.265228 -290.659943
-133.629501 -68.986542 -294.437714
-164.040237 -71.543404 -295.695129
-129.708694 -69.330826 -292.715118
-130.429932 -71.577454 -292.872589
-141.704453 -76.893074 -291.087097
-151.383423 -65.886322 -293.889038
-158.342087 -73.342476 -302.228149
-155.986633 -71.446075 -298.331940
-149.446671 -74.356377 -311.512299
24.493898 -71.723503 -13.193130
55.519894 -70.437683 -18.186562
21.578062 -71.488518 -24.509859
42.425629 -68.469254 -25.518675
39.336281 -68.453278 -34.801899
48.203636 -72.325256 -32.947716
25.050392 -73.821152 -38.643631
-53.883732 -71.050835 -50.264053
-53.675236 -69.543854 -49.282173
-67.805099 -73.131325 -49.781136
-74.207932 -71.683624 -53.921101
-89.692764 -67.732346 -61.167942
-13.338825 -73.928139 -66.261909
82.332016 -65.765038 -65.985741
91.254356 -70.016945 -67.857803
79.976845 -73.252792 -65.633293
76.879585 -68.805992 -63.615147
94.005127 -73.120995 -68.253441
92.607689 -70.604683 -76.526352
-90.328278 -72.664810 -69.497284
72.911552 -68.038010 -70.239250
-90.986900 -67.810928 -77.211334
-37.761654 -73.345802 -73.533203
-29.541634 -73.648331 -78.591080
-43.208134 -71.742477 -79.032318
-93.080811 -70.164719 -89.302017
57.431335 -71.063637 -90.520782
58.888336 -71.427925 -91.527855
101.552780 -68.002037 -89.224884
-56.577015 -66.316689 -92.959023
63.044483 -71.316017 -90.188309
100.263237 -71.075577 -102.740501
50.117954 -68.747284 -97.537071
92.521454 -73.907494 -93.797325
47.572613 -69.174141 -99.541977
102.871315 -72.093727 -99.367363
58.774727 -68.448822 -94.243202
70.889969 -70.303070 -99.422081
104.625694 -74.848869 -101.836449
70.966537 -76.344780 -96.385590
-79.232605 -73.188866 -99.350784
-76.923752 -75.037201 -96.953743
50.381104 -72.341492 -99.488449
100.095314 -71.185631 -101.104446
103.711266 -70.300888 -102.342354
107.249298 -73.066353 -105.460289
83.952942 -69.541428 -104.536491
109.093262 -70.071205 -103.005005
50.841824 -73.459557 -103.547478
87.445694 -68.738670 -102.208015
78.294853 -71.891655 -100.904709
40.682247 -70.346786 -104.923141
106.000435 -68.995667 -109.128380
47.497852 -73.053062 -113.797333
51.134026 -67.428543 -104.329941
-79.873528 -72.891487 -114.522423
106.725098 -71.127869 -111.069969
107.594719 -67.896782 -109.973564
40.675850 -66.809486 -103.680321
111.042091 -70.767632 -111.416649
42.765179 -70.311241 -110.048233
110.179886 -71.955589 -104.430099
110.610016 -71.595123 -113.570755
-81.962547 -71.406265 -117.224007
-80.870270 -71.496544 -112.860519
43.250278 -69.512100 -116.995094
-80.766434 -68.888786 -118.917603
45.909096 -73.105995 -116.961670
31.890835 -70.803253 -116.898621
112.610466 -66.662674 -115.275528
111.556038 -69.640480 -129.971756
-84.065369 -73.981606 -122.310684
35.938610 -67.210228 -128.295624
106.510231 -71.365417 -125.128036
-82.099472 -68.845398 -132.310196
-75.698982 -68.342972 -128.470825
-78.625740 -68.609726 -128.964432
36.625774 -72.015419 -127.600189
-55.118561 -73.801338 -127.151962
-60.058174 -69.722046 -123.302620
-54.948223 -68.771667 -127.859886
-83.395798 -70.545662 -129.814636
-78.166466 -72.469696 -133.658157
-83.517433 -70.897499 -133.573639
-52.209991 -69.325111 -133.937668
104.768875 -72.121040 -125.923714
-90.087097 -66.389572 -134.179062
31.314056 -69.313423 -134.526703
-75.622993 -70.509216 -136.132584
41.021805 -72.331169 -135.900223
-73.277115 -68.554153 -135.636398
33.132210 -73.125671 -139.015244
29.549940 -70.472229 -138.021301
109.851524 -70.448570 -138.656799
-47.562447 -72.664536 -142.444641
24.314602 -70.372383 -142.875519
-72.251816 -72.211990 -139.649902
-69.872414 -74.427017 -145.752365
-47.565323 -70.489586 -145.888107
34.424892 -70.816406 -142.272858
108.417534 -69.932076 -139.577011
-45.662228 -71.796074 -143.664871
23.642359 -69.913101 -150.226669
117.201683 -67.181351 -144.958298
34.018539 -67.824776 -146.573990
110.023758 -72.395767 -143.531128
-57.157585 -73.590302 -144.384979
20.189840 -71.534424 -145.129410
-73.672264 -67.548409 -146.666107
-53.104965 -70.229935 -150.538422
-65.654335 -70.451622 -149.844147
16.548698 -67.724869 -146.519714
-48.076725 -74.662727 -154.371231
-54.031178 -67.773964 -149.779343
-54.354622 -72.871613 -152.861542
28.661469 -70.606430 -155.172714
114.028648 -67.718987 -148.775085
-73.760414 -68.246735 -150.107895
-48.696709 -69.215988 -147.913712
-70.478500 -71.633644 -157.951172
6.250612 -71.868629 -146.598419
7.794083 -71.281113 -154.307922
-43.521950 -70.988510 -163.136459
-49.260273 -69.260620 -162.140366
4.541252 -66.565109 -156.774796
13.773211 -65.401512 -158.316437
109.461266 -71.030434 -157.323990
115.331863 -67.518097 -157.387589
111.081505 -67.643089 -161.363846
8.639325 -73.252655 -160.731339
12.712982 -72.106895 -158.922134
17.890448 -68.024803 -159.296036
17.311817 -70.462959 -155.827637
26.908865 -73.003700 -160.688599
112.446808 -71.239975 -158.040710
110.049026 -65.472168 -154.953400
112.487450 -68.602158 -170.511307
26.640608 -67.850929 -159.002075
111.948700 -74.932167 -167.524567
27.265505 -71.161903 -168.233490
24.009790 -69.392372 -170.998520
116.379227 -71.031151 -159.803207
110.333549 -66.889069 -164.049347
-30.852961 -67.823776 -166.529083
109.756004 -70.218735 -172.119934
12.390766 -73.126686 -171.930527
21.746471 -66.253784 -165.706100
113.682106 -73.815071 -181.497910
112.350708 -70.328102 -167.507172
16.730200 -69.507172 -178.340149
21.589449 -70.509422 -169.178192
-38.344250 -68.418526 -179.791336
108.341614 -72.763306 -173.421631
-107.311745 -64.765884 -176.833267
-143.282440 -70.489799 -175.838593
109.826805 -70.704308 -182.417740
-33.279995 -68.632843 -181.552536
27.953663 -68.315392 -177.233841
18.931242 -70.090454 -181.459015
101.595703 -68.288536 -179.035629
29.134382 -71.430405 -182.618484
26.482365 -66.862099 -179.923676
-153.350189 -72.309044 -181.780212
-30.862112 -72.599464 -187.830383
-108.948486 -70.486275 -182.285049
-30.879358 -67.776260 -186.655792
10.674742 -72.737335 -183.159103
27.441744 -69.663200 -185.657944
-112.055084 -70.383316 -184.732742
-108.544411 -73.953514 -185.884323
24.207285 -70.248566 -189.398804
103.388641 -70.487213 -184.586182
14.284287 -67.219666 -187.944168
-26.161606 -73.350014 -186.904724
-27.372818 -70.143272 -192.621353
-21.484684 -69.944283 -188.156845
15.595727 -69.481415 -182.224701
24.198275 -69.950935 -191.723770
-151.773499 -68.795372 -199.512741
-147.414566 -71.543732 -193.790771
-16.226162 -75.061035 -191.811829
-121.911118 -72.469589 -195.215424
-20.696531 -69.181602 -192.955399
-141.828125 -72.088806 -191.537872
-21.516857 -66.636948 -194.572311
14.470524 -67.160271 -190.418137
-160.376373 -74.906250 -198.070801
98.411102 -71.424690 -198.461868
-110.826874 -67.008972 -202.570419
-22.912680 -73.762268 -196.062393
20.297955 -68.287636 -201.067947
-19.141174 -71.595917 -199.900970
11.320191 -70.185692 -198.769104
20.309172 -70.695030 -198.951843
-18.759985 -70.283546 -198.700714
101.300117 -72.904091 -200.432678
13.052049 -69.389084 -197.553467
-108.158043 -70.603439 -201.207840
-21.210180 -66.041512 -193.375656
-124.025116 -67.656090 -204.473511
-132.514435 -70.911430 -207.210739
-121.442291 -73.772781 -201.899216
-116.335655 -70.197647 -204.120712
9.941526 -70.715767 -201.973755
15.916966 -68.405624 -200.922150
-141.270340 -71.714531 -202.061127
17.379597 -70.379784 -202.851837
-144.236633 -67.689880 -202.999237
-25.108198 -72.531891 -196.427429
-15.280850 -69.970001 -202.385559
14.029677 -72.789886 -209.893845
96.018440 -70.970421 -209.880417
-166.843445 -65.666145 -211.073669
-7.415849 -68.700439 -206.971268
96.783257 -70.133179 -206.882721
-20.443956 -72.461975 -207.223267
9.095032 -64.686836 -216.063568
92.443977 -66.616608 -212.414764
-17.211233 -69.604912 -209.621109
11.485229 -65.959175 -206.358261
94.826157 -74.882729 -212.252670
12.791275 -70.223213 -205.296951
18.580324 -73.332314 -211.909866
90.320160 -65.809746 -214.300766
14.719131 -67.945854 -211.611053
18.311295 -67.062325 -213.676208
-17.206915 -70.063705 -213.250412
15.008732 -70.863426 -213.727036
-147.938675 -66.691231 -225.610016
-9.414476 -73.322426 -214.576630
89.206787 -69.388100 -216.440063
-14.591831 -72.060577 -212.538467
-92.839760 -68.145081 -215.287506
18.224606 -67.342194 -219.565979
-96.129326 -71.608376 -219.152328
-7.362954 -68.753632 -216.026031
86.943130 -69.828773 -213.297363
89.078682 -69.426735 -219.637070
91.036102 -72.524452 -223.440109
-92.110695 -73.290352 -220.213272
-165.407455 -72.533958 -215.365067
-106.184357 -71.504486 -222.225815
-95.986885 -73.469917 -223.053925
18.649258 -65.610184 -222.088409
2.931723 -70.500549 -221.229019
93.747086 -69.799088 -224.403503
-137.732559 -71.611580 -223.217056
-132.903015 -70.274521 -224.350113
-118.730934 -68.751198 -223.704315
-107.681938 -68.619408 -220.221527
-1.170259 -70.245605 -222.069305
-133.465714 -73.412552 -225.530777
-113.092033 -71.736458 -224.723892
-18.548206 -72.753395 -225.070129
-9.476104 -65.910515 -231.011749
76.460403 -68.756294 -223.262482
-114.351105 -74.884201 -224.356110
-5.636178 -69.461571 -227.556824
-17.029961 -67.887207 -221.716537
-4.124774 -73.219574 -228.587921
-1.630932 -70.206635 -221.859848
-11.099630 -71.924881 -228.011139
-107.305626 -73.032806 -224.060791
13.311142 -72.068260 -227.464462
-19.824982 -68.267281 -227.484100
82.159744 -72.286224 -225.452362
-168.293716 -74.709328 -230.121384
-116.130440 -70.171509 -229.957230
7.952239 -72.904564 -227.567719
-1.550262 -70.247429 -235.118851
81.097870 -68.943001 -230.187607
6.649909 -69.624718 -234.587936
-12.833276 -72.807388 -231.501053
-114.946991 -67.529404 -232.729263
-134.605225 -68.769577 -234.813339
13.286705 -68.308029 -235.180542
-155.280777 -70.076500 -237.928146
-3.731850 -67.009972 -228.996063
-155.069260 -64.541672 -236.136353
-140.177353 -64.932434 -234.491211
68.646652 -67.652962 -232.596542
-8.198943 -67.459671 -238.210938
7.964243 -73.897957 -235.118942
71.627899 -71.303177 -238.577560
72.996162 -66.607727 -236.667297
10.985311 -69.269501 -237.896362
70.206612 -71.489479 -237.990814
71.019333 -73.987099 -238.656021
-5.098673 -69.897850 -235.397949
63.016792 -68.181770 -240.498749
-1.483131 -71.900909 -239.688431
59.181686 -71.574387 -239.734344
-166.347275 -75.468658 -237.733688
-16.291672 -71.435349 -238.787308
9.091697 -69.635483 -240.669662
0.844380 -73.693108 -240.026474
16.250843 -71.974312 -239.794342
-16.072783 -68.066216 -241.067139
9.517058 -73.401901 -246.978622
59.581650 -72.518631 -245.238785
-153.577682 -64.055534 -241.782272
-151.241409 -67.789444 -243.349365
60.068207 -69.307587 -241.032898
-13.333560 -69.719772 -243.589661
53.054657 -68.627586 -244.094208
59.541004 -75.230179 -245.620468
-143.953552 -75.182083 -248.533539
-13.451265 -74.144951 -247.308975
56.748291 -70.476059 -251.108582
18.925547 -68.281769 -253.878448
47.544456 -67.939438 -247.153900
-81.533730 -67.459091 -247.957214
-79.330833 -68.404297 -252.043915
48.277168 -65.762604 -245.819839
-86.270866 -65.085297 -256.730164
-74.785637 -64.909935 -255.750977
43.911320 -70.018211 -247.187469
-84.319702 -74.413727 -253.096115
-73.522728 -71.095924 -254.603531
-79.364105 -74.232407 -253.012741
-15.423122 -70.294548 -251.094574
-149.535904 -71.447014 -252.742783
-152.855270 -70.408539 -250.192383
38.514179 -74.077446 -253.496338
-95.862091 -70.210251 -253.563858
-16.833221 -69.865471 -255.016541
-155.420944 -70.540588 -251.640457
-137.476593 -68.873611 -254.317184
47.924633 -69.160820 -249.311066
-138.329071 -69.016396 -257.312988
-126.307175 -71.866844 -254.827560
34.686600 -69.077713 -254.088364
-126.584312 -68.660881 -257.470734
-113.823288 -70.212471 -257.387177
43.798542 -70.700195 -255.771500
-92.319115 -64.872215 -258.307251
-161.168671 -67.543877 -254.424377
23.494101 -73.788116 -255.514893
-13.512794 -71.300034 -260.059845
-99.085258 -69.979416 -261.618744
26.741575 -72.277817 -261.102875
29.412899 -70.852318 -259.084625
27.147219 -68.596878 -262.249420
-102.634048 -70.386620 -260.329315
24.673931 -68.783302 -266.002106
-110.561111 -71.311157 -260.999817
-166.690308 -69.506935 -264.597412
33.562550 -70.970886 -261.295746
-119.071854 -73.695190 -263.106720
-152.593140 -69.439331 -266.641937
-113.836998 -72.511620 -261.906128
-16.430828 -69.582008 -261.236725
-124.205917 -72.435898 -265.631958
-130.920731 -66.840210 -259.823578
-159.164124 -67.551842 -265.860046
-159.834641 -71.293556 -264.448059
-15.519506 -73.352219 -267.789551
-164.575043 -69.497963 -266.117035
-15.012296 -71.403748 -276.467438
21.727840 -70.643982 -267.002808
-158.197830 -66.850349 -275.243896
-165.772690 -71.645645 -273.830963
-164.539261 -68.301163 -274.158386
-13.723414 -71.019760 -274.753723
-152.255051 -70.694954 -276.250183
-148.253632 -70.132248 -277.427246
21.670246 -70.502319 -284.783173
-12.457100 -68.048553 -281.635803
-165.588974 -69.690804 -282.625641
-166.420166 -67.897339 -277.276917
-161.101593 -71.008743 -287.520691
16.155792 -70.860062 -284.406158
-164.825424 -67.807777 -281.334503
-145.893021 -69.266762 -286.018951
-168.099503 -67.961723 -285.304138
7.589791 -71.976112 -289.215363
-115.936188 -70.536331 -287.538910
-108.014297 -68.701668 -289.365326
-97.194923 -69.020172 -289.089966
-96.470665 -69.348648 -286.169769
-84.883560 -70.429108 -289.770996
-164.380661 -67.633308 -282.845917
-80.004890 -68.523186 -280.308655
-164.493744 -71.088058 -291.347778
-152.010315 -66.754135 -287.941467
-75.308609 -70.797668 -287.402618
-76.152679 -69.091202 -287.302704
-74.213066 -73.763100 -294.425049
-70.501152 -71.865410 -289.914215
-148.870453 -65.302979 -288.276337
-84.102104 -70.721062 -288.584259
-90.164291 -67.378922 -291.147858
-5.234944 -68.587944 -289.052582
-161.429459 -69.666832 -292.653290
-160.881348 -64.817520 -291.944366
-91.759514 -72.700417 -289.756042
4.776354 -71.453468 -290.286438
-100.554276 -68.721039 -287.083771
-141.667099 -69.250648 -290.303741
-125.402153 -69.572960 -295.130157
-114.672852 -68.345673 -293.617279
-107.589386 -73.819321 -291.655487
-117.063812 -69.738258 -293.799194
-157.341095 -65.451042 -291.572449
-135.395599 -72.767433 -291.719360
-156.500488 -69.285934 -295.635895
-144.713470 -71.791542 -301.012482
-143.300232 -74.551743 -301.510590
-156.173615 -69.271309 -305.969971
-147.337753 -68.489182 -312.663422
-148.916107 -73.123276 -315.118469
26.002132 -68.237022 -16.431141
31.891962 -68.206490 -17.712769
41.169064 -69.357796 -19.261700
42.439873 -70.482903 -20.713610
27.913151 -71.205414 -23.740808
43.812080 -73.087791 -20.965641
26.339285 -72.835091 -25.276012
24.510870 -68.823463 -30.365252
32.623928 -69.122971 -32.362114
26.009979 -71.548393 -36.113529
30.765076 -71.099457 -39.329624
34.723671 -71.186066 -45.399387
-60.514099 -67.592514 -46.480587
-70.363358 -69.318588 -49.219551
-42.744160 -72.893654 -47.771694
-34.573730 -66.316216 -50.711102
-32.185230 -66.515785 -50.653141
-83.201561 -65.693405 -54.644531
-87.982857 -72.121552 -54.880001
-22.665211 -66.880669 -60.334923
-14.447065 -71.680901 -62.421700
86.910095 -69.225868 -69.581329
94.174477 -71.380569 -64.690155
-17.733952 -71.889809 -68.303673
100.216568 -68.442291 -71.766960
69.269348 -68.274017 -76.029968
95.573433 -71.303085 -75.204002
99.841782 -71.957008 -76.308060
-95.009636 -69.186005 -74.870415
68.695343 -73.127869 -79.985336
67.468826 -73.112473 -82.674637
-44.303547 -72.539848 -84.917419
65.253281 -68.963600 -85.725273
-96.953781 -70.476501 -86.552254
59.357563 -72.561409 -85.094406
-50.829754 -72.813797 -90.854912
-54.411098 -69.692543 -86.899353
65.141876 -69.008087 -89.047523
-56.108356 -77.104599 -90.732880
68.301872 -67.163475 -94.155937
59.219170 -69.151535 -92.589050
102.839043 -70.288445 -93.402962
47.027996 -69.203423 -94.359398
57.556767 -70.298607 -96.525246
57.288418 -69.929390 -94.010338
-95.477509 -66.613731 -98.059250
108.159348 -70.773682 -94.803635
44.642761 -65.414665 -98.632851
99.908440 -70.145844 -94.138397
109.392998 -69.785782 -98.506317
47.209225 -70.439323 -103.507141
102.835335 -69.501366 -98.095268
49.522797 -71.065376 -105.258759
73.742607 -70.261871 -99.253990
104.479195 -67.898170 -102.307861
77.844414 -67.146202 -101.675598
101.564964 -74.476395 -105.823082
71.031143 -71.049683 -102.456802
85.939735 -66.108734 -101.977509
88.292427 -69.631851 -107.712662
52.111656 -71.738129 -105.256737
109.976563 -72.335617 -104.970139
42.267483 -71.096474 -109.202240
40.511600 -68.800087 -102.244080
109.007339 -66.399055 -110.191040
-95.281975 -71.597443 -107.848877
-74.668419 -69.024963 -104.027565
47.675690 -68.038071 -110.400414
40.527939 -73.055290 -107.833382
-79.290215 -74.749092 -108.979156
103.492233 -68.010468 -107.634514
-80.574081 -66.190277 -115.876686
40.574867 -63.770924 -114.450203
36.496548 -68.420212 -110.707420
-89.726242 -73.326591 -118.385674
-94.704262 -67.950851 -117.410011
44.080105 -74.966881 -108.824921
105.866974 -68.143120 -115.248985
43.715809 -70.959740 -114.430794
-97.046242 -76.130943 -117.887947
-89.485626 -70.618752 -121.091949
-87.976379 -71.546989 -126.943642
38.365765 -67.988251 -118.919540
117.686218 -67.558990 -119.572609
37.795639 -62.682915 -118.540375
108.259071 -69.339203 -119.503838
-80.399895 -73.296486 -123.068916
106.924026 -70.872070 -125.152412
112.948326 -69.843025 -127.087463
-84.358772 -69.482635 -129.579529
31.508623 -66.057739 -125.293976
110.089508 -69.709450 -128.602921
-59.675884 -68.361382 -127.116455
-58.618759 -71.285927 -134.238907
-89.524361 -70.675819 -126.220467
-78.307381 -69.932037 -130.315430
-52.826859 -70.032944 -130.096146
-74.767929 -66.187477 -133.495529
32.305038 -67.775124 -134.389374
-74.919243 -70.371262 -133.150040
-48.533836 -68.311356 -139.884415
-92.318924 -70.226151 -129.482864
35.160629 -70.692108 -135.856186
116.747551 -71.629868 -133.516769
107.093025 -69.953941 -133.126572
-88.326317 -73.034904 -136.935654
-87.635918 -70.020813 -137.213654
-87.005775 -70.284645 -136.378540
-75.917313 -73.820869 -131.852280
-46.916607 -70.956268 -136.506149
-44.706192 -68.138481 -140.042328
-71.458969 -70.879829 -132.864395
115.517502 -69.054886 -138.506042
112.875427 -68.334824 -132.479996
-71.876945 -70.413666 -141.357498
-56.159203 -67.682838 -135.209915
115.441238 -70.289764 -135.842819
-73.958168 -67.450424 -138.977600
32.870327 -69.083115 -131.627411
34.167328 -68.479347 -134.829407
-77.674217 -65.021416 -141.638733
-73.873260 -71.487122 -140.608490
-74.402443 -65.611633 -133.935852
-86.204468 -66.482445 -141.478912
-74.242920 -70.878746 -141.690323
-94.177109 -63.214077 -143.113358
-58.906895 -74.372368 -140.620468
35.368877 -73.448349 -140.788803
116.821114 -70.035858 -143.742188
-57.829151 -68.802498 -146.295929
35.668884 -62.741184 -145.688736
31.005705 -69.587189 -145.601059
27.632965 -72.814400 -151.913940
19.704960 -67.376114 -142.811203
113.704247 -65.828255 -150.552521
-93.888809 -66.645203 -145.665192
-55.520706 -66.540390 -146.760040
-48.403702 -68.266075 -146.157837
22.629532 -67.541695 -141.556686
-98.559105 -65.469490 -151.295135
-72.282967 -70.869171 -150.796555
21.569115 -70.647125 -146.709015
-100.467476 -69.738358 -152.865143
-68.352760 -69.972374 -150.759476
-36.746872 -71.830269 -155.014709
23.552971 -68.112427 -148.993683
27.430300 -66.518867 -147.665527
-52.033184 -68.051544 -155.484573
8.398103 -71.572624 -150.102936
12.627666 -63.550690 -161.066788
-44.101524 -68.353020 -162.478546
-99.129295 -73.348503 -154.379471
12.095888 -70.910500 -160.494324
14.457406 -70.948326 -158.646790
21.034859 -70.996948 -159.211960
-105.455139 -69.386818 -158.227585
-37.393333 -67.764999 -165.140900
31.847069 -72.446907 -156.888199
-104.318710 -65.329506 -158.601746
-48.058044 -69.112686 -159.465637
-30.051828 -66.922379 -161.404602
