# This PCD file was generated using the MATLAB® pcwrite function
# from Computer Vision Toolbox®.
# .PCD v.7 - Point Cloud Data file format
VERSION .7
FIELDS x y z
SIZE 4 4 4
TYPE F F F
COUNT 1 1 1
WIDTH 1448
HEIGHT 1
VIEWPOINT 0 0 0 1 0 0 0
POINTS 1448
DATA ascii
-146.145477 -61.824986 -224.462692
-145.257141 -63.534927 -225.189545
-150.363556 -61.066357 -226.477249
-146.223099 -62.777184 -225.482956
-144.682373 -57.600777 -224.127655
-143.989517 -62.855827 -227.501129
-140.636307 -61.065659 -226.723877
-142.884949 -61.313721 -226.283096
-142.526016 -60.248325 -234.429611
-145.155823 -60.060009 -226.493332
-147.110901 -61.118603 -226.488159
-143.643692 -61.746555 -232.258835
-151.728653 -61.096344 -233.441284
-147.975571 -61.084766 -237.268890
-152.005478 -61.366047 -231.753418
-8.394883 -65.128487 -237.583359
3.754864 -57.361126 -237.663467
16.050154 -62.914093 -241.841522
11.034072 -61.315273 -243.971848
13.835087 -67.933540 -242.203735
11.093123 -62.776340 -244.359787
3.280480 -62.039024 -243.451431
2.910189 -63.335537 -243.770889
22.265530 -61.810776 -254.675659
19.497116 -60.260487 -258.619537
4.336123 -64.351486 -261.668915
7.456545 -57.615089 -259.544739
22.970121 -62.899452 -276.522888
2.000149 -64.194191 -279.964508
20.577629 -62.580723 -283.487091
4.068869 -59.683342 -285.212463
3.641026 -58.248661 -289.049255
10.951189 -60.294407 -288.917908
46.286694 -62.330132 -16.016081
48.872433 -65.361938 -17.996986
23.997097 -69.352119 -15.463405
47.935062 -67.917686 -20.566628
33.031540 -61.309978 -38.172771
21.622604 -66.301117 -40.272243
-42.312428 -61.283817 -47.557648
-79.588318 -60.401215 -41.301289
-32.757309 -60.882767 -46.111721
-22.078205 -63.865990 -47.775566
-14.187840 -61.315063 -53.986652
-11.694892 -65.130775 -54.624081
79.124954 -56.304558 -61.277660
-90.219872 -61.464985 -59.159313
82.516685 -66.534561 -62.893017
87.826035 -61.114140 -62.424603
90.113205 -62.520992 -61.756462
94.095779 -60.255638 -59.138027
100.504395 -60.112221 -63.408466
-13.380244 -59.801022 -63.409542
-25.924913 -59.512196 -61.601471
103.335045 -58.433838 -70.115952
-96.791557 -63.967216 -68.768852
103.672905 -59.842026 -75.220467
62.511696 -54.627628 -70.084373
98.760765 -62.648823 -72.940895
-40.929722 -62.374943 -83.657921
-61.295235 -61.051071 -83.137268
-49.088097 -57.696106 -82.685333
-49.517662 -57.752045 -82.340080
56.599430 -60.652962 -81.733963
-99.397118 -61.939220 -86.048340
64.223015 -65.272133 -89.870476
68.222626 -66.826057 -92.113503
-62.990662 -60.099655 -86.721054
58.068634 -64.067924 -91.768646
58.504307 -60.283291 -93.210335
-67.856789 -61.760918 -96.478676
107.258331 -61.726391 -102.081886
-69.510529 -59.721733 -100.573517
-67.993904 -62.092827 -97.829956
-72.302895 -60.646461 -100.294701
-70.678444 -61.043850 -101.031708
71.016594 -60.179508 -100.246094
69.849167 -65.481033 -103.563080
-64.792236 -62.694839 -104.621094
-67.221184 -60.251759 -106.857445
80.090881 -60.018063 -105.281311
73.983047 -63.089489 -109.433075
-82.036469 -62.009808 -104.797722
-65.271309 -63.273464 -108.717255
75.759575 -63.780525 -106.678505
83.370453 -61.224602 -106.624847
-68.313431 -60.941387 -106.328316
47.577431 -58.305286 -112.909676
-84.202286 -59.460560 -112.411812
43.072285 -57.172241 -113.775078
-91.712326 -60.112617 -115.680672
46.015606 -59.280231 -120.454178
-84.438583 -62.363796 -124.220703
33.704647 -60.200695 -120.399689
38.205463 -61.768738 -121.036568
35.357418 -61.164528 -120.702072
36.707104 -58.071171 -118.162865
-90.124817 -60.233963 -119.697464
-55.786446 -61.963764 -122.429657
-95.683693 -58.457001 -121.783989
-63.399612 -59.950832 -120.170296
-77.958313 -60.188469 -126.643242
-76.524673 -57.196949 -121.240723
-64.597443 -63.043606 -125.570793
32.884319 -63.856609 -123.769783
33.997395 -62.652752 -124.794899
-61.454163 -62.830086 -125.458305
-56.246597 -60.491138 -126.730019
-52.341675 -64.765152 -135.853424
-60.089035 -55.526588 -130.080551
32.041344 -61.357521 -132.295761
-58.616302 -57.456604 -134.684113
-55.480423 -60.878731 -136.997513
27.833948 -59.069427 -132.208954
21.884676 -58.382401 -134.246323
-149.231064 -61.601326 -196.686188
-147.091263 -60.407482 -195.723862
-140.827896 -61.960449 -194.557144
-144.492538 -61.965492 -196.967941
-146.142578 -61.123058 -190.675415
-149.067627 -61.417610 -195.378693
-151.532654 -62.517612 -200.356598
-149.677139 -61.549637 -198.200195
-154.255630 -63.399921 -198.764069
-141.478424 -60.089787 -196.566818
-139.789200 -57.326195 -197.600845
-150.742798 -59.849350 -201.682892
-138.276550 -61.460651 -199.162384
-139.012329 -60.517857 -197.358887
-144.106339 -63.963081 -199.840286
-148.224411 -61.463455 -201.503067
-153.769562 -58.376438 -199.775711
-149.689697 -62.769993 -204.102127
-147.768250 -60.334953 -201.777695
-150.780899 -61.187733 -201.516693
-152.087433 -62.215641 -204.923279
-142.962357 -56.634941 -205.888977
-145.417221 -60.111595 -208.051865
-148.408722 -61.603016 -205.571655
-147.477783 -61.136040 -212.101700
-152.208481 -58.587173 -218.954803
-6.408202 -60.514915 -236.401505
4.169666 -60.206799 -239.008240
4.224056 -53.945995 -239.332733
12.257778 -61.166370 -244.172012
4.093156 -62.416958 -238.678070
3.251772 -60.299076 -242.582458
25.250669 -60.138115 -244.479965
-1.365836 -63.047409 -244.764160
19.315172 -61.331589 -246.992447
18.427891 -62.059193 -250.844330
-0.479961 -62.311287 -262.348572
25.598890 -58.021729 -254.986221
21.174341 -59.017811 -268.766083
9.844262 -62.045776 -269.729187
24.457506 -60.959190 -269.363892
20.664921 -61.100685 -278.055511
19.422707 -60.435616 -283.101898
30.081951 -65.660065 -12.390338
21.334820 -58.343803 -14.319122
49.479309 -63.165890 -21.796043
21.823442 -60.131126 -27.417418
25.176287 -65.381912 -29.875572
39.342804 -52.661865 -28.962244
48.348652 -60.610462 -37.997887
-63.290333 -60.412792 -42.319626
-71.247452 -63.951103 -46.788593
-35.482498 -59.859745 -50.356598
-84.297005 -61.467770 -51.542694
-12.516386 -58.385376 -50.157490
-97.277878 -54.164970 -60.580265
69.459282 -63.014824 -59.892567
-94.926025 -62.339275 -64.419220
-25.019270 -60.177563 -65.320618
-29.370380 -58.341633 -68.780861
-98.156578 -58.101170 -71.192795
-32.563267 -63.728951 -68.749756
-33.745449 -62.459854 -74.803970
-34.903721 -59.536972 -76.128258
-97.959663 -58.610947 -81.245041
-57.824959 -58.436428 -80.451729
60.788746 -61.722416 -80.600098
-46.540081 -56.692848 -85.399803
-42.462234 -61.511280 -80.139389
62.473217 -57.183895 -80.254280
65.459328 -61.519466 -80.211327
103.753426 -58.929241 -85.830620
55.955357 -62.811405 -86.807968
65.720299 -57.047951 -86.902260
66.988518 -58.599083 -89.332581
63.534031 -60.475399 -89.416557
104.389175 -59.547520 -85.520622
-69.280067 -59.526066 -91.801010
-68.355354 -60.453362 -94.768074
-67.503555 -62.025818 -96.014816
67.796455 -65.286209 -91.869415
69.675728 -58.384731 -102.820633
-75.761246 -64.865845 -101.471786
107.667824 -63.822674 -99.430054
54.868671 -58.176826 -101.515617
98.726364 -61.516285 -109.548309
-65.964691 -60.313805 -105.721947
-73.768089 -59.961704 -101.384560
-68.503654 -59.577297 -106.966629
53.031445 -58.533676 -109.164116
80.588615 -61.930847 -104.966415
-72.306236 -59.991875 -104.155228
95.330963 -58.333035 -105.809479
-67.267036 -54.951717 -106.587967
59.966000 -62.818909 -103.704964
-70.172127 -58.951488 -111.122627
51.010796 -61.576393 -108.571655
-66.976196 -59.897110 -110.328835
-63.963852 -57.657162 -107.849739
48.463070 -60.161095 -114.234390
-83.346161 -59.019196 -115.471367
-64.525887 -59.839706 -112.807091
-56.979706 -61.730770 -113.814316
45.303226 -58.344826 -111.929626
-81.003189 -60.217236 -110.691986
-59.683830 -59.185780 -110.351852
-54.693352 -63.908138 -117.313751
-54.413143 -57.776188 -115.994255
-77.749084 -59.315479 -114.623550
35.486687 -63.416306 -118.195740
-72.710304 -60.430565 -117.904831
-81.481819 -59.526295 -120.720764
-55.396824 -61.992424 -124.475105
40.447514 -62.661968 -119.289558
28.831602 -63.911461 -124.584183
-93.313980 -62.764420 -124.292496
-66.662163 -60.901234 -122.274033
-51.050285 -62.150116 -129.325592
-60.740894 -53.046959 -129.091599
-64.447861 -62.067783 -133.555710
35.919655 -57.643669 -126.380783
-51.806870 -57.228466 -127.724243
-59.427334 -63.846146 -130.106796
31.109854 -58.215233 -130.714096
25.893845 -56.044495 -135.813858
23.010328 -60.000767 -138.446381
31.953150 -57.710972 -136.894196
-2.697679 -54.055843 -242.649307
10.585373 -65.793053 -243.188629
16.287453 -58.222740 -243.842758
20.567957 -60.948383 -246.682190
9.333714 -62.252464 -244.981125
-4.187463 -62.330555 -243.567078
4.172087 -60.145309 -246.759415
17.842813 -59.510990 -250.710327
6.182944 -63.725746 -287.732819
27.646601 -62.695534 -14.351685
24.031374 -63.951694 -15.209213
38.232231 -56.869328 -19.247574
20.622520 -64.243858 -24.645819
29.875937 -60.702515 -21.290279
23.756710 -61.008595 -21.530464
27.786551 -59.516460 -23.853060
42.852253 -57.803909 -25.653345
25.588465 -58.604965 -31.677393
50.206974 -62.198200 -27.103701
29.245945 -63.329735 -32.407181
43.193966 -60.862350 -37.246826
19.291355 -61.527294 -36.237247
32.352119 -60.710804 -31.239597
35.553661 -59.506165 -38.002171
41.445690 -58.753529 -40.887188
38.614223 -58.750427 -41.643009
-47.981201 -57.437176 -41.556614
-23.764942 -56.073975 -47.096954
-20.471735 -59.277447 -51.820415
-11.693296 -60.446301 -56.698761
73.503288 -56.128239 -54.306778
69.250229 -57.943069 -58.519386
-7.998888 -61.076344 -60.562279
64.190987 -56.515858 -68.010620
-52.442726 -60.447556 -79.156120
-56.196251 -57.364178 -81.198151
-60.492992 -56.377579 -83.813957
65.230461 -56.443787 -87.225655
61.761623 -56.525265 -88.577896
62.405247 -58.760387 -86.526031
-96.368248 -60.825058 -92.445961
102.483650 -60.260258 -99.826477
101.319412 -58.032024 -96.254311
-72.107040 -63.185852 -100.693138
-96.150948 -55.375023 -95.145851
62.388168 -61.693123 -100.644020
58.057755 -57.347141 -102.802078
82.698845 -61.876957 -100.319633
68.496437 -61.424725 -103.862572
68.794868 -61.364902 -103.699936
85.708649 -56.091194 -101.735855
-72.636162 -60.319794 -107.591118
72.034973 -58.714176 -104.802666
76.059219 -57.910503 -106.088051
-66.800316 -55.620079 -108.097656
59.462822 -58.920998 -108.398170
-67.824715 -54.176426 -105.906303
51.513290 -57.336292 -99.342651
85.878654 -56.874908 -105.775467
85.470566 -57.070972 -109.554054
82.039032 -59.538101 -110.221527
-73.741997 -58.533863 -110.025108
-63.269302 -56.069130 -111.091187
42.741455 -56.714462 -111.424011
-67.061409 -56.843124 -113.011040
47.646698 -60.743176 -116.346329
-74.434090 -56.701584 -120.529984
-56.222492 -56.518154 -118.818268
-82.286156 -57.769924 -112.783646
42.222584 -59.281315 -119.182480
-79.824020 -58.256332 -119.231705
-68.894897 -59.889275 -113.241547
-57.648064 -61.359207 -121.518547
-89.935356 -56.824348 -123.860344
-93.098053 -60.534187 -125.058830
-53.824520 -58.397419 -122.471329
41.011169 -57.170036 -124.521027
31.709187 -61.416100 -123.534340
-56.130817 -58.422981 -125.970657
-63.446091 -62.038406 -128.731949
33.855457 -57.945900 -127.608299
36.706997 -55.730976 -133.253357
26.443766 -56.758408 -136.176804
30.798862 -58.970730 -131.232452
0.795605 -61.449825 -240.994202
-1.148260 -62.982506 -240.052277
11.272611 -59.216019 -242.212372
13.440480 -62.541382 -239.321991
22.720543 -60.640438 -248.751617
6.679875 -59.440994 -253.239929
20.242702 -60.404327 -252.066437
2.579016 -58.618191 -248.285095
21.402859 -59.540932 -261.364716
-13.688863 -58.431366 -266.894714
-21.352682 -56.699043 -269.472443
25.332977 -58.981876 -270.689178
-16.928501 -60.729343 -268.223511
-13.143738 -58.689255 -272.347076
-9.247977 -56.191696 -280.136414
18.021887 -61.075027 -277.104858
16.262732 -61.448181 -285.821808
11.656658 -63.119873 -289.513458
10.081229 -58.903877 -289.300262
6.623336 -62.747250 -293.853821
47.082130 -64.393242 -19.493668
42.670471 -57.754547 -21.012594
50.613354 -61.264198 -22.004404
29.733927 -63.210899 -35.257671
23.633766 -53.656666 -33.453281
18.035351 -60.370304 -35.760178
46.186481 -51.807911 -40.908749
34.941605 -65.055603 -37.124809
31.580729 -65.250137 -45.485298
34.400639 -53.281433 -43.013172
-55.473473 -58.012253 -39.490372
-74.785660 -57.407089 -48.879906
-81.053375 -60.727955 -45.051582
-81.650711 -57.443260 -44.188091
-81.701302 -61.769287 -49.642319
-33.452183 -56.884712 -43.278244
-27.914797 -57.460827 -53.398659
-15.557396 -53.952568 -52.594105
88.028366 -60.513676 -57.221714
-10.841981 -58.060589 -58.067574
76.301506 -62.679104 -57.667160
-13.298064 -58.011806 -64.311081
-16.211012 -57.629166 -62.556309
67.140465 -55.694530 -66.497772
99.356995 -60.775799 -71.257431
63.212196 -52.957523 -70.038132
-65.323807 -58.080120 -71.431046
-65.052238 -58.817348 -67.645409
65.338417 -55.079014 -68.873055
107.495277 -60.971981 -76.841797
-100.806763 -57.292015 -82.415466
-43.821476 -56.023327 -78.096153
63.702717 -58.886124 -77.975578
101.121254 -61.192314 -81.583862
-54.433853 -58.368439 -83.810982
-56.887646 -56.040726 -85.659119
59.254978 -56.644958 -79.721809
61.579876 -54.737724 -86.257896
76.470612 -56.702610 -87.197945
59.231438 -57.052734 -86.388824
61.337578 -60.450600 -90.582413
83.579613 -55.464798 -91.898308
90.835175 -60.346588 -94.492142
103.389725 -61.139610 -91.896873
81.156593 -60.470398 -94.829742
107.798317 -64.480614 -91.449791
73.469238 -54.676094 -92.241653
77.678879 -57.586250 -91.093224
69.074272 -60.842575 -95.686211
-99.516380 -58.939686 -94.971230
74.488930 -61.148434 -96.317703
80.503761 -60.217960 -95.296417
86.751419 -58.833664 -98.565063
101.822151 -58.088089 -97.123322
74.209091 -59.637718 -100.193016
63.294453 -58.513206 -99.971359
66.838860 -58.538570 -102.457916
70.734947 -57.857807 -100.111542
-75.864594 -63.650486 -105.663879
79.087471 -58.757004 -102.237167
88.170219 -57.054916 -100.873749
77.153023 -61.141472 -108.440155
77.022720 -60.663807 -103.698013
64.726036 -57.993279 -102.751076
83.689476 -55.167046 -105.593246
51.111217 -55.306454 -109.022720
-99.139984 -60.904579 -109.283409
92.261421 -63.993454 -106.134270
-78.016663 -59.498798 -111.769257
-68.131989 -61.191975 -122.265564
-60.636909 -59.778996 -113.779854
-78.367470 -53.183186 -118.284111
-96.524612 -61.475307 -118.412796
-78.997322 -55.368057 -114.384964
-81.333893 -55.822834 -118.325081
-63.655140 -56.135586 -116.502579
-96.176727 -56.874004 -120.370255
-70.118187 -56.944389 -119.131943
-56.318790 -58.824043 -119.147247
-49.372482 -55.966667 -128.569946
-70.136009 -60.438461 -121.308060
-59.499424 -56.775101 -125.227104
39.653698 -57.093384 -122.229713
-61.012234 -60.438007 -126.811768
42.271622 -59.273819 -122.834267
-65.228607 -61.091053 -128.187241
-58.481739 -60.667118 -134.844284
31.983418 -58.681408 -129.858902
31.087515 -57.215870 -133.533905
7.627432 -58.475174 -235.191467
22.421032 -57.072762 -241.695999
3.367764 -59.328827 -242.801025
0.702267 -56.568417 -242.913528
6.774447 -57.444954 -245.100052
11.366628 -53.966118 -247.927597
21.038733 -54.732235 -248.046707
4.027220 -59.954800 -259.147980
-14.790235 -59.478477 -262.562408
-12.194018 -59.616142 -261.171295
-19.986513 -56.053200 -263.705231
-17.278368 -55.351681 -263.773926
-15.858292 -54.392002 -264.594757
-16.884995 -57.314739 -261.577240
-20.420832 -55.784416 -260.719147
-16.749628 -56.652107 -260.960205
-23.381393 -56.762997 -264.962677
13.525187 -56.640553 -268.239014
10.998642 -59.751026 -267.351074
-15.914083 -60.920547 -267.630005
20.706535 -54.026169 -271.550690
20.570177 -55.901894 -274.509949
-18.192476 -56.151024 -269.482727
-11.465697 -55.596699 -270.764252
-10.637251 -55.390331 -280.799866
-6.157111 -57.756821 -280.210052
-8.462340 -56.124508 -282.293884
16.605703 -55.548317 -284.921234
21.270994 -64.048141 -284.228607
38.230000 -56.413811 -12.152187
40.474117 -56.744598 -15.500649
37.962566 -65.109467 -17.096500
44.377865 -55.323620 -14.810055
21.568701 -54.358120 -19.535542
45.977348 -53.313114 -22.316217
20.073187 -54.774139 -27.607962
49.199001 -61.001041 -32.276691
47.569881 -64.475601 -31.647369
34.927826 -58.217327 -37.620743
46.236698 -61.290634 -38.333187
21.631155 -56.237961 -39.087719
28.593542 -66.306061 -38.895462
40.080418 -61.561184 -38.022594
33.487259 -68.018196 -36.083218
34.166615 -64.762863 -41.567371
41.244678 -54.265423 -40.332397
-57.358360 -55.794037 -44.544094
-42.748512 -60.484314 -42.608147
-31.299795 -58.920834 -48.462807
-84.114944 -56.295372 -47.782616
-6.777210 -59.888382 -53.554855
84.591545 -52.191051 -62.177509
92.094078 -59.425102 -59.413551
73.509865 -58.319859 -60.117199
98.357780 -61.052578 -62.174194
-98.308823 -62.290184 -61.656693
-23.416330 -54.894196 -62.237175
95.776634 -58.290714 -66.606018
68.887245 -54.792011 -64.651245
-96.867554 -56.369888 -70.547104
-64.994202 -59.456985 -69.303085
101.633537 -58.884666 -70.425034
-97.262177 -58.303669 -73.767845
104.377945 -59.397869 -76.845558
63.418957 -61.510426 -76.652672
-47.148922 -57.256588 -78.548737
106.948151 -62.174358 -78.581322
-48.002701 -57.596176 -76.909470
60.516167 -56.767971 -80.457588
-53.241661 -59.873386 -80.285149
102.085243 -62.059341 -83.399071
62.152351 -55.144829 -85.528244
84.906441 -57.889832 -87.993103
87.487274 -57.482822 -87.689423
77.176872 -53.382912 -86.206017
77.884743 -55.293221 -90.845047
88.932312 -56.430138 -85.953407
-65.946701 -63.288475 -95.495003
80.382713 -57.617577 -96.080894
67.045799 -59.687702 -100.071945
66.180733 -58.308708 -98.176315
64.128235 -54.433052 -101.138535
80.538406 -51.946060 -99.199387
76.118904 -57.060085 -99.845070
88.626648 -57.744343 -104.609627
95.454079 -58.194523 -100.407036
74.911240 -56.497234 -101.464828
104.975044 -58.421185 -103.803413
56.105705 -57.310169 -100.332977
100.780037 -56.185818 -101.828560
94.037254 -59.667355 -101.813217
-58.428368 -59.482407 -98.763222
-63.734528 -57.992363 -102.359146
89.339691 -57.982910 -107.040253
-62.414246 -57.695061 -108.014786
-63.940548 -51.534355 -106.076881
-77.268997 -59.625069 -108.899178
47.630219 -58.551163 -107.403519
46.630962 -57.826656 -110.946144
94.691406 -60.436020 -108.820015
86.699623 -60.337223 -106.800270
-59.232773 -56.812782 -107.277214
-58.013813 -56.271061 -107.515114
-74.221542 -56.692131 -112.230957
-74.891655 -56.219833 -110.715546
45.567421 -56.483925 -112.700539
-57.979313 -57.998680 -109.868355
-61.313778 -55.300430 -112.925438
-77.932823 -55.422016 -119.233360
38.585232 -58.519173 -116.701523
45.802959 -58.151344 -118.409782
-67.505836 -57.270138 -118.701698
-56.286575 -57.851028 -120.328720
41.156590 -55.665058 -120.953773
-61.720314 -59.102394 -120.771667
37.361244 -54.202198 -117.541550
35.804390 -57.528057 -121.929222
-92.231979 -63.702248 -123.546646
42.110634 -59.594345 -125.791862
-63.002968 -56.263321 -125.574844
28.181643 -58.632328 -122.712769
35.502804 -55.766304 -129.447678
-65.010963 -58.819721 -133.488739
33.653477 -56.000778 -127.609795
36.096905 -54.851677 -128.120224
-59.190422 -61.620796 -133.090591
-55.432529 -56.356895 -130.672043
-5.488976 -60.704590 -239.783661
4.857614 -52.141407 -239.702515
18.944004 -57.205215 -237.011475
7.253128 -61.361912 -241.461487
13.709234 -57.035992 -246.212357
9.281071 -53.393841 -245.730988
3.025877 -58.686745 -246.142075
22.606398 -54.963337 -255.203720
-20.534401 -53.636154 -251.203735
-16.589479 -59.157879 -254.445892
-21.592262 -62.179649 -257.615997
21.041887 -60.518909 -255.370407
-15.084336 -61.926384 -256.606323
11.622910 -50.575729 -254.213867
24.357218 -57.889233 -256.967499
-17.950600 -54.899487 -261.530884
-18.040297 -56.746365 -260.995300
-21.795773 -57.976955 -262.970093
-16.299873 -62.289776 -265.120758
-17.498087 -53.346233 -260.244751
-15.772300 -54.625656 -267.134827
-15.485413 -59.978195 -268.700317
-15.564474 -57.325916 -270.861755
-10.247775 -55.984570 -268.979797
-17.158781 -55.896568 -271.097748
-15.291415 -59.813702 -275.376556
-15.361014 -54.902573 -272.902039
-8.103724 -54.070221 -276.327881
-15.186740 -54.734005 -276.250519
22.830013 -53.933311 -280.413788
-15.569543 -56.825535 -279.934967
13.977023 -60.639145 -277.253021
-7.559973 -58.321053 -280.998505
-11.454406 -61.038773 -283.040985
-10.976775 -55.749645 -282.242340
-12.481555 -57.358849 -282.872345
-8.602446 -55.256508 -279.913300
-14.054951 -56.310745 -278.004211
-9.477417 -55.069263 -283.734314
-8.645907 -54.589237 -284.862976
6.660758 -59.575375 -284.888947
11.737529 -56.655392 -283.530487
13.039214 -54.727886 -289.672821
-5.167322 -56.732941 -289.262939
-5.773559 -58.678856 -288.443573
0.348149 -55.963181 -293.716522
3.703928 -50.739010 -293.192932
31.634491 -63.006275 -9.017551
28.188786 -52.674511 -14.189751
33.405029 -61.042702 -21.296282
40.302906 -51.480198 -17.104269
44.990616 -57.664566 -18.811749
46.930332 -54.155846 -22.875765
27.632349 -57.900013 -24.036860
25.210691 -52.968220 -19.664709
43.775208 -57.110100 -27.122892
21.027979 -58.690918 -32.261761
26.106821 -58.155464 -29.535194
25.162409 -57.537853 -35.224617
48.252773 -59.176617 -39.131275
41.092651 -55.341213 -37.955582
-76.906677 -61.322281 -38.951530
-44.726669 -56.660259 -48.166985
-80.655396 -57.846897 -44.309734
-40.517048 -56.138855 -47.191566
-89.034218 -55.120029 -56.757603
79.142944 -51.569332 -55.099113
80.388252 -54.640301 -57.696629
90.820648 -53.181763 -57.318825
-16.751257 -56.339630 -56.557323
-10.653908 -53.571220 -58.084240
-25.500010 -57.630219 -61.018288
68.986519 -55.181309 -61.811272
-33.876942 -55.840874 -66.989288
99.173576 -52.717876 -64.667168
-31.996113 -53.230373 -64.151848
-65.762642 -56.393135 -70.336472
-61.737991 -57.799675 -71.111069
-64.926239 -57.278130 -72.289505
66.876915 -54.014362 -75.408684
-103.403572 -55.880692 -74.545891
103.505386 -54.613838 -72.757126
-46.399124 -55.974586 -76.771378
-35.425568 -58.434643 -74.595978
-46.056694 -56.427135 -80.562416
79.277817 -56.268963 -82.438194
81.690575 -57.732460 -85.099602
-97.915466 -57.693771 -84.808372
74.817520 -59.626587 -85.675766
86.330208 -52.643448 -81.981339
75.705841 -53.445938 -81.043610
-61.848640 -52.936474 -87.119789
73.259445 -54.491032 -86.416992
84.481873 -52.723419 -81.409203
-62.301765 -55.358528 -85.926659
94.505745 -52.630447 -87.171021
-64.284554 -59.164215 -94.506165
66.587769 -55.496658 -87.721024
67.546730 -56.440281 -92.740227
64.642410 -56.483597 -90.893356
63.885616 -55.468227 -92.514915
104.196182 -60.937778 -93.005714
63.241592 -56.340759 -90.598167
-100.628487 -56.619392 -91.447472
66.355621 -52.451931 -93.069336
93.056244 -57.952557 -93.646317
98.726807 -57.681232 -97.617348
68.700096 -56.210415 -97.094093
104.193329 -55.164474 -95.289169
-104.047935 -56.271095 -101.017723
61.526756 -54.318447 -96.032845
99.636749 -53.456100 -98.210602
77.540520 -52.643757 -101.447289
86.628075 -55.031479 -96.460052
58.731476 -52.500984 -101.703415
102.005875 -56.348160 -105.494278
91.712738 -56.881721 -100.542206
95.635666 -52.786285 -106.559723
67.100922 -53.726246 -101.925766
61.041344 -51.654995 -102.839340
94.409271 -59.063480 -107.308853
86.060905 -53.708118 -111.621941
94.125511 -52.548920 -105.405853
96.303642 -55.161121 -106.707291
95.692375 -54.530903 -107.107567
53.030567 -55.022022 -111.062752
-75.660370 -54.331394 -106.121056
48.930523 -53.631760 -113.547722
-69.602432 -57.912899 -114.981628
-94.334839 -61.705681 -115.557716
-82.384087 -54.748016 -115.274147
-66.337921 -54.001369 -118.188271
52.344852 -53.715900 -113.269188
37.630432 -57.984951 -115.258049
-83.312576 -55.647823 -116.063469
41.449322 -55.195187 -117.476585
-71.147400 -52.926647 -121.846123
-60.785603 -56.751110 -119.448074
40.645100 -56.494507 -117.232445
-66.996048 -55.022655 -119.835327
-61.661930 -62.201546 -122.414772
-61.730606 -57.155663 -121.544907
-65.938011 -52.213150 -122.610191
-68.818832 -57.610043 -120.580368
37.142990 -55.154152 -119.158714
34.276222 -58.959297 -123.479530
40.808136 -52.905109 -122.361481
-61.135231 -56.831856 -123.625938
-64.780594 -58.100109 -124.943901
-62.619545 -56.665070 -128.665192
-59.560902 -54.507317 -125.803856
2.475943 -59.825035 -239.931854
4.844086 -54.809799 -233.890961
7.187450 -55.788143 -239.629272
6.113769 -53.139046 -240.864532
2.310909 -57.630253 -239.793060
-9.943731 -55.990986 -241.601364
1.008683 -55.338314 -243.514175
0.696863 -55.030346 -239.686859
0.863235 -60.453114 -240.875565
18.276749 -54.734123 -244.360703
-18.009171 -54.991093 -240.870789
17.057364 -58.163872 -242.084488
21.120991 -55.323036 -250.776199
-21.843794 -54.706928 -243.263763
8.385339 -55.075371 -244.960373
-19.204849 -54.462517 -251.434601
19.671764 -52.252319 -246.131622
-18.129696 -57.894936 -250.203461
-13.848310 -58.462318 -257.266235
26.224979 -53.983776 -253.111984
8.320160 -56.236168 -251.831329
22.351578 -55.508366 -252.719955
-15.969152 -53.448631 -252.755203
-22.078163 -58.343548 -257.850922
-20.812414 -54.254616 -258.074554
-15.026796 -56.743378 -256.972504
-21.960577 -53.356918 -260.545166
25.246613 -54.819321 -264.805603
-17.073555 -55.859386 -265.737885
28.298758 -57.116325 -263.816132
24.195593 -53.186398 -265.966156
-16.347473 -55.832905 -267.980103
-13.073412 -56.394127 -271.168579
20.008326 -57.326439 -278.093018
23.568001 -55.626118 -274.954834
-16.006424 -59.138004 -277.048370
-3.990448 -53.368507 -277.453094
-9.369647 -53.118847 -282.781982
22.458193 -52.187195 -280.486511
15.935644 -57.264862 -278.144531
-7.832358 -55.262840 -278.734131
22.546343 -51.945053 -280.419342
10.859471 -55.832401 -280.951721
18.353741 -53.160793 -282.974182
-6.325075 -58.054081 -281.705597
-11.213141 -53.676403 -284.283905
-2.281728 -54.944588 -291.080780
-7.812690 -57.393280 -285.320679
15.103880 -52.910877 -290.865356
19.800957 -56.878326 -287.410248
1.306837 -58.390514 -291.656036
10.608828 -52.891701 -294.193512
5.437255 -54.751125 -290.402557
6.219666 -60.371017 -293.333588
11.398801 -56.123627 -298.369934
30.171906 -58.562927 -13.884276
33.441448 -53.121803 -17.875544
27.206699 -59.932510 -19.331985
47.237038 -55.216938 -23.031206
39.180439 -60.666351 -25.457159
21.539253 -55.916561 -27.469631
26.061991 -55.451500 -28.447180
28.740938 -53.578178 -32.097553
44.122128 -57.463905 -35.345528
42.071861 -57.680321 -33.255398
24.569830 -59.980576 -34.838768
37.005184 -55.059528 -30.719631
37.785709 -56.280731 -35.675644
32.957851 -61.286499 -36.594158
32.696022 -55.048820 -38.722973
-63.298389 -51.706177 -42.150871
-71.492264 -55.972450 -40.656406
-65.118469 -52.815815 -45.378208
-74.176910 -56.406837 -45.441750
-53.250843 -51.999702 -44.478905
-51.608959 -57.031204 -45.871117
-87.047325 -55.303333 -46.360626
-44.924679 -55.826550 -44.718166
-87.100258 -48.988823 -53.337456
-26.786514 -59.105278 -50.541687
-88.671516 -56.611702 -50.575535
76.156303 -54.721611 -58.483280
75.231369 -56.343536 -58.815956
-95.767258 -60.346909 -59.267742
70.870758 -56.147720 -65.504341
96.526794 -56.412971 -59.551579
-68.026146 -54.342491 -63.391262
100.089951 -56.617851 -73.547379
-63.189754 -57.048332 -69.319580
-63.452374 -55.905766 -72.849106
-36.054050 -59.318523 -75.469032
61.044754 -60.306000 -75.557037
82.433937 -52.822037 -79.672302
-37.506535 -53.965176 -82.330803
82.971031 -56.108753 -82.182831
77.210472 -56.170868 -80.799789
84.192299 -57.279781 -86.008873
73.171715 -51.778927 -80.504196
107.862488 -55.414883 -83.903130
62.570637 -57.018860 -84.986595
70.034058 -54.906898 -87.769043
108.704285 -56.360172 -85.599289
61.562321 -53.082020 -92.310440
93.525253 -51.504662 -86.694626
66.273705 -53.499012 -87.693611
70.438095 -58.412315 -85.229393
68.254112 -53.577351 -91.156776
70.059891 -54.305244 -87.645889
94.044617 -57.147564 -86.523994
96.731270 -53.197224 -93.659760
85.515511 -55.440399 -94.938232
93.745918 -59.218819 -94.503288
95.938629 -53.852032 -102.611664
73.494667 -56.989819 -103.690689
99.757545 -55.996204 -97.509964
-101.461464 -56.561428 -100.708237
70.407524 -54.177067 -98.937637
99.683029 -53.753460 -99.952599
64.933365 -59.741455 -102.825386
49.931744 -52.478973 -104.053757
-61.103161 -55.255722 -103.275780
-75.345085 -55.918423 -107.734169
-72.029495 -51.901569 -107.655640
-73.562737 -53.717308 -109.280891
-62.695938 -56.971088 -104.538490
-75.076820 -59.066746 -113.843513
-68.214851 -56.598309 -115.395798
48.875595 -55.866970 -108.203239
-65.927048 -57.588772 -110.680130
48.744499 -55.680302 -121.161598
43.846535 -56.060032 -117.866501
-60.316631 -54.631496 -110.736107
44.732975 -53.876419 -118.624489
-65.115196 -49.800732 -110.804451
46.880531 -52.481686 -113.844505
-63.910118 -53.522816 -118.431473
40.018223 -53.402794 -118.675789
-89.297073 -52.119411 -121.944878
-16.213881 -54.887405 -238.382767
10.658388 -51.672520 -239.621277
1.303962 -51.730999 -240.299423
18.774807 -53.663200 -239.055740
-7.468050 -55.138199 -240.769089
4.783555 -51.308186 -243.575241
-15.708996 -58.575024 -242.797134
-12.520483 -52.844463 -243.199722
6.408667 -51.593918 -239.442062
18.985262 -49.721554 -244.956085
13.893697 -56.588467 -241.048111
20.822685 -53.018650 -243.485001
-13.731218 -53.037197 -242.218536
21.900356 -54.407681 -245.902054
20.470520 -56.398411 -251.750961
-18.604675 -55.550785 -242.471008
24.754210 -56.317875 -249.569336
-13.845941 -53.304142 -252.006088
-16.944908 -53.020176 -250.220551
25.407043 -53.441940 -255.581146
28.302271 -59.190800 -256.450867
-15.383569 -56.491871 -249.574158
24.370531 -56.449394 -250.245392
25.970440 -57.493507 -257.343658
21.463793 -55.349258 -263.680969
24.747009 -56.078201 -257.747009
13.116438 -54.730621 -263.514374
27.695036 -53.432148 -256.792480
-16.013889 -54.335396 -262.140076
-13.436688 -52.831593 -261.829437
16.941347 -58.220425 -268.699738
-16.200500 -54.715141 -267.066650
29.771025 -53.960136 -269.794495
22.676775 -57.481396 -268.770081
-12.204438 -55.974384 -272.052979
-14.353231 -56.126476 -271.554443
14.521678 -58.372780 -272.935181
-12.681599 -55.831417 -272.426147
23.728979 -57.178886 -270.034485
18.731764 -49.387688 -272.400909
24.707096 -52.179676 -272.988281
21.368504 -51.820675 -285.718567
-10.924323 -54.627186 -277.986511
-11.051540 -53.970581 -278.481018
19.683807 -56.582603 -280.010559
18.589340 -54.991608 -280.118439
-8.132466 -53.590569 -278.135712
13.258013 -56.851864 -283.240723
21.284622 -53.059849 -289.292114
-14.045774 -53.189739 -282.300171
16.953356 -54.761650 -294.371094
-3.450117 -54.166805 -285.919495
22.544792 -54.927067 -286.995697
-0.009226 -58.619110 -290.555298
-8.210500 -57.695488 -287.126221
-3.814715 -52.134514 -286.844818
3.031064 -53.082939 -293.083862
-2.797906 -55.218090 -294.377380
-0.738788 -54.107346 -290.495514
13.776616 -52.622768 -295.760742
2.438910 -53.561977 -294.144867
5.929500 -50.198650 -294.113007
24.791250 -56.908291 -18.929403
22.458876 -53.362408 -22.139511
30.653936 -60.176922 -18.752331
47.512924 -61.287884 -26.784082
25.916473 -58.161934 -29.323315
24.917587 -54.655014 -34.803402
32.685429 -56.720352 -34.746777
36.445343 -56.296417 -41.685478
30.609795 -58.213661 -38.792778
-57.887966 -54.401432 -42.944920
-42.459572 -56.171333 -51.774147
-22.583553 -55.501030 -50.074982
-7.578936 -51.589493 -53.536892
-92.176788 -56.428600 -60.702469
90.656975 -56.425739 -57.459038
84.968781 -56.345871 -61.598213
-95.748466 -54.171162 -57.334499
-11.196327 -58.149254 -62.742615
-18.770721 -55.269337 -62.957920
-60.240429 -56.168854 -64.150169
98.239288 -55.593227 -64.272751
-98.368805 -52.840248 -68.652267
-61.873268 -50.979458 -67.772842
-65.604553 -53.490395 -71.962975
61.659931 -55.441200 -70.266998
-68.569817 -56.972996 -67.881813
-102.290619 -54.781700 -68.940613
62.338600 -56.764675 -72.338554
66.647514 -51.228878 -70.934845
-40.582611 -56.801414 -77.928513
63.295071 -54.939941 -73.094353
82.914116 -50.298317 -74.435799
86.300911 -53.407856 -78.474625
-43.295490 -56.691330 -80.033974
73.395660 -50.860256 -79.684029
70.672623 -54.628689 -83.376602
86.739594 -54.507771 -78.947052
91.607391 -54.837723 -79.398415
110.301323 -50.353100 -81.320839
66.510841 -54.517757 -81.690666
68.675812 -53.993610 -86.985313
93.334427 -57.403561 -81.409943
-54.208351 -55.515388 -86.812012
67.689056 -51.298355 -83.274971
-53.922371 -57.050701 -84.696136
104.284470 -53.457619 -89.094391
100.976082 -54.224781 -90.501656
81.115700 -53.444065 -92.606804
77.521194 -52.146381 -95.662621
91.683121 -52.745552 -97.907150
101.614563 -52.335983 -92.651840
-71.236198 -58.237370 -96.263809
98.735352 -54.560604 -97.838150
63.318726 -54.460182 -98.415016
98.756813 -52.288258 -99.199814
82.025291 -54.950439 -101.146210
87.849785 -54.427742 -101.162148
104.330345 -53.689194 -101.421234
60.801765 -53.214363 -103.885574
-95.717064 -52.660233 -103.491936
58.883793 -52.501205 -106.912079
51.860413 -55.806259 -102.485924
60.599838 -52.565941 -101.832314
57.312477 -54.594521 -107.523453
-72.091019 -55.021420 -104.628380
55.097656 -53.253990 -106.365753
-62.429024 -52.398605 -110.050354
53.979130 -51.548027 -110.133911
-67.163361 -52.103943 -109.923737
-60.953129 -56.919727 -107.196350
52.263885 -54.127815 -110.176804
49.862347 -58.386799 -104.793274
52.395035 -56.050716 -110.992943
-73.871773 -55.988976 -114.720924
-61.358776 -51.883217 -106.234955
-62.174828 -52.987446 -116.492119
-70.388031 -54.197540 -114.385033
-81.964378 -56.346611 -121.889755
-98.087799 -55.402271 -119.047356
-66.159065 -54.049976 -121.967110
-60.167862 -55.837395 -125.862442
-87.322723 -54.124062 -123.229660
-63.812042 -53.895180 -123.864655
-69.157379 -52.973183 -122.369049
-3.318384 -54.017460 -229.287750
-13.116576 -55.250671 -241.851730
-4.383079 -54.242706 -238.459045
10.053345 -50.867550 -236.746368
-5.347076 -53.115147 -240.474991
-7.503988 -53.919895 -235.991806
2.358029 -51.211391 -237.624130
19.560144 -58.038445 -238.740570
-6.954976 -54.845821 -241.243851
6.104993 -55.091209 -241.039795
9.404853 -52.522484 -239.771225
16.124069 -55.730915 -240.475357
-14.355011 -51.245426 -241.903275
-13.351957 -54.279381 -243.487122
11.871242 -54.378403 -240.425415
-19.354092 -54.200611 -242.673492
-5.846522 -51.767426 -242.279617
-17.271265 -54.426464 -243.328720
-10.976729 -51.462372 -244.920288
24.410261 -53.502495 -243.636841
24.584135 -55.398220 -246.000259
-17.305948 -50.990345 -243.210007
-9.982080 -51.543816 -248.397110
7.512130 -52.697811 -250.806320
7.797199 -55.396980 -246.571793
-12.872373 -52.683601 -251.395981
26.252541 -51.059639 -251.744675
27.325529 -53.460995 -254.858627
29.412140 -51.832573 -252.081696
-12.373549 -53.028660 -252.426315
-12.079149 -51.735428 -259.377014
26.002510 -55.283012 -257.986847
17.437782 -53.876961 -260.513550
21.630171 -55.665840 -258.501343
30.456337 -53.124260 -261.332703
-11.244881 -54.041439 -263.537567
28.496763 -52.380817 -266.095703
-10.061423 -53.525658 -261.536774
-14.422322 -53.374084 -265.301636
27.875734 -56.500542 -263.901886
24.492271 -56.566738 -268.178894
25.891047 -55.367008 -273.653168
-9.909938 -53.781139 -275.458282
20.896355 -56.599018 -273.771637
23.228912 -53.742672 -271.746185
17.432592 -55.051968 -274.211639
20.571947 -51.956066 -277.365082
-11.530602 -51.388958 -273.657410
-11.015570 -52.621723 -281.572540
-4.661086 -56.009632 -278.079681
18.138474 -52.968525 -277.792023
25.171995 -54.336487 -279.989899
-5.108431 -52.651485 -282.092316
-10.180749 -52.435665 -278.214111
-5.021483 -52.448162 -276.612762
21.063702 -53.726101 -281.670441
-6.025809 -56.477661 -281.954529
19.183044 -52.758896 -286.462524
-3.745643 -56.329239 -289.007202
1.730450 -52.882324 -285.034851
-4.322518 -50.899574 -289.342957
18.424110 -51.268791 -286.047882
-6.601276 -55.063107 -289.673828
0.642808 -50.782326 -291.554993
5.535614 -50.132378 -293.020111
9.034484 -55.786961 -292.426239
-1.441354 -53.857380 -291.928864
2.112112 -55.166824 -292.719421
3.373162 -57.278835 -292.429291
3.904285 -55.757931 -297.592987
13.982986 -52.102413 -294.887054
33.018303 -52.028164 -15.343778
29.034042 -53.413490 -12.690763
23.753166 -51.979485 -14.654203
31.552025 -50.593811 -21.123888
39.495453 -50.676910 -18.942097
19.320959 -53.973858 -18.305756
21.925053 -51.120239 -21.020752
21.753262 -49.961502 -25.778370
21.963316 -55.494026 -25.859831
43.553303 -57.161877 -26.686159
28.409863 -56.256660 -26.389666
17.965073 -51.735729 -31.882437
27.981533 -50.914345 -32.372982
27.318932 -56.250175 -33.294155
50.169678 -53.587585 -35.890640
29.744652 -53.335827 -34.703995
23.360250 -57.222095 -36.710545
27.584398 -50.407124 -39.024128
35.175236 -47.344711 -34.849754
29.787931 -52.512756 -40.902912
34.703224 -52.486420 -35.803066
40.383755 -54.381626 -40.574318
31.493900 -51.877579 -39.962013
-77.329185 -55.093838 -45.436779
-75.173149 -50.368004 -40.771938
-38.622559 -52.526173 -51.133987
-11.065248 -52.879826 -51.890717
-96.996719 -50.972698 -53.353035
-8.119276 -54.040546 -54.088482
74.189781 -55.679813 -55.386501
82.058067 -55.221088 -57.443478
-62.401714 -53.708916 -60.616474
68.338898 -52.764297 -60.277981
-66.345833 -57.155865 -67.096024
-102.299225 -55.198170 -69.478897
-31.106186 -56.006123 -59.311172
-60.003735 -52.033207 -68.891907
-35.622471 -51.618408 -67.481369
102.783707 -54.787464 -70.398987
79.051910 -51.641933 -75.321793
-41.744987 -49.074284 -77.768242
83.884781 -52.827656 -75.158134
82.479050 -52.672001 -80.589317
75.244652 -53.362404 -75.862366
75.083115 -54.012512 -74.908371
107.178871 -52.196156 -72.619774
63.279709 -51.658543 -73.182968
63.746471 -51.728344 -77.413857
89.427460 -52.354664 -73.904060
-44.811859 -55.573700 -77.847183
64.323380 -59.804901 -79.605171
63.472878 -50.353889 -77.369026
100.629265 -54.019245 -82.538979
-50.403557 -52.086834 -77.721550
95.461304 -53.325050 -83.608986
-60.627666 -58.386940 -85.117096
-70.078545 -56.087566 -92.861435
-67.322739 -53.414509 -93.335503
-71.372734 -57.370983 -93.399933
69.725487 -52.211895 -95.660576
85.125679 -55.208984 -98.570808
89.468376 -48.133060 -93.776321
71.749458 -52.598808 -97.674400
78.806732 -49.684967 -98.743477
106.250740 -54.193836 -99.553276
-68.215622 -49.824089 -100.252930
71.157898 -51.779907 -96.754654
80.503204 -52.149940 -97.246712
86.039536 -53.335598 -96.518654
75.638771 -54.069359 -98.115990
87.158089 -52.392395 -99.175423
74.204308 -52.812943 -100.067795
75.958206 -49.452724 -99.727531
65.514961 -49.670483 -102.859322
70.413673 -49.530186 -101.196877
61.650112 -55.823284 -103.171944
-73.483185 -55.365150 -106.391678
58.547363 -54.052074 -107.351898
-76.132225 -55.561039 -106.383965
-66.712967 -53.889149 -108.864693
-65.382622 -50.068066 -105.644325
-78.836266 -53.780659 -107.974335
-98.265594 -48.722969 -115.123924
-60.316525 -53.269096 -114.897507
-72.997879 -52.072418 -110.978790
-58.125961 -51.895058 -117.316078
-84.096916 -53.922672 -118.519608
-67.963615 -53.006405 -119.128845
-62.383293 -55.213322 -115.173248
-66.156059 -53.203690 -117.957764
-67.087936 -53.264004 -116.685974
-87.727104 -57.883221 -118.669754
-92.323601 -51.788334 -124.341537
-4.826219 -51.272606 -235.593002
-1.757403 -57.404514 -234.956467
-0.349372 -54.221069 -235.415771
15.217575 -55.979053 -233.928024
-11.217802 -51.679558 -237.129547
-10.353775 -53.593204 -241.109375
-12.880689 -48.755630 -238.126678
6.031167 -54.899094 -242.835526
7.490971 -54.776951 -240.892136
-0.292697 -52.279716 -237.717789
7.697372 -49.806824 -240.029068
-9.644629 -50.459591 -239.632233
-7.112281 -54.065758 -242.296265
18.124237 -54.039677 -241.251862
-3.681490 -54.908020 -238.107239
-0.164304 -58.585812 -242.183304
-16.666077 -49.907425 -245.205551
12.814637 -57.803234 -244.482086
-12.536549 -51.729458 -239.755630
-2.964353 -55.413189 -242.405411
16.321133 -55.388592 -243.275528
17.235313 -52.669483 -244.546082
10.571204 -54.249722 -244.224503
26.802429 -57.681648 -244.283463
25.670395 -52.962059 -248.670166
29.849960 -51.992340 -250.086548
13.197096 -47.022938 -251.888199
32.257614 -53.052753 -251.071838
-13.903735 -52.635204 -251.794052
-13.249578 -52.184837 -251.872604
-11.475746 -54.679806 -257.248199
-11.981581 -54.562637 -254.807785
28.645647 -55.137245 -256.723114
30.232029 -50.949547 -256.044891
26.789690 -52.840309 -259.522064
-11.554520 -52.149662 -256.849915
-15.982127 -53.527050 -255.898682
-16.989103 -54.731136 -255.520966
-8.506808 -48.493965 -257.313049
-12.961067 -55.220482 -263.676544
24.491886 -54.581097 -263.487732
25.951473 -55.495338 -259.195618
-12.753547 -53.418831 -258.821045
25.368372 -54.081833 -260.120239
27.651688 -52.768421 -258.760925
-8.495873 -52.373745 -258.969604
-11.841563 -57.535431 -260.088867
31.922377 -54.096054 -265.059082
30.789772 -52.924828 -264.403290
25.487467 -48.500477 -269.453400
25.144894 -56.882534 -267.305359
-4.414836 -50.501945 -271.656921
26.312740 -53.002190 -271.443481
25.264496 -53.845108 -272.151276
22.748659 -56.162403 -271.265656
30.276134 -50.691040 -271.953949
23.949469 -54.678753 -272.270844
-4.175573 -54.969837 -278.427399
-7.389709 -53.456619 -275.886902
14.179722 -55.245224 -273.273376
24.286304 -51.687634 -277.411835
20.430286 -51.437794 -269.931732
17.919811 -52.407486 -280.422180
19.719999 -51.044937 -277.357758
19.101488 -50.793411 -279.010956
22.157391 -53.839031 -277.717377
23.402885 -52.431103 -275.552368
18.740717 -50.007153 -283.104797
19.912271 -55.624146 -277.190765
23.405870 -53.447571 -277.833984
26.676727 -54.316654 -271.711151
-6.269201 -51.306892 -279.245697
-9.212312 -53.347630 -278.750702
-1.041418 -52.718399 -281.892792
26.249565 -49.678108 -278.434296
0.604079 -49.140064 -281.577271
20.994030 -54.799534 -283.074402
21.714745 -54.604973 -282.129730
14.632031 -50.581421 -288.402344
17.304260 -51.648144 -281.591919
11.931999 -55.780926 -286.868042
-1.697233 -57.421593 -287.377899
3.165698 -52.804153 -282.974274
16.211706 -51.363052 -287.457642
15.590152 -50.743134 -290.209747
4.622333 -52.236111 -285.738800
12.777884 -50.323502 -284.699097
1.696194 -55.451519 -289.368988
8.477184 -54.737347 -291.297272
1.328781 -51.149143 -292.601440
-2.441625 -48.884754 -288.894562
7.341458 -53.415947 -296.418182
-2.330827 -52.848701 -291.622559
11.709262 -57.045692 -295.106598
14.888747 -53.817822 -295.482819
-1.744185 -54.043938 -292.690796
37.806080 -51.420792 -11.915404
33.202892 -50.363789 -10.945339
38.276268 -50.059586 -14.107496
29.595486 -51.406452 -14.120241
43.406811 -52.412472 -14.442069
27.243458 -49.987968 -16.452135
49.414436 -50.746155 -20.271944
22.167530 -51.682270 -14.508007
26.520798 -52.684322 -22.397734
47.136055 -52.935814 -19.744780
28.502302 -49.624153 -20.085691
40.766529 -51.995541 -19.706181
45.685799 -53.442051 -21.967302
43.701565 -57.476917 -24.080894
25.856211 -48.566181 -18.673410
45.441235 -51.272362 -25.533089
47.992199 -51.890488 -29.631893
42.647083 -51.085239 -30.175537
19.588041 -53.215763 -25.488251
22.171362 -53.642101 -33.056068
25.401197 -52.985760 -30.036343
24.342562 -55.079956 -31.003677
39.522697 -56.013691 -32.215519
50.445362 -49.227139 -27.789381
27.018209 -50.890324 -29.867958
48.095757 -51.730072 -34.944298
22.088758 -50.450539 -27.951601
24.401468 -47.203426 -35.467911
21.782509 -50.406845 -36.808773
46.163265 -48.693691 -33.337505
19.825056 -50.622921 -36.337837
29.523642 -50.706238 -35.609165
25.551750 -49.426678 -33.245193
43.851311 -51.554943 -37.512928
36.695080 -49.023880 -36.461479
46.886101 -50.069168 -35.497913
23.555023 -52.878559 -34.050102
28.824028 -52.064438 -38.058819
32.646179 -53.585953 -40.712215
30.408564 -53.519260 -45.500347
27.072691 -51.547947 -38.973404
37.858124 -46.042412 -39.382069
40.774563 -50.359314 -44.052097
-71.179413 -50.816582 -41.020729
-89.713928 -54.884075 -53.573097
-43.679436 -52.826767 -45.625748
-30.286999 -53.846581 -46.544205
-21.635157 -52.741161 -53.410309
-20.730806 -53.108166 -52.634876
-15.412202 -51.885937 -50.749382
-94.499847 -53.704609 -55.483429
79.030945 -56.534657 -57.011295
78.268570 -53.294510 -57.959358
-63.037174 -49.949284 -60.795231
-12.538728 -53.063580 -59.839272
78.837395 -46.641926 -55.136585
88.192108 -52.395000 -57.748676
92.014580 -48.599762 -57.535049
-8.547389 -57.244579 -59.409542
-59.572189 -52.181274 -60.592640
97.472260 -53.461414 -56.948975
72.258270 -46.134731 -54.609570
100.641891 -51.936062 -59.114677
-98.945793 -55.272125 -63.379593
-59.094009 -52.231709 -55.405811
102.915375 -48.822662 -65.067749
-67.577293 -53.381504 -68.752747
58.432354 -52.230671 -66.730461
96.003822 -56.191677 -69.226646
69.657326 -49.146065 -70.302002
-36.500164 -48.811565 -71.488983
71.686035 -51.477356 -71.644669
78.799103 -54.416351 -70.765717
88.764053 -54.353916 -69.363991
74.651993 -53.473530 -74.702553
69.711197 -50.754456 -75.302193
89.305367 -55.984783 -71.300148
94.634949 -52.551983 -75.781334
96.611389 -52.110081 -78.348373
96.886475 -52.343330 -82.008377
91.407166 -51.916039 -80.432396
-99.910530 -54.037838 -81.332558
66.366791 -56.557686 -77.818504
-46.802395 -50.607025 -82.634415
102.797974 -50.970840 -81.639503
106.998146 -53.110943 -87.568024
95.760536 -56.037666 -85.881668
60.465885 -49.247314 -94.793396
102.629807 -55.131725 -86.668549
102.421021 -53.995667 -93.041710
101.393021 -52.238831 -95.209869
97.492111 -52.369938 -92.595779
99.097343 -52.001598 -98.481995
-62.028259 -50.582558 -103.797676
-66.678032 -51.839668 -106.334343
-100.662834 -58.207764 -106.016815
-71.083473 -53.571922 -108.142281
-97.782516 -53.116386 -113.648804
-61.195316 -48.098900 -114.641945
-96.294113 -56.737156 -115.141884
-97.233421 -50.197117 -116.755730
-91.010994 -52.542782 -120.408577
-92.589211 -52.840508 -118.929413
0.411106 -50.125519 -237.148972
-0.730753 -53.126663 -239.237396
-2.441920 -53.530785 -237.396820
0.401539 -52.600296 -235.419083
8.787917 -53.047279 -237.767868
8.401383 -54.218277 -237.121902
13.161348 -57.469303 -238.089264
2.666602 -56.307701 -234.102295
14.895888 -51.963467 -238.235306
21.728720 -54.872810 -236.630325
0.673235 -52.222805 -241.365295
5.730805 -54.612808 -239.565536
16.715002 -51.762989 -240.740448
17.938295 -55.518871 -241.423248
-2.221197 -54.368053 -241.904266
9.734768 -52.113998 -241.500488
18.777952 -54.484726 -245.222839
5.452999 -54.166805 -246.831894
-12.905558 -53.702175 -245.162094
-7.053497 -50.718349 -245.270676
7.357828 -58.468204 -245.955475
18.754801 -48.907127 -248.806442
20.465708 -55.073288 -242.402054
22.032581 -54.081047 -245.358383
23.315960 -51.482121 -247.519806
18.897579 -51.719788 -244.811447
-6.947951 -49.318832 -244.519516
26.286669 -53.767864 -247.187149
-12.595387 -56.342422 -243.635666
-16.857386 -51.090878 -249.277023
25.291128 -51.752525 -246.454086
14.704391 -52.267143 -247.917511
22.168156 -50.475361 -251.618286
-13.278244 -47.353527 -251.358597
30.615633 -51.103966 -249.002213
-13.746795 -53.805363 -248.278107
-11.742920 -53.737247 -247.351486
-13.465214 -52.881111 -246.658829
-12.780864 -51.651085 -252.426971
-17.172215 -49.833290 -253.026489
28.385267 -50.912479 -249.317886
-10.799196 -52.526333 -248.867691
31.366556 -55.193375 -252.268097
-9.119224 -56.232563 -250.743546
-14.341254 -52.308071 -253.960251
-14.438464 -46.057999 -251.243607
-13.916754 -52.776939 -256.046326
-13.765887 -51.137260 -255.860428
-12.360399 -51.098347 -257.099579
25.605549 -48.143326 -254.434662
25.875427 -53.156784 -258.127991
17.170366 -52.858208 -252.366226
-14.996810 -52.231354 -255.789520
17.112995 -51.381092 -256.111420
14.146907 -51.689186 -259.363373
-16.192270 -52.846649 -260.343079
16.458698 -51.027878 -261.476959
16.420422 -51.485630 -256.753510
27.875978 -53.314529 -257.615753
8.157960 -52.559494 -263.701538
-15.616921 -54.225155 -261.473175
27.739441 -52.358295 -263.857147
31.904757 -50.600418 -263.443085
19.796133 -50.540150 -263.063324
31.158060 -51.207066 -265.298584
-9.784135 -51.746490 -263.980652
-8.324633 -53.141937 -262.657684
10.026918 -54.230145 -263.925354
-12.104053 -51.439030 -259.309845
5.219944 -50.115231 -263.236176
28.883804 -48.119389 -265.265503
-3.142455 -51.701366 -270.776306
27.104963 -52.278698 -273.092010
-6.540930 -48.347118 -270.169098
-7.833944 -51.976913 -262.532379
-0.271684 -52.441154 -265.213440
29.174671 -52.831566 -271.385315
5.098522 -53.166931 -268.217804
4.015832 -52.691341 -275.299805
9.739522 -51.712234 -269.927612
14.346510 -54.349155 -269.352112
29.226826 -54.017319 -276.526001
27.216145 -49.614967 -272.937927
24.626715 -52.060322 -275.167786
11.851208 -52.018776 -279.090912
17.324039 -54.044422 -271.240173
19.008440 -51.011189 -276.186523
23.860355 -55.257050 -273.488312
