# This PCD file was generated using the MATLAB® pcwrite function
# from Computer Vision Toolbox®.
# .PCD v.7 - Point Cloud Data file format
VERSION .7
FIELDS x y z
SIZE 4 4 4
TYPE F F F
COUNT 1 1 1
WIDTH 1453
HEIGHT 1
VIEWPOINT 0 0 0 1 0 0 0
POINTS 1453
DATA ascii
-7.792385 -57.267281 -277.857971
21.287031 -60.073448 -279.164520
12.933951 -60.381958 -288.821808
15.889290 -61.274364 -287.280457
9.400520 -59.746773 -288.286102
11.137297 -58.967407 -293.532562
46.452843 -61.754272 -17.351744
40.808140 -57.144718 -19.718952
51.519669 -59.180119 -22.850348
30.300175 -62.438461 -36.985237
24.231266 -56.616356 -36.031712
23.431044 -58.623844 -38.425758
44.971657 -54.786987 -35.761578
35.994621 -63.285690 -39.792797
27.713602 -58.736263 -39.263039
34.303753 -53.536949 -43.523739
-53.949841 -61.216003 -42.882847
-73.637527 -58.769295 -43.105717
-80.224152 -59.399441 -46.230576
-83.456589 -54.548763 -45.872009
-84.694855 -61.233902 -46.221088
-31.129820 -57.957462 -49.636234
-26.279694 -56.490589 -48.533173
-15.110014 -58.615952 -48.840675
84.580269 -59.399433 -59.811481
-8.100556 -56.615185 -59.135551
72.171486 -56.305878 -57.096073
-13.760090 -60.116814 -65.773232
-19.481085 -56.104984 -60.976292
64.857025 -57.406246 -67.875122
101.707390 -59.469257 -70.715385
65.038437 -55.002220 -67.398102
-65.684418 -57.730465 -70.137833
-63.724754 -57.693203 -70.258118
61.509094 -58.879631 -72.846268
106.975044 -58.905006 -79.031906
-101.042198 -58.986088 -83.102081
-44.215332 -56.308121 -79.417320
60.926712 -59.971767 -79.295647
104.218323 -60.950871 -84.092560
-52.735935 -57.590729 -79.786072
-59.343914 -56.959858 -82.945610
60.017376 -58.441345 -82.076256
61.654270 -55.719612 -84.181847
77.507896 -55.853436 -90.045822
57.528011 -59.649628 -87.487900
57.753292 -57.442490 -90.266426
83.129898 -58.127728 -91.340515
91.547447 -55.390568 -93.689735
105.009865 -59.494041 -93.621681
79.011696 -59.304676 -90.144325
107.235413 -56.959782 -97.484169
74.474365 -57.879185 -94.496712
78.066521 -57.589264 -93.261429
65.258430 -56.236771 -95.907425
-101.515800 -59.491325 -92.308449
76.393936 -58.827599 -97.913406
79.929573 -57.767876 -98.818016
86.239372 -57.276684 -99.708214
104.591530 -60.144444 -98.385162
77.352058 -59.718525 -101.204605
69.878418 -56.366703 -100.021484
65.248199 -57.001431 -101.410194
73.785667 -55.995163 -102.861954
-73.868088 -61.905251 -103.229698
79.773582 -57.896187 -104.351181
87.393997 -56.458725 -102.869820
71.021294 -57.073750 -104.581665
76.830254 -58.655800 -102.774734
60.839802 -58.700180 -101.786392
83.612450 -59.972504 -105.890739
53.415493 -56.240974 -109.722710
-96.678795 -59.070229 -106.185478
87.633507 -62.219570 -109.149475
-77.455620 -56.757027 -109.212746
-70.220154 -59.859219 -115.557640
-62.883194 -55.701286 -111.194450
-79.043129 -58.699211 -116.967445
-97.844063 -58.828495 -118.175575
-82.487679 -57.164074 -117.453377
-86.178688 -56.920689 -119.255875
-58.521847 -58.158115 -115.506584
-97.005554 -58.593834 -121.876274
-66.185272 -58.955692 -120.076027
-60.671158 -57.832539 -116.937057
-57.909119 -57.699326 -127.095901
-70.454422 -60.538822 -123.858551
-61.119595 -56.991512 -125.987625
37.695396 -58.082436 -118.687500
-63.598160 -61.655739 -125.596420
37.066399 -56.353767 -126.467117
-62.728153 -56.554962 -125.740280
-57.299503 -55.606304 -129.995956
31.778076 -56.376976 -129.517670
29.620136 -55.286045 -130.771729
7.151901 -60.625210 -239.143631
21.993349 -57.714493 -242.093842
1.109152 -56.668930 -242.799301
5.648416 -59.234974 -240.338135
9.860508 -59.695442 -243.583176
6.977289 -58.177490 -245.499039
23.249298 -58.968140 -248.036514
8.722566 -60.131943 -255.841705
-15.202196 -57.702847 -260.163727
-14.013134 -57.008854 -262.768890
-17.598074 -59.253628 -263.383728
-18.052391 -56.974125 -259.415314
-19.533611 -55.504864 -261.883728
-16.540495 -57.430950 -260.824615
-17.758366 -60.119049 -260.705719
-18.381502 -56.561180 -262.454346
-19.943110 -59.010693 -264.675293
12.417062 -55.446129 -266.250305
12.592274 -60.835331 -267.492554
-15.608334 -56.808056 -272.684448
25.103201 -55.117992 -266.802063
23.075686 -59.545750 -275.554749
-16.471952 -57.327148 -273.623230
-13.320351 -59.085377 -271.584778
-9.931327 -55.811909 -281.998657
-9.163603 -56.992428 -280.351929
-7.387099 -56.607845 -283.941071
19.090914 -58.507744 -281.405609
17.765087 -58.887367 -281.375732
37.518345 -58.317432 -11.631943
39.613216 -58.627865 -12.306429
45.425980 -64.016296 -12.477130
45.579498 -56.852627 -16.390783
25.091740 -55.675579 -16.507421
46.245018 -56.250031 -18.783258
20.180559 -56.882496 -24.750895
47.825500 -60.121235 -29.046528
49.999310 -61.584927 -35.203617
35.326321 -60.538532 -32.715267
45.752731 -59.400593 -38.254726
27.052061 -59.873451 -37.384418
26.092936 -67.106049 -38.393749
43.271740 -58.773830 -37.574207
32.478733 -64.799873 -41.461720
36.977303 -62.873425 -39.982029
39.872803 -50.632542 -41.751732
-56.824539 -59.168991 -43.406013
-48.921223 -58.712494 -44.303238
-32.500698 -55.439220 -49.463230
-85.240616 -59.045982 -47.369343
-13.311713 -60.056221 -51.740841
84.693802 -57.323242 -57.757130
92.092972 -57.542973 -58.048443
75.332321 -57.424637 -59.926456
95.886543 -59.989590 -61.901951
-96.770988 -61.285313 -66.380859
-20.429688 -58.234409 -60.826015
97.894203 -62.429260 -63.742130
70.433044 -57.263706 -66.128304
-98.928535 -55.033863 -65.949806
-66.404373 -55.684635 -67.155960
99.154297 -59.702423 -69.234055
-97.952560 -56.939846 -70.987457
105.022720 -57.263241 -74.373337
63.789593 -60.687927 -78.327133
-48.232018 -57.673409 -80.834801
106.294495 -62.624760 -81.734825
-47.916706 -56.750034 -75.843269
62.450397 -58.624275 -80.027290
-54.173767 -59.021042 -79.984665
105.195084 -61.089298 -82.480865
62.896053 -57.755215 -84.573112
84.433380 -54.508675 -87.278625
86.363945 -53.102463 -87.329918
77.065605 -55.130932 -89.668556
74.052261 -57.206097 -93.040810
91.615189 -55.508282 -87.642632
-67.275528 -62.403461 -94.728180
84.537483 -58.493969 -93.726891
69.168602 -56.927162 -97.157417
65.426727 -56.700035 -99.246201
65.589836 -55.620209 -99.296829
82.775566 -56.793488 -96.653320
75.024933 -57.499645 -98.900574
86.797379 -54.923309 -102.164490
92.499229 -56.388958 -98.348587
71.581711 -58.138062 -101.969734
101.077858 -55.845589 -99.318848
56.825554 -57.527386 -99.779701
103.167175 -55.869930 -104.606216
89.241005 -57.176586 -102.291046
-62.368191 -58.376236 -103.310707
-63.767414 -56.308041 -101.870491
86.733459 -58.515369 -104.454445
-61.770954 -54.970600 -106.670670
-62.840813 -56.085873 -103.333405
-74.700653 -59.106293 -110.038177
46.444939 -56.915062 -107.958328
48.764969 -53.245403 -105.464439
98.817635 -55.345844 -107.503326
90.240128 -57.437344 -108.146980
-58.971809 -56.099373 -107.425514
-61.186172 -58.179035 -109.835762
-73.531082 -58.350929 -112.378952
-74.995811 -56.263378 -111.769600
48.928402 -56.325836 -109.915634
-57.556046 -60.264801 -113.278503
-61.969948 -52.573982 -111.622734
-76.650658 -55.950047 -114.356285
39.184509 -57.733364 -116.375458
47.365635 -57.472115 -116.618164
-66.878746 -56.185085 -118.993210
-55.115517 -59.864750 -117.589943
43.873062 -57.460922 -121.159637
-59.970398 -56.918262 -122.084091
35.962368 -55.570229 -119.513878
36.399467 -54.990837 -122.968697
-90.049957 -57.710808 -122.683640
39.638878 -57.131348 -122.483330
-61.424786 -55.175549 -125.864288
36.141964 -58.567928 -126.868591
36.710819 -55.332008 -127.464569
-64.138115 -55.912048 -125.727509
34.346725 -55.172935 -128.289505
35.367668 -57.429253 -129.142166
-62.427593 -56.306664 -132.572220
-61.991848 -57.182552 -129.352509
-1.734536 -58.133602 -242.591705
3.485318 -56.446629 -239.579086
20.586945 -58.138588 -241.393005
5.929588 -58.539761 -242.692947
15.202515 -57.484283 -245.811020
12.112819 -53.587933 -247.313919
5.361268 -55.952465 -245.193649
22.484415 -60.212006 -253.278473
-20.907061 -56.661621 -250.346527
-14.606410 -57.898849 -250.074890
-17.924360 -56.077053 -261.435181
21.711008 -57.877060 -254.815582
-15.949781 -56.953938 -256.903015
9.950054 -54.153549 -253.303955
23.657167 -56.167656 -256.143127
-15.513867 -54.120773 -256.529633
-16.628244 -53.899334 -264.298462
-17.923805 -55.231281 -262.081665
-15.321286 -58.070675 -263.445801
-17.664419 -55.901283 -263.699585
-18.624069 -57.859310 -267.165649
-12.800947 -58.195644 -264.562500
-10.116200 -57.661396 -270.880219
-12.698224 -57.590630 -269.503723
-15.045691 -57.338768 -273.186707
-14.128675 -54.298874 -275.459839
-18.484818 -56.482494 -272.728455
-8.635955 -57.381741 -273.698547
-11.152808 -56.210327 -275.985901
21.651106 -57.183086 -277.677856
-16.601559 -56.425198 -277.195374
11.800817 -57.025826 -280.176880
-10.127571 -57.910721 -280.530884
-10.359426 -56.995262 -281.738190
-8.084900 -59.841331 -280.548584
-7.529115 -54.049164 -279.368805
-10.016749 -60.634586 -281.347961
-11.493992 -57.482117 -278.879700
-9.586150 -55.641159 -279.343414
-6.993944 -58.922504 -285.186859
8.352691 -57.977203 -283.981812
9.522304 -59.373829 -285.446808
11.704717 -58.269012 -291.478241
-6.593692 -60.536190 -288.526733
-1.737223 -55.989140 -286.038452
-5.306948 -55.723679 -293.625336
0.105376 -55.591663 -294.781372
32.645191 -60.677399 -12.576439
26.210327 -56.525646 -12.974382
34.317844 -62.372688 -19.810936
39.035496 -49.241894 -17.467405
48.112823 -60.194168 -16.846657
47.809460 -54.191696 -19.282167
25.758728 -54.853043 -23.641527
29.867531 -51.977642 -25.197235
46.742950 -55.335251 -26.811165
22.619473 -60.330597 -30.002026
20.216412 -62.608727 -30.504770
29.572153 -56.861988 -34.204128
46.130260 -58.915085 -33.472183
42.388290 -56.576725 -38.870552
-78.901825 -60.120739 -42.511032
-46.269455 -59.488735 -46.508400
-81.356499 -55.436054 -46.806717
-37.102417 -58.520256 -47.567940
-96.491447 -55.899826 -58.029945
76.394699 -57.805344 -60.144665
80.692802 -56.811939 -57.251408
89.196411 -54.082458 -59.347507
-16.068693 -56.421421 -62.888134
-10.938135 -55.638908 -58.996910
-28.594412 -55.808826 -66.758614
67.137939 -54.668350 -63.252544
-30.539690 -54.205875 -66.925949
99.464767 -55.001381 -67.549294
-35.046707 -59.255306 -68.437119
-64.735008 -57.792049 -68.931030
-61.341553 -57.812542 -74.476318
-65.074173 -59.404896 -72.607468
64.193665 -56.599277 -73.174667
-99.676155 -52.788895 -77.200394
105.925728 -55.981796 -74.391373
-49.174335 -60.153980 -76.735382
-38.312534 -54.160198 -77.300629
-46.411121 -54.660278 -79.255356
80.432648 -53.931351 -80.327950
79.393097 -56.473331 -85.853012
-101.430588 -56.092346 -87.645500
74.461517 -54.606735 -86.363617
87.842155 -56.791752 -81.478973
74.902962 -55.581123 -84.024551
-59.743744 -59.365631 -86.202278
71.235580 -55.116848 -90.077805
86.544884 -57.092766 -83.539970
-63.329506 -57.333385 -88.461311
91.933899 -53.304317 -88.265854
-63.389400 -59.307236 -89.793068
60.813053 -55.700108 -90.868523
71.581032 -58.597160 -91.895950
64.774216 -57.736988 -91.651741
67.110481 -54.780495 -95.116570
101.086952 -58.208397 -90.212288
66.089783 -56.243114 -92.878075
-99.447044 -56.118946 -89.538155
68.555290 -58.806187 -97.173759
92.392693 -53.990421 -97.180511
94.254608 -55.966789 -92.650513
69.537254 -56.769726 -96.355820
101.526901 -56.736973 -93.137794
-102.401321 -55.028709 -96.552025
64.452629 -55.701504 -99.324493
99.903343 -55.441788 -100.980644
77.169205 -55.433224 -97.401527
84.983261 -54.715229 -99.977982
54.431419 -54.297504 -103.847267
100.693222 -54.185841 -101.915161
92.701210 -56.715450 -101.209801
96.752502 -57.445267 -105.745148
63.823051 -56.999321 -103.947784
60.476803 -56.467335 -107.399925
91.693642 -55.032074 -107.360031
89.793442 -54.409851 -107.362991
94.348686 -56.259663 -107.156502
92.117149 -54.280525 -112.475098
91.501556 -56.457035 -109.571724
55.934223 -54.478451 -108.421539
-73.830048 -56.043915 -109.647461
52.627586 -57.580875 -112.831543
-70.508476 -58.161522 -115.808754
-95.953369 -60.103081 -115.305336
-77.979935 -55.174732 -114.882973
-67.173996 -55.034332 -112.640244
48.317764 -54.077408 -114.491127
43.146301 -56.624779 -114.484375
-82.139839 -54.287380 -117.430267
40.368927 -57.309338 -117.048470
-69.603233 -54.804180 -116.477928
-62.845783 -54.541115 -117.243515
41.406273 -55.639370 -120.609024
-64.982468 -55.452118 -119.015511
-66.718536 -57.379456 -123.533310
-63.394646 -53.985031 -118.318741
-67.445457 -55.696079 -123.796539
-60.744362 -57.251858 -122.067017
36.776691 -53.396023 -119.883820
35.523773 -57.017277 -124.567245
40.172340 -55.260303 -126.188004
-60.719875 -57.416260 -125.897804
-64.997780 -56.821854 -125.704124
-63.081043 -56.812550 -125.544334
-59.972675 -54.534805 -125.621956
3.461895 -54.386383 -237.958878
5.677014 -55.294453 -237.799973
7.478095 -59.019325 -240.534821
5.959316 -56.019226 -239.492584
0.377880 -55.715073 -238.347809
-12.607891 -55.519321 -238.052551
5.538033 -57.627781 -242.457260
-2.934192 -56.361080 -236.787338
-0.560527 -57.962368 -242.989014
18.365631 -56.598362 -241.796753
-16.194443 -52.872341 -241.219528
15.315849 -57.920952 -246.238083
23.646801 -55.649170 -246.335770
-16.193487 -56.500706 -244.708374
6.038400 -57.607956 -249.164841
-18.840515 -55.619007 -249.374847
21.671595 -54.794529 -247.190140
-15.973795 -56.876480 -249.953354
-20.483276 -55.611671 -257.158417
26.730268 -56.443771 -251.305725
9.794863 -58.135845 -252.503891
25.281244 -56.983963 -253.976257
-18.319721 -55.992104 -256.449554
-20.146690 -54.199303 -255.858780
-19.220636 -56.745434 -257.377930
-15.955843 -55.021137 -255.917389
-14.293307 -57.909595 -264.432770
27.536627 -53.757736 -261.376221
-16.295340 -59.426758 -260.836670
27.521063 -54.431442 -261.600433
26.740158 -53.887760 -266.106323
-16.290249 -53.297375 -265.494446
-11.089347 -53.713135 -269.802185
21.111378 -56.907253 -276.288788
24.990641 -54.978352 -275.871033
-8.192520 -55.761787 -279.105591
-9.220430 -52.907459 -273.729919
-11.386074 -56.224018 -280.913147
19.004925 -54.190701 -276.761841
20.126072 -56.831982 -279.028351
-8.159882 -57.116238 -279.270569
25.758152 -56.271736 -276.754486
12.121916 -57.579838 -282.045776
15.321664 -56.041904 -283.113129
-7.954895 -54.385811 -284.011932
-12.025598 -53.929832 -282.771332
-3.362113 -56.662949 -287.734955
-6.803631 -53.361477 -288.063019
12.920197 -56.925770 -292.670288
15.457701 -54.338745 -290.118164
-1.859060 -55.670425 -293.201050
11.984007 -54.389469 -295.229340
8.958069 -54.051006 -291.380554
7.712763 -56.520954 -292.758942
10.602443 -56.585995 -294.851105
27.964931 -55.269054 -13.140122
33.284824 -51.513828 -16.802431
28.233820 -59.762066 -22.377592
49.855606 -52.603119 -21.311106
40.686550 -61.756714 -23.994068
18.971807 -56.500526 -29.190004
29.576485 -59.074947 -31.125233
25.154242 -56.366631 -32.279438
49.043037 -59.014339 -30.865973
42.367001 -55.374367 -33.019028
20.087391 -60.310951 -34.702194
39.216591 -55.866272 -35.410480
37.246517 -54.813671 -36.668613
34.018440 -64.116226 -37.617218
29.903326 -55.346489 -41.391747
-64.793121 -56.842754 -43.170826
-70.418091 -59.546471 -42.881340
-69.339378 -50.529030 -42.438667
-74.315697 -57.812050 -43.529213
-50.884449 -56.703777 -44.807312
-51.253571 -50.145672 -45.546619
-86.410484 -50.613495 -50.680492
-43.569206 -57.494884 -46.516064
-89.294479 -52.325573 -47.933788
-22.107584 -54.270432 -50.089565
-90.880730 -57.217705 -51.333832
76.268692 -55.131607 -60.717789
71.381607 -55.288918 -56.286472
-93.041298 -56.374416 -60.618752
71.168480 -57.868839 -62.113525
94.655807 -56.003674 -60.604027
-67.744026 -54.015686 -63.753887
101.364647 -54.052971 -66.764198
-61.540100 -52.937660 -67.548729
-61.829517 -55.038933 -74.330513
-36.944920 -52.942238 -71.938538
62.731483 -57.164036 -77.914680
80.078636 -55.750126 -78.188728
-37.451450 -57.041824 -80.459793
81.762009 -56.199474 -82.666290
81.836838 -54.176334 -79.697205
89.154488 -53.573036 -82.108292
72.631859 -51.913734 -82.018303
105.695869 -53.841034 -83.413445
63.134121 -55.892483 -80.833092
71.851959 -53.895157 -85.309563
105.278366 -53.616337 -86.425491
60.423286 -55.616196 -87.527122
92.520470 -55.910896 -85.036446
65.550369 -51.569950 -87.017136
67.059540 -55.178024 -85.622627
65.251266 -52.436157 -90.983086
69.875854 -56.399307 -93.634247
96.456490 -54.735840 -90.114555
97.186516 -51.354382 -91.036736
85.653702 -56.057415 -91.874664
92.612007 -57.048317 -92.396439
97.866676 -54.818756 -97.562447
74.589294 -53.285416 -99.967064
94.272575 -54.651115 -99.609718
-101.799561 -52.899529 -102.367462
70.032707 -54.377949 -98.241562
99.878365 -56.829571 -103.593895
65.256073 -54.198288 -104.508438
53.264713 -54.055298 -104.149635
-63.473732 -55.758484 -106.470001
-71.108124 -55.065475 -108.727646
-70.960930 -57.986176 -107.473083
-73.942879 -54.200066 -109.331192
-64.454597 -55.749870 -106.332993
-74.340294 -53.845249 -108.593918
-73.822731 -56.490654 -111.479141
47.109386 -52.297295 -109.655487
-62.255581 -55.887703 -111.040276
47.509586 -54.993610 -116.497673
44.395214 -54.787743 -116.435234
-59.377224 -55.123264 -112.824715
44.280582 -54.307831 -115.324005
-64.591949 -54.206234 -114.438660
45.267422 -54.384407 -118.315010
-66.046082 -55.903847 -119.729774
41.385811 -54.990459 -118.713882
-85.379929 -58.934021 -119.180847
-13.103851 -54.662472 -237.109146
10.246935 -54.220009 -241.728439
0.154674 -56.185452 -240.390121
20.955898 -57.130241 -239.640732
-8.626314 -54.405056 -239.960373
1.972160 -54.101921 -241.039032
-13.913328 -56.167641 -242.458694
-12.162411 -55.268719 -244.395721
3.002541 -50.778481 -243.076447
14.457438 -55.678574 -241.556808
18.132040 -53.222851 -240.008759
21.606842 -55.100426 -239.921021
-14.832089 -53.800030 -243.030472
20.333855 -55.805946 -243.273346
20.523504 -54.864372 -248.223129
-20.545834 -53.514317 -247.794968
26.842394 -53.535263 -250.623154
-13.080716 -53.940243 -251.586105
-18.737249 -53.343273 -252.252502
26.840551 -57.919857 -250.545944
27.564589 -56.612698 -254.287079
-13.990294 -58.146290 -253.943390
27.869482 -57.065235 -253.319427
25.553518 -54.004684 -258.136597
23.749723 -54.571342 -260.325226
21.769697 -54.697899 -258.357697
10.771243 -57.154186 -260.735229
25.714445 -54.608639 -257.601044
-16.111362 -52.409157 -262.141998
-14.263827 -52.671928 -261.075592
14.885444 -55.726166 -268.557098
-14.895347 -56.067173 -267.770142
27.077669 -57.247494 -267.383667
23.978636 -54.411690 -268.597382
-12.742778 -51.735432 -270.140198
-13.821812 -54.087315 -273.318848
11.758156 -57.795952 -276.206757
-11.965903 -52.031769 -273.348450
27.479210 -52.256092 -269.477783
22.811020 -54.728466 -278.182434
26.327137 -55.193344 -273.667755
23.675467 -52.163227 -280.414917
-7.046793 -50.741943 -277.239105
-7.726436 -53.568954 -278.752777
15.831927 -53.338139 -280.664734
14.254702 -53.658524 -280.865906
-10.046636 -56.276581 -276.850311
12.189623 -54.780106 -281.179718
21.629583 -53.020477 -284.011963
-7.809315 -54.646736 -282.426086
17.858780 -54.615166 -293.806702
-4.482865 -55.549561 -287.261688
17.254442 -55.512287 -284.770172
-0.893234 -54.811657 -290.792755
-9.220424 -55.737545 -287.400238
-5.970681 -54.401707 -287.190125
-2.380543 -57.133183 -291.011261
-6.315789 -56.214603 -293.167023
2.232039 -55.568478 -292.068115
11.450101 -55.512829 -291.501648
3.442763 -55.489376 -296.529633
5.854562 -55.621857 -292.688538
21.206041 -55.406181 -12.566545
19.691210 -56.801723 -21.059124
27.913216 -52.532063 -21.742342
43.206108 -55.587471 -23.825081
28.717615 -57.530968 -32.558571
21.096754 -53.740555 -37.790016
31.630754 -56.933903 -35.776295
33.766014 -58.313721 -39.223282
33.357578 -58.172199 -41.252457
-56.590157 -56.877613 -44.553875
-41.592422 -54.716152 -49.271900
-17.443951 -55.083130 -51.257179
-9.576258 -54.422325 -55.117172
-94.694817 -57.485310 -55.417366
86.883255 -53.224869 -59.336658
85.026878 -55.848022 -58.876087
-99.783134 -56.800732 -61.076176
-9.129131 -57.840794 -59.526855
-19.501112 -57.749397 -60.333031
-61.939514 -54.775890 -64.972618
98.408775 -50.921089 -67.452232
-99.555359 -56.138165 -69.461594
-66.738068 -53.372360 -69.719818
-63.299309 -52.246220 -71.566589
64.012489 -49.911697 -71.966927
-62.234440 -51.087879 -71.095070
-98.623276 -50.574635 -69.839272
65.179550 -52.550781 -72.781944
62.984585 -54.317326 -75.167885
-38.569130 -52.472847 -76.592598
65.358261 -51.901340 -77.278023
85.578178 -53.228733 -77.758224
85.135948 -52.121014 -76.911293
-44.382805 -51.926952 -79.399437
73.575516 -52.018440 -78.106102
74.343018 -52.975124 -80.212387
91.575241 -51.816055 -78.964844
86.468422 -53.953281 -80.446579
104.120369 -54.992352 -78.636848
62.261871 -53.778912 -79.634605
65.203545 -54.796665 -84.814499
94.328247 -53.658272 -81.421829
-53.458492 -54.766323 -81.183922
65.433136 -53.850243 -85.499260
-57.674580 -54.798088 -80.283005
103.307030 -50.692387 -89.178375
105.781525 -56.507133 -91.300980
86.236877 -52.013699 -94.297150
73.799850 -55.848831 -89.615707
97.055656 -52.877766 -98.108330
97.918312 -51.538990 -94.619377
-72.664452 -55.525059 -96.561340
98.646660 -53.238174 -95.703957
65.204819 -55.218941 -98.031815
92.771393 -53.991310 -97.589767
81.893539 -54.786034 -98.833801
88.318146 -52.300842 -100.482918
100.250343 -54.128185 -101.560448
61.029156 -54.769947 -101.229584
-99.890579 -57.487171 -104.241684
54.554974 -50.709778 -104.840385
52.855042 -51.818707 -105.452896
61.667839 -51.917473 -105.374565
58.924416 -54.695984 -106.620613
-67.031204 -55.251949 -109.918884
56.958958 -54.386749 -105.757217
-67.328720 -53.149750 -108.214828
55.137810 -52.076908 -106.943535
-68.559502 -53.281651 -112.058990
-60.378147 -51.330883 -109.465065
55.108746 -56.771511 -110.646889
50.571632 -54.461933 -108.761765
45.282501 -52.152401 -114.181511
-76.140488 -52.325165 -115.609848
-64.524307 -54.621990 -110.251114
-66.637985 -52.120327 -114.946335
-69.778702 -55.065006 -117.092949
-82.992882 -55.408768 -118.913551
-94.327942 -57.189556 -121.296844
-65.711006 -54.489662 -120.245232
-58.579754 -54.844070 -124.391426
-93.410896 -55.897350 -123.079407
-61.427563 -52.439213 -122.108673
-67.817368 -53.458450 -119.649567
-7.688510 -52.006760 -236.573303
-13.577437 -51.900177 -237.605804
-0.768831 -54.396595 -238.142349
12.035068 -56.274624 -239.138153
-9.414474 -52.043079 -241.007126
-5.718513 -52.836399 -238.882355
5.729558 -53.876118 -238.790451
18.801483 -54.855164 -237.180496
-3.710603 -54.639633 -240.406418
3.876424 -50.114784 -241.884842
10.980098 -54.045288 -239.067688
13.860225 -54.834499 -238.970535
-12.769547 -51.281628 -240.345062
-10.101262 -52.802879 -240.952347
8.053969 -54.336899 -242.243652
-18.443357 -56.818066 -241.677094
-4.002047 -56.870579 -241.172882
-14.234097 -53.046360 -241.900558
-13.821822 -53.494190 -243.540054
22.008665 -52.873550 -243.412415
23.557903 -55.766041 -243.731720
-16.088505 -55.309418 -242.675247
-13.459485 -54.012360 -248.399399
5.447879 -55.804478 -250.395935
9.962346 -54.092415 -248.622452
-13.924207 -54.645191 -248.362930
23.621803 -54.873531 -250.833801
30.570591 -49.477322 -253.201813
27.431614 -54.119995 -248.960571
-13.463722 -54.382599 -256.656006
-14.619927 -53.313961 -255.463440
21.979490 -54.232780 -255.050705
19.365217 -52.846027 -260.973755
24.805387 -53.717545 -259.049500
26.319450 -52.493206 -262.467224
-15.951176 -52.943584 -267.038361
28.644470 -53.844604 -264.870117
-13.656229 -53.093426 -261.204590
-15.527525 -51.546955 -267.810394
27.484560 -51.213360 -262.486786
29.970072 -54.488529 -266.826324
27.953846 -55.241989 -269.128540
-9.118010 -53.010853 -273.167603
23.392694 -54.870777 -271.017212
21.862888 -53.024590 -270.787994
22.338015 -52.155743 -273.483124
24.831333 -52.080505 -280.022675
-7.792138 -51.822926 -277.202606
-5.470369 -54.377422 -278.545563
-7.262029 -51.714809 -281.482941
16.047613 -53.034615 -281.058319
24.353949 -55.195450 -278.441864
-5.264430 -54.662876 -283.902588
-5.923162 -52.935364 -278.732635
-3.095860 -53.616714 -284.113892
21.353840 -54.527832 -279.760986
-6.010671 -53.002018 -282.488464
20.720955 -54.116379 -285.357788
-1.226537 -50.041306 -287.056976
1.092032 -52.473927 -283.972748
-1.095774 -54.574432 -287.344482
16.534435 -53.141689 -284.638245
-3.613738 -53.015465 -289.367645
-0.059157 -49.232552 -287.853210
5.926907 -53.901413 -289.234222
10.413883 -55.952877 -290.384491
-1.005302 -53.942799 -290.550079
2.161759 -56.342506 -293.976379
5.854808 -53.167942 -294.171692
5.400182 -57.497089 -295.076599
13.347896 -54.062164 -295.660004
33.185345 -51.176399 -13.143883
28.877357 -53.646767 -14.153349
27.545671 -53.218002 -17.232496
28.927345 -52.426376 -17.426203
42.376389 -49.693352 -19.932966
22.450420 -50.915943 -16.932392
19.586077 -52.271080 -23.845459
20.714483 -52.073048 -23.090940
19.976377 -52.960381 -23.199425
44.176414 -56.990509 -26.753656
27.223867 -52.684601 -26.295313
21.294743 -52.371090 -25.655027
25.905602 -50.948338 -32.294765
27.083130 -50.684422 -34.817722
49.399109 -54.220226 -34.321144
29.278862 -53.805111 -34.205059
23.601233 -49.723202 -33.649384
25.702415 -54.195614 -38.047291
32.146889 -51.459606 -35.767662
24.926569 -50.584694 -41.456352
34.165630 -52.833694 -35.845894
41.252213 -50.882622 -41.362995
32.329956 -54.065918 -40.292316
-76.726143 -53.285896 -43.773830
-71.068672 -54.589592 -44.774441
-36.635670 -58.588310 -51.222134
-10.231572 -53.769943 -53.463448
-95.819046 -54.424236 -54.309437
-9.653530 -54.145912 -58.186295
74.370979 -53.251755 -57.404781
81.576546 -53.727440 -59.284161
-61.503685 -54.314919 -60.490822
69.730225 -52.937180 -59.016258
-66.331566 -53.071808 -61.091778
-97.835609 -56.092007 -67.583794
-30.887066 -54.294197 -64.936440
-61.136028 -52.137310 -66.915154
-35.642521 -52.390572 -67.400208
105.057434 -55.671535 -69.915207
76.535019 -54.040138 -72.083626
-41.356888 -52.507931 -74.144005
79.624657 -52.429089 -77.195473
78.537025 -54.312038 -76.609642
71.209290 -52.838425 -77.259125
72.260414 -52.234989 -74.976982
104.266014 -53.022755 -74.825661
65.332176 -52.566845 -76.312126
64.671242 -53.000244 -80.375786
90.268654 -52.110786 -76.809883
-44.078228 -54.224518 -78.831825
64.781853 -51.935875 -79.704338
63.374565 -50.977158 -78.989189
106.478317 -51.929234 -79.387215
-47.102062 -52.335884 -81.117027
98.215157 -51.706562 -87.697517
-61.338043 -53.051529 -84.489250
-67.523193 -55.665920 -91.400497
-66.497169 -55.954857 -96.934692
-69.424255 -57.385483 -93.525330
71.612099 -54.656162 -97.312210
86.317970 -50.075970 -94.660103
88.326439 -50.592590 -94.379013
78.528915 -53.345825 -96.660072
79.081284 -54.086517 -95.744873
102.260811 -53.149658 -97.749100
-70.741394 -50.829124 -95.789803
69.177338 -52.055779 -100.286835
77.774773 -53.029819 -97.683510
87.422096 -49.821159 -96.986969
73.958565 -52.598999 -99.963074
85.395988 -49.886395 -95.378906
74.164513 -54.345127 -98.695068
77.550560 -54.713261 -100.031273
66.851234 -55.073952 -98.501801
69.170723 -54.743965 -102.833626
62.318962 -51.449051 -101.813782
-74.009956 -53.810848 -100.054199
57.513470 -50.721092 -103.730736
-76.928452 -52.772148 -106.293930
-68.262711 -52.233860 -105.811913
-62.389450 -53.603901 -107.213600
-78.813980 -53.945225 -110.496979
-98.116356 -51.139965 -109.776634
-59.375950 -51.744732 -112.081474
-73.638878 -53.539143 -111.730019
-63.522957 -52.542252 -117.632744
-79.982521 -53.307335 -117.449699
-64.621475 -50.331207 -114.967308
-59.835369 -51.947296 -117.464745
-66.724388 -51.066151 -117.160477
-61.830009 -54.575226 -121.454979
-90.538605 -54.244537 -121.863480
-91.063873 -51.572704 -120.279945
-3.800282 -51.877197 -235.427689
-1.651408 -51.729889 -239.054642
1.885214 -51.443710 -237.486359
11.709595 -54.418285 -239.322556
-8.696400 -50.492519 -237.930695
-5.905733 -52.278400 -241.484283
-14.424567 -53.399818 -236.182587
0.322443 -55.300629 -239.882874
6.939102 -51.540802 -237.413879
1.993649 -51.933178 -239.430389
8.003884 -54.030716 -241.842514
-5.789636 -51.281445 -240.460800
-0.992973 -52.228634 -238.310562
16.296465 -53.115841 -237.397202
-4.442826 -54.038235 -242.871048
1.425001 -52.062355 -242.600937
-17.372181 -54.796928 -242.715439
13.848151 -51.990067 -242.276184
-13.182834 -53.676453 -240.722412
0.902483 -53.719299 -241.830231
18.772743 -52.917057 -242.347412
17.771502 -51.562267 -244.639954
11.071683 -53.083656 -246.539795
24.706549 -53.047153 -244.113190
27.630861 -54.845650 -247.901306
28.897341 -49.941971 -248.889557
15.718255 -50.672020 -247.576584
28.561161 -52.701153 -251.962341
-12.166354 -55.319897 -253.721619
-12.223711 -52.070839 -252.209137
-13.893978 -52.123638 -255.253845
-13.190760 -50.062569 -252.854492
27.484114 -53.964245 -255.316132
30.720015 -52.156769 -254.403183
25.302824 -53.691078 -257.062164
-10.906631 -52.598057 -258.012390
-10.909842 -53.916649 -257.991089
-13.304328 -53.896416 -256.123871
-12.892982 -52.651241 -256.635559
-12.125455 -51.601433 -261.152130
25.691624 -53.416485 -258.728760
26.910683 -53.234280 -256.230896
-16.021778 -54.104275 -257.604065
30.763657 -55.997635 -261.149872
26.199471 -52.828854 -259.561005
-12.797076 -55.987122 -260.723572
-15.099885 -55.095345 -260.899506
28.680923 -50.970383 -264.618744
28.568525 -52.731926 -264.477997
26.181080 -51.281963 -269.216675
26.565815 -51.626450 -265.780548
-7.614480 -52.550758 -267.171143
21.789209 -52.836285 -269.358398
23.251036 -51.278030 -271.662109
25.373573 -54.887501 -270.370300
26.598368 -52.330242 -267.009583
24.891472 -53.296368 -270.738525
-3.398647 -52.030354 -277.834839
-10.971975 -52.416267 -272.042755
16.321981 -52.672440 -277.604553
17.393612 -54.879765 -276.865265
22.990297 -52.881775 -275.209656
18.076170 -54.196957 -278.212219
21.185648 -52.246174 -276.382019
21.606081 -54.152481 -275.607697
22.063725 -54.277615 -277.427826
22.367523 -53.881508 -276.171509
20.854225 -52.733910 -276.873230
16.867626 -54.369694 -279.735321
25.155500 -54.911362 -278.821930
25.463221 -55.308002 -272.027161
-7.098636 -51.276405 -279.872681
-9.632503 -52.375309 -280.797241
-5.309774 -55.153248 -279.768005
23.690790 -54.235588 -278.940033
0.639712 -52.928963 -281.035217
20.037050 -51.828938 -285.266296
22.870329 -53.663631 -281.638550
14.054132 -51.563038 -287.437897
18.497929 -51.137993 -282.741180
8.733743 -53.495277 -284.292542
-1.051618 -55.062187 -283.391846
1.755259 -52.324188 -282.470001
15.107645 -53.506485 -288.381622
14.466782 -52.001335 -292.337708
4.881914 -53.154881 -288.985687
11.395630 -53.209259 -289.774902
1.781346 -56.152485 -296.260773
6.510591 -54.913700 -290.364105
1.411116 -51.393826 -293.782166
-2.877706 -53.719818 -292.044067
9.905880 -52.939663 -293.901001
0.403500 -51.308910 -292.213684
10.693191 -53.209709 -291.333923
13.034827 -54.196011 -292.725952
1.075434 -52.397823 -294.875000
38.648586 -52.726303 -11.951445
32.595139 -52.720703 -12.594581
43.278927 -52.412624 -10.858122
30.963541 -51.594982 -14.741567
44.559879 -51.156948 -15.145593
25.931513 -54.426926 -18.037865
46.442814 -51.953857 -17.865732
19.933138 -54.584644 -18.666410
29.966581 -52.918385 -17.828957
47.418358 -53.610069 -17.247805
28.628687 -52.639946 -20.374464
41.339237 -49.186749 -21.320667
49.007999 -49.363461 -21.876637
42.828903 -50.914642 -21.755333
22.813936 -51.985111 -21.915297
43.515995 -51.126717 -21.003592
48.193668 -52.324615 -28.317127
43.991272 -48.664608 -26.293024
21.209249 -50.796764 -26.506277
18.688063 -54.384884 -31.688793
25.243322 -51.592930 -27.544279
24.046211 -50.583210 -27.338520
39.656410 -52.316326 -29.876476
48.607433 -50.755409 -35.360531
27.122131 -52.216030 -30.797024
51.494198 -52.304714 -32.668224
22.942318 -52.575500 -29.143545
24.544754 -51.516579 -38.849308
25.548765 -50.043056 -31.611946
41.102112 -52.858887 -34.637241
21.061253 -50.811481 -33.026653
27.812925 -49.723824 -34.089703
29.733759 -50.336105 -38.061554
37.778801 -51.341644 -35.643723
36.886459 -55.139881 -38.412399
45.922459 -49.989246 -37.288181
21.831551 -53.217976 -37.543495
26.756456 -51.061928 -37.390755
33.298389 -49.705738 -40.066639
28.975929 -53.599949 -42.248558
30.602886 -49.379837 -38.922802
34.791988 -52.096298 -38.942711
36.079575 -54.414902 -40.446056
-63.284210 -54.116638 -42.530777
-91.295990 -52.604034 -48.221439
-42.016129 -51.459171 -49.115368
-26.719370 -53.242985 -51.033081
-19.794146 -53.079041 -52.219055
-15.621108 -51.898743 -50.925217
-15.351694 -55.300755 -52.277912
-95.655914 -50.035923 -55.895885
80.935555 -55.325367 -55.713406
77.019020 -55.386902 -52.152557
-63.267254 -52.686371 -54.268887
-5.186182 -55.240135 -56.311493
81.890259 -50.513035 -57.846771
85.925392 -53.016663 -59.890728
89.049400 -50.931622 -60.590626
-9.274806 -55.958099 -60.581383
-62.933445 -49.055470 -60.166058
92.369331 -54.415310 -57.591751
67.409302 -50.275341 -60.800739
99.970482 -52.903332 -63.704700
-95.182678 -56.115593 -61.619209
-62.375412 -48.254898 -58.626499
98.957825 -52.162395 -65.309456
-66.912498 -54.349434 -67.676003
65.680138 -52.275116 -68.500244
100.880501 -50.471272 -68.599922
64.425850 -51.266006 -72.049469
-39.178349 -50.673843 -70.292870
72.063240 -52.618752 -73.053070
78.093575 -52.215744 -72.117340
86.467163 -51.054867 -73.619423
68.941727 -50.818729 -73.844421
68.810646 -52.123371 -74.109673
90.868317 -52.421421 -75.590126
97.166389 -51.105217 -76.144241
97.185799 -50.861122 -77.711395
98.463577 -49.268742 -81.012245
94.438065 -52.191376 -81.066429
-98.000290 -50.466217 -81.659256
62.428307 -50.958576 -76.313950
-48.874493 -53.478874 -82.988312
103.061256 -54.670654 -79.872330
104.806030 -52.723660 -84.069939
95.424797 -53.889641 -89.669174
64.052628 -53.457020 -92.811455
102.281700 -52.408138 -86.513237
105.797852 -53.797966 -92.748192
103.329819 -51.353348 -94.234329
99.707138 -51.447983 -98.865623
98.736847 -54.704094 -98.666862
-64.337547 -52.435909 -105.996742
-65.136757 -49.184425 -105.338165
-97.666000 -58.744431 -104.717018
-72.858482 -52.897079 -109.213943
-96.188835 -53.448593 -115.417862
-63.260807 -51.853447 -113.185791
-98.086639 -57.311504 -119.803253
-97.540451 -51.014828 -116.895531
-94.487381 -50.762436 -119.033180
-91.382599 -54.136326 -120.515129
3.101743 -51.544960 -237.541809
-3.298496 -51.779381 -236.054382
-2.947497 -51.015602 -236.998489
-1.006767 -51.995682 -237.057510
6.301768 -50.315659 -236.422791
11.317091 -50.983994 -237.257324
9.761142 -56.420769 -239.223831
5.406264 -49.953014 -239.622849
14.653707 -53.072662 -238.156189
19.345501 -53.661976 -238.719818
6.456459 -51.736443 -240.242493
4.609827 -51.768795 -240.146133
12.014036 -51.059402 -237.357681
23.170895 -51.600918 -242.044296
-3.877754 -52.176933 -240.127335
10.124163 -58.414944 -241.082291
18.505465 -53.690216 -240.626297
4.832128 -53.270306 -242.262390
-11.949020 -51.873981 -241.883926
-4.884125 -51.744419 -241.190445
7.055917 -54.808140 -243.123322
16.436831 -48.636684 -245.357071
17.656258 -52.319344 -245.613617
20.579754 -56.032791 -245.686005
25.501373 -50.184902 -246.850754
21.407526 -51.291603 -247.094589
-12.672763 -47.696678 -244.295044
28.652557 -50.093079 -244.795410
-11.450643 -51.389030 -244.590286
-11.211966 -54.585381 -248.496353
21.897537 -51.843102 -244.093597
12.305820 -51.609074 -246.839874
24.181097 -51.944618 -246.398880
-13.045433 -49.757130 -251.363113
29.420681 -51.929092 -247.543610
-12.649548 -53.100254 -247.369217
-12.091853 -51.038097 -251.433487
-10.250787 -53.182510 -252.929504
-11.064714 -51.801449 -249.702515
-14.391488 -52.177788 -249.681229
23.807901 -54.085873 -250.399338
-13.642619 -51.353504 -252.564392
31.295597 -49.535675 -253.112885
-15.365450 -51.292183 -250.145737
-12.855868 -51.364925 -252.639389
-12.985992 -51.435829 -251.917831
-8.782480 -51.636776 -253.742249
-14.627045 -51.132740 -251.463821
-14.451648 -53.458900 -254.873917
25.187975 -53.604050 -253.213287
29.677040 -49.127666 -255.763748
15.930836 -52.216454 -252.962097
-14.245200 -51.961922 -255.596085
16.312023 -48.991863 -254.360443
16.031837 -51.220573 -258.623077
-15.765346 -53.916485 -257.594818
17.130796 -51.303986 -263.593414
17.684818 -51.175831 -254.802902
28.026159 -54.581718 -261.106140
11.552002 -50.021778 -259.579071
-14.202023 -53.589561 -264.951630
27.880697 -46.537975 -264.110016
31.286564 -51.888378 -262.090668
19.464985 -49.686691 -261.056610
28.055037 -51.286587 -263.148285
-13.779505 -54.411663 -263.372009
-6.266731 -52.049519 -263.165375
13.042105 -52.393852 -265.395599
-10.712273 -54.805817 -259.608276
2.706806 -48.217812 -265.704926
31.522968 -48.937973 -269.783112
-3.240076 -49.424690 -270.844330
27.496412 -53.705021 -271.158203
-6.502561 -52.118519 -271.194855
-7.941441 -49.006927 -265.765259
-0.346448 -53.020039 -264.210449
27.410633 -54.618610 -269.531372
8.405024 -51.920017 -269.877930
0.685030 -51.419308 -276.630585
5.807706 -49.634300 -274.476654
16.036814 -49.015808 -270.920563
27.986397 -50.785385 -273.319031
26.278265 -50.248375 -272.530670
25.192009 -50.653801 -276.410858
12.818229 -53.218990 -276.997040
20.504429 -51.118244 -272.174347
19.179071 -51.640190 -276.893799
26.659319 -52.196842 -272.745758
9.509283 -49.383472 -278.581207
-6.027358 -50.503120 -270.223419
-5.332100 -53.254433 -275.275726
4.976352 -51.142948 -279.188782
25.231321 -52.279236 -278.494568
11.515089 -51.326229 -280.030670
19.637035 -53.553352 -283.282410
14.208657 -52.009487 -281.197357
23.439581 -50.383301 -280.492218
17.011753 -51.772972 -287.792816
22.800673 -48.216171 -281.268433
20.959660 -50.859478 -287.374146
-2.678368 -51.477760 -281.381439
6.098252 -50.415482 -286.560333
22.874123 -52.671371 -285.015350
13.723403 -52.166500 -286.039032
3.242612 -50.182274 -290.049805
18.312349 -54.439007 -290.153229
12.257833 -50.698856 -291.449127
15.198149 -51.267899 -292.822601
5.726174 -53.201244 -295.417694
13.072550 -50.365982 -292.886963
14.554205 -51.957775 -293.840027
7.213057 -52.985016 -292.817535
1.817798 -50.675316 -294.224884
5.991208 -49.142860 -297.798889
40.730148 -51.720570 -14.710266
37.015205 -50.901501 -16.402849
25.911837 -50.151501 -15.809389
38.246223 -48.032532 -17.016649
35.516869 -50.672802 -14.009081
37.925587 -50.987919 -16.156750
26.615192 -49.279114 -15.916469
30.540253 -52.954716 -18.923214
24.543032 -50.436962 -18.043669
27.371542 -49.327744 -17.413282
41.600109 -50.546207 -19.900423
42.922882 -48.862095 -18.652437
24.272371 -50.107746 -19.230186
48.521214 -50.776112 -23.257086
44.639496 -49.567837 -24.392372
47.310635 -48.356182 -23.777906
51.773327 -50.753445 -29.289421
42.145794 -52.582005 -29.370720
44.243938 -48.928299 -27.638962
47.470921 -49.048691 -34.190308
48.201820 -52.154613 -35.295242
44.972034 -53.168438 -32.802460
40.866699 -50.458221 -33.552425
30.976637 -51.823139 -36.749287
30.951120 -50.342220 -37.397243
35.503124 -50.263988 -36.381554
29.245235 -52.200329 -39.030251
44.840202 -49.302063 -38.402916
43.038242 -45.976238 -38.265415
42.014759 -53.067745 -36.627911
33.035938 -49.819878 -43.889576
40.822720 -51.329945 -39.495651
35.388409 -51.336792 -38.218464
-81.220062 -52.456310 -45.566238
-90.104904 -53.096382 -52.014988
-37.905674 -51.174194 -49.933277
-8.256536 -56.402065 -57.538906
-94.422981 -53.767788 -57.299156
-6.414746 -47.674164 -57.079002
-68.450890 -52.363457 -61.082390
-97.624542 -51.784721 -61.172726
94.296753 -49.175003 -62.465408
-28.520622 -54.208389 -63.389500
-63.404221 -55.346535 -63.656315
66.362076 -52.994175 -62.027767
97.295166 -51.057724 -62.463596
100.167259 -53.875088 -63.408562
-63.412361 -52.589348 -66.594872
-98.085785 -54.021984 -67.219162
70.666420 -48.508183 -70.379761
84.767914 -50.243240 -70.069008
67.173050 -50.014374 -69.527794
74.041931 -51.325314 -69.766121
104.229668 -50.848492 -70.979156
82.897507 -50.277058 -71.493149
88.298340 -53.055187 -71.832680
60.398373 -51.367729 -75.138237
63.485157 -49.318394 -69.154633
104.268143 -50.493580 -74.175964
96.206192 -50.774845 -75.532440
107.424728 -52.319927 -77.183502
86.754959 -52.857674 -71.639595
-38.312840 -54.638199 -76.893929
100.654182 -46.963402 -77.572769
64.072632 -52.426010 -78.121635
103.158958 -51.452980 -86.574074
63.634865 -50.141747 -82.210838
101.350258 -50.356853 -87.785278
100.190750 -50.603889 -89.115517
102.991196 -47.121956 -88.190186
100.096443 -50.026169 -92.325806
62.783993 -50.657448 -89.039444
62.888920 -53.303509 -87.619003
102.004700 -49.745571 -95.233757
61.510075 -53.272251 -94.018951
-70.477158 -57.284233 -98.276245
62.601036 -48.814930 -96.868416
64.584290 -48.979343 -105.462212
66.064003 -50.909683 -102.679001
-95.538132 -49.926594 -106.380409
-76.350685 -52.949112 -106.858238
69.597107 -52.113342 -107.123711
70.201797 -52.681213 -105.256462
76.767647 -48.224216 -111.045815
-68.094040 -51.508160 -109.818954
-68.450722 -49.954193 -108.313759
-78.006966 -54.497810 -111.274956
-92.579018 -52.521847 -120.598091
11.002737 -48.244995 -235.382706
5.844139 -51.217670 -236.381958
13.977095 -49.461830 -236.754745
11.506417 -51.973522 -237.720718
8.928513 -51.341526 -238.695740
3.022191 -50.443993 -237.899567
14.657845 -50.328888 -241.657318
12.107117 -50.764038 -242.496765
-9.398730 -55.690365 -241.747162
7.950682 -48.881531 -242.116318
16.617029 -50.733578 -240.747452
24.808966 -51.234547 -239.235458
0.394573 -51.908653 -243.430588
-0.359922 -51.704975 -242.451889
14.021902 -49.860497 -243.202286
17.355717 -52.792614 -243.269714
5.126023 -48.398525 -242.959259
-10.462827 -49.150822 -242.349014
-2.060972 -49.494595 -243.046585
-2.052268 -49.488419 -243.265640
1.861576 -49.940395 -245.627426
3.740985 -53.684464 -241.064911
21.108973 -50.736416 -242.298553
16.801208 -49.068092 -243.295044
17.545115 -51.446491 -244.742264
16.029316 -50.678135 -245.350037
19.764479 -48.292698 -244.904572
10.217155 -51.750729 -240.451157
11.656587 -50.778587 -245.925339
8.172383 -50.503929 -245.433197
27.408165 -50.761028 -244.949539
-15.962332 -54.148312 -244.169632
0.979763 -50.871140 -244.928879
14.259188 -49.781284 -244.060608
34.137611 -49.219879 -248.402985
-10.350179 -49.215179 -247.156601
-10.724411 -48.526115 -244.611633
23.912712 -51.039558 -246.077866
-12.675466 -52.213493 -246.789856
-10.651003 -48.460098 -246.163666
-10.837262 -51.329315 -247.669571
27.835167 -49.169567 -247.115677
19.288534 -51.157948 -251.187820
29.190886 -50.231506 -246.943085
-7.843287 -52.722961 -254.017242
-12.170809 -49.563122 -249.790222
-10.259271 -51.404293 -253.499664
-10.047539 -50.719147 -250.045700
-0.133382 -50.051579 -247.073853
5.681253 -49.439663 -249.768784
-12.193735 -52.702946 -252.107773
-12.503045 -49.455029 -250.601456
15.700355 -51.000385 -247.384064
-11.946678 -47.377846 -249.761032
6.303097 -49.441460 -250.107864
2.733744 -52.638714 -251.218262
16.010429 -50.859154 -251.280090
27.073357 -48.978954 -249.066727
-12.551494 -50.601192 -254.044434
-8.172391 -50.362755 -256.073914
31.204573 -49.083801 -253.997086
-6.644038 -52.922157 -253.686844
7.945913 -51.137764 -254.122269
27.595169 -51.098370 -252.774139
-3.213732 -49.315662 -255.208603
26.064920 -52.454784 -258.074249
28.642849 -51.976563 -257.570587
-11.604130 -52.585266 -255.054428
24.272104 -47.444027 -256.933716
-11.190121 -48.686901 -259.780121
-6.231695 -51.121544 -258.813141
0.276759 -48.293606 -258.521545
-1.272504 -50.315968 -261.565430
30.332987 -52.206944 -257.867828
-2.380445 -48.820545 -262.838196
28.612537 -50.862434 -266.370697
23.945068 -51.736244 -260.321716
-4.064261 -50.258743 -266.164856
21.267735 -52.899090 -264.380127
-2.784457 -50.032059 -273.066284
5.561397 -47.981209 -272.305359
18.986717 -51.292721 -273.543671
23.174580 -48.159416 -272.637848
0.773571 -49.651356 -273.867767
0.770214 -51.595558 -278.288483
10.368850 -53.640163 -275.388031
25.490152 -52.398518 -278.795105
0.316336 -51.872803 -279.227661
17.238647 -52.428337 -277.619232
23.682138 -52.672264 -276.164307
25.447577 -52.152493 -282.947937
7.590703 -53.982464 -280.043091
15.876157 -49.740585 -279.378082
23.102003 -51.871170 -279.144409
18.018129 -51.347439 -284.088745
22.723276 -49.885391 -287.290802
14.159690 -49.276569 -282.061707
7.365151 -49.869141 -286.513763
19.483120 -52.993942 -283.770966
18.145443 -51.452869 -291.106018
18.580744 -51.652588 -290.488586
15.810163 -50.866875 -290.799652
16.331736 -49.343472 -291.941132
12.414911 -51.932880 -291.825745
10.418566 -51.070465 -292.640808
8.566312 -48.855629 -296.488953
8.020989 -49.075520 -293.237518
7.022765 -50.915222 -297.254211
-76.140892 -50.791710 -45.080795
-80.613525 -51.957603 -44.875347
-49.293835 -50.348305 -46.934982
-90.995781 -46.040928 -51.175976
-34.800026 -50.958435 -54.000084
-28.426867 -51.148323 -51.109085
73.736038 -49.544216 -56.806171
79.263748 -48.247173 -55.090519
-56.666534 -51.279369 -60.542862
-10.048238 -52.139034 -57.653152
85.369545 -52.839088 -60.525299
-17.719517 -52.718578 -61.221016
85.355324 -50.370094 -60.233330
-21.261036 -48.973545 -57.025547
-60.704899 -49.479385 -62.684521
-20.550240 -49.419949 -61.015720
-66.414314 -52.836594 -64.503021
-59.668274 -48.646587 -63.404991
68.416763 -52.590527 -67.095734
85.605331 -44.916527 -67.413330
103.723824 -50.460136 -65.984085
73.820679 -49.686935 -68.064957
-38.021648 -47.484509 -67.782356
78.070961 -50.011600 -65.162178
89.805283 -50.561523 -71.631943
64.473274 -50.718166 -75.201111
102.876022 -47.573788 -74.166634
97.501015 -51.187920 -74.180168
103.772163 -50.299683 -74.980637
-40.435612 -49.689827 -77.824738
-43.117146 -50.153378 -79.366714
65.076614 -50.357300 -77.563995
63.898544 -48.167221 -88.846672
60.673031 -50.109653 -83.827652
-100.061836 -51.338398 -84.035027
64.197502 -50.385151 -90.414452
61.555756 -50.999466 -92.387718
58.261936 -50.713188 -93.718056
66.251198 -50.414696 -93.998749
-71.184799 -50.810894 -100.164566
-99.529869 -53.315044 -109.790596
79.811699 -50.616543 -107.658928
72.339577 -51.478775 -109.073189
-96.109810 -53.469383 -112.505859
75.228195 -47.469955 -111.057747
-101.448441 -51.440308 -115.333069
-86.079788 -54.238636 -116.789871
-89.627495 -50.017052 -119.466080
13.985584 -49.414524 -236.867615
15.654475 -50.738125 -240.176483
17.760975 -49.405857 -236.303619
24.606659 -49.237614 -241.304657
15.642434 -49.113483 -241.508850
20.562449 -48.899128 -239.258774
1.887057 -52.260910 -242.368103
12.529480 -49.429623 -242.218414
24.553345 -46.550117 -239.897766
-3.664344 -50.441662 -241.779190
18.005615 -51.964909 -241.432465
17.293518 -52.831028 -243.180206
22.760855 -49.696514 -239.850784
10.147256 -48.521523 -243.123093
-10.887978 -49.405731 -243.915359
-8.998204 -48.234406 -242.481491
-0.635535 -51.011990 -245.096436
-10.865630 -49.804825 -248.630951
0.698525 -51.418949 -244.326630
-9.473765 -49.751839 -243.393677
13.915945 -51.890320 -245.648224
19.896959 -54.830654 -246.405807
-12.333817 -50.000896 -244.341019
-14.016341 -49.147583 -246.760025
-9.541521 -47.345394 -245.614029
-6.502214 -51.378052 -252.133179
15.190498 -49.269867 -250.307999
9.704134 -51.704739 -246.098801
18.620752 -49.187229 -248.618134
-10.203139 -48.655312 -250.669540
-12.302675 -49.321728 -250.463821
17.646753 -48.925701 -251.218811
1.905883 -47.509232 -250.429916
17.719004 -46.693390 -250.611664
-9.875824 -47.328533 -251.179840
0.600056 -49.032135 -253.383987
-10.140018 -49.322495 -254.974487
13.499356 -49.511650 -256.972870
12.584304 -52.031574 -259.170715
26.797136 -50.083218 -250.536240
9.996853 -51.344364 -252.957947
22.399458 -50.311687 -253.933685
2.894615 -50.200844 -259.912506
-3.782120 -49.821201 -259.283234
18.228128 -51.315681 -260.821594
1.352149 -50.599216 -264.156097
11.526881 -49.580990 -260.048920
22.922277 -47.874435 -262.285767
-3.889630 -48.230389 -263.221558
-0.039402 -47.784618 -265.732422
9.266580 -52.196747 -264.505615
9.104332 -51.707767 -266.111481
16.016405 -50.615627 -266.899414
-2.085726 -51.631714 -272.048523
14.214344 -49.372982 -271.641205
15.063663 -49.767731 -271.182281
2.867363 -49.738106 -274.390656
12.135860 -49.766052 -274.698700
-59.541836 -51.704071 -44.905025
-52.949917 -50.121429 -45.477242
-44.072945 -53.074615 -49.221729
-19.912489 -51.598766 -53.045280
-13.375797 -46.137089 -54.750973
77.050110 -47.155510 -54.932926
82.956703 -48.672062 -60.298038
-63.819767 -50.836784 -59.300797
76.243828 -49.480888 -54.250477
-9.144208 -52.405949 -58.247498
-13.356668 -51.953957 -62.164509
80.769058 -47.497009 -58.781658
98.860825 -55.776253 -60.198486
-64.180473 -45.247608 -61.760990
74.016548 -47.814812 -63.708954
67.584320 -49.084465 -65.271042
70.157547 -49.656845 -64.255615
