# This PCD file was generated using the MATLAB® pcwrite function
# from Computer Vision Toolbox®.
# .PCD v.7 - Point Cloud Data file format
VERSION .7
FIELDS x y z
SIZE 8 8 8
TYPE F F F
COUNT 1 1 1
WIDTH 812
HEIGHT 1
VIEWPOINT 0 0 0 1 0 0 0
POINTS 812
DATA ascii
82.209126130306529 98.931634788706077 -44.352702405277171
94.756890575787196 96.021924725067407 -43.539748133272361
103.041192873816442 95.594230470158337 -43.252825345589777
86.063576304714431 98.684782853565977 -45.227799439046748
85.225290859285352 99.487703533939282 -43.876476081492854
104.147836929495853 97.604543687981334 -43.296530472017032
92.328865533979368 98.983262645435175 -44.255672284305241
97.110726209212075 96.242538241347447 -43.741632263040692
98.420407981789182 100.160577668655733 -43.347526506318403
105.017448553627858 99.941993881232690 -45.862527287914503
101.673058427991876 99.265518002507847 -45.823445406536386
103.543652236058165 97.575663258689943 -44.787791627276739
79.303184070910561 97.403014435009595 -45.840725044269185
80.964139740053284 99.310852978780844 -46.195291089578234
90.208698323153413 97.235579633056801 -47.412793967940786
91.972425633300617 100.446778756397279 -44.204762998184634
99.905659163676248 100.366344867141763 -40.040717171265307
84.828345434328440 98.431556018295367 -42.929486080102777
99.040487536483425 99.954615492204653 -44.536185787928346
84.605966631391041 99.832215118580095 -43.260927274192056
100.239366254101341 98.495110889708599 -44.439135561155432
90.302510075368914 99.670113959897236 -44.802620764810555
103.666434879897679 99.212509724507967 -44.671875388050019
-72.203395228282261 100.757147352111517 -44.760632857759425
93.154518585245256 100.454589004019127 -44.984151394581474
96.004898600676356 101.185965660687856 -43.572554727712550
98.592866883588997 99.040300284663829 -44.045815376830760
100.761630584444077 99.740177013429701 -43.824292205792041
105.742979139275405 98.156108770256907 -43.414268062695847
-100.129918619049732 99.845891116403735 -41.119270920528230
82.189599429771746 102.431320861706723 -44.111723350094792
85.351292204421284 100.304188984964100 -41.955100544597741
-99.887056083934283 102.562733238525766 -43.786890902102328
80.962072271810797 102.486113861148340 -44.653761099248932
83.937408108528118 102.671345962268077 -41.565669577063687
99.319077870331100 100.542488707344759 -42.728816964542425
-99.233665347933893 101.350519985832094 -42.424691135226126
77.879631449868569 100.654322867157262 -42.899745061417015
80.331522933615844 101.969991379241065 -40.620573135364261
84.164360907665241 104.657995718317764 -44.521031253351907
94.502391161050852 101.946929410323506 -42.074156537758611
97.559706122133548 98.350484570577464 -43.223096154088843
98.815443024953865 102.707029036636712 -44.914761534705008
101.146522087916694 100.934426711995769 -46.470163460759402
81.060440287983837 102.741569980357298 -43.797291840898666
91.375735760629695 102.600038671774897 -44.714587916317875
93.240112862728864 101.379701929295919 -44.510372353379296
102.481115114891921 101.645821787987018 -40.795978416453664
88.912248397631714 100.516517489035948 -44.395587770905358
90.549330811205891 101.359747790953364 -44.008062764846905
92.668543890060604 101.034416758614725 -44.417978043161078
93.210600814870844 102.438045438235335 -45.843127080644656
98.987968894505769 103.126428742909411 -45.643005976464970
104.441294162855698 103.158168041543973 -44.307232214348979
103.373570723347868 102.276213977318960 -43.985617985293651
82.702146336210745 101.438233322385429 -41.772360099256503
95.769259269145380 101.343281967583934 -44.716780701239045
99.066087911028873 102.947465604327022 -44.548897235459719
-72.702669980529976 101.401403849319735 -45.731024200597574
100.891223883386843 104.490346063514195 -42.786574323450104
-72.271805080350632 102.139720145108768 -47.531417756417454
-72.134332009208435 103.811680312969315 -47.194515582865549
81.957701863771419 100.477835882336009 -46.400451270753933
95.177726107798264 104.645609024891016 -44.192861346253423
98.221932426679857 104.155800110084044 -47.462493331778461
80.758558723114604 106.252981944932287 -47.486241753921377
96.473979719484575 103.768350910244749 -41.847712908566486
-74.499832351694280 103.434813055345785 -44.808159605769177
90.678773801693509 104.686535035290348 -43.889393535796088
97.884313750040619 103.758866919724170 -44.286610802233277
87.270562995579766 104.311599630356781 -44.709589284017291
-76.633741765730292 106.458215177918476 -45.905726596696624
98.192638646100008 107.329386499811250 -43.647361110523335
93.086523747150792 105.064644214607640 -45.345913989736815
95.582177562109777 105.284670024831726 -42.542230945633399
100.671532679093573 107.442150651718435 -43.678913985324712
81.921012508310056 104.561453454994620 -44.830660171702718
99.119508606711420 107.517091764141014 -45.595197761195223
93.247731713517240 107.837278272567843 -44.277189831981566
95.442925937266324 106.180430113845318 -44.171833257667124
96.567327940831717 105.881160634681081 -43.267359890896088
-98.228741041481641 107.143135732211476 -44.769560694057361
88.621639428795774 105.572626121721981 -43.967528253279710
96.136725810530677 107.776659311364156 -42.175062433007476
100.088930430536379 106.444058725242797 -42.700556394905050
98.144368351916739 107.549178053704011 -44.734629054282415
83.814377635403275 107.610248343067298 -45.097982217171875
100.183449712089185 106.068158676396408 -46.195858792575009
88.610201251558252 110.919023499683064 -42.544157721439682
90.371937805946629 108.772239280376439 -43.060461789893353
85.730936299826766 109.373116238266874 -44.313219997773473
98.961936478846624 107.505388692651294 -41.618316424131464
89.827208812035181 111.678406865572398 -44.346768262507545
93.018579656436870 109.203303465816489 -44.687917875232550
86.068304217241135 108.953297945947625 -47.551581504176269
93.508192662829714 110.171499001479972 -45.191826713001184
91.328445503171650 109.916413791410363 -44.802620636784646
90.572435237508941 109.721643864300290 -43.329757576873469
-97.564985966061585 110.680052676870986 -44.554005891846103
96.639135491391102 111.388532577991825 -40.629170446857387
79.247203992098008 113.150713188504000 -43.398369974581165
93.837192984762595 113.180448645038325 -43.889736611258847
79.929707406531037 113.816647195019314 -43.498119031732095
83.155925461184196 114.347091506911411 -44.745061848884973
84.351190037651804 114.444653478706982 -44.804214830936857
86.489314942101203 112.816824696365430 -44.630322388012814
87.551770969713616 114.195109597865752 -44.849081372380340
-85.696300750334785 114.576795214302678 -44.813964280566893
79.860987801033730 115.183694403351055 -42.635456505465697
86.950843698570949 117.060340186708302 -43.555745829391228
86.069274469481215 113.200279920650047 -44.322142467431405
86.898071462633666 112.888242745489194 -44.880836039618018
87.764201195341570 113.144041388260902 -43.758288609298248
93.923687926758021 116.160732639387390 -44.240965758799341
94.707266361885331 113.031969213239208 -45.007503301902979
-97.231274247711326 116.778747696949011 -43.284806875580387
88.930174187183496 114.417463791208817 -44.259498910324247
90.720196135316542 117.957816164858542 -43.171960856266857
92.392921444593128 114.543608074238790 -45.281271608895914
-88.752187919934826 112.724219019322689 -42.286141093430707
-92.725662534648535 117.929429065101303 -41.803099284789347
-86.994475515010876 117.892875663940956 -43.899642974399399
-92.796848820816393 120.509542461236919 -42.840386900689275
-86.269948770164689 119.675653883555682 -42.365835575802045
-92.012723718560736 116.334424256198659 -40.658450569210800
-90.519618642512242 121.275075234521935 -43.797021478448855
-87.731546043635120 117.993085846172747 -46.111893729083526
-79.810849510570080 48.945613817449889 -43.852938121192999
-64.373064130745689 47.757125275860730 -41.244806144463972
-75.043391626569175 48.196302740393534 -42.870229491411116
-60.452115894667692 49.809674885568270 -43.639193734458480
-83.785601721167680 49.862361937031309 -45.741305694859257
-61.540901650887413 51.474563751737712 -40.141954115141942
-61.354563859678933 49.461315209792289 -44.393442896729674
-62.042633779767705 50.581326729985591 -41.336264859511935
-59.479142865730786 51.900673304915244 -42.701526990760783
-55.939138672420071 50.230409546323585 -43.148951722555452
-62.364278299378562 52.708775386405655 -42.362550303224324
-53.244661153819216 51.726367245649996 -42.736597945801549
-58.924858878069273 51.820458075875003 -44.877947383460395
-51.683973623703586 55.011511708382820 -41.425315202547758
-48.010322435740186 52.347309592498746 -45.410142835831202
-90.356068617126894 53.927511416925036 -44.028942215994483
-46.434647098548410 53.996036185784774 -43.055853920836611
-92.740200584538769 52.102150909612199 -44.142710759342592
-59.391629089730039 56.816929513639877 -43.730129705619056
-59.777800207832435 54.275060863421061 -43.789979882604939
-43.564590158249430 54.529670803906605 -42.336928828140671
-43.125251458997276 55.002744760695592 -40.716523867843271
-41.396442013659879 57.279899143627546 -44.554954728004240
-36.322350501754336 57.318593394913094 -41.284561898302577
-35.685505822340154 57.193898167319944 -39.409833490507033
-32.954524743695004 58.687339297371473 -41.415182279706087
78.708136389764377 58.963728938508453 -41.332392318135824
81.137709412875409 55.833376947859200 -42.223237851340514
82.403275280246078 55.731569019086869 -42.318500748166514
-31.254356559678147 60.250164297405618 -41.629896975014539
-23.454505637306209 57.577195939330352 -41.431841643573499
-20.044699482401064 56.682929089737605 -41.189876313658864
-10.769637018248135 58.775289486742388 -42.272427705675902
-29.446224098625017 58.202060600816814 -45.181427362695096
87.271245168425637 58.180698729863096 -43.436969380445447
87.153638851122821 58.312027807947096 -41.169211039738478
91.863924500471072 56.048365049278146 -43.157090743234946
-12.821087530380327 56.937768033239848 -41.506504812118969
83.866762531976747 56.669461899223762 -42.179360911091528
93.380645538948542 58.041125843493013 -45.106738552874120
84.831405129071570 56.666662286490059 -43.863986589350127
91.077601556861950 60.325995632793834 -40.775192066900800
85.363357123324718 58.655204899558832 -42.091317445159561
91.137168208540629 58.271770550409926 -42.368623592763775
95.663204934149931 59.283356279353512 -39.446574989167338
95.240096123632370 58.736367818483437 -44.466360870263628
85.921174541870982 59.584774303360454 -41.321869938647822
91.147745439357820 59.441930660797702 -43.173221068175202
91.542443662198210 57.173670548168317 -43.375099212586498
93.291865062813798 60.722886712012027 -42.364384648729995
92.203356002733557 61.004237522336275 -41.550472619114380
95.626470896057356 57.895031937580129 -43.422003604720224
96.684547564157114 60.544993649892660 -43.536125590313603
-8.648461771773562 60.981122682948055 -45.261509720461255
-9.098153718267501 60.231222856015421 -44.058088546473847
83.469158203691705 59.841113274378372 -44.443428545111914
89.898644709849009 59.777248242162919 -42.245049728403565
93.690163234145359 61.013403676829419 -43.813678266920157
99.195217693957559 59.233019597756780 -44.148672038715148
87.464421896855853 60.285365179554489 -42.912754936168611
87.872876566149387 60.733903305166741 -42.748600085682135
94.877900103126350 60.367986586735377 -43.239014591917865
97.638029041372022 58.738136612348690 -42.576794240138057
-11.903116372313088 62.162361263585154 -42.104662344646762
100.252949057447779 58.962266297240411 -46.625879527827074
100.750881977789618 64.171958842763331 -40.240524897697846
97.976799700787922 59.764444977028809 -43.667547320087323
-24.363363220815113 63.348794656435679 -43.906537855933337
-21.316117114638551 62.631939412840971 -41.243033832549550
92.934283669242930 64.178398471789905 -43.236172529283053
100.595979684050235 60.793838302631869 -42.287642113677926
99.711454371598577 64.351302392644016 -44.930047185570402
94.985800543280575 62.667177369114249 -44.495624382869558
100.868074739744856 64.392191658849541 -46.043770645445306
-97.039292038193366 62.113857520350713 -41.477803468993031
-25.660484104764251 62.025329686958855 -41.265765832814658
80.182877847219828 64.315952985081012 -44.249583503658847
98.037370550536849 64.655786209830211 -43.180700736254281
99.999906279757454 61.710885012189181 -43.809069582858264
-31.880615648171482 64.352008205710291 -43.866892422372004
-31.765509889113464 65.640537071000352 -45.317888716725356
-25.286243085080809 61.698092625301079 -42.530997222641552
77.325324132296444 62.820917137786289 -42.772408780080802
88.309027350618408 63.565634993163670 -41.280801152032545
102.202121595598868 64.010864878062094 -41.158600913950046
-33.520758981482452 65.237509824269083 -45.081288047768680
91.537901135792325 63.785700872916649 -42.173861110812169
93.563224252484929 62.070409309234648 -42.055886433132713
94.356491334609657 67.689295057480706 -45.103313262553193
84.308170431038477 64.174669943535832 -44.278211171002319
86.703297371611328 62.626371947139738 -41.361338773823853
84.889070455614956 62.498936969067273 -43.384717793262290
89.770348550909574 65.096453500289073 -43.852122837827771
96.088494826593958 63.939953346306822 -43.316470779929581
97.185107344145123 63.383780328488790 -44.807717820901047
102.360586956054789 64.327401100026435 -43.823815274579019
79.400132350335838 65.620191508115695 -43.776738142733933
82.917617575151610 66.092650013915318 -43.404572644380060
95.448539437340273 64.569022161986737 -41.201391905627496
95.981916834340765 62.572697523897901 -41.705187880128257
101.423954007073689 64.059898592858787 -45.015928068724548
102.538014800870059 60.298273135020935 -42.718394575056152
-100.069309996832715 65.303025899492326 -42.219720564659319
86.133895073316324 67.168074383474959 -41.033736988395574
85.890252625807534 65.637636985977963 -41.799628363780485
93.633297071625833 65.852299657539930 -43.162144109690928
85.524117867087583 67.245122034454127 -43.665210373323198
91.711941989494747 65.227376111716751 -43.773090024991689
94.964295465101870 64.997069402923103 -43.665775655833812
96.989693137395847 65.122092043735563 -43.434669631929047
81.725434104071553 67.616081848363436 -43.781647131272216
90.304308431613265 65.185761560943462 -45.675502210025208
78.456943947886018 65.741055667870427 -44.559143441366196
90.316102596752771 65.550009438268447 -43.435658844360951
105.395040591934503 67.409099162236885 -41.831769298540642
83.924406217096589 65.093149139198118 -42.863564463233452
83.245104102217326 66.294759897522368 -43.241789003007561
91.438686167949399 62.502411241856343 -43.759402430804421
96.916125318873227 65.630558736820774 -44.836143090341736
96.811086047477460 67.579938314593093 -44.638343250361949
98.966332976711072 67.099036183434166 -43.752343755354858
102.937640019016058 65.275270869504425 -41.789079383180365
-36.146269211411322 68.380926157409974 -41.481888919305881
89.610182601694419 68.052254115592504 -42.350531452073106
97.227977720946598 65.937391344625183 -43.684079393391436
93.649064524572367 69.134393644148119 -41.305390272944422
97.933448546017374 68.433890141540061 -41.023057425128492
99.691647809936498 68.393242849240693 -43.103707134720644
101.797035639102432 68.662963984889828 -42.811365840990874
101.781065375583665 66.049529042538595 -42.720672861596938
103.479599412868168 68.252269898267997 -42.440533032888311
78.323829336752979 65.433907739605104 -41.485538286983264
91.606638258639393 70.082455219571713 -43.523240321648082
97.356567843253487 68.962003774572821 -41.395450323363335
78.839841162785191 65.751748500251011 -42.284792551161239
83.337023276395684 69.733384078321777 -40.607802887935840
89.028451271520893 70.037694861506225 -43.018077036283550
94.015394565202939 68.757198387998045 -45.434791221407508
96.582700715390914 66.791356725824897 -41.055628160731835
96.126616787856818 70.442232709461692 -43.068336042480070
-98.396709793569485 70.375436581915338 -45.081924062915526
90.716155518193688 69.654469370405153 -44.460756786611249
95.180509048620777 69.310594105491717 -42.907164575249737
100.466016190370013 68.600475604572409 -45.490367839503392
98.213608937841073 69.283504937482491 -45.451667349056819
-100.256502297790078 68.641039969016418 -41.494404742862820
98.050388845175277 68.758698477607254 -41.797505638151684
79.384780242896355 67.354472897246140 -43.261100831035890
80.369524474127147 69.861417469834137 -44.002417666674354
83.290430508856701 68.981498858393621 -41.582335905951830
89.219444413095573 70.047256184724461 -43.533916073917538
98.329364577478160 71.319581155966759 -45.499661610515560
101.379260286570926 69.501782488460009 -40.563193018303359
79.583822827530781 73.671035668897900 -41.884269784279404
83.236462985590748 70.201361395545433 -42.394285771628269
86.363296216722489 67.700883459009006 -43.280756636649080
78.815663989811156 71.424842314447616 -41.925224602947338
91.485214015971110 72.759190169403894 -44.742211742347280
91.230728353575316 71.569290999897220 -44.140720067683148
97.228192734407600 69.090280240084468 -43.326020204120574
101.704090734900916 70.130741907620987 -42.484638807771042
103.256564487531207 68.303533907635597 -44.151359584585045
84.703418885427297 70.825511043494217 -42.536787135028163
82.676800398484559 71.441808396935343 -42.296352226080707
88.518187243291791 71.009369177354017 -43.164288233695878
91.554602335394819 71.808490193584092 -42.043683970178556
96.648004421947135 70.486238092067154 -41.379285492176336
104.459309336146561 71.781446499874392 -44.981309907833875
104.049918766240054 73.227537280645720 -44.174440715917591
79.877221701157794 70.667654123100476 -45.275394166742167
93.092978261653670 69.423768955098097 -43.096400052840089
98.319746299435096 71.521468143335284 -42.405708443389706
103.579376154537854 70.897578409944103 -42.409700061127531
90.057950608593657 72.787282696391244 -45.407815744874554
100.700150229134593 72.381645822724067 -40.618818668335997
103.279466737751079 72.044774812568619 -43.824997990933312
90.566825838633832 71.982878969853587 -41.024616975946500
-99.417626953515096 73.710506603399480 -41.375815130700843
82.227885509013731 71.215801428246721 -43.185896789645810
92.846376265753634 72.298642741721096 -42.227756830934297
98.304900995129273 71.972263502455291 -43.254635704556229
79.056860086370904 70.191605987741141 -43.181399533094698
102.361257229115992 74.254417531678612 -44.006170759351804
94.672551148593968 74.227559843811065 -43.899121902327217
101.955053020109816 75.313542651426374 -42.918971862885464
105.626133025505027 73.398900825770852 -41.992854479745915
-39.280522740993440 74.502066876219203 -44.323142825984256
85.352080757004103 71.810308299182410 -42.695189038317238
100.191462187084809 77.547363554958920 -40.074040861636625
105.387150532978353 74.037940484958611 -43.660299773956069
106.106792797186230 73.691316819926129 -44.089917392587282
103.862305121736682 73.066880249897835 -44.880930495778628
-40.897849322361203 76.397388163322745 -44.795742516407621
78.992162180728911 75.911923327666187 -40.827969825072024
82.321178680831949 73.272916955248718 -43.611467909599156
81.995133617701327 73.828553314067108 -42.391652352761966
99.380177724326401 76.404776121991418 -42.643162921368756
103.383752889559574 75.696263009571325 -43.081911492567784
-99.449736430631603 74.857541305804915 -42.748955365623758
-40.674787341339815 74.540370873065299 -45.680643502438535
80.947388685794081 75.033137560337906 -42.740374641235007
84.785924191771031 74.879378935039227 -39.943183109253326
86.409421132705916 75.362305810959427 -42.913037121288880
102.477612664167239 76.291794195578760 -40.749654408337143
105.586673169781520 76.769391593217264 -43.707080922072471
-98.938202181026909 77.329447891114029 -42.886527404406273
82.110743897154308 76.478112825107630 -43.880865082242735
92.892037108805525 77.889884440980978 -41.667753865131651
100.338192703773359 70.973170969257566 -43.057293500065107
107.232684727239757 75.077821967713177 -41.360171108751736
86.708381780472052 77.622637718624489 -43.972513726509241
96.298686540088411 75.697406050018202 -42.868834444708462
103.240769041004640 74.380089441494050 -41.819678102748718
91.063977191507348 76.960073441032065 -44.289244175950344
107.118229081507820 80.412899056006452 -43.326323001059244
-101.530551877219963 78.593652019097519 -42.170873491685313
-41.913859743153893 78.798641350199674 -46.762899610646841
78.958414451399094 74.835332553578894 -44.147421913871234
99.204025010946935 78.486529607590398 -43.622165469923630
103.345825445263657 77.821451181419889 -45.126012704652368
-40.721715227988426 78.041449452799540 -44.039464180988851
85.472148534743141 77.048188539490184 -42.904129760852491
89.127751860124434 77.141589041701437 -43.932840439947867
96.173425537051060 78.640961972508066 -45.035431058299274
83.026709304720399 78.924271585322344 -44.249580412969294
103.627977312574558 78.667384961357016 -44.988002229704158
87.651186061071357 78.615994205816094 -43.148498623738170
92.625716299336744 80.900164128660663 -47.030263395126568
104.868971154286328 77.268516759539381 -42.418300427020434
-44.346893517628445 79.830119035809119 -42.995352052290848
81.347927450199407 79.865048704410114 -41.108590404697004
87.733207438438484 78.240350851897077 -45.272564415744654
95.695163490834972 78.464423210356287 -44.920198321482246
101.759412954299435 78.887618191130485 -42.254034704823731
87.563173746066809 81.671280288954293 -46.962757759433678
95.262907310257461 77.579756069746878 -46.743774209780831
98.501678907909010 78.980550279537752 -40.466774826609495
104.597605701082841 78.149266539521605 -40.181517008342766
105.260550583573803 79.500625255757228 -42.003013435218662
-54.490457469471473 82.060650715970723 -41.278949053901037
-44.157250477261748 80.171851569027922 -43.182727894986407
82.985597021058183 82.093700691136945 -43.218963676160229
104.864281094848749 79.661997214862922 -42.665491777692104
102.794283859193541 81.424720528672196 -42.519602745022766
101.660293489496595 81.641222448400384 -43.358164439732938
-58.635704225551038 80.414406546887605 -41.541640590044054
-52.283013638633491 84.014017295064789 -42.048172666499646
-50.196719337943634 79.945923259882107 -41.223891124409455
90.454294700896085 80.026446602469193 -43.555139337973806
95.331247936862198 82.992572420566646 -42.089959289972818
100.921087592515889 79.977889008419808 -43.305861133644164
104.473443326839032 77.028805254569662 -42.832782159421797
103.718919078735553 81.298202184417477 -43.306118341944405
-52.427248697513591 81.508871055274682 -47.847578999901309
-46.859563763569774 79.526714663821451 -42.718166927139301
87.264284771460780 81.031082114105743 -40.585191545805564
103.999077497675373 81.334827174629936 -43.715339320800105
102.310965573275823 79.603914541355849 -43.308639672979453
103.658103668050884 82.590708281762375 -41.717963514797596
102.867229826577457 81.037264440803341 -45.612333535491381
104.085860916878360 83.617906099604880 -43.453875312770748
-46.935594851422678 83.856116362567832 -42.394219795259247
-50.901604019292009 83.078083307259419 -42.353173311561441
-46.671327956542697 83.323781097981225 -44.590562530809542
81.994208825526641 80.929591724614539 -43.261523939871765
95.614212796141743 82.022613522296410 -41.856932102820778
99.745500160366007 83.125606835551537 -43.441724540622879
105.349464231378647 81.423391047640649 -42.691433330361619
106.292307163881844 81.397106674449148 -45.062653765010580
-56.429630572949939 84.458974633331920 -44.108922432628994
-57.105858222869031 84.121847783879687 -42.061071924232188
105.020309430083827 80.081939974918072 -46.146100235609744
106.521837171140334 82.872063190244134 -40.611094318731332
-59.099897267624264 85.576853361331331 -43.580210964472386
85.177165040825642 82.459960634521380 -43.473390290683383
85.143061556176391 82.709087999986963 -42.755573124919728
100.290430297492989 80.533175781714064 -41.811829387491791
107.034728271155259 81.922771956226086 -42.688189345083025
-56.071429349481960 82.441698245541588 -42.881802609384970
83.395477862750781 82.670428414302890 -42.400712869410867
88.129060655698765 81.907802293646569 -45.144839016521026
90.095398940179379 85.435282577916226 -43.619276096878473
93.952509365291348 82.322223869077888 -43.856585794197521
102.188720868990757 82.182663549165866 -41.550680539027397
105.430475095947486 84.724884769925936 -43.549615237030736
104.154535290072033 83.922011784279263 -43.229131309020289
97.008602421744428 80.358250382976337 -40.706039193524440
105.128400162607676 83.528792685224886 -42.411056385227084
97.690698806687166 83.552392633403755 -42.115650075323146
104.166890371327696 84.472048036262478 -42.920395671420707
103.106740667661555 83.997967172254505 -42.052798011436593
102.132397581280330 81.484954926162644 -46.570144889977733
104.765286038041026 85.232517933822265 -43.639913985444039
103.985688159491872 86.162053893949974 -44.475860357451992
95.242523080655047 82.910115000882470 -42.246195795401668
101.838095448485248 83.137336410410427 -43.108314242909479
103.849488500286284 86.875814118225648 -44.220459186630492
101.544681697075063 85.122514305816722 -43.116502421530988
107.207146743672709 85.063932622439708 -41.417617300968971
102.405819141339151 84.231610118547721 -42.780057742352916
106.259466801312357 86.270832721745435 -43.924822926547407
104.744215449579613 86.093356023592975 -44.538580883127331
85.453775168634920 84.881407118548594 -41.395811305520198
89.290308773572676 85.576687324693481 -42.673047890195676
94.552607130768763 86.058222884358344 -43.361071423435064
100.269827856424243 87.589882241061758 -45.314376874834934
101.518660519228533 87.671283059214161 -42.058844026408757
101.770533676421124 88.113696179471887 -43.794972528146708
105.269000726303474 84.825859745670456 -44.428150342569616
88.133058108691728 83.345114138066762 -43.906871211940604
104.566118789702486 86.180842441223888 -44.164095523264749
86.047415850501622 88.246907843798880 -43.162345471654270
102.723709982443467 87.677660841445913 -43.733350841618886
107.103752737772808 86.256405054480368 -42.558606198578694
108.575083168408838 85.902960740251956 -41.815153858669312
100.744912850262324 86.513537541840563 -42.698058700260468
94.694561281607946 85.840755904001284 -45.163619323371854
-102.965572623395389 88.540936090748644 -42.374172239129429
84.031013024146347 87.750413918597147 -43.052279453241020
105.544916049157550 88.053035903485011 -43.198486673984767
88.543550765460807 87.775897226556239 -45.794831295027848
97.291171057474301 86.893221295155769 -42.688593937577821
100.870119257776949 85.790676758807436 -43.649226278738723
82.294942880498567 89.808742899413389 -43.715924479003128
92.562097396076737 89.875948584487119 -41.491009552557401
85.782144573897995 90.833998879544808 -43.685008473368065
101.232246469798000 86.189281395084464 -42.858643331310248
107.411917026126460 88.643446158868500 -41.422054891921910
93.724628790294574 89.370169737797383 -43.628060977337583
97.670970160726000 87.974939977224793 -42.720606746072264
106.789952208437526 90.884647458290459 -43.060990900690072
97.054652461504972 89.455155035263331 -43.157520527484138
100.403450600037360 88.648325972217066 -40.878761302861214
86.938660672418109 92.323610421166151 -41.614476749421314
100.381121712173410 90.274939885119394 -42.274686467444518
91.817246351496792 89.594619102759751 -41.982783844692058
99.843555036682659 90.407876149476124 -45.835554627569984
101.979074721342187 89.369249617916367 -42.947435019224784
105.017371158423103 89.204601280885058 -44.578903223470597
84.952795936171484 89.749318910654594 -38.899144609875385
103.452714164043485 91.763964052819318 -42.791727740497613
103.238784713392292 92.539860574160542 -41.725041305777516
104.758248094845769 91.599919665277014 -41.718807822833504
-59.051672178747083 94.247452154362634 -40.027530474408522
-99.887675862123160 92.006820190720333 -44.399676279938369
87.118459612517626 91.020018152668811 -42.598988769903592
98.469284201650254 91.382856259315574 -43.583588228728068
87.553225049373950 95.535774791414937 -42.599396036657808
90.775582745460184 92.070619365580328 -42.117298624000426
91.432616552552645 93.433510433580224 -43.844294516445949
102.489515981776250 94.686949428480403 -42.089654945595790
102.490349357441872 94.023641611562340 -43.665407408841297
107.546124812404670 89.681825180539192 -41.267233617571577
-61.674003559529389 93.645941368317978 -45.848034004079018
98.589015972905401 92.850216494001145 -41.851412308832259
101.249755565510497 96.430844805206760 -43.765317372466512
104.689759418237159 92.463011149251116 -42.554091128705188
105.560432799207746 94.052274545242042 -41.836112316289700
-99.943363990752673 92.617416344715437 -42.873969805022654
103.953013182315900 93.797699691133275 -44.471707175626094
102.707723046081341 93.844039110485994 -42.476026310069372
-63.042147459123484 95.610730084794625 -42.621043882432559
87.853319818438393 93.999943905160265 -46.646043223951324
103.220801275347398 91.414028633592324 -42.071728503968679
105.150241568724510 92.967563157694187 -44.715345883944465
-100.058784127565161 97.302392258216884 -41.660617439307885
-66.261286364624439 94.278963049982579 -44.732080780979366
102.371266248325384 94.032332068889659 -44.321428496717672
100.619128110341023 93.811363667984367 -41.288408094011274
106.491555468348167 94.082408433960680 -43.867750710321616
87.952820446366971 92.106113087616379 -42.436945530384364
100.992848317758416 95.189208476498891 -40.918118151892273
102.521951732041771 91.497074001143446 -44.467770622770281
99.043542066882864 97.675148147950253 -42.385681689251363
104.312952350947697 95.255556926887294 -43.616586310792698
88.666526116874593 99.032900826671352 -44.072352559681235
90.741158496261519 94.413911075587919 -42.004559889831896
94.093950324045821 95.497233627857796 -41.198659806767715
90.821893564414864 98.049894764870558 -45.501966042305270
93.273181802431807 96.529926654415732 -45.091768446906535
99.185057396600030 97.763120064703429 -43.774389090192599
100.854444968999303 96.204419038065282 -42.688054721223899
89.446681011052533 99.327988527862004 -45.587791316188166
101.545713406136528 97.456266281319344 -45.535389898370859
104.478703881037774 95.957785308155664 -45.173741822978137
102.699014349089566 96.781179245841130 -42.037644548623071
103.177654207328274 95.811792750586349 -46.120115781155249
88.871750593336301 97.624085324437843 -44.031589934870404
104.275078164465825 98.840660213450619 -43.001605514589542
88.379803555828587 98.226843760387624 -43.432348322405410
94.089124629256361 98.048878958396187 -42.724738227719683
87.002959061145091 100.239997392980570 -44.460495078365490
91.784442877947583 98.967373405951577 -42.069670017984834
102.533841917810093 97.522849704340203 -39.868933494747438
103.927530016672293 97.306288445390592 -45.966271931388818
95.956596802410843 99.905640998042230 -42.290087602624922
97.029322905304909 100.738294452806088 -43.161386031257557
100.776430714209866 97.368671214318681 -41.833742554382660
-69.504393939561311 101.162031028698664 -42.446987784205568
92.098639113912327 99.651376908032645 -43.659658386280086
99.791199970533981 98.661457404512390 -45.296023532822254
95.876805058161167 100.409725298062668 -42.926549643177545
100.664053104436618 98.389006696880628 -42.933975606778020
104.221176896022556 99.009167390985340 -43.808549596152673
-70.193194887967138 101.942719618453054 -44.057908786170330
103.877770956914503 99.199235003592307 -44.251143120296305
93.452256034445483 101.162787907487967 -42.483163398964159
97.253507541884645 101.057952984153047 -42.640305768486606
101.743920424036091 98.625756045972309 -43.055043141908463
92.481272479904447 103.288934032726274 -43.077004254528553
97.980364600882496 100.017139310675418 -39.659858043044501
103.241706408033394 101.368754221518074 -43.196792718532784
-99.350436196473524 101.419179417906705 -45.004945042560863
89.709296513179908 100.650542441502992 -43.436195023569603
-71.502743815648259 101.992788940704941 -43.485104537574351
85.268281700387305 104.089851872569142 -44.168562506766648
100.816919287061225 101.414510614690926 -42.785324366846780
105.398593040636570 99.871043223449533 -41.911424313930368
87.190578672275961 101.101328794228209 -44.154683728922365
91.503089905837896 101.999431906450056 -40.757200944364008
104.827254043171152 102.288588665665884 -46.423050109724976
-98.590618587420195 103.349786672225932 -44.306792421496020
-72.241540061724393 102.605319141317111 -41.649109193352487
96.099301064006937 105.627475702832186 -42.590710045240790
97.072057677341277 102.047834086102313 -43.713088556043694
96.170925039894385 102.715005309155089 -42.562745841931537
99.046734874022761 105.744299965582414 -43.020333961365992
97.247614396317317 102.176791858195188 -43.045541423235491
102.321841557396311 102.755701205521689 -41.009265517770253
94.533810035321068 104.862699702050421 -43.199850841607052
96.746887301513340 106.408919427797741 -39.808550110787799
103.126928973117103 102.563405902423796 -43.621671139776936
-74.099819391700251 103.851716004809631 -43.656033238447520
98.477975082884626 103.811536104932188 -42.132690859547459
99.828240950362527 106.669051649387839 -42.076257919004703
87.398433746567548 100.901724540576737 -43.576368411722157
91.367537866412917 104.613915456128296 -43.860788579895491
91.897376572561484 105.325403732015062 -43.086994089237969
99.943029096710504 104.361738131234489 -43.396453991884030
97.723410859810599 103.624977393102085 -43.581017038835448
101.772447509540825 104.937214471895260 -43.623881804413855
102.032031584973893 105.052405504274560 -42.872510032954231
-98.738987758248101 108.086504861662860 -43.313428310186104
95.270025296101949 108.170087061831111 -41.292872736109572
101.019647429080891 106.955061544475910 -43.514344146796986
100.127943842353218 106.163978443560808 -42.078888892491982
-77.993354249607094 107.379147287368028 -45.741393187995143
94.791266289867039 108.444469696754894 -42.690496694021164
-81.064998378615556 105.898927236386584 -42.132596433624443
-96.611764741359380 110.381962468705666 -43.929347621587958
89.091824418669461 106.898767123154286 -42.596619496859780
99.236850841091822 108.687378065101257 -44.159851820756863
-82.511790000035873 108.664442291481578 -43.573609034033034
92.023929244126379 107.509495451470841 -43.616097726584393
94.766189794229192 105.978702064793538 -44.226365158004860
97.781434741211996 107.760027952718744 -42.760297739742349
90.489375651053223 108.959601634575634 -42.106439744284287
102.366238543426633 107.441359694463500 -42.015455169771691
-80.702295329277661 109.063801083208773 -46.566720347945697
96.777504020371836 108.947754719860285 -42.412562808447383
95.892008722223949 108.918896600254598 -46.211839086011487
100.297721760940377 109.712562898529697 -44.209586968589448
-83.388874903384234 112.807927128728011 -43.550257405244004
98.713400964969821 111.816127784064747 -40.936847194727648
97.884927028355321 109.068303406179666 -44.802192219463237
-95.565035126565078 110.329141594764636 -44.633629382040304
97.269713252186435 111.234101302786698 -44.046595053754992
97.290957498438814 113.631849913331848 -39.536947955667699
-85.628150238502883 114.132960029397594 -42.838764749375308
94.596152545648650 109.561182854952875 -40.816134161276551
92.460945589163458 113.647130093860298 -41.284820765830020
97.334767006357097 111.792346884067427 -41.142600901160939
93.191464528838878 112.482686860261992 -42.377397979170290
-99.463039074777171 114.114740360060665 -44.659876958845928
90.487990063585812 115.099355517760301 -43.735760357229232
90.228235740149913 114.676513966565125 -41.172419693203011
93.645666221516166 116.398646106679621 -42.912525053458687
95.930096277406335 113.144950721789812 -44.778036509028610
92.142410157798196 114.568309963818166 -41.755790041356526
-84.726122872276960 116.709117616497622 -45.023006988666502
-91.340264393899204 120.094888393817669 -43.862051048496369
-91.348470416591553 118.210481533776544 -42.472690514770953
-76.656387161335815 48.192866180746122 -42.994797160700472
-74.035075294919864 48.562964348742966 -39.401529627108488
-79.226258470170833 50.952067008951275 -42.069090402350952
-81.197520797377152 50.333894938203450 -44.465893259050453
-86.697506458248540 53.411073033754306 -42.105824830116816
-61.767981287665712 50.857164080606303 -44.841683210607634
-58.598733914704475 50.489998083256580 -42.706506069742503
-51.383653099781988 50.489695249403965 -43.569826453977960
-62.771174509050049 53.096955581729986 -43.972375502640539
-60.375664308737335 51.553894741933313 -43.291385245618009
-54.478620119631771 54.409565436096962 -42.458272715974317
-51.976523255429704 52.955207685257768 -44.967864662223597
-49.960536743855414 52.319166221704286 -42.504071107981105
-88.889156903104535 53.795778096296303 -42.950553932391372
-44.268843751637995 53.352430619468031 -41.826777247504211
-92.282796499273076 57.114995177168169 -44.589177503464896
-92.698543296492375 57.376517565924921 -42.434516533326516
-37.589618465386664 56.686575972455074 -40.428316306191228
-13.691383128633554 57.414886834589538 -42.261754727423877
-11.756393959335099 53.589778892307791 -47.491041327331331
-43.868985409072700 54.942957739628071 -41.949174727499027
-36.036719369661050 55.528606678607829 -40.397809237524285
-17.788239106357651 58.144471888983105 -41.348458033112230
-17.188588249581205 57.708952349328001 -42.483553487395014
-24.338163174377804 57.682102904045699 -42.696732414527503
88.451989822786089 57.554752031980975 -42.476982326744547
90.872969289922310 59.732302018475600 -44.222988478710370
-11.350806459297020 59.884642268142557 -41.672712692057353
-8.595872681319603 60.633546349028052 -43.676726955688913
95.932952762322643 61.394760552646673 -40.831837272864981
-96.623248087897764 60.429069119842865 -45.668109208111730
-96.726170934135453 61.725704711537595 -42.822968005956824
-13.584026499837384 60.501249932890794 -45.742772746941561
-15.210564021746794 61.188532526567954 -40.954793747519112
99.885721668338817 62.069918596033993 -44.137381233051556
-16.734618953119199 61.623085832212041 -42.151253952554953
-20.145056318946267 63.955183421551979 -42.225492245370482
91.758705091492303 63.953821908680119 -41.995284848565518
103.286794593627903 62.226997783647867 -41.752164648310320
-26.336431522616394 62.508966900343154 -41.497810645142138
90.480149006292706 63.792184590049779 -42.891200691829546
93.695485657345444 62.836635357683207 -42.292908635859682
-100.818645503394933 62.374876416422836 -40.902063015860776
-34.362757242930286 62.510848219453131 -43.220144225392460
88.283237265395712 63.666346472256876 -41.455551599851105
88.974396387849254 64.610935482182356 -41.495346023890171
96.735688007055160 63.236765723635997 -41.275139545637714
100.230030068482066 63.222836592127969 -44.958236012602640
104.134421393405788 65.789507704202265 -42.479301803870598
95.646035660501482 65.201954661466672 -40.285412779788714
99.927010329374255 66.845746540104102 -41.862401339278271
-34.036931420097773 65.148536038716799 -40.623343342355426
87.969565594207694 66.255336932711771 -41.500643547554709
88.396610104165802 66.594498384576582 -42.746068491260878
93.068214056452476 63.323941273031835 -44.266189636660322
92.677790338934273 66.154303032601959 -41.139146633847929
94.990064519777448 63.323440395472979 -42.705231054635398
92.076605915860995 66.127650927092390 -40.878542231233396
95.494909931625529 65.678633894738311 -38.853355031755868
-37.696708667521726 63.772005622358257 -41.823836337676376
86.119137328218528 66.585952473237029 -41.919315124648321
100.117019423474019 64.348144143037601 -41.810085522703545
104.570829920232853 67.123340924704735 -39.862520995351339
86.485033378792949 69.140228924403459 -41.601947397147114
93.329101020854409 66.516607528120630 -40.922378255253392
96.335462053615217 65.683619718774622 -41.758132824727717
96.268150760099431 66.091962307564657 -41.917248389243426
103.521783214314055 64.269225106774570 -42.684586707170553
88.530808049733366 69.261061772838104 -41.749983912942277
94.094128780765203 66.560305822401716 -42.633718355989117
98.042899342908868 68.394431114725975 -40.544965770696912
82.544820153667189 70.987507876074261 -41.317155580076530
91.524057640951909 66.761587828269242 -42.797198400409904
92.566194238600630 65.931082257393541 -41.356654988575514
99.674483789275314 67.662373625854258 -41.149156834006043
103.555289908148936 67.022736353415979 -43.895201685203425
91.562707446175423 67.438904789498920 -41.929670179779983
98.759181314648771 67.694391575813498 -41.378281819069912
103.647921406248187 71.022629638803537 -43.528584568775550
-37.232734428297093 68.796355781847765 -43.660368868443832
87.484461440795457 67.259694433721009 -40.901983448785984
90.767945408483769 67.217072986622227 -41.012609682956381
104.517899055268146 69.808849314976499 -43.942703687533964
-97.661827854453449 70.154339521160523 -40.366449473432603
90.534602084055038 67.867971281136363 -43.875510936285771
96.729083514081594 69.328561113123129 -40.394692281773700
99.069947421996687 67.601811498255032 -42.395067000411629
99.821562127128999 68.052371462890392 -42.163391485944125
99.318592016293792 70.258370901723140 -42.029346032418985
-38.468044120123714 70.521691100974849 -44.169363137794555
88.359804483216593 68.257364329748611 -41.677290886506675
95.471084890007290 67.005751181063602 -43.060250908630188
102.626992734768720 72.039826260303215 -44.372539929353223
102.984883298498914 69.008701551833113 -41.355073563750956
90.724220741060705 69.878698151531481 -41.180763613980297
105.806890317245305 69.398861551302744 -42.254080843841393
103.872992847595896 70.984562368596571 -40.632483700997824
-38.213359531476193 69.006819622378089 -43.334396702131258
87.318583597406004 71.075823117392915 -41.026481890345259
87.209503745922660 70.620447771106768 -41.890399438377408
91.402644004589106 72.018302606477548 -42.758214875012584
87.853774533481982 71.458701770757145 -42.417892667294673
101.312980579057680 72.979641494576640 -42.913066283580292
104.288937917344640 71.358533457746546 -40.441591260133904
105.550354074874946 71.475902666806391 -41.934662312174346
88.623734829825153 69.859120273235291 -43.481296879896107
90.276251338247960 70.776478900418738 -44.649840278098601
88.285397132855039 72.643291014183845 -42.917237761837697
91.685663063190631 72.056320429565361 -42.455877493268531
95.731453059635811 71.661385021794061 -39.735741525135730
103.996851361548039 72.562004009113735 -42.320157434927751
92.720226614447583 73.115682052375803 -40.278982525995879
94.741791963842445 73.815666809119904 -42.732467651459359
104.930801168936284 70.928973502152829 -39.986889319331866
101.812682906150897 73.129981731975192 -43.346848692262036
94.145847036462143 75.328183459837007 -41.647768083711846
96.873611491961711 72.295180266583870 -41.127665733554828
102.064025252967028 74.728945504281498 -43.355695408672759
103.330794027577838 72.036875731433810 -43.389805529450030
89.306032305672531 75.183034625791848 -42.161263590701253
100.280512130499275 75.324748381382875 -39.090988191698372
105.642428060447386 74.419335578073699 -41.428726212708007
-40.559090126372126 74.986776537862184 -41.816113384750601
89.061579153102414 74.451475404957606 -42.224217495412724
104.907318823498599 75.210082928156964 -42.644233788514057
-39.298870773075578 73.000856860350353 -42.328066394929820
91.824608106872191 75.919515132407000 -42.420157530886542
104.939281068920792 76.293968654877062 -41.395844495035277
102.638592696112283 74.899942880240388 -44.131103402342049
97.053420081213986 79.950517034743811 -42.237827705592075
103.716189294568252 78.197281073941085 -43.879866518406729
104.591065980772669 77.485315584972554 -40.441337533672986
-52.255554928267294 76.909513276140942 -39.871977068098893
91.090540612332376 77.717460929462291 -41.408145352768869
93.269276445336288 78.307881848853199 -43.168950888290212
-44.959242594471547 78.136689162969816 -40.285045703729892
91.718668724451774 76.269821838985536 -41.482635782176139
104.805532181236387 78.174061631955936 -40.434028861299453
104.131626811481524 76.357389056699290 -41.397618622993612
-52.978571461749695 80.726534168343804 -43.224930358483469
-50.701575235793470 80.891871794871918 -40.034910722588755
97.227902418217951 77.750115834041907 -43.446467134993519
106.179769502273288 79.533924240485248 -43.777102370525832
-101.603048600299545 78.887313822743636 -43.236052596735981
-57.256348969356139 80.455344105452809 -40.757564990450895
-52.505773274114965 81.801252436244241 -39.826272852792627
-44.284482547598500 80.054419501099588 -42.552234342780707
92.017970442876646 81.806749123653503 -42.344537919318952
92.975335705260150 76.971872533041591 -43.554351432175643
97.580743248912029 79.090940134881563 -40.852604730001779
-52.591294189734747 79.731742491085470 -40.103413203659407
-47.988527735797156 80.799828469870107 -43.530853594570281
89.449818222981548 79.775713724523598 -41.206087167372829
100.299558538552688 77.411434299471651 -40.512896438400169
-102.342977913665450 79.978964709998877 -44.301401141675200
99.262694640839669 81.440943834416345 -43.006050106902912
100.703929767770006 81.232226103029703 -40.487467197953428
106.538252056524982 82.507844911005265 -41.892395910650272
-97.490030325650096 82.224311334309206 -42.956341055829434
-50.577652481543737 81.285100120139631 -39.520251719722630
91.632798537545412 81.821824190673496 -41.390765142470464
104.342605422296032 79.357085942337974 -40.161817991885449
94.371539778647701 83.142876961681708 -42.911372891653336
101.245477328814417 84.486037739591950 -42.462077053085373
106.597993698464066 80.806124281164699 -43.555319772207056
-56.601109233888820 81.202485615730666 -38.690698149468602
93.816194244845661 82.231827197355329 -42.138802605090881
95.536379553475484 80.271847257886293 -41.655553510142575
104.752424853372744 81.996192030936072 -43.049577849225187
95.423810836366002 83.664076410337316 -44.609806754962165
100.230648927736084 84.839663102310212 -41.469186901615053
102.848170250231206 83.854986130485614 -44.861371643449885
102.249351807040000 81.085002964788657 -40.923502320746138
105.006396028737299 84.411174215137663 -42.188318843480978
102.978480038282214 83.616161390720691 -41.206338828589899
90.238151740127435 84.541670486475979 -41.004921000557488
104.626381126497265 82.025324687597603 -43.107259462328493
104.675527725229557 81.616305923720674 -42.013614993742813
94.677239406278375 82.828968980441587 -42.004843543777156
98.878017200996211 83.319516278699794 -42.651844342362693
106.268838197410091 84.417551822415234 -44.628565302441920
106.772547855714919 83.305168931426735 -41.723853467750779
93.314939508881437 85.488566154274451 -41.839659212208559
100.395542687922742 82.211262375813675 -41.407970644314858
101.205847373297345 84.746311032290549 -43.127958784492343
103.903809370509691 83.393204629616662 -42.762735722712414
-57.183888753546611 85.508179411489451 -42.970289219625158
102.588275113226231 84.746535881808882 -39.494946104926115
103.559241190575975 84.133137615532931 -41.996921081169987
-102.301072200292552 84.100289129051461 -44.900576202765862
102.299144494844995 84.434828612522807 -41.825958904058417
107.530896627189193 82.884861862775153 -41.780314260457267
96.799917975123421 85.763011150833719 -44.499722094110737
97.238497654781696 85.577855877617992 -40.611390106538316
103.616690581515599 85.176317392256649 -43.566767842462745
99.455369480987727 87.601735855127671 -42.945522802307977
102.304942932789274 86.472781504836433 -43.846370910104092
108.245363871859851 84.965542973564325 -39.304077574225595
108.983695751798294 86.023834561223481 -42.423586050967479
95.037498721834140 88.219523200215107 -42.633390285225914
90.295652730086132 88.091609003566447 -41.841979803491085
100.231459076040750 88.516057830870523 -39.702012966080183
101.914378162273621 87.805934938073491 -40.774757947971992
