# This PCD file was generated using the MATLAB® pcwrite function
# from Computer Vision Toolbox®.
# .PCD v.7 - Point Cloud Data file format
VERSION .7
FIELDS x y z
SIZE 8 8 8
TYPE F F F
COUNT 1 1 1
WIDTH 798
HEIGHT 1
VIEWPOINT 0 0 0 1 0 0 0
POINTS 798
DATA ascii
56.427017714311930 91.989708541289829 -68.768702618521800
-67.174524913939507 94.616356057881575 -69.943766644019917
62.758421640753340 97.238888499321391 -74.206697998960919
100.378131980950485 93.540557031812469 -72.050923354598467
-63.682642550797503 95.975537599508826 -71.628877344759047
46.817735597593433 96.807350716315156 -69.810198013528762
69.226152849646184 95.617815791936152 -69.437211017376313
98.813667106608065 95.880097980182924 -69.515685662459362
49.395725113879664 96.499835676094122 -71.136370680943728
-63.503632341793633 94.966261431094324 -73.310449490447155
45.976048559862669 97.399822949044150 -70.419624878855331
-94.353404394280460 99.154780869795900 -71.978363213691850
70.357744672546701 96.845386582817426 -71.959129649351240
98.541366329849922 96.652996392765502 -71.831954341940758
44.647223603601873 96.401771854711072 -72.353035748913484
55.827083487146957 94.374314312633658 -70.266945483697000
61.239472557973578 98.724521741077112 -71.109293074999613
95.470059744862041 98.888824149657069 -69.190828436211547
107.352215650072381 98.310355929017263 -72.201826502239996
59.422686423897119 98.042927115211185 -71.368677100383067
104.840936532719311 98.050186569267055 -69.592346525273385
107.422601713737336 97.625566838935683 -71.046609201478276
-94.455672164313839 99.111356995008123 -71.440644864544538
71.450892967833724 97.916269723762085 -69.301173215713746
-65.038109801659616 99.360111898080504 -73.638387299910434
47.196534724808949 100.098974837552404 -68.305087161010647
101.276087949391567 100.188025861295372 -71.164929840690903
75.089018307245169 102.491231386132654 -70.905145587011006
97.218415503063213 99.850165879326724 -72.786209861223853
-68.988565558278310 104.658263444895056 -69.677989044808243
40.637849096121997 102.881878217071332 -75.199881137456472
55.988651696521650 103.328668346530065 -73.327418075551009
58.019754667957962 99.607286764875568 -70.942492499564409
109.432148153399496 100.197749134418245 -70.628022822041174
93.681922424915967 101.499192059736259 -70.056637816935421
-74.783845319183314 105.003593862034634 -70.481202196609999
-74.613873353997931 103.249213499706258 -71.544423756131124
45.755045359711893 105.343132495649755 -70.117620583695796
54.748486082102296 103.656585797119035 -69.230574317713646
93.669390069738071 103.114101483266154 -72.353045283635211
104.476928668192841 103.513862477556046 -71.060304929838111
-75.691877723338379 102.899034835299460 -67.836222748115702
44.636048730236190 102.821312591338057 -69.816921390323600
73.790406898805330 103.200525442716554 -70.502952632210210
81.873908593333681 105.099503549211988 -72.072244199547384
101.357344104039953 102.840654985662297 -71.969556896961279
107.540045193005298 104.861160045383485 -67.118898095744143
-95.357900761396294 103.493975596110772 -70.192374684971270
79.182638411894771 102.118079862409871 -72.329151996932126
80.484199619393735 102.740312468598205 -71.867469233390239
76.018504716251584 105.318863185114637 -70.080400926662307
79.372731671005994 104.036847989407548 -71.113218231934212
82.111623729838769 105.833026590264467 -71.279386058313136
87.810047389371519 107.375067584511157 -70.848351488622086
93.642926027283366 104.575998877500609 -71.148690638593422
43.511825477096295 108.280613856491527 -68.973852526450685
43.896576260108873 106.078381895338282 -71.869945716203432
53.574676188601046 106.258362488012537 -71.958813166926802
43.018107823205710 104.352442165337152 -71.658779959012136
87.317557249973532 105.576300256020417 -69.833497428022000
94.808768030274450 104.036291600703919 -70.253718965066625
103.225894292732960 106.386800893871296 -71.162654519889415
106.086758274138276 101.795407927144140 -71.425783618187282
-94.423864317511999 105.230616969150759 -71.475265267012801
42.194212531349457 105.408004480220953 -76.661227235714534
92.278624455550457 103.112607733485603 -69.565001011344876
107.456511691536079 102.477212670100883 -70.412597680348838
52.080957427440183 107.354854164814682 -73.290052913601713
43.173989016134755 109.248159437300572 -71.050337009669903
101.053102176998124 106.021963880307283 -68.271728003782513
106.519223175804669 106.712793193754678 -70.344646665585401
104.036062387730340 104.204757355768734 -70.169717818897610
-85.731653813204957 107.065838430568391 -70.378630271179844
101.995874777034828 106.537558287348332 -72.504185931448632
113.199710077436521 109.258809135712113 -70.603359524605551
-83.247705546332725 109.409817605570481 -67.197453973299446
40.359906355348564 106.979736206772444 -71.970046104067549
108.394960968179205 106.328032041801848 -70.014362720456560
-97.418895162107333 106.543946915038902 -70.362743115325628
104.818371257647712 110.289307827863212 -71.142282771002670
107.118859460254157 111.241845888153321 -72.665188273603107
-83.915890161341665 110.401114310919027 -71.448045233924333
42.363636708475333 110.544601569965053 -70.130550286952101
102.321782683975115 107.979396703202937 -68.171498021438182
108.506415947098873 109.463685240787072 -72.581288932934100
-94.209460741283067 107.219678447040607 -70.273147673150376
-84.224436965851922 107.508887788532519 -70.103185925403110
37.930086792856962 111.012406188660577 -70.336734505352567
50.968870250789003 108.657671361850888 -70.769611943480527
106.350296394658585 108.379323589221130 -72.675848293444716
111.658968404790599 108.522804015536195 -70.318066196786603
51.819573426830665 110.559950749498668 -72.220937207539563
51.789520576807206 111.815243251027653 -72.908748855910986
37.989313174568572 111.234390210890894 -73.738001055767953
-84.607392395539293 112.766558809305550 -71.283884280566596
38.235644657071404 112.405830133628555 -73.216646366373794
48.451977535580518 114.617752782100212 -71.802110093485410
38.180814611042251 110.762631575567156 -70.099691455317569
51.799231008817770 112.401261557741435 -70.532257351120194
49.984385655886513 111.311904353723520 -73.562261212328522
110.842413695580447 111.932795099058708 -73.521970001960597
46.603847733736885 114.125103123029348 -70.929159668131092
39.622254000232381 115.230293435409294 -73.592640581183744
106.588532999713095 113.605512658772753 -72.881642638913775
-88.995252711854121 113.950502578710342 -72.329741213400794
49.528215838334972 112.598694122601003 -72.227084747023085
47.125261938699730 112.581147878771304 -72.129698032849362
107.326233951568256 110.444979322645651 -70.917960714178506
105.630536893415965 113.975462022741638 -72.417433622876018
36.481712352630474 112.481818579153000 -71.237326224701164
46.689304855595253 114.187310397145353 -72.618693120338349
103.154253531037227 115.182000504790508 -70.477707517661074
112.140123507996933 113.589066008967293 -72.604976944296439
-94.441740670488713 111.288664304879447 -70.464896902283300
39.084188004870185 115.769888193598320 -69.284103289699829
49.550154939147902 113.447437114850530 -68.572800628608846
106.401001039234387 112.045799787054449 -73.908681279219465
-96.756821239419054 114.468596751158003 -70.440439661319459
37.028652826528933 115.434899150693568 -70.993145818846912
-84.326792768884346 118.029094182990121 -71.559570865906764
104.691950828881133 117.373829130217359 -70.046919209433568
108.270023107544233 114.415414297059982 -72.836881911324269
-95.814811232452570 118.772851021783850 -69.299467672669934
37.498758931833216 118.386449594133197 -74.244926643425671
45.019330990222208 113.529525420600194 -68.851823893925641
48.205135223128195 117.667489517372516 -71.920246769047992
43.681391744480777 116.888753646749464 -72.089100921070070
36.265841348916339 117.716410807408977 -69.799544945825986
114.015895204800174 114.263488259301923 -68.558757042850047
107.599374015147177 115.410416125705666 -70.652360547416734
109.893398647928237 116.348995177451783 -70.133076978987333
49.152385577612442 116.902468070996420 -73.021040525479251
108.037185428252641 119.902678216946569 -73.357049954443568
37.204052251827591 118.305326144972767 -70.309198637536539
107.133726774551974 117.612926892216080 -69.376598996417457
-92.502009774899378 119.810358303297221 -71.380851482758331
-89.205745592841041 122.443890045676440 -73.364489248549376
31.659805109894034 121.562204417545260 -71.077585599156137
49.436714239113762 118.667969387394180 -73.535403823600447
35.643160442526401 119.178261350502027 -75.079200912413015
43.275565676201268 119.052753182733397 -70.820519455838792
116.757291085012568 122.426108984918258 -68.871021565858541
-89.543070961531399 120.358872079279962 -72.635188082425643
-91.509884862098247 122.892300394335294 -72.213184311373169
32.874094185951961 119.495773089754238 -71.321888342957024
107.521809477920854 122.117099215083911 -71.181092276929590
111.705146860566444 122.476366723147152 -72.691726197286911
110.962869569300580 124.524405162708916 -70.830709566084408
33.433849356322675 122.483799891318611 -72.645283902824929
34.562515354399743 119.556491232252341 -70.125115760182240
46.275308918952653 122.067139212013259 -72.136273525408441
109.327306334570920 122.116287029887701 -70.250918811205580
31.730018594729156 121.780475383742768 -73.939776230375045
42.010656239127542 121.898205503815177 -71.635215770400450
43.753177707168248 120.594231549949242 -69.813607349986839
35.213697374280713 121.969497848134964 -72.495788499468702
46.134985705363768 122.603835982188372 -71.769892037606766
40.992288839451582 121.933738495815831 -70.556918430095834
105.539345228448212 121.634294583564170 -73.830439835441240
33.510677806942596 122.141512991973542 -68.845075567665788
42.388118317563070 123.452141755499738 -69.439752245906220
110.037838163528676 122.570336695207502 -71.134130317029999
113.633748948407188 123.163096663113947 -70.876305912899440
39.031291478106525 125.695302536676181 -71.148582405880816
109.549230202197691 124.927634514105307 -70.438442629466053
31.688940208250092 126.477514195386604 -70.956404722511323
37.216560399348168 127.604470046333304 -68.064937297379302
41.743653626760079 125.890851917968561 -72.133882344114156
32.896264605762845 127.608516291132588 -70.900302608675375
110.500015869726710 127.071000325266297 -70.877688679915806
39.350483640610889 124.016968468047907 -72.788643146126475
42.851441070843414 122.728205901827167 -71.002137245338460
116.305845582848178 123.916718058906838 -71.693571613686800
30.153481627809821 127.267476508486553 -73.084415265455618
36.736204195919598 128.073434298584402 -70.782166813456087
113.888817611034781 127.940087286368495 -71.439551462141154
32.691438551026749 129.122127070527597 -72.341443658180182
39.013225808103392 129.731148088874221 -70.105161810384814
42.942786867778771 128.751261994001567 -70.638878151004889
108.056332886974090 125.258822958312564 -70.038439963015819
109.923713422348257 128.046875472191033 -69.220965411190065
113.734521623901855 129.005409309949130 -71.544052778792064
40.778607227069436 129.806924099254275 -72.136074780646979
112.065049930879113 130.905673294532647 -69.356639122980340
114.832889980652723 128.261606804596738 -71.352525099819744
33.225225419814173 130.357471481706540 -71.639658151280898
114.791397459110186 128.783588658151984 -71.133779114353246
115.367311661868456 129.431577281522834 -72.673906203260657
-57.376618661625727 129.141513490305812 -69.729218017109048
-55.837344875181934 131.363873261855531 -70.577384511887530
105.525459968299401 131.647205769092835 -69.985755416832191
-53.637393795265034 131.387993756505011 -73.243897234241587
110.873511603156771 127.760239682039980 -72.508110730600791
-57.066389930498964 132.478685870690867 -69.007203676661206
110.237635231840244 133.164741711042808 -70.837950962793698
29.303772690919644 129.761124501772258 -71.678143122150516
38.876320767334370 132.709264979089028 -71.045092135763412
-53.901083710891825 130.727656388963311 -68.742200790996606
110.515498304062419 128.523086941833213 -70.964365220439888
-74.150940146462247 130.551845788563696 -72.478358695492688
-49.459394302107555 133.818768316622311 -68.941922072129159
111.415503359366411 130.114661425213001 -72.117309155093437
-59.276238101263701 135.731416012790703 -73.331789471088030
29.720135671930979 130.142478976491390 -73.691397870224591
-76.087852912746953 132.692073190865585 -70.577187965306251
-75.463279475306052 133.946770691218262 -70.608491431964183
-74.939244139458381 134.671008931663351 -69.509086797405942
27.810719120834388 134.089968181156650 -70.183694508367523
-78.073237305837139 133.210905310116345 -70.113812657691639
-78.357087464639619 133.346392065532427 -71.185799050284629
36.687737017209791 134.450669338708593 -68.657426685311577
112.851242115928542 132.336137554063441 -71.357925827512943
-51.638425050977702 134.653491917559165 -72.494835563176736
-74.144062564283132 134.523880658459547 -67.396367696636901
31.961306475132773 135.880374451068832 -71.912185690068540
111.001636236258790 137.820296704720448 -70.743843197990159
112.974381765630241 133.840211948518260 -72.127573116521361
116.606566307470715 136.376287400197924 -72.775962882819201
-54.523568378432074 138.751626090579720 -75.136291010066316
118.035570889161377 136.793695906916128 -71.919760860713268
-54.158237130353619 136.533785847225602 -70.070945379728400
37.933995932775012 134.195848493927599 -71.025794192466662
-72.396072391213451 135.246077271921308 -70.551838680078077
-56.570473455268868 136.545070624626590 -67.433667455512548
-51.689675302146782 134.266793087224414 -70.821919954164258
-48.322411327565348 136.892360084073147 -69.552231913859544
28.297793592118918 137.770521373383673 -68.316105714994876
42.497704197622824 133.654372657195097 -69.001747770691821
111.395971813802973 137.053409219454977 -70.885496460378931
-55.568086167248339 136.996116206651806 -72.490294967554775
-52.962683039257087 137.746205096518850 -72.464809574205091
38.026954075716525 135.669134795224181 -71.174841690494290
107.168291830610428 138.355511837428054 -69.790158174014351
35.554142953303426 137.341236573880394 -71.090198307659051
38.937345518921099 138.099399075074587 -71.063614837304343
-79.369920800506279 138.071296623077188 -70.861421841172714
-70.697309413192130 139.298678697179639 -70.014810665413606
-47.819943914566466 140.152843040908266 -70.902959178449549
-48.774911624584028 138.559347519266367 -69.972156369983438
31.915360019303616 137.812626754822020 -71.043976160526626
-57.993154689332833 137.182297640819854 -68.651926512695184
-59.064596626924128 137.484593349543644 -73.714399511250164
-48.048804262149545 137.882387391549912 -69.449188044825334
-50.023152364890024 139.627857166010273 -68.992613096182083
-45.769081263581704 137.941041137011666 -71.972425851300073
-71.185296496223941 139.634970034710591 -72.794587049733991
-58.661030598258812 140.115662853675673 -70.114327031788065
25.812082683191981 139.557508465334223 -71.449964566357053
29.483971370284145 136.895497958397613 -72.437414427652371
-76.530077462378543 138.664759396714544 -69.362058206454336
115.145817390465709 142.932276791341337 -68.932277663943168
-60.364088687604387 138.777177007688408 -73.489369474392774
-45.418654663098607 141.396797315859715 -70.892765910477095
111.281589415851727 137.470656964130455 -71.431617767024576
-72.396606208740650 141.556625848133308 -69.920955575333679
39.585923233388002 139.332595028653287 -71.268160876098548
113.239359507604490 139.550732382845496 -69.982632714132691
31.926244467723972 137.940884546730075 -70.596027202816728
37.157083579521192 138.756359556138449 -70.588932206793075
114.785374670350066 139.752585431545100 -72.025860454827352
-78.577085934708563 142.765174176344829 -71.841782354937635
-70.809841370930243 142.349691397850336 -70.309988224265737
-57.221494466694125 142.829575176274744 -71.149184303420910
33.379270768304444 142.070679342768273 -69.832963157919707
-75.620986262733695 142.606091901210078 -71.927379741858630
-67.676228417445259 142.007942876767601 -71.151135273100238
30.443958633043085 141.230641147421721 -71.989597481417988
37.426390051312900 144.286108260963886 -71.157364761513918
109.175876843448080 141.689312042696372 -70.107218672910122
107.887513491246281 141.238535275464784 -75.530493431850005
-76.250363901550173 145.041462942989227 -68.170874483563637
-78.548195587995139 143.110708487012090 -70.024870301918540
-73.650880737078566 145.447798456423783 -69.637280655589493
-69.875115129905225 143.596046143036858 -73.225744605960486
-42.649264925693771 144.922874023243878 -73.594395564673874
26.363878897551871 141.450578296818179 -71.048795100525112
111.226629915136783 143.847299651000810 -69.590180853822446
32.390021788212280 143.168256630175989 -72.648315654180479
113.716135877649577 139.368579711314823 -73.150410943352512
-69.969358098308845 142.990522041196385 -70.775367137956678
-46.119916261861817 142.979552682006585 -72.738158946734828
-43.528127854982301 146.403196008222494 -70.720204410487241
-47.454931410906205 145.760318741250558 -70.382888426478615
34.026306512856131 144.831639472406010 -72.165235162315511
112.535369363419619 146.167224955358535 -72.252020797911683
31.482848874994378 148.314897500016230 -70.087512524451597
36.417842627049232 146.077034289131007 -71.730546912290720
-75.287214299336767 146.298745842844141 -70.015155935796969
-72.388176661045222 145.104008667531872 -70.899898332530739
114.599163132954544 147.690164079979127 -71.870019240302369
-42.238286705968562 147.216050011535742 -73.355625025478673
118.193025099729567 146.261441783546388 -71.689385952939162
-77.717674352695767 146.369263649827985 -70.540241005688927
-73.451343679939043 146.191117555597089 -72.102818063297477
-72.527818843953241 146.819841442678296 -72.592864433978392
-57.203996264607824 147.600555670250543 -72.603394721428245
22.989975430591866 145.238594339027458 -71.350401479069433
-70.136083584309517 146.500684111035127 -69.585108245351861
-46.838807818685737 147.987942324576778 -73.158980525998416
27.421120031509147 146.071247936620068 -71.498262545340523
34.886775548063945 148.046857037574483 -73.789802641764538
-75.892273794262010 150.476280688854445 -72.199070796760367
-43.809935476091084 147.607677989077189 -73.171282343381094
31.903438832794560 147.807867489292875 -71.961309461937148
-71.499623270078487 146.961509255537607 -71.492167554231628
34.716555659109510 149.334976410520852 -69.308128826930229
117.707996612240080 153.032121583780452 -71.746881861868246
-72.825839980598403 150.181327171780339 -70.991899881820586
-55.228874606635024 152.731319671149492 -69.975735833289832
24.333025905544520 148.525780151079516 -71.545321918841054
35.277280397353955 148.956359849073408 -69.954065963791052
-43.268969421462195 147.986678786711082 -68.602604317094276
-69.842494945306768 151.061904532825508 -69.295226534831073
-40.999230133093434 151.470539031926791 -72.969586167012238
22.621897947490297 153.677938131068260 -69.766109139999713
31.443325022825636 149.245036164282311 -72.925254808340682
109.019173374050311 149.325822525689659 -69.109341963320489
-75.531348847133685 151.043267149417460 -71.955677447704659
-65.056754111441634 153.715022320918706 -70.218109249970794
-53.211708784364383 153.493139783877552 -69.907652058946084
-45.509086405018792 152.410015772871077 -71.110800550307317
-45.205151473664856 152.858323693417304 -69.311727127480040
-40.044518205035821 150.942996349484304 -69.975059073466326
14.015498174353150 152.466545108650308 -74.821604613533836
-70.614951484005616 152.215070724321407 -71.829012200972798
-68.680834007828622 150.435442964882441 -70.148334088264136
14.704995779771634 152.571324437389848 -70.828541157269640
25.494955536228670 153.265608958566645 -73.136754569195418
34.117540835769390 153.713796032851121 -69.829462058847881
-73.090187715123989 154.528153001769340 -70.786758382932206
-68.046088513514022 152.295467526495571 -73.365743287431357
-51.420525033396281 153.810889728201715 -70.477462625406417
11.501724639682342 153.355483067260081 -71.059676286082137
24.202907475630752 153.014646114158325 -73.417149722643501
33.360788069337936 149.521294431399383 -69.247567335197289
13.524793909922955 152.964074696128932 -73.311226934818649
22.438456919875950 154.959165103622865 -69.208820073336980
-72.475323784899174 155.100149844955951 -69.869979470865914
-54.197636704499217 151.304487505938965 -70.025442120957209
-41.924889372273682 153.684240424125676 -71.077758655894399
13.665718003229328 152.419902793666807 -70.679978108577089
14.352316716635610 154.209393501080854 -67.850649425355130
-67.173505200049746 154.318824843487221 -68.720070227436452
-49.913211058844531 152.793106023213682 -69.845592955031279
10.317842951211775 158.342197398116923 -70.908991168532978
22.603490110939305 154.897235643528347 -70.444696513833549
116.777080245130009 152.926444595666794 -71.151541944367139
-53.600962360326967 154.028079259907628 -72.841054690136772
-73.469995017982527 154.048184341102939 -70.639552092921946
6.359496234043999 155.749078172224813 -75.718986950074409
13.602039762678668 154.139995603963825 -69.423944110203365
-75.386571849572235 156.019792761580362 -69.866846207285732
-50.650524685657885 155.858788483793120 -67.918357252392056
-42.046712197272512 155.137802276174739 -69.254100327915793
118.380378380680881 155.649012757844673 -69.437092414161015
-67.155749563282242 154.366738439016444 -71.650938127838899
-38.404936134928747 156.431722151940164 -68.553412120463534
3.859451583611989 157.335318803136460 -69.614077371350973
34.964249968916121 155.994708797765554 -71.387526043824451
22.355496294270306 154.871896181492815 -69.864407223809764
24.804737552502626 155.619944961084087 -72.125680717290734
33.738448873093795 155.441883316812522 -71.016283897434903
-70.861382673582540 156.672780252430186 -71.839575068291609
-51.942525531684886 157.428023315937168 -70.282630126474075
-38.651062178095387 156.318916472686283 -74.306051411320993
27.817086814392248 156.690245609413921 -69.659940123507965
30.374677458689220 157.153310087716449 -68.717921098272669
108.185795346929652 155.690554002227913 -72.399967778630582
-51.054075886113061 158.798248951466746 -72.271091593000861
-37.241811096286831 154.866835213995444 -69.458336509343397
23.274615956314459 158.283817768175624 -69.785055923369555
32.012891450674836 156.779047688687683 -68.585476722476400
-70.499594669173902 158.345038233448122 -69.537085046329565
-63.737587591990867 157.825110856354513 -69.876281406885994
-49.677069994694016 157.272085126422553 -71.014948782775647
13.916482902106576 158.126939447527860 -70.701117920805601
-69.629223548836009 157.895528874471211 -67.605605189451126
-42.767520259968663 156.671426772388884 -69.888812605042730
116.136649518682290 159.639652507294244 -73.306237047633019
-68.902399565727364 159.956969668902275 -72.298080846342003
4.820989198274980 157.267379446912258 -71.787859845781284
-48.111976058227228 160.016385989194589 -73.337679486737557
-49.274145869164315 157.325094418543443 -71.702290462372289
-35.747481598584791 159.141228913003175 -67.782557489301155
-62.949420960429265 159.407249800734405 -71.892893971259525
-39.342374284926535 159.873788176892305 -69.884367317217524
15.141165530066838 160.843039647302646 -68.849392369627054
15.260274071152310 159.229722490145662 -70.209609169326313
22.551026149571150 158.656864091868130 -70.502424528731552
30.954522306801174 159.675167512132617 -73.861131858681190
-65.193683534627553 157.595104502922794 -70.604014132725524
17.036475203671561 162.586922706305671 -70.968412891253564
-46.284966567937829 158.441188645575266 -68.346150035913652
10.133401655829930 160.623391217457822 -69.058002384371861
9.873508058506102 160.422341012017625 -70.821982346307450
18.968081413219736 157.662920585815073 -68.638271028657201
112.934001368414485 157.839257411500938 -71.111474907335619
-67.925021195159957 158.066846048395718 -69.653177390957737
-67.304901142627386 159.521478618429285 -69.676278632099780
-48.526121691695053 161.783052327052701 -71.465615701239983
5.493727190283766 160.772921460595228 -71.306352149407957
29.871587747393583 163.302958752431209 -68.634858905982696
111.202690026664371 161.153171456126955 -71.457985056442396
9.511225038891288 160.615586580970273 -70.676762993783669
11.297197233600050 161.821408566812863 -69.898903914943233
18.652178850463478 162.543139949270682 -73.290038782117861
-46.167270503588306 161.650505014516710 -71.382033955929259
1.526313030793589 162.098884338253669 -73.249798943376803
10.845239815497687 161.936840617418682 -72.008692175616659
30.885282464926334 160.311604846011903 -72.667216938653468
-62.629606138795914 160.727239440829777 -71.685233017043743
-47.859205356429342 160.895959725341243 -69.036295143561333
-37.427566056899067 159.650087040070787 -71.203729143347189
-38.607149664245654 161.478908323421763 -68.990042487999588
10.078542713798894 163.130178869015651 -70.626747598975854
-69.244299061125872 160.094278267195619 -69.668683601411146
-67.653898660616761 162.151625609107100 -69.472712551541406
-47.878154184974939 163.972171696835659 -68.983550105470670
2.679142756873158 162.255772729884370 -69.216846660170063
30.464930281378884 164.923034477141272 -73.000891293816977
-68.408580068970025 163.195991977801071 -71.291586664443813
-45.074676537869969 164.848299304271990 -73.040406953807803
-33.135047343216840 160.181794157754467 -73.301029838636850
-1.717286026429083 161.660822519697120 -72.371920800637525
2.302333536381311 163.043945182207750 -72.647054990801109
8.262917146919417 162.480194207681961 -72.255602090001389
-45.473418620843788 165.019079343870828 -70.533308600122908
-38.958215201004819 164.693066127071233 -71.293415063496298
109.173456253870071 161.435533510092171 -69.997472216774526
117.447973532893172 163.045499043627757 -69.532374348559216
-64.456040277590390 163.871239093943103 -70.498992936099853
3.366883154287287 162.384120557235093 -71.377935633292481
30.613090301848796 164.857578333225234 -70.800539408415759
-67.860070046269371 164.462405729361933 -73.746513733563333
-68.302696410160436 161.893955606611797 -68.689387485969149
-61.732608303184406 163.917796176191274 -73.818040484188899
1.863738006351063 163.432686815205642 -71.730098117159599
0.627105356318304 163.957733420636998 -70.107864076578409
28.029985183588664 165.034585096929362 -72.763900865040924
-64.778977932290545 163.325742071091582 -71.112450581566151
-63.947267855157023 162.923967295137032 -70.153267467075835
5.869808518626927 162.418399607910743 -71.539527609666038
116.478713016556142 164.111072879637334 -70.762933701166645
-34.905664021128779 165.014462423194800 -69.903284333441846
0.871260005894956 165.982015956011566 -70.220590494344520
-64.347643102364003 162.672044038786538 -66.549756803427300
-43.361563076135916 164.114306982303788 -71.784892501938614
-32.380726649102833 164.656413244423476 -72.430754580600521
5.562855156075462 164.932672955686769 -71.082780026364105
20.261868776459149 162.568802795213031 -72.296466069053466
-64.750938352762532 165.707997963388351 -72.795931743316814
-67.506031558011870 165.016632025154451 -68.422244728958503
108.811817845404576 163.338211273386008 -71.173593564551197
-62.691687861002123 166.780520389457166 -73.789230349515279
-41.840099870425220 166.800735554859273 -71.209153192404116
31.920300091658607 165.563749188013503 -71.783850277844152
-29.999527289473285 164.587715958763766 -72.381413170589951
28.047361751864177 165.861499644501322 -68.819885503320648
-34.872865611187216 167.268575876556525 -70.101294625051125
30.389834993468344 170.035942565806891 -72.407839907581945
108.128765648385638 167.600957068654708 -71.017677356322181
-45.851680409138169 168.113136673648398 -72.151605640285425
-42.261649032388569 168.044590939178420 -72.351456864076965
17.366696636365731 164.488542453921781 -70.638830356154628
21.366417597464821 168.106110425241638 -71.664260741467274
27.456134858000073 166.938155050761196 -71.552919987394901
-32.130755654260014 168.905701508984720 -72.780128046260799
114.610949444773055 167.865996199126414 -70.326746956255377
-34.668385428833005 169.465436055893349 -68.657867145264277
-27.849792632475573 168.295924885861979 -69.598503046145126
20.652225642496617 171.005513709200869 -71.133065389982974
-42.727134164006422 168.761266112751144 -71.399577366711000
29.507770970351231 170.574575793482211 -69.301644365398516
113.943876028050440 170.856802429058945 -70.139719471620793
-39.494198763644981 171.398508213806025 -72.772417289982528
-32.060710486528585 170.196813431189611 -69.876498247349573
27.919942968250272 171.381936985083200 -69.109995158370054
-43.620184762739967 172.872384461563684 -73.035558377590419
-29.724333093653694 173.731581097307867 -69.731559905825975
108.539616523927407 170.087119865074328 -74.387934345157760
20.964000194423765 172.164475083599882 -69.252398769005239
-30.002559672959244 173.783072699798311 -70.700510215350960
25.046301402843007 172.080265012596925 -72.772488174895898
105.713855113254724 171.597475349001854 -71.884038269810929
-40.415516575339609 175.047258301980520 -71.090482440054814
-32.652375362892130 174.053497479114952 -72.246926590541619
-27.322360882127970 174.003309644743752 -70.831840451379605
106.561636246146250 173.744659324062837 -70.348383929186397
113.314984271936027 173.569658863551695 -71.257872552436339
113.671122054138181 174.766108726538107 -71.724088146225839
-39.622061106837528 175.280059618817148 -70.625931939930084
17.059461880406907 174.927538145148674 -73.289238218787972
110.774385022382035 174.890615759870855 -71.226805738405588
-39.679715105533532 175.549153387214687 -70.532216501574567
25.065057331820114 174.263423867859871 -71.545436416875916
104.579339082891721 178.152455300779792 -69.980509881194919
-36.160115001546551 177.639633556450917 -69.163093059126709
-29.838384145943326 174.298929657203104 -71.204426751371258
27.685866474911709 176.615502747247803 -69.280195534928836
-37.826042405611027 171.799264662889925 -71.589455347839177
15.415567727377429 177.430111747336809 -71.434275319916679
28.268028839894999 180.301913997183476 -71.893100672432936
112.685107848577729 175.972019967058316 -69.625565481665433
-149.258643511150950 178.196009173648321 -69.932603673237821
-24.118222446865015 175.783849010998551 -72.277219932536582
-146.064421556081442 178.230241419692362 -71.636406551384511
-37.251565019025527 176.724149632011802 -70.755884012704598
-29.828617569199473 176.589857599714776 -70.124432269889809
14.423699636389426 178.266406547967364 -70.293915115685337
25.412785686239175 174.745891160788148 -69.059860484850958
-149.365196725093057 178.549320780004194 -72.284660243364584
25.397058368251990 179.426442114679190 -71.187603454225027
111.490834850032442 177.000345266082917 -70.676686343180620
-142.967444488614888 177.652291426684201 -69.944342152778688
-37.291606998168952 178.170742657028768 -71.285147784397680
-150.531023514613537 177.591891875968713 -71.920417328520230
-26.994112709384478 175.822976643984418 -69.423544707182344
25.589048287522704 180.279669279150909 -75.374576131011139
107.220163231675812 176.780271320416745 -73.135339822160461
-142.134007126419846 177.751370596918008 -72.810752745705727
111.312891712178214 180.464425207930304 -67.236910567001843
-23.021605525151550 179.372983328304656 -72.712062111553109
-23.896005889139971 183.896234493982320 -68.511601342646856
-143.579858848614464 178.555969933389974 -72.264495536670751
15.737416521296012 180.445839829719773 -72.258953629822742
-25.344597509675403 181.012655595971239 -72.738214311633556
18.278856539037243 182.781169666847546 -70.982205564970670
23.868012084231250 182.345129411482162 -70.715163434035773
105.936916213505029 180.474086741419796 -70.040188815384070
-152.950546733497816 180.823934485785060 -70.852731277160032
-35.198716438554634 181.742590373921587 -72.767241558530756
-27.013747184674060 180.461945370541429 -73.257763315600002
16.057452203459299 179.850204290307062 -75.564335568445472
-31.247047283856546 181.838143609750233 -70.996302582633291
-33.512558132018135 182.131058558312048 -70.053446592883660
-141.190368995895142 181.447213968556383 -72.628336532109742
25.591151878455381 182.078118826456262 -69.902386194226750
101.825996374220296 181.589814499354759 -71.894247733842889
-151.281094105996800 181.710690452611175 -71.352486300171350
13.248678330481026 181.850408532827146 -71.638956478225737
111.649537414203522 184.493040382735160 -72.986394302958246
-140.757249574346076 183.474268219362528 -72.515036702132534
-37.223943799365365 181.587037363238124 -70.249036470676444
-33.805290807225731 186.438968576810595 -72.037499364754865
-23.161036221472585 182.149940956869671 -72.610912651894452
101.454504187307307 184.650965524237705 -69.947427107612654
112.059219422488880 186.821609930799127 -74.348493806318956
-142.491366503709116 185.342494785041566 -70.363934959702931
-25.644575182709325 183.377467630101791 -72.308743509075754
-22.506851617463258 181.885033061761874 -71.003608083615916
17.565570224588413 184.742110204979156 -68.282100599655180
18.448080582230272 182.295006221322183 -73.783659121097017
-152.667578191397070 186.385098662199368 -72.954093861416993
-34.342574419811257 184.458899152852837 -70.238985415848390
-32.014531993713284 185.568901681824997 -71.854306303295729
27.031346682139663 185.989638067891775 -69.175083910899730
-25.468372587074427 182.349796590346415 -70.136211504481210
-31.797486239619658 185.245011718912451 -70.166868059795277
-21.415606424842952 186.770986675559755 -71.945523085961369
-20.480881567902134 186.315635528810645 -70.208012733885965
23.833327824316289 183.172589727061109 -71.513183838126224
-142.447318383511146 184.598270723154570 -72.939017204242901
-29.222081955918661 188.277895831558908 -70.082523345976142
-20.738772329700485 188.070259803806920 -73.297490113656764
12.696884007990473 183.656334686286442 -70.381808565200231
104.114378179036805 186.836407590044189 -71.787220862281799
110.312636417472476 183.957403313327518 -71.041915133181561
-33.913478180096341 187.990999309630979 -71.996926326329032
12.461662191236845 187.041816345141598 -69.488263891001438
15.311799482180321 185.839562276443786 -71.722890353326477
22.948611245982963 186.579150411361837 -71.210402476698093
22.990105848530387 185.890706247081795 -73.104523173170435
-31.931909643059317 187.306636238055034 -72.516101857453378
-21.108062524674118 187.205901649279355 -72.546430856354405
23.183412534790122 189.335331875460895 -69.627302872152455
109.414469938446416 188.293652470363185 -71.950144014243122
-150.112587077678597 189.928315351965722 -71.287094849195370
-140.920693313383111 189.844563349590317 -72.699383705485658
14.105582355482266 185.422445324086709 -71.257019887518808
26.593926987489574 188.655118799855131 -73.059647777337574
102.953197338614657 189.165908838392824 -71.359362281029874
-152.100878927176296 191.723696510198494 -70.002183267029977
-144.780916224630232 187.799297476445162 -71.368848383044224
-142.165436340800824 190.049091766033712 -72.852415210942809
-31.497202208336603 190.076643082409475 -69.963265866075233
-21.736797561289567 187.312048289972580 -71.117346783178505
-19.122226159369664 189.474996334313232 -69.779557708474357
102.185264162077090 186.062836354153887 -67.667566812787499
-149.926762558214136 191.379432867491516 -72.472261804802557
-29.531098392616357 189.615763271316126 -72.078458071793918
-145.559595550151215 189.629198231806356 -72.398207881846119
-27.875836091982610 189.481409199788288 -70.076610917845684
26.955136324060280 188.991978687623146 -71.534580284029119
-28.482292917361821 189.796744219282658 -74.723308863214442
13.398281255216455 189.185837233719639 -70.769375478499967
106.805526946517489 187.667530073564052 -71.190566047354793
-27.886759527544257 190.750231502287022 -70.513809531705135
-21.717376099782399 190.759257738705713 -70.456338038589578
108.747066235384651 193.070162305944166 -73.281004935269053
-27.829758412207745 193.608560890473967 -68.929101288106438
-29.147980626674268 192.435987613137826 -69.774157384386044
-17.582628152594520 192.627641031963066 -72.723728148860474
-147.241941816488946 192.506338970775431 -71.434049748869086
-29.177146625645232 192.179893104737744 -71.067059659632733
-21.345561537016025 192.175465703927443 -72.333044694626253
14.452796448359772 193.502624313751852 -72.122497686707632
100.751454265989565 191.396676317002914 -70.093230846906906
25.250423377608385 190.661240502495559 -70.910171310703419
-145.554444930727840 190.724232421635321 -70.178869139386364
-31.031064644166470 189.948378641969128 -70.692567469928775
21.163545940568305 188.998774466058990 -72.175789306537041
-26.376911836303538 194.487957265360109 -72.417690459941142
-15.821531023017322 195.832981154165282 -69.422967985256108
21.188915036275898 193.522588282385698 -68.814203538675457
105.211940789952479 192.030622303406034 -72.693292115948225
-147.219470923122174 198.036228004986839 -69.645795545872105
-18.776867724667490 191.303362376624506 -70.713804804847555
-26.724994755580340 195.237585287480329 -70.886388975003996
103.857737144352200 193.970394225888100 -71.815704196568461
-145.622782173954590 195.159587474306136 -72.446419701058957
-28.118924805232375 196.137330327911542 -68.900046652374996
-16.965548767396360 196.387306657196262 -72.860282459876231
11.177310215533137 194.504228005764872 -73.196918412212682
23.581561998206880 197.152188574352323 -71.846903784862391
-153.183729534635233 196.909825348655573 -69.740917875868121
-149.602279918931941 197.798433964119425 -69.936931892591403
-15.871841464222824 192.716428918460849 -70.213083300783069
-143.139930680271618 195.202738169998469 -71.103185037515303
-29.089552089042400 197.124514740993902 -68.947624643333683
-16.306516864323800 195.161062206446360 -70.636677166096305
-17.549745026158377 195.099615501051801 -71.197872885518464
100.850741489242907 194.437634132284671 -71.986025639389453
-153.501148397101218 193.796805005293919 -69.692632107971761
-28.930114493312534 197.828819735295554 -72.696434462345437
-24.232335408706508 196.211416662991894 -68.460456470138681
13.289022986747097 198.833315783741313 -68.790864391194305
-154.329170629206374 197.670419974755845 -71.193390629851621
-152.264710642934972 198.107461837756659 -68.492514805363584
-142.824996625140670 197.126843521324702 -71.316315845483686
-128.595452511858497 198.453016646376085 -70.760207494186247
-156.288538419940863 197.439325034199442 -69.546970329318427
-132.326226986011420 195.709623023074982 -70.758259284442104
-127.940095222257355 197.918404084954489 -71.318782439993427
-122.527951414170161 197.424926251576238 -71.186655958159903
-122.195401406810817 198.867341408142295 -70.495759786037382
-121.073857170838579 197.422507831778034 -69.362619560682973
-155.648589708623604 195.619018397419779 -71.868478079522163
-118.622044898742629 195.491121090499576 -68.223616063306707
20.560693376729041 198.026696920063188 -72.413129564017424
100.478341479434860 197.353442299208155 -71.614787641386769
-160.696449178807455 197.080431501098047 -71.923313003072053
-157.436562262759907 197.363346595297031 -70.881662814178171
-155.222110336047507 199.488604039130706 -69.378457246060080
-130.007654758587165 195.814706146114332 -68.670155801201673
-123.112493166248910 198.685198686299913 -69.686492729735292
-117.299497314708063 197.179504493810555 -69.631897415633929
-25.394175470394821 199.372270198428055 -71.686382153835552
-17.604475687457640 197.169794195620312 -74.124471806521413
97.177806353682840 197.688965547282834 -69.751779589588580
-158.951841400807979 199.099951295802327 -68.856256501726207
-133.819694310424694 203.041865183042432 -71.182620979779060
-120.117307845303202 198.931680039484661 -70.341604574065556
14.395171690276117 200.151135282862441 -73.988553388145320
-158.667088053238160 197.209384210052065 -71.571442751036329
-157.377650049164259 198.403442275619511 -70.601096850014102
-153.943581957665089 198.920628062425664 -69.083378146969935
-147.398299897239724 200.467418729532540 -72.312155260230526
-138.262792458089990 199.213126221794852 -70.749712819508787
-123.968284142403704 200.502299429748234 -70.549179422792989
-21.690474743111626 199.607026310565402 -71.765219803798431
22.713188736195594 199.274405379937036 -69.702953813387381
104.375061968174748 199.526566919262820 -70.084574832926663
-156.430191005996164 200.763961856371907 -69.508387625250393
-154.406318683713408 201.288837433887750 -72.900692843789017
-146.559886749902716 201.106680460776118 -70.756421725665234
-122.485999875522467 198.671924641494542 -70.891250577114974
-122.733961661896487 198.272628603400136 -70.926949647042079
-23.115673525017748 201.257864494084885 -71.898389292280925
10.300800178186542 195.678300347416581 -72.627391894880660
12.646200580514314 203.663096404975732 -73.084950352506198
94.926789260074301 201.194906656830483 -70.314194748477107
-159.618339028592658 201.319076725156890 -73.284710040197709
-147.863648429409636 196.968881322719739 -70.485303815565430
-121.765731367921362 199.424221522564466 -72.781552825019489
-27.063591238408478 198.748757227847221 -69.984073880275915
9.831549429928067 198.842175336304507 -69.748003439338547
-153.810607543751672 200.086935074365641 -72.174813118516767
-146.246392575858494 203.896473749066757 -69.639556933130820
-121.169117379853546 199.631725677515448 -68.174804254966276
-23.421107020393507 197.572804562050607 -68.409699155915220
-16.947660681780373 201.646622691920214 -72.452630448053512
-162.618202160180431 201.634518866915869 -72.387216599537538
-162.825989983453042 199.610089149867122 -72.940901929676997
-155.149831153426447 199.201318840977535 -73.472074793517692
-147.468753592984541 203.360626044230628 -71.694341880175486
-118.715037283957642 199.461747474410942 -72.138200355575520
-117.580165087915873 201.908555830886883 -71.178067964422041
21.648617917914265 201.628174470104426 -73.864614648295486
-161.793898366162921 202.618712505859207 -72.017617036705857
-157.069596249058009 201.778551554187146 -71.413599043924322
-146.714793328029458 199.229217829600202 -71.396303142293888
-121.819765092388323 200.372658267091680 -70.723223335488626
-16.310464400111258 201.470648657798847 -69.383276767131463
101.368788589774226 202.069254057674840 -71.610404289454010
-157.664410605856517 200.111825057915468 -71.036880813451745
-149.289943196093532 199.370163058724586 -69.859122386901888
-146.307912088604894 202.180678062889001 -69.780577908898167
-119.474571466184742 201.959334444947871 -72.309703666405994
-117.254130665040037 201.836185759499813 -69.743404830022726
-113.767034362689827 202.890150759833233 -70.650534953657427
95.226206510479116 202.192756305155513 -73.820340826298008
-154.407264849797315 201.592516308933369 -71.602224910627498
-115.375478076137910 200.578880455587893 -71.843162250345969
-24.954794022929651 202.052547863426696 -72.895129496675565
-22.784704114556522 200.639888314782894 -72.590563230845049
-162.338445049316078 205.317365012848114 -70.470517628124810
-158.644629527248725 202.509746457167665 -72.979549573396099
-157.339962477472739 198.768924381060970 -69.516746212863609
-149.159675590994169 201.426995591219452 -70.807193126652251
-149.188142580959379 202.659979664148892 -70.367370521806279
-146.790927898195406 200.644375562244051 -68.697655719296179
-121.833591645546193 203.203337758200888 -70.017334972701292
-114.722748180981910 203.092849253098507 -71.864293780132513
-11.860615135381440 201.240531945759386 -70.980290864096091
16.604923190511297 200.349167581338293 -71.101883688598747
-156.248503938081569 202.112610082512333 -71.502579467824262
-149.754255922260256 201.727911554865955 -72.606589450153692
-113.700536176782677 203.358521521583015 -71.686757342197438
-24.646868745366763 206.134288009038329 -69.758368716854051
-14.261751957977918 204.174554674408938 -72.669523469614987
11.002435941467199 201.639566993353753 -69.868737613828472
102.077604486807033 202.236597458476751 -70.785275218923573
-159.339003225912222 203.438898883752813 -70.595245681588409
-153.216681014993100 204.264685446927388 -70.805360418015056
-134.225222212716830 204.041719572418572 -70.763199363437664
-116.290941005353673 203.959451800832028 -72.886882914196235
-12.418023064208091 204.026997899893416 -72.626060847114630
-13.337931290712543 202.820255967090105 -70.661533238257960
-159.555985846654295 200.441376176981692 -72.283211223738377
-153.826412469396189 204.598752726903399 -70.438414136088667
-141.168055633730290 206.949023158409915 -69.291786220995931
-139.720458415180758 203.368660177694409 -74.221505679326640
-133.669718059527156 200.560115375036332 -72.412161095339641
-118.390962383935644 200.772508005134654 -69.780348115366507
6.582456898298275 202.355727072343456 -73.368503880396958
-161.380185621329616 202.789048558049586 -72.333437403106672
-155.430448237523933 204.020742915314258 -69.390917205460241
-141.813538436123054 205.895568673664343 -68.305462967186358
-137.027880022409903 204.533724507084543 -72.479855080062507
-21.959046437890830 201.360750230547666 -69.486722743089430
-12.262983712295503 202.300173807970168 -71.510231346755788
10.991628567639360 205.391167916325514 -72.233225954417406
20.330821133291920 203.244970250886752 -70.543095356537449
99.953893671597442 204.769778845579509 -69.720670774135968
-122.988152397784205 203.672282769459258 -69.968288936951325
21.841504217181186 206.837457563061179 -70.028637275057264
94.439844336219096 204.351976290647599 -71.116801144891198
-130.832759542272072 204.632523702483923 -67.801551894779621
-124.191161349810329 206.724609239831892 -71.462268530600753
-163.937685882988802 205.408280921973272 -69.324582132311946
-163.141984818584376 203.254251679518347 -71.258956305593060
-159.378834174187489 206.274770176217345 -70.191534160129422
-153.221354764738805 205.016816672373551 -69.932887210446367
-154.252151374142329 205.988120041777421 -69.554932022936541
-133.979847352919279 202.899051130374176 -71.713848761452823
-127.272657497039333 206.879203758874695 -70.342306960009680
93.242347219800251 206.325585307327145 -71.603018764317724
-154.165048314448086 204.843976213192661 -69.650455546609351
-134.459145516099341 209.860071313019972 -69.082167770180675
-128.255253082616946 206.340620558217722 -72.266171984001417
-25.564760881777808 207.240634198616760 -67.997592496699127
-8.501661252492392 205.533843922759701 -71.129134172652101
-162.347357249373971 206.209890343906608 -69.020440753441207
-156.831792771208541 206.925669446603848 -69.695662257448262
-154.922147983592112 205.379055272096480 -68.619472413342038
-150.573852242760239 204.162025999084022 -69.734689967168492
-142.439306723061037 203.282939826839112 -70.460405186267394
-20.308925198258379 204.815416083583074 -69.625046631597570
-155.713469019190029 207.637972138807925 -68.810296199945284
-151.911780647826049 205.930084931214594 -67.276547416687762
16.198750922145461 207.925211013783780 -72.784599800759125
-158.834301804430680 206.255261271658924 -68.972621933683087
-149.876214477168958 207.884699817706149 -71.615694422334983
90.134115512651192 210.400908693331360 -71.040195614558201
100.889828161898762 207.439851473596974 -71.931111349330962
-155.431684192430225 209.667075111990158 -70.097358466378083
-151.050083747287573 208.311858775396701 -68.506225638611610
-145.584958495850231 208.598559900580966 -70.605751687860931
12.856655555711708 207.162980962208280 -71.020204820911246
-160.647293354344072 206.728834177443019 -69.742520672848386
-20.580162043664512 207.518709917755302 -73.670473450481737
-9.765605901442864 208.408663069304168 -67.127287542682211
9.485086053842029 209.343444655865994 -71.932928868410372
-156.273870111677411 208.503799357996996 -71.429295590254895
-18.904291075618204 210.931701750221549 -71.347768565921285
89.653660639959639 209.532423169212962 -70.321069989196417
98.293443327337457 207.599863693572189 -70.202701782118979
-161.314421905569702 213.128347661185131 -71.657662299541016
