# This PCD file was generated using the MATLAB® pcwrite function
# from Computer Vision Toolbox®.
# .PCD v.7 - Point Cloud Data file format
VERSION .7
FIELDS x y z
SIZE 8 8 8
TYPE F F F
COUNT 1 1 1
WIDTH 802
HEIGHT 1
VIEWPOINT 0 0 0 1 0 0 0
POINTS 802
DATA ascii
2.888221587008139 295.218685856442846 -75.708334627362674
-134.579538026847189 295.789413802539684 -76.236934987845871
8.971363154126212 293.041304195249381 -75.853457049926817
12.302248420194285 295.684515686586849 -76.038379899796993
14.125505988050953 295.494965090959340 -76.106634448584188
-154.731860082575253 295.379828790043689 -78.369685071412079
-143.936112599775299 295.045864931521464 -78.102435232422252
13.260416544030761 295.145013011667800 -78.783537940572316
-151.101096753745537 295.820355131693304 -76.688022564245287
-146.629766829427496 298.368905127808830 -75.049902603180044
-150.935376677639340 297.193282975112425 -74.701499008195114
-147.949464352323929 298.046964728879061 -75.143884372282955
-149.603599998355861 299.384364772598815 -74.341140456708743
-148.312586550027788 298.136239903556884 -75.902578345495016
-151.924477194455562 300.180724420894137 -77.215749726821841
-150.742018663230340 298.169550440769342 -75.816051957687293
-150.128818930552114 301.685571497517628 -75.573286885029233
-149.590004330162287 302.260639562294159 -74.485874769057943
-151.047575057975706 300.576995562329046 -75.641955325482954
-146.765623490439566 301.683729340577486 -75.751052340925895
-147.708633486393751 302.336926559001199 -77.248870851945881
-152.696769491327501 302.972150261347110 -76.285021309131253
-147.340667490417644 304.255239338673391 -75.214161121207425
-154.192366068795081 305.547729486841490 -76.293802745403539
-146.305787796479450 305.575343460251702 -76.507227160266197
-144.401232561259548 306.767507747547825 -76.447248587220628
-153.074034250976212 308.019845219129706 -77.907673233595290
-145.740615972770939 307.406529736408118 -76.891102291153388
-144.548176491899028 308.192479914788464 -74.963662131694079
-145.064037328698390 308.598199767984795 -76.397243785689412
-154.221643755220839 310.023161762355869 -75.812448115464676
-154.933957585695026 311.443300219784476 -75.526659714057743
-144.464457135796408 312.464232078484827 -76.772226824466927
-154.003017670801199 312.328180282476978 -76.115025614821064
-152.834604885069240 313.856851065529099 -75.714488083611414
-152.138765733816427 313.610888190807771 -74.972184092698569
-148.018901577426988 314.629864896340052 -76.302259609739792
-52.840729380407183 55.960181444745899 -73.250935929126229
-55.641654846582817 57.424550071656519 -73.842756987342170
-49.976007194998068 57.059314239386843 -74.223362568644689
-64.514789292936698 57.324326159959398 -74.197766466992178
-58.441268330899405 57.215606383336159 -74.274174424079462
-59.711299324597817 54.883442369897416 -75.951943248767265
-51.654426482700366 56.159257103810340 -74.923012367421933
-60.516064030496587 57.896978926010675 -73.647899006390432
-54.299662203691888 55.091583145672040 -73.903124802037567
-51.842059389350695 57.601464858938549 -73.827921350472124
-46.052472659856861 56.024327291463422 -73.809260625019277
-46.831584030444454 55.356061000268959 -74.632403615965686
-69.912927398378528 57.349265166017211 -74.914800987015880
-66.946791309390548 55.907437347262736 -73.789527963647899
-66.242903957806092 57.350749666970195 -74.600604807802370
-61.231139396189164 58.065454422013609 -75.029446947879833
-44.650135139772509 57.661710646969432 -74.011771643924746
-43.988528066336791 59.161685940358758 -76.720313956431568
-39.083087321069897 58.552934130216741 -75.637813435679107
-76.097696740054857 60.462704709766179 -74.092951175922721
-43.211725012289520 59.320499774156517 -74.973307862235558
-41.644191956840380 58.912740600300864 -74.039764263895080
-71.224817323962966 58.612507335221999 -75.222844374557440
-68.713822524454045 57.168841930055322 -72.818146545593478
-38.322939261426740 58.027905135657768 -74.286425838037744
-39.410187392685188 58.442456773648189 -74.540869499559079
-37.255839895083639 60.337406391768461 -75.409517109377134
-73.636382944957546 59.970860192613500 -74.806499732577308
-38.366236453450902 60.000734496835832 -75.270847803741020
-36.674943194232092 60.888726057902566 -73.689020946851983
-35.886448309763558 61.269256918935966 -74.832154051965759
-33.539270447303352 60.996042685431462 -74.208420869345403
-32.210589534499434 63.733637840873143 -74.225965592501964
-75.337056368332469 62.110408581657254 -75.589315442202192
-33.654068100989512 64.651674180714195 -75.934232107124231
-78.917922401216387 63.753809202710983 -74.216758944686674
-30.846199835437723 65.016146000772352 -74.019931266820734
-31.590771446781257 63.999765031329012 -74.082162162311349
-79.786228923705153 63.157512019390396 -74.675830785447076
-27.318997152452198 64.282656357632817 -72.650151123563901
-82.053088875743597 63.685224391197217 -74.776541604059219
-28.204289989238283 64.123719667553388 -74.528979120148549
-25.672114720853600 63.661387371887372 -74.591487796509440
-82.015258293479292 65.801489114940452 -73.509254721584995
-24.088275599989416 69.305072377789102 -76.246153937374672
-79.064344794384354 66.577679588166049 -74.428321600860784
-82.193542142568148 67.587972302533728 -74.065192661919554
-85.611314516053241 67.352397978579674 -74.683760831270888
-23.965062483986781 67.651473604700115 -73.838662963085653
-20.654232867806982 67.720888100762721 -73.577447056054567
-21.521446952140995 69.334324879101629 -74.960271821350588
-84.266716368969909 68.366862025443510 -74.282211811973681
-23.156292272634595 70.141111491955286 -74.482946482705557
-85.432632952396077 69.819481223528271 -75.579428210287091
-20.258063940560348 72.667543474267063 -73.713569059429346
-20.649843533513781 72.507540939727065 -73.846750709745692
-86.657933487881309 74.171113314687688 -73.819743561194485
-84.208530350829662 73.534817546367165 -74.366641264768177
-20.610950010920181 72.497381232202542 -75.409369728092969
80.928091678951219 74.794968981336865 -74.333358936682785
-86.277740052003097 72.925875951403285 -75.886897766708174
88.968492163153968 75.766144987141189 -74.114170095985926
-87.410691742213643 75.361886886503186 -75.059053405664571
78.920205610575692 76.169038395039536 -75.927414545077312
83.389035142895850 76.679548162876884 -73.285915589147876
-88.463215529559491 77.101563918700720 -74.247660851669110
81.818252377239887 76.027688619988098 -73.953416285211247
89.645533102998399 76.417427862169049 -75.804368692498215
79.459630916647370 77.788714432204543 -74.845987699086578
86.072201847830698 77.125739273627048 -74.690508457575760
92.183217310102421 78.281155485144126 -73.154561671194884
79.536431754132437 79.021373914690315 -73.867615718016040
81.004423329446354 76.138025918268596 -75.249260001609088
87.200965329803779 77.925226322989687 -75.013795038436484
-26.139007663010773 77.824459532329740 -74.848384763399636
83.381077088335530 77.593003326988367 -73.910554725932144
85.031570965116501 79.380871554660004 -74.915737110845768
89.708737877693295 78.740322639283519 -74.948199058784198
77.361952537561407 79.611229453807837 -72.595321114781797
87.732742981302593 78.854632516566653 -74.878416110859177
-25.433829532743346 80.061364235639999 -74.171797306415471
75.696366771385215 78.628260997109038 -73.855365882119216
90.137129948122151 79.951741349382473 -74.418114926309002
90.855106981024889 78.732467001050338 -74.509312449815781
-87.117445999878981 80.736272676772799 -76.888854364588909
85.401278776387727 80.722471668815373 -75.379820941009683
84.138638072542989 79.749790820485558 -74.704936633701493
-28.848249990152613 80.129130851757623 -75.770264185335719
-31.947640779551982 80.618309646633577 -74.332802444083129
-32.356401742878589 80.990792635619044 -74.113560716735847
93.149520285945925 79.506429348205700 -73.379981933878952
-35.059139738053695 80.321518429364701 -75.245398688306508
-32.906956820912967 80.713465322872281 -75.356045612576423
89.750839618565735 79.651772445459400 -74.231427460067621
-37.647049191774784 82.279683138357242 -74.495712086992242
75.974947448123672 81.239643676914184 -74.255202815086676
-36.873670800089343 81.198327068366908 -74.200769033568449
77.378412105619446 83.572059236778557 -74.643138423814293
91.183694465167591 82.983059133976553 -73.192343307274811
92.756908521867672 82.666704786441215 -73.407218375318067
76.143578554431812 81.478380009055229 -75.946370955525055
93.316408934121853 81.781826001412767 -75.889378821006517
93.560212764612672 82.188238472333524 -73.728421474359749
-37.039534424838976 83.045364690686711 -75.541430125182345
-39.248005043495795 82.644731037552035 -73.582065336724497
94.773680624705349 85.843657807690704 -76.061422988922899
-42.290031223666297 85.090318441276111 -74.745605527644216
-41.333874786035480 86.058291765170708 -74.349285291412642
72.797844701678841 84.632917026855381 -75.219682490733987
73.873520752629091 86.268382783037751 -74.420335154995172
-89.396532696115997 84.707085926809526 -75.568752325223883
74.458590674470656 85.506860142657132 -75.982786431308270
-91.757309318064614 86.931399864112606 -73.372400549952289
93.481773974504108 86.568200125503850 -74.086454547325161
74.079175734329610 84.620121989047462 -75.044053668506010
-48.019816450301541 86.687254782346059 -75.072995070586870
91.260232007808639 85.541205694771364 -73.944408203172202
72.784660154176493 87.124490949944899 -75.827506440541256
96.929743536596050 87.661856386948031 -73.596398550037392
94.064372574592852 89.871760947450568 -76.541206257607655
71.102163676858609 89.531169588615938 -75.087435143329074
-48.743387025269115 92.077864313217631 -75.271842402373849
74.159134985439351 90.742898021740430 -75.508687487072379
95.264019590150454 91.486448292081676 -73.274939233380351
93.956354654531310 91.320305390278463 -74.192925006249453
-52.632248830934898 92.322252820403563 -75.732095292520967
73.415034576878611 93.820515046418052 -73.525260475273058
-53.616774703115780 93.310972182550330 -75.536778888778059
75.696683934732576 92.931715274898693 -74.571845477277080
-57.054166984099446 94.307688397982986 -74.999556045697005
74.098573284609529 93.602638092849062 -72.273518972991809
95.125322803431786 94.259476617811970 -73.921731210465154
-92.478097157583989 95.093725878527238 -74.154245376658949
-59.362032455345563 95.286914031952335 -73.398384602070394
55.132090938278573 94.549183618010559 -73.391069140449346
94.892784888831656 94.284820083287656 -72.905959500575378
-92.113321898299731 94.318330256152677 -74.491925015070365
52.745522127105829 95.673962828326992 -74.665813094429041
92.958162530632848 95.837210265408430 -76.056972532127304
-92.945796487510933 96.368256547632996 -72.912978222237939
55.547794377626779 95.337535973689413 -73.804600503825583
52.458435639269311 95.536123628395515 -73.970603931803282
94.452484959563904 96.086523504201310 -73.828382779336877
76.187362112087612 96.455720311486232 -74.655309340249545
82.714471676558233 96.233104644748053 -72.739740439018931
51.480096374680407 97.674324097196504 -75.576022882648019
54.763192205006739 97.764307187667143 -75.171666375932446
55.992073171259435 96.614714361743012 -74.635080117146984
75.654066007124740 96.300958053576068 -74.692854588462154
84.083026687747363 97.149140933906779 -75.105197055182188
53.569043996733036 95.741146626884515 -75.702023990154558
93.030385654088235 98.079724443641780 -75.000817903742146
94.006291701867923 97.279081072665733 -73.236827443143326
48.325305606322338 95.832453110686615 -75.400057380030646
75.878666296000588 100.175445058082843 -74.445164162492375
83.396951015572327 99.319124986685523 -74.351775405608876
-63.865327347947321 96.963151651775149 -75.100215738011428
49.939608544991522 98.705543919459004 -75.239636979772584
76.951953952168864 98.049836371031006 -72.600450252497126
80.478983398420141 97.216338333815713 -74.493196473610524
84.961818148986737 99.759506162741104 -74.686938278680216
94.079303221824787 97.774315211604289 -74.752537146151795
92.902879168191504 98.329409521597626 -74.496223220538198
80.799687729480326 97.428982253578241 -75.459559431479832
87.439279543814592 98.487504091130688 -75.121220777503595
89.565370116190621 100.691934359523088 -74.562495095917185
-91.534331750948795 96.703193956051379 -76.195916537853265
56.809708116275353 99.408370240974548 -74.913162327811648
79.699589772923574 99.416531350530803 -74.470441823107592
81.024832688406775 99.560923475647684 -74.625268165285235
87.658325196641911 98.602903941714843 -74.101758266629091
89.386923215700435 100.022839263910654 -75.369314288395003
46.580048540326580 101.385352757040280 -74.243624202809514
87.632540321582383 99.837395958341929 -72.910473256494654
52.518799292600342 102.656822389645271 -74.733807261814874
85.371178512404541 100.957520387289748 -74.543718604484752
45.089617644617221 102.673859654024767 -74.709092781480592
88.899512375002828 97.893190896449156 -74.343920374718564
51.823673491345509 101.613743332431071 -75.117406559998059
50.605345471088874 100.501862651811891 -74.844236911165240
55.414135151955243 99.817257550746561 -75.275853630848999
56.552967095302293 101.359798426939932 -72.923754350179692
48.426791887920459 101.635927723079632 -73.581171784144018
54.264285121363123 103.654565401722905 -73.841197604154289
-77.108354023579381 102.625350076182045 -74.791391392668800
-93.079399062948625 103.642288717836053 -73.755520575465113
-79.353980372162354 102.708906178049801 -74.859438250881539
44.857855278969751 102.765061012080579 -75.144633721544636
42.950827733765621 102.812286412656007 -73.619457163787473
48.382436133501542 104.988946340777218 -73.941565097637323
51.625000564629630 101.320342645006392 -74.512857402381101
-76.491428661603351 103.271306395314923 -76.111263127421594
47.817006587229187 103.347768004181034 -75.341224779924673
52.660249557885493 103.544260531387124 -74.288750012170610
43.162348227498924 105.361896931864052 -75.189967336319583
-80.611482993012118 106.083769410838997 -74.208637716734401
43.558835403051511 106.313320858352668 -75.905118349800532
49.601538731221979 105.560877904878410 -75.927835349917387
42.621014413879401 107.075797559795603 -74.881769125195675
55.787478627891993 107.363192535817717 -73.921696049743076
-92.507548961988022 106.091275027591578 -74.774002368154200
-81.741299398942132 106.077302465239768 -75.362690916051776
44.420614470635506 106.895273485399585 -76.096910653709614
54.630587971652922 108.469209516880369 -75.275267425138551
49.430747685613014 109.358603122533793 -74.688483070970236
49.530186548993647 107.037849209990853 -75.719177001200094
40.162210305725949 107.160155940125719 -73.405120875513589
41.061708263194525 109.698832884932870 -76.107461887789654
37.159290313832685 111.826729372103912 -74.413080739224640
-83.281122796991752 111.122928014401040 -75.505165298969260
41.168796735836153 110.076236057372768 -75.584901370617743
-85.660262085065767 112.130702228381821 -75.012880574325507
37.762380921925512 111.865213514132506 -74.694023862794552
-84.996629488331166 110.583325313840106 -76.677376129533087
48.617565062287525 112.361355249829145 -73.719662467883353
-84.050816540118333 115.191243954045845 -75.615063116893211
-91.970560663623388 111.133170315800442 -74.733819288451457
37.126660004063879 114.603184177500751 -75.715116694179741
-87.229665967435693 115.176662395398381 -73.846506304678172
34.030888263111066 115.368513811299977 -72.702732646249743
46.817482653717470 114.335677215003926 -76.439305138749901
37.245092186258333 115.529833631373052 -75.721103535629211
48.494707530041644 116.426924328384430 -73.689670448436047
-93.196772652681119 115.366714230268514 -74.584418967612038
-91.016889382304853 116.218482636860600 -75.594214006879483
-87.621284732406963 114.287369467063769 -74.263958749380720
-89.905771610474801 117.418649769866178 -76.154548252054880
46.194083077944036 115.253938122146650 -76.761760961164839
-91.207830249278530 115.663619072704719 -75.286034636040768
-89.928777619092983 117.000490307206903 -76.927664111395089
-91.038422598504766 116.156175929053504 -75.889514141088100
37.524921811787870 115.795295184433513 -75.016866785057090
-90.700277441378574 118.791752863804632 -74.177234736729147
45.428220755475564 117.362841480686669 -75.163144372936841
45.296651394450301 119.499530689964189 -73.932769079205187
33.802075020256368 119.979887904797636 -75.403041037864710
35.462740026126362 119.483336078555126 -74.510605758705296
43.448701566510202 122.082918434606810 -73.164585772640621
33.461058614108431 121.756634164247188 -74.169100323082532
109.178510003144652 121.526615958384156 -72.965238008435321
109.015641866738079 119.554822859400886 -73.841291271152514
31.322362419691590 124.004270232987921 -75.170291961461459
111.090127123389252 127.307618996342171 -73.838435397130510
32.594646732498447 122.290328934995202 -74.426521717032443
30.513362844253233 123.303376675765989 -75.338337129587060
111.831639196737470 121.303020130492044 -73.708947749399556
34.035497184960860 126.395959221016966 -76.152754837375554
40.308084867118325 125.502085642550909 -76.273782614771051
34.150435206522381 124.038470173485791 -73.213032886406154
43.569521322550393 125.217038940761924 -75.452072813127586
29.773552213229909 126.532309649550243 -75.203966092260899
33.599340216149891 126.774342785121945 -73.186993059501191
110.842927161737492 126.014891556496408 -74.649456624513832
43.221455679948370 126.448518131784354 -74.357279886761233
110.346811672374912 127.901219607278804 -75.168661717455862
112.139629457333484 128.669302840378521 -75.734232265269839
112.081269298503855 128.090929048956610 -74.828105568173910
30.629915734878352 130.686904805089824 -75.097169156055017
41.946528036263039 130.894247305011362 -75.314749713225453
39.537421670725614 130.147479919195263 -76.153052029709087
108.124751559283737 130.744816594422474 -73.521209966033496
110.369085253398723 129.744639075645182 -74.333116602497540
113.259486894072310 132.867073812297889 -74.492413690697774
29.970928728962694 130.124706157530312 -76.094456121452097
40.726199218176149 130.636461606186657 -73.833882141349008
27.166009577356331 132.706605349783587 -73.808576010745867
109.613007076987714 131.443625514781502 -75.282569794452471
41.604576641483099 131.462277976216143 -75.152063008084141
40.086220761986795 132.369942385743428 -75.756685957992246
31.186921654092597 132.185638178870249 -76.975185912046953
38.912389366272627 134.470780387584057 -76.472906965680011
29.019966325076037 133.151161346064924 -74.817698034312301
26.137693184118824 135.083406814019128 -76.461857808661165
111.137993827516965 137.019124149528153 -74.634372192558956
116.452908601608769 134.095891435152254 -75.168922896224814
26.943430926077806 136.010974892205894 -75.911569263242569
115.440587958670903 136.517523913127434 -74.230094117285802
37.705057120277218 138.653029237217254 -73.982031129749316
40.445648384662945 134.818201004549593 -74.440206726661685
28.744179657927091 137.562165218107623 -76.098794689733751
-54.451580354000768 137.265282511907486 -74.780532908267702
-53.926357654054357 139.226610675531276 -73.682509144794921
-51.057224571900448 137.314775172304593 -73.484511013832460
26.255644650533533 138.510936706104417 -74.284091269688588
37.637487092868298 139.790257792128955 -73.687349690653477
-51.660411086721702 138.424830916088411 -75.333236775326384
115.127825939001042 137.359541576273330 -74.075301655201457
-56.179755036629970 137.824806590262654 -74.407004891000085
37.828962485517877 139.928128375747661 -74.641983377792585
-47.640913884461639 138.971517297240979 -74.233305054639771
115.363230868156094 137.990697225228587 -75.646905514961446
-54.122371733402112 140.797525173144891 -75.330761486975305
-49.838781392812628 141.765351855445118 -74.671807168631673
-47.518764781664018 138.761058654266378 -75.179739938962072
28.110753190721901 139.050133347610540 -75.082901327718389
-49.967608799919383 140.680678514586589 -74.977717788623295
28.124848685237627 141.470840361720548 -74.190190691555642
25.711184567070898 141.404156403214131 -76.080993663567767
35.166246327162540 139.715047564547007 -74.562229305296199
-47.685096503792451 143.939036938431514 -73.500917573906662
38.182919879196142 142.938596946483955 -73.830641187053132
110.633355600778458 141.231084442885390 -76.408929091995162
-49.847453398104136 144.657032663232599 -74.108165015768080
-46.820727176531491 145.584631931217331 -75.589032121530593
-50.211606189958943 144.778626977616852 -74.899503884744050
25.109919623774722 145.457647767084097 -76.404769149169553
26.977900604564287 145.037662074464578 -75.505685430355101
34.357829044333208 144.866451509508892 -76.413420485682153
-54.997381995758737 141.896217774712738 -74.784117053088409
-55.164479870626046 146.662574546237124 -75.986742139105871
33.457681699822437 146.229701371835574 -75.044913956122642
116.681520866991733 146.259588505350251 -75.151646695409013
-52.003186764479928 145.312396137306081 -74.858533276306403
-71.561545050404192 147.718253576352481 -73.828707231063518
110.875726143067993 147.423769148099097 -74.147347955877990
-51.238770572175042 148.573067581075094 -76.376801985658886
25.536261718464363 147.380689701154040 -75.643116057618784
-71.516383935374989 149.471550832238506 -74.267865984379043
34.109211432085679 148.650163658681379 -75.108949467341361
117.586041999363999 148.833242924167621 -74.582226117622966
-54.741995065628707 148.708096867719121 -73.551410233354730
22.793011527562633 149.786619165895871 -74.966792603323668
26.024174700173816 149.482828544365134 -73.809332858754416
-70.787806718807261 151.078761803659120 -73.911380929432582
-68.557459906669720 148.693034499643403 -73.881128990933519
-53.300721969975427 149.254048634687479 -75.878251359785367
-39.509342615406993 152.188997002286186 -74.534806486255960
109.457314586688554 153.233624587152775 -75.964123914690219
-71.901916782680203 150.302685428811458 -76.752635121956857
-52.439162110684606 152.018310300436980 -74.913848198136876
25.352079420130764 150.836898829285275 -75.037671342853656
31.772553562894007 151.335346412027206 -75.123618546401900
-52.846761896731053 154.789024379259502 -74.659135635541659
-45.406119470292431 150.709560990817408 -75.844297647402016
-40.601914278683083 150.917671837534130 -74.819335390822857
-67.571477935587069 151.126655789995880 -75.266247642798007
115.313649761463068 150.149676065103876 -76.276457776380909
-71.755807143677231 152.706577563466027 -74.182651465975553
-38.660381834503347 154.259162538722279 -75.189509825626217
-65.906418343852096 151.782906781473400 -74.584259677747553
-41.962321770982626 153.174269655388173 -76.488419006612730
-40.898078093890845 154.649601448454945 -75.053148196686450
23.381454101579429 152.847963273431503 -74.130184112333083
110.187764321943618 154.505322813708887 -74.622879925801300
-66.425496775944012 154.937411629993335 -73.952964404885677
-40.115968806206013 156.938556317329812 -74.724970448513602
-38.806941587658528 155.036102080951679 -76.503472934903542
21.888761807968272 152.924283801645970 -71.730609653605256
116.393459302682174 155.244682831837622 -74.939112411200711
-72.841703625766357 153.036520085930533 -75.625576004691524
-38.839413307690123 155.939254084238513 -74.606074925686514
24.390927903829493 155.252074153027422 -73.874642439061702
-71.836813564599652 156.597226833785129 -74.322687480729954
-53.332791940890004 155.801064598526665 -75.409417153436905
-49.641331891726900 156.504866205449190 -74.721026027329970
110.592367376802883 155.156268643209387 -75.497939572659973
-52.614259113352531 156.183153680044057 -73.650645338394412
21.398993137059858 156.011728380868988 -73.872689383233819
34.845131101067423 153.510175116479274 -75.581400624016823
-65.654728061833850 155.980923536842909 -75.774745113545691
-38.319521628052399 155.679090846853313 -75.763033830595788
32.117360525161359 154.424111415547145 -72.947361845634504
109.446746174389034 155.803450992610465 -74.057117732767779
115.134786141488348 156.452934975920385 -74.150715366259632
-39.771262847549828 157.811091977326583 -75.052610146069426
114.990594246079624 157.198575020253628 -74.724751574369463
-72.883074123306073 157.889621610831654 -74.316675349622841
-64.385020214273169 157.894556821166759 -74.746488666504135
-37.348326388976460 155.271839930697524 -74.697945327323851
20.817192819820743 158.795076647219389 -75.103325970810687
34.003492175546135 155.662141709005027 -77.463966952716959
-66.848673778226058 158.407707084167015 -74.487283451330896
-64.196163875797708 157.748993307366618 -73.363296637850965
-66.478449264617510 159.771668477327381 -75.266025271686658
-47.956045049901036 158.047982829515689 -74.229551811856666
-37.759786945965750 159.792683531148697 -75.507055486132458
-37.638775203793081 159.803443433822281 -75.612450654233797
-50.742775937996960 157.800687551627078 -73.455997595494154
109.831582936013177 158.371398012508678 -73.187210697442083
6.288451409018435 159.246830344269767 -73.298914898896427
22.444270360851593 158.191421408057721 -75.421417969912653
117.447280011077439 156.432442960678486 -72.187247841154786
-69.559064920274352 160.296502124993737 -74.635366026254829
5.868010522428679 158.924263484627829 -73.961554309132595
22.053501230781031 160.492067110891838 -74.736423643197227
110.729795629617200 159.615860597105836 -74.441451942280750
2.812154615702780 160.021708390729543 -74.771923691825251
-66.821186204067814 158.875171759840100 -74.206940737285393
-65.301852238989696 160.795156293188967 -75.542539789503124
-46.624892996777639 161.461115068768891 -75.575617422779459
-32.865464390401179 161.217368586641129 -74.510602556551135
9.865636881020821 161.466290268650198 -74.945052439683920
20.679118098298254 161.263062207247145 -73.727021747677711
32.621060095260475 160.130952335882768 -75.483400803165551
113.595758177842853 160.691931349009479 -75.274083027959165
-66.842855965422515 162.843623650244155 -74.235507617432134
-48.339622642002873 162.221183834711525 -75.964553047367630
-68.172051835982899 162.246677829693567 -75.887982887210484
-45.232804205645287 161.775267746302603 -75.779700806067837
2.756956087762219 161.336540551891744 -75.278028000948126
22.891987700371974 162.772726631881397 -76.986839327547358
-65.215502950529526 164.700221177486270 -74.227534782605701
-61.916145958553436 163.801007674993969 -72.525846039837148
6.670312966206475 160.592431570241217 -74.687801743697435
30.237082892523297 161.459301158328770 -74.064471367103678
113.801213111589519 162.371903303730505 -73.702284403444011
-59.302302812804172 162.084165207677813 -74.393749246968881
-64.711903008293248 162.884540645738014 -74.051960832043775
-48.619169708470451 161.369687493010304 -75.170547023819566
8.184887937839548 163.322075515327811 -74.998564018035793
21.673597628611461 164.678380753680131 -75.673855360673457
-67.667867284980844 164.311603416289302 -75.649227656193290
-65.675620981557500 165.076895717054981 -74.425063621193971
30.239511886010334 163.343595923286671 -76.322378347504852
108.011488075605186 161.048653529068105 -74.480159926912648
-45.443645301394554 162.943754251663989 -75.060617526491697
6.183278817964798 165.247946509512587 -76.033597049030703
-61.860053067322745 163.718643705176390 -75.058061477813709
-63.741276486443788 165.321034893065899 -73.897726867852242
-59.094627909077310 165.771797194352445 -75.399383173797048
-2.828005979557242 164.483406946701507 -76.292566779857268
22.558641180515107 164.201018035764463 -73.277470202832731
-46.630205631854558 164.888711107318528 -75.302791667731810
-46.731068281460750 166.881524443521954 -75.117509883889895
5.726911065950657 164.629319535539452 -73.696719864862885
-62.536854823400375 167.254409666326154 -74.848883751688419
-42.282849151587094 165.291826246770228 -77.418073882437739
19.911940759829101 166.343316506287380 -74.570293730435139
27.585957758404817 166.403177947352532 -74.871339001939845
31.508837806403363 164.645904680296468 -76.113299492241396
108.568933997006113 165.335344424090465 -74.014550574425201
-59.098867986048077 166.808786146184559 -74.260984405606266
-4.557406242435674 166.016763221511980 -73.827002752693431
4.139436000538690 165.734530978329360 -74.009881568586465
-30.675064544761042 166.901289368045354 -74.246726778536470
-65.808096500881703 166.347684455897848 -74.758177059933971
-31.067330020493770 165.900745014905311 -72.837990100351888
114.305502942616869 165.712919488686964 -73.824325139035281
-45.551441835328646 167.224545490869076 -77.036002809383717
-42.415314641882276 168.066877742238972 -74.265961258943406
-32.572395412600422 167.962584067339378 -75.259116787500560
32.973742755175586 167.701930617998073 -74.188147790953693
-62.041071423963110 167.111258308073587 -73.273462354762458
-60.464499761694178 167.976459433193781 -76.092779479923223
-4.496879112485930 167.154773342577499 -74.102425366359569
115.185025445606456 168.850791670089080 -74.577433282400733
-66.493528403829075 167.582626862551535 -74.916557332825491
-63.980913300248432 169.552483156136248 -72.941570519884593
-6.463179358223877 168.725562230390324 -74.928616303528131
-66.853514541428694 169.022495995099462 -74.902310285713185
-60.375607545377804 169.195440723421825 -75.782192237371333
1.539428988792398 169.592708070767685 -74.062576306376783
-61.848437198715885 169.037476756047852 -75.073871904912892
-32.227842784563407 169.106417475326026 -74.833508099946087
-61.396945340736785 171.387656431865963 -75.891135128997760
-43.478975451209379 170.451275601488021 -75.563166561671906
106.573399055463881 168.826962746567261 -75.846934092580938
111.832387566920971 171.823646446692635 -74.174049682284490
-56.614660772613334 171.817650301976357 -73.998938334525846
-56.238352436400440 170.349838253834207 -75.607034023913755
-43.165601654270937 172.000602781099673 -74.694082079097612
-5.943499735101300 171.942543540819628 -75.607574991725770
18.655075788917234 171.035436252753698 -73.242323025725000
27.133179811385538 172.611656059649818 -75.103764130654824
113.658158277131278 172.057998589440501 -75.607331926358285
-64.530443604688870 170.990050954232942 -74.863061002825404
-62.421217498796999 170.195945422666114 -74.585928355204075
-40.429002570963696 169.836132452267208 -74.181120059323831
-27.793078483778110 170.696187673675354 -76.014961943061792
-58.775587520191046 170.910650319149170 -76.497210814232588
-55.795781054090376 172.347356871511607 -74.261751355136752
-41.576185837649739 172.058448114202946 -74.199709946999235
-29.763894381086175 171.543496112408349 -75.702198730851734
-27.843004511339139 172.642064456795367 -75.263409576416308
-62.515787990333124 171.963169683102592 -75.013591189162838
-8.899932716433415 171.764666058936427 -75.621363733577539
-8.542784256566339 171.951881648655643 -73.662017019128342
-39.355105398895674 171.398655230189661 -74.769788054403719
-7.453174448539304 172.191725422393802 -75.633865204898839
-6.118769225339948 172.188787957826889 -72.591368076429362
-2.539298645357080 171.369435550612621 -74.662096575858200
105.598971104985992 171.977119619070209 -76.763725156718522
-65.790234972325919 172.620428061439100 -74.423331938788223
-29.285927941413100 173.284635094023741 -76.161883318332386
-3.752441446470045 172.984547500158300 -75.345504712938720
-62.290443984416612 173.536997506179034 -76.905888760781153
-39.920155623528657 175.550669852841878 -73.820109362632351
-61.226510231992300 170.851313659809279 -76.461104060004843
-7.908755346705627 174.332055831333633 -72.996345320989676
17.441730675112652 174.836690878775698 -74.173347029930213
20.121883119623508 172.141813856316674 -75.469267756273425
-54.404130073429464 174.272524126113950 -74.719477050502704
-9.791656206153244 173.866392212560299 -75.692733878536558
-8.670280209084639 173.286553027682260 -74.583238958512695
-6.505967150043329 172.927364010128514 -74.439469500190640
-59.600201614922007 174.700656263868211 -75.833529785800252
-57.623217643911161 174.293898979466633 -74.707272767324525
-40.513518301316154 174.288923683335980 -75.051311225422836
-29.005909520492292 174.528537696565934 -73.777205121252948
-9.202740099628274 176.171392563865510 -75.023713539761289
-4.977219011069400 174.836387970935903 -73.130315532738237
29.448521846189514 175.450009232059926 -77.041783284207781
-59.847292578841696 176.538338094680398 -75.306245114065931
-11.201980915058213 176.027662234959195 -76.408396450806407
-7.982110729898755 174.769406208502346 -74.129709375940095
-6.145217422395250 172.867657479285299 -74.627382428448882
26.744263794117121 174.844188827125265 -74.822118731608526
-60.507312926872160 174.308887954597026 -75.211533240853754
-26.631610306790783 175.208999753905459 -76.443171814834443
19.697130559220479 176.439528193487376 -73.917537588000584
113.931419713719947 174.300087940099615 -75.008533147628071
-57.334466113206858 176.631775099398908 -74.749545752333248
-28.187559563442989 175.908119926033834 -72.121224585312945
18.052600068041585 177.657450273744615 -76.514623972816565
28.570314917865193 175.826740060533353 -75.620618739296788
-61.881354059930878 177.041281967052015 -75.611302683494500
-64.016326640512048 176.403593542560884 -75.737274498920584
106.663352879757511 175.676269478415065 -75.511545211223279
110.696812398755085 178.151523347021481 -75.785695020570643
17.922436033971493 176.450445873842057 -73.047959878484349
-36.891800573111396 178.792279591588823 -74.584452445283944
-27.407459039220825 178.049439842383862 -74.044301072044888
19.039769866998299 175.311964186815288 -74.733384331888203
-60.931798129988842 178.548689856807670 -76.472447879106298
111.206845192721971 176.083058216554974 -75.452557504525274
-53.536742343846861 178.090519786048134 -75.564329787673287
-35.601639034458550 178.490923052338076 -73.943693329378718
-27.344663683897856 178.819831047641173 -74.604805840805454
26.580348550625796 175.662587712211490 -75.573014709075167
28.729400499581669 178.609066844014677 -73.219511431268430
109.223932325530484 178.430407879059118 -74.825845879233398
18.847021820838215 180.221999101379794 -75.730105149851823
-63.172637558663595 179.517885791305162 -76.985750395507125
-54.020298996487142 180.444685094173082 -72.198945633640832
105.291753122797104 176.319571950558128 -75.162335691968565
104.735780947734341 179.921008930555473 -74.273513517375918
112.389390382354719 180.131323562574181 -73.290351872122159
107.854238433351981 180.735953092035373 -75.062401369689226
-60.085598170129522 179.651921783760372 -76.131464520645082
-52.579649536285018 178.776525768856430 -75.609657135237967
-25.907110594472126 180.392864046487176 -75.086554965992448
105.251639770192241 182.077753950407043 -74.320058063509848
109.812206735310085 181.322222038098175 -73.168564024133545
107.018044335895567 183.166001239883485 -74.235633960419094
-35.535110594480990 181.696745138345790 -74.744497236351719
15.536630042928817 182.935784126994179 -75.100308431140206
18.312888745861489 182.019950505337363 -74.457310029110104
-23.490263539994725 182.378675712003229 -77.294695256963635
24.510843853496439 181.552489775650258 -74.031239850971247
-34.677084587307263 184.283957134201614 -75.947432106269559
-25.379336620587406 182.192145369922429 -76.272456367892275
18.512576909572878 183.406446641215069 -76.056314750573947
26.549162933554939 183.355571401415631 -73.865660294300397
104.233342215345502 184.136463054637971 -75.230076142311205
107.954052794519143 183.919997727423578 -73.139860630729942
-34.253468267993185 183.177990136448102 -73.707742955305861
16.114182475222989 183.088669257505074 -74.421136181795973
-58.419453708416825 183.564719322857599 -76.293724783479860
-50.852827042536582 184.487207022554287 -73.283181951934537
111.725128632013607 180.485915848742962 -75.731800754473767
-21.823983137809741 183.469989302406219 -76.040468050648357
17.966490289897056 185.026327160005451 -74.646076006829915
111.155929127278128 185.197375368580538 -74.207556007223488
-23.257017521764507 184.272811490164173 -73.174596015740093
-21.472258503146183 185.039197735648258 -76.209040153307356
-48.762994641166543 186.034626704256993 -73.954253420388540
23.747044139383338 185.264159281357962 -75.445032298035315
16.456798313934470 187.209031850609506 -75.443100182412365
23.379611171443699 186.647606275447657 -73.150480990095105
-55.675122724881987 187.797039214730461 -74.672174326356654
-34.005541996982735 185.932632405744442 -76.052171114676383
-33.716647788776790 185.825644301686793 -73.372306982699953
-22.579968352618597 184.899624137267807 -74.577937839244640
13.527195978491667 184.800157512139350 -75.682774592754271
24.038015942198946 186.308323020108588 -76.307734863336023
-53.886449174670204 188.407485697915149 -75.075395113979738
-20.288817194354927 187.606683743580447 -76.052194615369302
-19.968896427640470 187.490136334116045 -76.233631939510389
-144.577311582402643 188.071042987837018 -75.356353820162909
-32.327744723876314 186.715361535771621 -73.280373995299655
-20.523385651214667 187.383230521730667 -76.692384992602769
-148.123193720388826 188.311995161318521 -75.417411828317327
-54.375601581932500 188.465523683024088 -75.574073531410249
14.454366218222091 186.500546678211435 -74.807636648727538
-146.617115301246940 189.494797623291248 -75.085733085339001
-29.589369226575975 186.776186069721660 -74.534862104429109
22.814988394102400 188.198768061064499 -74.939253486816824
25.405481637390892 190.366018154606792 -75.553562303518191
104.035477183564510 188.165868260209891 -74.707005489219284
-52.315346703379866 188.229220186429956 -73.871579247678241
-46.203476185039129 190.086906188486722 -73.135035667696954
106.359356374951702 188.173850173140835 -74.322134945451012
-151.032981141708547 190.569355722326804 -72.696177745149541
-145.122309277850718 188.289920732243758 -74.540403411436643
-53.371337603581232 189.888912337300837 -76.926178838578764
-46.325625127356105 188.508696654592740 -74.650309302991730
-20.526353749405317 186.805687733279086 -75.067605617570152
-19.819216927226190 188.659161336181768 -74.949818013634413
15.770805162784963 190.160858611685654 -74.274407860573490
22.374716995570743 191.054828721922007 -73.772854919319897
-149.023419076351075 191.244845739658018 -75.593353382442771
-147.568133421136082 191.041169039131290 -74.079468349867170
-144.194531400876059 188.375523640144763 -74.710436132565661
-49.513077577016176 193.163759505410155 -74.701346279362099
108.680913644195414 190.030689533863580 -74.476980151788851
-150.720695812910407 191.106547142925081 -75.893156849517894
-18.543421440552599 190.475302581670348 -75.209156227818937
-145.587028054240790 190.386140701588289 -75.009097413017685
100.580190396435441 189.963244329153014 -73.199567245583722
-146.699201105549776 189.932770568157650 -74.727920442347653
-44.852628966079436 190.131343528885481 -73.891565075614778
-27.939323933233794 189.327634335023987 -72.773118795807008
-18.803697705789833 192.606117105102157 -74.389542422023894
-150.540945185211029 193.172241221340528 -75.729960437434741
-30.598426167023803 192.653979771766359 -74.462158551868001
-19.082049946833443 191.784246577322534 -75.552451873764042
13.278116738487837 191.512859983006649 -74.255109568785841
22.066141078207583 190.695327349900879 -74.195555651259141
-146.268302504325447 191.876827895288841 -75.094864462496304
-26.568985378120235 192.933007331563658 -73.480953334789618
16.535640529688397 191.642215859418314 -76.193786858195935
105.737603515973305 192.562799747680543 -77.228739736370443
-146.429225354066290 191.627646110496528 -74.221436714306236
-51.175510116521323 192.278544753540274 -75.395818047338707
25.089169103557644 193.124461714802038 -74.826014258371046
99.404163536220139 193.434517202339180 -74.496756659325754
104.263956336677083 193.294131580432349 -75.047317918288357
-43.537092933142425 192.342777244608982 -72.603428975939977
-31.538340309616824 194.277175925279323 -74.728057538305777
13.292364174531178 193.273686583232291 -74.937845966366709
-148.712187529242101 192.832187059212316 -75.216307779563749
13.303034189408461 193.736164014188574 -75.276940911505946
24.334244456944884 194.182169749989356 -73.681812625374732
-149.680786514734564 193.939184916563590 -74.706441092004454
-143.993294141221554 194.698792615722937 -75.650639551541516
-47.768878349565895 195.613749756884886 -75.460581035825143
-26.908864765940994 193.484379509510973 -74.452079910967512
104.210918113468452 194.441000435678035 -74.250947446911567
-142.855519885763812 196.120150454286517 -76.490297663507249
-28.248321615058359 197.080594574330462 -74.554902781221713
-16.244887724446663 195.394626969693064 -73.691177899016580
11.467050082358462 196.875762132922716 -76.880108055860319
-144.451774856441062 196.514493399837534 -77.200174621340636
-41.988605953437073 196.985840217592198 -74.251703929382955
98.360739065040477 194.489958366823060 -74.734016015407263
107.446968944819716 193.906972978705483 -75.481830985177950
-49.005165221151579 196.054713056990011 -74.309738147241973
-27.784379972524032 195.633160387886107 -72.974970570502506
-140.200564729337657 196.103173671500741 -74.249221700979874
-152.384421837738984 197.151310250822632 -75.175689980833170
-141.691746268457962 198.354651250231711 -76.295491469334493
-38.282293621487945 196.841069867553102 -74.687919964993625
14.967740731989354 196.246733247404933 -76.500325353621349
104.519734589754151 197.640929748735999 -73.268140768177716
10.148326848433340 197.855141717530302 -73.471214251787359
96.527480995033656 196.322992483285049 -75.702049973433887
-47.612541353235024 197.944322143262269 -73.772725903686819
101.676804193819123 197.910075653012427 -75.082372149985957
-40.569137637862575 198.464946665380950 -74.044820816997856
-16.155425372276582 196.598940759914541 -75.730245554772935
10.836234775611533 196.939425873681927 -72.725397377850427
22.866410461521593 197.213243018566004 -73.319540301998870
101.943662690500744 199.498182547130710 -73.439637015161622
-139.914822471409764 200.049322340905775 -76.306558515928842
-140.667682624352125 199.559980361628760 -74.959833739824219
-14.661721107248244 198.990922853960399 -74.310428926967873
98.841466991966882 197.606754260903244 -76.015143069137849
101.166771420981846 198.626477194051262 -73.926877344562214
105.236299081071124 199.406931764117303 -73.788134972628626
-136.121631024473061 197.625020778985345 -73.860135370257908
-45.881702120474024 199.654274401158375 -75.124266252327232
-38.912976377305405 198.820325364468005 -74.570292518507415
21.016347985049009 200.086801474302320 -74.278349180555665
-148.358415159818549 197.906765955865751 -76.635237135278260
-133.489872464461342 201.017927049050201 -75.374822395531609
-45.555333576867049 200.203154628176890 -74.941262611721427
-25.679942752652625 198.116036906332738 -75.850651299119832
-22.192665289624152 200.525629537007916 -76.314520847027808
102.551619814957220 201.015716893019118 -76.791534465898707
-135.835067235954170 200.914038833527485 -76.030046393153015
-24.240493077766526 201.389926952405403 -73.369767287886418
18.114827637333775 199.981435661199896 -74.896199592452788
-138.525621041265083 201.565993558386424 -72.365397423135263
-135.455789993199943 202.040837481578734 -76.959876828739070
95.519410036065182 202.513116236298202 -76.173157911579096
99.989458885981549 200.643882276518525 -73.694524666430112
-144.961144616258423 200.965237408494261 -72.773991503426743
-136.590698746452944 198.754316029263862 -76.543671265318565
-44.558951754768735 201.806848685662032 -75.346677955482846
-153.415657888556041 202.684425679924431 -75.248485902005442
-37.497831092254103 199.942790402825551 -73.645272086160233
-15.250038159841420 200.274055027994848 -75.207194218636900
-15.375431721102906 202.122851721600881 -74.746980164244974
10.711245251184378 200.978256160021374 -75.155949780788958
-146.805659701868848 202.554484070515429 -74.747253217769568
-24.819552427080179 201.583502463526258 -75.046636083578250
10.280362110799070 201.152347889308828 -76.074923172274154
102.044266172359855 201.056759027830736 -75.733163568495144
-138.440174013594373 201.542303997644723 -74.384062314106316
-134.009466811252452 200.961969069108278 -77.248246455903086
-38.036676906165219 203.356246559052067 -74.657570937559584
19.352516212329515 202.489727345222576 -75.630993811557786
-42.784370095541043 203.842825312388896 -76.169816750304548
-23.256912426068716 201.955110916631696 -73.714176583659821
93.927297681149923 202.231439440052867 -74.545785353072887
-140.974823348407796 205.106684527688799 -75.777860810558863
-140.317108915265266 203.278110357097233 -71.901482809141854
-137.063724368393963 202.662669989222081 -74.874548665581969
-138.128386221352173 202.202141539515566 -74.062469730318298
-137.493482717098260 203.804332380605189 -76.510501550903044
-136.918767888172397 201.770516700823009 -75.193324791544697
-13.502759148228893 204.639869094590267 -73.831455524621134
18.957935977078108 201.503733811161453 -74.400201642822921
-34.089271064898050 203.742018593609572 -74.626389698907218
-23.771143753051746 204.115364684058221 -75.361558174988346
-11.277060377649491 203.652357877185892 -75.754962586725014
99.086114404926334 203.058941168775675 -73.446397326550340
102.790278279970622 204.025029745719678 -74.485419962864910
-34.222004690304253 203.773804331349055 -74.587149201571222
-42.719002318213548 204.779169249409080 -74.351996901509338
-20.577921727465437 204.132060251156020 -75.320326416416094
9.641571192089000 204.620846857883009 -75.481898820625830
-20.879561073802332 205.251723000380252 -74.298690338043315
-12.525571374631122 205.510145291622081 -74.940475427635761
98.693115352909828 205.503628286998605 -72.624374229841834
8.365742871398933 204.092293472348530 -73.864085541390494
20.538558394998940 205.806231274561412 -73.637227011734879
-42.572398167571954 204.783444607786492 -74.595123971339021
-11.558914087265116 205.352224081533478 -74.691411914102517
98.763926691215985 206.521697326202371 -75.918850995696758
-148.803906801661469 207.434205442802465 -76.156978287246801
94.428466688528516 204.401113203390707 -74.874343900595292
-33.118619125215325 205.042480460044942 -74.512829209178818
-10.230181407881238 207.882189242524504 -75.756225294771909
92.033666032935216 206.641332822661838 -72.751672329180337
100.920816472034204 207.393491114592678 -74.820513342568518
-41.750652350106819 205.534532314195076 -74.359272556934712
10.304118217931126 207.129962252282610 -76.839393029432472
18.205989966475979 206.651622455220121 -74.139687683720240
-38.862541440150864 206.788967698107058 -75.278756799181764
11.742620296376254 207.864854593994835 -74.837444709541614
-29.321578169822178 207.093747765461330 -75.002245208679938
-19.207135175218195 208.066726574668280 -74.742471443230286
-19.465269275671741 205.770100398931476 -74.111918796534752
7.901886147337150 209.386638237164306 -76.854591828606061
19.389470110079813 208.665397518494586 -75.930692183834566
-148.811314833235258 207.300987139925297 -74.233776737777177
-10.038487051868726 207.481657523748851 -75.562986835746429
92.127916969945659 209.061257800261501 -75.226060839598077
-7.887086532761577 208.296142860738797 -75.935629724712086
-18.030493513535927 208.537849954406568 -75.399461096412637
-10.646821916795474 208.707434550148804 -76.255393706160334
5.629024300862173 207.418629049716372 -72.136463325762904
100.453218249367410 208.839359946699716 -75.337142797924699
-28.745256745482639 209.092398962422919 -75.944514778717149
10.022136694972238 210.462166999242783 -74.581396397332995
-145.590238388030258 209.450677913198689 -74.805456908503217
-27.978093131048396 209.856146435511164 -75.115718224445814
-146.395791964171508 207.980330157997543 -75.472467593210723
10.787153479373533 211.355794325406038 -73.710497297451298
96.589116902196864 210.474186724539379 -76.303081671759529
-18.297743647495853 210.311853840005853 -73.644908419840036
-7.961602942112360 209.872719197890859 -74.949919723381328
6.407352281995759 210.614398264876883 -74.428794845039363
-77.332564451472720 211.795390450230371 -74.938008933691890
