# This PCD file was generated using the MATLAB® pcwrite function
# from Computer Vision Toolbox®.
# .PCD v.7 - Point Cloud Data file format
VERSION .7
FIELDS x y z
SIZE 8 8 8
TYPE F F F
COUNT 1 1 1
WIDTH 814
HEIGHT 1
VIEWPOINT 0 0 0 1 0 0 0
POINTS 814
DATA ascii
90.219957091628785 98.732155675862003 -44.403952671935166
71.362808604209334 98.951167561460423 -45.589064563276580
82.974746042827547 99.247806433362143 -45.213557606947880
85.926680896610662 98.569135313906685 -45.000153040336365
-69.548480109794397 98.486335679792347 -46.978233980840642
69.860102895111780 99.909517441264754 -45.133305154718627
74.589199446197426 99.151282713551694 -45.013493890870770
72.314389044421361 100.292761769001231 -45.147954956125702
78.689061348760944 99.726098444589439 -45.006885059262260
103.837616614669685 99.301231852947666 -45.045040455279874
85.968479846193389 101.019271800996577 -45.659377220534523
103.534126841653119 101.466821432521527 -45.443643476634939
70.300018757039737 100.622966537398639 -46.210397969802571
76.442325524216969 101.189193334501155 -45.615205354804566
78.191458026688323 100.675098407586006 -44.995395777928962
74.422584526307233 102.682839966369045 -44.601349425193916
83.721751637617672 102.064089471938942 -45.484537944134694
84.968502200746315 102.102211233375044 -44.395542828385544
71.049371713931748 101.717905321615689 -45.089106260492358
88.186032376214271 102.484815677899832 -45.276302749156820
100.507624089773699 102.436387063624082 -45.643818865903661
-98.997843899529485 103.671321708024394 -46.394557936609438
78.122711075308189 102.090037909205051 -45.332576703512458
85.783723457589929 102.406763914178157 -45.245879785209112
90.337003534228870 103.025553346955519 -43.695354820224075
-72.313328444761197 102.378724185632620 -44.378321031406472
78.470929509158566 103.577452052878314 -44.610216050179218
100.179115650677574 103.569604152121499 -45.165875539389980
76.180447406788161 102.368164738277770 -45.638434450102785
71.358869741529077 103.927845011664687 -45.517625718329441
73.940109675497254 104.026360180862213 -44.856249954182957
87.128354504202150 103.662576243796423 -45.416497418093840
99.245349420609386 104.471541408565031 -44.549385545013557
78.710842647656108 104.345472998847569 -44.176239311033655
89.877842082748316 104.737142815636318 -44.053146946657314
85.379985569874393 103.380157791710957 -45.467236403648130
101.591260763749560 103.943172810874572 -45.488211785271311
78.617464626190099 105.242927609891552 -44.039134380485365
98.388037834204866 102.858403422738704 -45.222467948615446
100.127749077828128 105.164131254734684 -43.764968127525862
75.420262105323232 104.406688987027437 -44.250986877779781
72.385656815007081 105.322759200339064 -45.171727552849994
86.573633815191670 105.236185074480900 -45.348816151289626
96.685170224448470 105.484495916426837 -44.346908971306178
-99.291814876903686 105.638192565930154 -45.378393531951055
74.307467763758297 104.481624038721776 -45.105970368072462
89.981855611523017 106.518499000478755 -44.105313043074140
97.375880915006476 106.086984576093471 -46.095069768442478
100.013820541682122 106.761182503874181 -44.187535913218035
73.368773465246548 106.535902424045304 -44.544519244498296
80.477039310058757 107.042330126219809 -45.019043786048591
82.405662108951461 107.367502698727080 -45.113598133260481
80.357415960398853 108.248313796145368 -44.405059771155770
85.670673524670590 106.896526122657150 -46.168413135805977
97.578456610133955 107.938408530461388 -46.019058466318242
98.076939722270552 106.534151584965315 -45.079772583107392
73.996850537379672 106.643743214881297 -44.691959189576998
99.967654208618512 108.879618709217155 -45.329862511335683
82.522275486174934 107.436445343660324 -44.081110715447764
93.439088397250259 108.303399131022644 -44.329493784170168
85.425567107712439 108.781614029543320 -46.174439462223269
91.519210214463300 108.445643005010638 -44.082466292754034
93.021074734181127 108.774729757160372 -45.097592053680302
96.745878647914950 108.036965753814613 -45.462879520528006
83.312564015464901 109.909121401857149 -45.767061224585674
80.721044450788057 108.643874228630366 -44.952306337059454
84.017892954220969 109.027711954697253 -45.161629176228963
86.880869407837395 109.101095036162121 -45.057820639046611
88.693364825066112 107.633429917818418 -45.433217075819272
96.485762069991210 108.996739066852996 -45.839097574919030
97.109600966502413 109.293558181305812 -45.475463815119063
-79.583949991605138 109.149782618408665 -45.754489440964207
96.964481718346761 109.491187057172567 -45.131560390418457
88.643359812667455 108.830428937374336 -44.672636883959164
91.721073424720942 109.238877557542040 -44.618000599260348
91.509414368742355 109.199216869320608 -45.876241776712973
94.424103654670716 110.776658667062748 -45.750181700051598
89.733520899682745 109.371020311560954 -45.518151322649018
98.802700503598899 109.979376501234583 -44.678120858533028
85.228710988423543 108.968488328354354 -44.851014009437115
93.320809472175839 109.901453473777053 -46.172671946702458
95.965405766754202 110.108426496869654 -44.380067577438403
-82.913781741682499 110.267834333160749 -44.350582081944268
86.657681381483016 110.380891707370736 -45.843689176183233
88.264059503456863 111.259154570998618 -44.842753811695417
95.820676961773387 111.256377202405645 -44.980407751980152
-83.547751157572847 112.609797773087109 -46.025591074691953
96.431657615558137 111.904328308647194 -45.829651338494116
71.446777957942501 113.103714215095749 -45.937194766132109
77.604331103093571 112.263633210925661 -46.126633927825083
81.961323806855447 112.917301860503088 -44.785159743736266
75.054124664082664 114.127630981607936 -44.824759913413992
75.399243397009784 113.064882332729212 -44.984810991578840
78.827528201414154 112.385720536779019 -44.014965260176147
79.663499742904776 113.987064830646631 -43.877263007126054
84.582103586299766 113.413717565685559 -44.320920831555078
91.717159941402826 112.838824654357197 -45.867071735745988
-84.484102258855998 113.102577690801326 -44.617644597937080
75.838061377377159 113.721883065395744 -45.611080363172228
76.616679206187086 114.157001922264669 -45.387505558858535
90.253283625435373 113.335449509863153 -45.661892290474320
95.496089200356181 112.702592473537720 -45.691966561628448
78.755459924035321 114.420168892587682 -44.610475098422647
90.154878020985365 113.775249523528402 -45.019385785917834
86.325513093213871 114.531058068488051 -45.336459330686765
-86.309195047016743 114.796637460572086 -43.354825999235437
-95.321302253359192 115.430812125041442 -45.664915018898334
-94.479469180280077 116.601073703583651 -44.117827785132931
-93.760518894216830 118.238561965948620 -46.446546534507952
-92.236123587554971 119.759245085246846 -46.367173222840265
-91.752262713119308 119.640901691860066 -45.122786225602404
-90.600948187377938 118.888895300953934 -44.210492398296502
-71.845126860003575 47.512401392480029 -43.791353465560405
-69.518058588919871 47.737357795604943 -43.071838734069253
-66.998951475716055 47.616514135507614 -45.171420262319621
-78.632292446417964 47.881423539069118 -44.597672797649622
-75.400525534528526 47.704313906549423 -44.631131340789587
-63.669839690903359 47.050625742443096 -45.291592849775910
-60.718768757518369 49.558604125558190 -45.953890172127856
-62.755178824423368 48.953223305872740 -44.066753532489251
-57.033623363913406 50.650809813179841 -43.733840557197020
-55.964199186063745 50.072499350838456 -42.309922723113367
-61.770939590395180 50.822903723447453 -45.074557822585980
-58.267175523058391 50.607791628759834 -44.662532370717891
-49.832979256211338 52.586523293572974 -43.123003820157948
-52.914775870869910 51.378305010959906 -44.034393549529362
-46.113389850044555 53.233306135981969 -44.627350149862401
-62.481700726645208 53.324259908203544 -44.791259898629846
-91.736305587776457 54.200940281306089 -45.734551423721165
-60.042825118202593 55.356941535794647 -44.030757836687243
-41.819022715170057 54.095337067623561 -44.599010905564690
-92.030350295779385 54.716315706258136 -44.538547808015885
-61.637200242421237 54.694432937900729 -43.391607758471295
-39.884914561998279 54.313518123818710 -44.874542902614813
-38.806150809787191 54.661580870734838 -45.345200379046318
-61.755997681571642 55.100659126399535 -43.809504070184325
-92.898169225542347 55.427836397928480 -45.062545501029916
-39.785765398006987 54.880438491533852 -44.482514070442079
-37.038025140309735 54.686129231922592 -44.115147734129799
-32.068359668085400 56.422442405784913 -45.177267927603445
-25.677899680914500 56.070745560531357 -45.312894053468504
-22.174306239986777 56.100850129684829 -44.103201134178363
-19.267546672684375 56.831632237683735 -42.680843498290720
78.829880208437743 55.782508176498091 -44.774433418296724
82.011167519458525 56.224039781140739 -44.522916511426182
-92.974299307709700 56.016328757652587 -44.592763634032387
-26.528428872749561 56.878189165909554 -44.234800706231866
-14.343678955479836 56.117759510026893 -43.116882041433271
76.962955429891750 56.968549289820750 -43.395193522739106
85.790024518838777 56.595136153174003 -42.521329045050045
76.477950509536328 57.364117400266871 -43.753395077842256
80.294174635681841 56.964234527017759 -44.261698302791210
83.779467389588888 56.840226590843095 -43.259119126528738
78.211024456836157 57.442799941409909 -43.573024971308833
80.229240680718434 58.037180050309701 -43.872700174894739
83.867229225963172 58.010614196194553 -44.427025162374690
83.051083713072089 56.688029604126633 -44.656811017198798
-10.088539721355374 57.803747328009017 -44.579100695240591
74.530047703535715 57.047859795876988 -44.373053058492268
75.201449061421428 58.298218411432188 -44.541995121878593
-9.249443724267383 57.582362684184517 -44.572097831073698
74.832757257154071 58.122952346132166 -44.619294762636201
84.979273568421178 58.265266939840700 -44.090229390602993
87.562517083110393 57.212428415386242 -43.799015828393607
84.649823247956505 58.323649562559041 -43.726468100932095
87.432837467855578 59.292405271175376 -43.351933466948530
91.408454986398056 59.223335339923189 -43.133073680476087
72.646281839582116 58.003113784471680 -43.481436317134545
75.242834660421849 58.209949747745746 -43.949675175521882
73.412538459445386 57.837849107345924 -44.758667126377702
83.700747447002286 58.866319108233256 -42.798302057650780
88.285757859320640 58.905628490842908 -43.838212591899754
90.544124390404988 59.407901567450551 -44.753211915573104
91.822079927229083 59.037422025305112 -44.287835987025957
85.694777397556450 59.370210240002976 -44.725649630338822
85.495159976426649 59.031667835702223 -44.642201545522347
94.293582439422408 58.786017021601637 -43.726281367331929
72.255165197159386 59.163134017679070 -44.701328510715037
83.708121252294873 59.638621557729678 -44.336275508539686
86.291048122871985 60.487377939261094 -44.689630494465028
87.604105352214475 60.003952012249805 -44.439774641345721
89.319749434412103 59.485964272546539 -43.483467279178605
95.860441679878306 60.050163569274254 -43.170493378928725
-8.681477836833681 59.883359855549962 -46.355703558772824
71.471277605172091 60.127272818157778 -45.107600628652733
85.235532918899196 60.084071531364465 -44.063401301287662
86.548884804253319 60.291248778690289 -44.521080945946785
87.255992654004331 60.155689585497456 -45.248676605845752
91.523379920982080 59.192090846936750 -44.703599036140162
85.875496866355604 60.318624872193027 -43.321741932622658
90.333422090742189 60.766698672625211 -44.960855132027959
96.834292593911897 60.978523911012907 -45.975670127008200
86.669105994352293 61.313381418346864 -43.485840312288609
87.955947733867291 62.917948347737209 -44.126307386543388
88.003899496272112 60.799031337636364 -43.659209277066878
-14.939382063160068 61.509073031994568 -45.436070131076754
78.263833118081919 61.534448221535428 -44.859060619049970
96.672333275612161 61.074854957755058 -43.369804397549814
95.505160785076143 61.403571672929047 -44.882479379356106
99.490801546510269 61.640232680453202 -43.937824465804646
100.350759601002011 61.539081984007275 -44.442326482135826
-97.108441066020433 61.553852055534342 -45.488098012296746
75.835083622277992 62.055989782347972 -43.811160255985861
77.584137207494663 61.583864146595417 -44.353404261645537
80.402121584469540 61.711092743678861 -44.122122850235563
-96.526673316282469 62.543508780412893 -44.795413987837385
-20.950239980258694 62.563084835733378 -45.501553493787334
-19.040901065245876 62.551601786415318 -44.567186283129651
90.516522120388359 62.580925239093517 -43.665371226457147
-97.072043044876111 62.190589219662776 -43.051191524312074
79.879146876144205 62.386141420910640 -44.037000704574176
82.139576403949576 63.101845711985305 -43.646755079867802
95.319893345178158 62.241692572641647 -44.926920318903626
96.985917424411639 63.140110250936445 -44.587747481709549
99.495067050421568 62.079001312789494 -45.002573266304353
74.461110754678899 62.356056715050279 -43.975400917715390
75.877235475441836 63.145168311255858 -43.545384064603894
78.395297751502994 61.084840627974636 -43.491935469505769
97.030794699750160 62.032302299356274 -44.767095298958751
82.118335313894605 63.503795880576163 -43.930599859696798
88.908187694865319 63.988576020991800 -44.797185649893166
91.313310892067463 63.571103500319886 -44.513363908882923
-26.434311579148417 63.586273489573195 -42.559773035733862
86.238673034117127 63.428883052205428 -43.812845068297314
86.839730930811257 64.787736035545805 -44.149858465802176
95.157728057470422 63.635615549162146 -43.619548479373734
97.965324021990284 63.475540224620481 -44.472569934783593
74.870482035640023 64.002709000441499 -43.494375428691441
78.288852249143702 62.392399816396200 -44.039839249223775
82.774151907648786 63.606141521917451 -44.597937016397566
91.062586068778742 63.946672104790764 -44.080055038345755
74.620052991358449 63.850680606198686 -44.213677249098218
82.884749309638948 64.780594614808223 -43.892243120582215
88.437582458336053 64.857774368360765 -44.580928412503901
80.040025247962987 64.038168384410938 -43.505607557503730
83.131997220475924 65.701140988217958 -43.936354162195236
88.111970736370850 64.775770824169996 -43.793196310009598
99.347969644910478 65.282602567940614 -43.501655612318835
77.342829426839998 65.303922248530597 -43.417792031388728
80.671342625710238 65.956971521470734 -44.223476897884318
85.227841807362083 64.568275535063606 -44.551942168625764
97.813496627718365 65.328066668561803 -44.813213329994085
-33.956407408766573 65.836235141448753 -47.054400063924845
102.920522466695019 66.430487060194679 -44.699021995169403
72.524178970965039 66.791066370327286 -44.824283578500044
76.421028197028392 65.387477048942316 -43.007108271373049
-36.020910812104603 65.525764806085135 -45.205721583363996
80.901172584581929 65.844751262648714 -43.730149276530909
83.395258413225392 67.149512434798353 -43.635514038253653
85.893785226466974 66.319234241151278 -43.232974837206910
98.874277787563258 66.220659377062958 -44.927973381135615
73.809195274568708 66.996580935464337 -43.402915674525531
76.611633380057853 67.257408994916659 -43.672598669038322
98.685029363051555 67.224136695466896 -43.670610927931314
-99.195058321069226 67.507350072291871 -45.824434457656153
-36.175503702177089 66.550631871039812 -44.743347038220861
80.935427370377539 66.947014321505506 -43.240307309891513
101.267289289669776 65.724770791805980 -43.984779821768385
104.360782065909632 67.908214410340932 -44.259675358143781
72.013223029190144 67.384206268741153 -44.472976241810841
-37.528950554814813 68.091746728860912 -43.584207335372412
79.268348684268119 66.704357177412788 -44.455653907598808
87.259437423332642 67.238315087520789 -43.334927143816188
100.347147119425173 66.835773197277504 -44.486750793512570
-99.940205453282715 68.466592851490660 -46.322843654349661
72.957204051026821 68.053942988631320 -44.662252670683486
77.786681916755825 68.028791024001976 -43.889108486768357
78.359320583318507 68.045866274773232 -44.339265449645275
87.035777193809508 68.463915705436364 -42.885495548113894
78.959403684796271 68.943665373766805 -44.947151071548213
71.247506614719171 68.516094691219919 -44.794754084624330
82.413511820016083 69.377162401444750 -43.566922317473292
100.848243508658243 69.051049765922414 -44.412065796991421
-100.315817583315706 69.138778042696785 -47.552224485284157
-38.050141014859001 70.695208896090548 -44.466744136320848
101.402306675095915 69.922038312106437 -44.470766282502133
103.470954905072972 69.706340600779455 -43.884252439748899
75.987787160898861 68.891484174389902 -44.726818786502434
88.345927574829403 69.762529754711920 -42.883939844077425
71.810901486958429 70.782589119780681 -44.683733190269912
83.157373646003919 69.790546833193773 -44.618231624116774
74.390091652106122 70.133756742384890 -44.526147222037473
104.748730456070987 70.091311365057848 -44.738995125104296
75.691524013045338 72.460405386339076 -43.800730849942646
81.064040982850287 71.595864887848549 -44.229841463052260
-38.361141638908620 71.987035520525950 -45.279659598666321
103.827684839492264 72.081110401339103 -43.675443882237325
71.020580046992293 72.491116133894039 -44.489738424660523
76.232262652652409 71.707125037406058 -44.036512046471110
84.277640295459037 71.449571975529835 -43.967513695304483
87.728096463337806 72.423832952893591 -43.885062514137864
-38.880918642159152 72.005698153204875 -43.342033099246009
102.248126433698204 74.383179091739677 -44.349857525783904
104.578644874077625 72.541710450714419 -44.816131711656112
83.794175473273839 73.483266733948454 -44.304818276859372
90.932176932100447 74.460065516308390 -43.942449266640359
73.583918365381408 74.007270983023972 -43.301558597700357
102.718834057859411 75.821286672364849 -44.863038176317865
69.954056776301513 75.151263960826270 -44.470675204311611
105.873677704295773 74.860409220287053 -43.122982532213513
86.282902037363598 76.273083199188150 -44.381805286351820
88.755892854962113 74.630141076841198 -43.510227363480524
91.669974194365949 75.561540373040771 -43.374661816051045
76.115686232122485 76.494148283136894 -43.736283373853929
74.201900790551861 77.295400431352519 -44.680309974479130
79.438109036258112 76.506919944129393 -43.659416790320456
-40.618373519989561 77.846127608148947 -43.796799340771955
91.060780623350155 77.375533477641227 -43.330241179194857
103.437248269695758 78.756653855520469 -44.378037550668161
103.454040058710163 76.236473921935811 -43.577700388021341
106.271805081331351 75.992647573489748 -44.804877443058373
-99.861163498842842 78.053256816859502 -45.283416846559042
84.061179621085742 76.971098179089338 -44.458532359057244
87.434155289386709 76.825146242831707 -42.761616246327165
71.690613435835090 77.788396606581799 -44.681015933050546
105.754252165974606 77.400340180660848 -44.234789875660304
78.183951488997252 77.658766003273087 -44.041520793095039
88.790749144336289 78.078843552703248 -44.040857816136658
-41.861716566385837 79.952082435367515 -44.960476825062621
70.998297262695914 78.955929366918951 -44.887766237405586
90.709852162662358 78.358158330471980 -43.102925241121881
74.696278603232159 79.032831583637346 -43.712912341460218
74.311856925959930 79.029992664610219 -43.992308013856182
82.405793216883794 81.018653290587082 -43.455894347164410
69.633156920981705 79.997290821095149 -44.939238209411386
73.078124022414698 80.297822536049068 -43.100936441838058
78.770886437033724 79.884645983242081 -43.570059743314651
89.920132055550454 80.591704666712587 -44.206854611195538
-44.805314306721868 81.145883785620086 -43.453942055746232
76.327894038812559 80.901996049333832 -43.872568671149047
80.131904139745515 80.195001346586835 -43.493557741141906
80.094061469589363 81.332587552629079 -42.990162343739776
85.962637478494926 81.985874479892146 -44.424443955687565
88.138227725957051 80.869058722044656 -44.455178981655294
-101.231825712504360 81.055466176818840 -44.445865632959304
86.543995202009867 82.270876976267246 -44.392851752932891
88.027878960407207 81.417177513806308 -43.988871670701883
92.515666745615661 81.348896005660237 -42.625254385916200
103.341084962510152 82.544656225227740 -43.799401117280169
-52.083469092724940 81.644605153866678 -43.484498740069405
90.888414635245809 82.364453336306795 -43.055974318183623
103.184215325177803 82.727866862512514 -44.263786178695852
-47.159262480453627 82.947316946158836 -43.036027363841342
75.005832565118268 81.746693004286627 -43.372408808042977
79.674290644710737 82.137275265653003 -44.530133530627729
94.769541776810939 82.357787741774857 -43.069290282002235
-54.517261075825054 82.357159350977099 -44.580041131972806
-53.545412458082879 82.628663388856893 -43.883452642455737
-49.902487976650526 82.952046443485074 -44.605080375070493
74.602132355551717 82.298007816547255 -44.170729629595755
90.000458681043909 83.480285953718393 -43.591277709795484
106.437552142464199 80.770142745550359 -44.686952109060499
77.232367959576081 83.788496931412382 -43.871244182525814
-55.726386779042009 84.600940365556099 -44.629827069830725
73.518874547387071 83.049015297441912 -44.128278774700227
82.164644053635527 83.363411221453475 -43.735790428058472
88.630847857308382 82.761183169500782 -44.172723251097878
-99.903892717844201 82.000251874868951 -44.086622656768988
71.522884228381940 83.731472590574199 -44.887136684256149
87.548016984280949 84.178015057077047 -44.349577674379496
-55.943221432568606 85.246081728163261 -44.923792179774587
85.173023964802837 84.070568100994848 -44.479842340939513
89.076069476356409 84.432854663943459 -44.585972239359101
76.483156899935011 83.745929470426915 -43.683711035178177
94.113665821191404 85.726470358973344 -43.873274603272762
92.360913726788226 83.165538379101875 -43.697269968561884
103.202653883130026 86.489657373557463 -44.263964556233894
107.472808957804503 85.310372428596864 -44.587676389409239
81.420675075043874 85.334853117495172 -43.127419153802158
88.005089378794537 85.058786124289455 -44.240548188819488
73.970098531066895 85.814319400439260 -44.350309533504323
74.938744282794218 87.592930108466433 -44.251619520236183
89.542979976554349 86.474016141261444 -43.895993061995014
103.759678798290409 86.038375635270427 -42.864585020576101
103.345405145180578 86.840669037081113 -44.513417346481958
102.559740300692098 86.985611973459044 -43.745515655271973
78.013876235264362 87.905729265062874 -43.731626659510333
79.976541666527339 87.125184251695046 -43.863286761589869
83.429531495180839 86.814610023033566 -44.005740893545187
91.389873966528555 88.524154870104496 -44.247782796352027
90.328947564102748 88.109973074521804 -44.674465204799709
103.803584326471011 88.298853575368710 -45.498374516274218
105.067605675432134 87.906895257875291 -43.522419662542482
74.652943775056258 88.550008902546168 -44.324899595391365
78.550396338980249 88.454651990233671 -44.215466266168498
83.233935708967323 88.083981339543413 -43.890455295532291
93.753485942284570 87.742686950030190 -44.338921596285417
-57.299043466857654 87.341048065567307 -45.068313738943438
76.759498369890537 89.117221650150356 -44.294575071255551
73.459264359018889 90.625469579030607 -43.820287472864486
80.751406816303117 89.455721991232906 -43.506161975529260
94.128872748368650 90.148871556862076 -43.618147598646715
78.800732852721595 90.562580231069262 -44.230913504546585
89.354267179406449 89.018540451115015 -44.568275411856938
91.469835765417415 90.064891122836869 -43.766127324830855
102.745254082288326 90.113723123763307 -42.704166263427901
107.075374239777531 88.766313643708003 -44.677223000886435
-59.439985207024797 90.223019314551891 -44.110687380751529
94.143639177345705 90.314039619966223 -44.042402339048145
77.021592320560131 91.520663744685777 -43.916691960119010
84.959543173774577 89.755935404936494 -43.378837519905886
96.600480449457365 90.526888731501316 -44.024238459547789
104.359681879802793 90.973403458293745 -43.458189772472423
80.060654550491265 90.622759248045085 -43.602121941032635
83.368066553149760 91.268625128987196 -43.871813177800270
92.119763415908324 92.212870993543788 -43.315464996336331
91.422228518322640 91.788543436873411 -44.479223235418637
103.950196519962773 92.903415665562818 -43.363565663958553
-61.092851187494496 92.063091407179058 -48.234294752546958
81.754204140088277 93.091739113174015 -43.382211201251224
-61.403739499323095 91.465940842375389 -44.477607201264910
78.210642876041234 91.949452316127221 -43.041130078453428
91.461749488490582 91.302786098973030 -44.801954453630486
95.834375275186630 92.231135083118517 -43.249424426673166
90.800823446831970 92.240296932208054 -44.462695244913839
105.800875506095025 91.352072999776496 -44.336986213536761
83.846211722999001 93.175006051028362 -44.005582489933403
85.697614467776404 92.987061982301810 -43.368932039987108
90.104642880820222 94.328175227565367 -43.977657797548581
92.354432098697089 94.809879258719718 -43.527371467128575
105.516829366679886 94.541712792995639 -43.685070801565274
92.647618605419396 92.678875553910245 -43.659834708124613
-64.026709439088762 94.005272562867489 -45.564962675349165
81.913369385017745 95.002063366109937 -44.142975028360382
-100.422324854601314 93.377945156461408 -44.837009289160434
79.046641292123326 93.587364097749017 -43.512246064335059
101.115084615500237 95.507010715621064 -44.663263242362135
78.864090755121637 95.308107541404055 -44.522899434906833
85.723033668875047 95.559888691911183 -43.628216143790652
92.296683428872399 93.879006738287572 -44.083489365788026
96.098233837337773 93.763146403620027 -43.285021907997397
102.622236074510084 95.083084802912893 -45.678325669046423
92.227076738716960 95.477978754104186 -44.036596720277025
103.661981503409123 94.534470608476568 -43.766981395230879
77.369770508693165 96.095993259954213 -44.498312802780006
87.725835220390096 95.509144526381561 -43.307084427313924
94.308469537091327 96.202344708835668 -43.082275961555737
84.493367504297765 95.581318267214186 -43.624394295658334
89.337468346897850 97.018310067583087 -43.704287446370827
91.215651893059260 96.236629874316691 -44.050685519835348
92.570509287389285 96.434244691062872 -43.821351678921218
101.420454628815804 97.311944460572803 -43.486337746787733
-67.227226865891623 97.236800159942050 -44.548878448410484
80.685228302145120 95.735595221592163 -43.751230503617904
81.738290111709588 97.367372961817011 -43.165429985817383
93.947729974024170 96.101022320704189 -44.029590659572726
104.742455333424559 95.832971962217698 -44.222242038718981
83.909217361192688 97.858262692753911 -43.197105470681151
86.400101703982244 96.779188170153915 -43.578074348705520
102.714590376505328 97.377897003363898 -44.108913467883966
91.580249961426830 97.225909687801419 -44.619906236644020
98.030829622730948 97.123860031314791 -44.031865678873793
96.163453074490519 97.699535481186558 -43.729398088972765
101.127189838346666 98.460623947395106 -44.565681142069252
102.988508184116228 98.355825600344204 -43.822588840543716
104.526052201517970 96.885694274364241 -44.253621174842259
78.011949031859487 97.571369427805465 -44.894355089921504
81.085362367002276 99.183325125813525 -43.509756735758536
90.883550001727855 97.764653311301785 -44.858627194558458
92.027777519019935 98.355041379991164 -43.726937279014166
99.280217768388965 99.224615280266605 -43.637471275017312
85.610680415301033 97.758355400367734 -43.739559856097820
99.419445483080395 99.081859680138265 -44.341503992555566
86.648577036581599 99.985974783882085 -43.194810364636446
101.534082143231558 98.775529052234361 -43.745143822704883
90.741618184454467 99.763440723934792 -45.468583041662818
103.321704435534585 99.462117996004636 -44.329025074562900
-70.104217437402966 99.719819805376716 -45.426571322346639
93.776710369838113 99.777214955689260 -43.248822146898341
96.066274932908271 98.694636519949896 -43.545115113514399
99.470966978039129 99.491255079727253 -43.464737745440203
102.371743845549801 100.525859989013838 -45.741564362104214
104.359867487534956 99.424579256367139 -44.309851732483608
-99.419221616949073 100.097581346402492 -42.419066458284817
80.926211901413907 100.217169725774269 -43.680120383410134
85.400479629913022 100.397447134439901 -43.372852433757473
-99.561863002931432 100.826020017461857 -44.822089374722260
80.267225396283649 101.369459293977314 -43.964667499335576
84.842809364051931 101.092117171689267 -43.646640146147611
99.531699535878388 100.909574525191914 -43.513989357603563
-99.553803619281354 101.062892340901058 -42.367406997564451
78.565641386019664 101.913682994175446 -44.551465972417375
81.227564786750406 101.314665068897924 -43.643276800349049
85.386773773237465 101.566054886077552 -43.310469108753907
96.307541385224511 100.240174992455266 -44.147480103421657
98.727008239572527 100.530747413053874 -43.872764303221807
98.982551017754005 101.530380752323452 -44.695319827437118
101.837973534827924 100.747782268927068 -44.307797903193837
80.866004906601475 101.342523326900903 -43.983633411145384
90.870019108894368 101.404829450265666 -44.418628832823075
92.163833580364994 101.285397722831036 -44.362922203207376
104.445956141740453 100.664495788384528 -45.155397222315081
87.548774492107995 101.350752645807859 -43.519197332820092
91.559336635472491 102.737410816278725 -43.768385251651551
94.484899963357392 102.274839989256037 -44.254277777453119
92.870756516198313 103.063801453100240 -43.595940334164780
100.018927514507936 102.115344850253720 -44.984945472338815
102.192055194050681 101.408278997296875 -44.306947116436952
102.015362561224777 102.223414249174382 -45.001970367591916
80.846375311592027 102.545951130088909 -44.607917564879763
98.314691263184073 101.462521562162209 -43.966788438886418
98.827045307654600 102.133826047110645 -44.066777247071649
-72.228567814821830 102.963459463187974 -46.657127140903349
102.697309946076842 102.657445886997039 -45.108559020324847
-74.154955136320638 103.655950638897153 -46.600513414647850
-74.144355499841936 104.622356976367428 -45.728858912197708
81.917245737369853 103.389685218337576 -44.544917478349639
96.908716831884988 103.135111140895575 -43.579987803287338
97.679479687390511 103.516674131408806 -44.560286224108715
81.168409031992056 104.804996121781954 -44.389752859763043
95.369614031992583 103.980331763239832 -43.961036613068700
-74.631534585700393 104.749523555575323 -44.453238991199306
92.640125555197272 103.248813805902770 -44.437341751173570
99.481277671703211 105.258067660426647 -44.702338243970345
86.389484391876266 103.948801863438163 -43.713748183427015
-75.883191503069241 106.520147655821773 -43.992225907175637
98.309067252209161 105.172186706793781 -44.427615282577847
93.254715466098475 105.764580209147383 -43.920323433554543
94.672631495823850 106.535130335915611 -44.136705020271954
100.224111397855765 105.866328739196902 -43.504957833211506
83.870696727232712 104.676788514376014 -44.269390126848862
99.867442496499379 105.056797950618247 -44.133882519042622
93.228366681584973 107.954174101721946 -43.760021764754697
95.264175436597185 107.147881828628442 -44.630048319894520
97.781162032554306 105.854219291840096 -42.886895915737952
-97.787296806375025 107.881286905636287 -46.183437224067269
87.345068636922193 105.845296708350276 -44.338953889343543
94.354653501918023 107.608861781132035 -44.330586183728485
97.906294688681328 106.386526565365614 -44.166815505463880
100.331788058331867 107.198234730209776 -44.793674958398476
84.835034158589394 107.634567916728130 -43.896241577838737
97.360514629781591 107.703823248678304 -45.386527454173631
89.010001428674329 108.617288223784314 -44.390677605270362
89.837858364497734 109.151499211256748 -42.542465549050512
86.077545663573162 109.043336571094585 -43.267330653840617
99.166180417355903 109.360247819705918 -44.358232711460126
87.679250507392851 110.738930527644939 -43.685828290031246
93.589539761012063 108.889164399349013 -43.830213905008399
86.125458429833088 110.195073850976669 -44.640299787407869
92.177468189345873 109.618658783043571 -43.755940373841860
90.421291756554155 111.175211848928029 -43.536071356300660
89.924965557414041 109.424523577706594 -44.845268644780276
-97.059532685535672 111.925031838757164 -45.084302070641378
95.894895564229586 112.908153346562770 -43.650062848267432
79.490969463590474 113.459262167010451 -44.776359852197714
93.321787228268349 113.451496510425088 -44.067010162909128
81.564509872941599 114.178699584900301 -43.604798651311476
82.899082222910195 114.014938970162291 -44.547350525760287
85.030725407339318 114.034510043635990 -44.486986153355488
86.127642213443025 113.579109446354735 -43.497331492240377
87.815492914944898 113.353508644514463 -45.391686536713294
-85.711251544586830 114.009360525958471 -44.461481409681518
81.292906328778770 114.847734634622284 -44.402358509525975
85.657102745705728 115.160118386524744 -44.381165902669792
85.142583207755592 114.417885589993901 -43.644387402696715
86.745689902344353 114.899543532025632 -42.834611325390846
88.666127670848752 114.305282375490165 -43.213623137873761
92.219793950425569 115.692382314239339 -44.583331672284821
94.720195692061054 113.899044146599607 -44.382197948852642
-96.328136225124908 115.534076979575289 -45.356900541097033
88.093600602268140 115.127663373307371 -44.129281752767923
88.607045089590244 114.613602588703145 -44.360601286195568
90.949284562226794 115.183200368293413 -43.596114877314079
-85.712542049307331 116.192993530657418 -44.894609694000955
-95.734024616357743 115.262135638527823 -43.199746042749517
-86.294475985902778 116.850608388734912 -45.656507514680051
-93.959511884634949 117.776680025868700 -44.194113459293604
-87.748415956009467 117.043499664802638 -44.218498989037599
-91.619961378218193 118.167613966585478 -44.604732110474345
-89.247101250769660 119.392059353406296 -43.819979196692223
-89.690041631953619 118.160493284682886 -44.204021537598905
-81.329839158693588 48.140512532738924 -43.767360885924035
-65.544466786239539 48.606584559225396 -43.505423396116498
-78.464039964332159 47.429978559896576 -43.199618585332132
-63.406958263221156 48.111911457237795 -42.884005737865060
-82.619468652740892 49.429478556260044 -43.507502081479586
-62.609433510681463 50.218765984846243 -42.464321389013961
-63.093758891511065 49.295978622303736 -43.455221046935350
-61.824035304516194 50.838106021285270 -44.072132000631136
-57.030165519240086 51.665340896719940 -42.320409877458481
-59.022236654054176 51.292368342575834 -43.823231615779335
-62.877926244731370 52.254834912169130 -43.475424985792756
-53.655100054747685 51.318197115139107 -42.782949446256076
-58.754274531502617 52.209759069171838 -43.413358394696012
-50.118628766876988 52.814404741366268 -42.900278706915181
-47.994406390420394 53.293945081904582 -43.520546054298258
-90.323357703548027 53.373957056152641 -41.802290335639604
-47.064291954623293 53.293074671393306 -42.141359226663013
-90.286742932451929 54.635909204284985 -43.815486278209583
-61.013252480771833 52.761421525568700 -44.160032391952868
-60.827637323485739 53.165071541377166 -43.476606206503476
-44.768037247095911 54.354780604596250 -43.010697154075103
-44.797027624553628 55.747147560844745 -41.626293098442588
-42.218308373939479 55.320116814974511 -43.411753736566531
-36.587887497074767 56.450201299500741 -43.650044197298470
-35.946345137480783 56.929826563090799 -42.680874398304219
-32.732850702907015 56.821930578090274 -43.082478875392802
81.053170043211992 56.729719208132011 -43.786940925733369
82.194795297019468 57.220953314516471 -43.139107247513799
83.688532539811661 55.940000756412935 -43.373848533742560
-31.728328706608742 56.853086666754983 -43.162787272934843
-23.781923426359509 57.387620392311668 -43.066599127657163
-20.278978281244552 57.054600047869641 -41.420159273994791
-11.743314467448647 57.220478134083443 -42.154888756798215
-28.748168842341570 57.135801003556857 -41.135805093080322
86.732698263108290 57.271136086632879 -43.374066887515525
87.729309376151249 57.724126351308435 -43.414435308758691
89.073169137064056 56.971593298481814 -43.201262899447549
-11.039671197795720 57.478846421273602 -42.475487802691113
84.461924234639483 57.498070318718042 -42.227344155057317
93.853108864637917 57.958159592335690 -42.626060212873114
83.114679895492344 57.547452763471718 -42.772800025271422
91.792814993468113 58.222471493784468 -42.689308997354992
85.860300440339074 58.371713850967730 -42.333426865364117
91.210732777663338 58.230538438475826 -42.460388444939952
95.137145038760309 58.160003837416475 -42.201429472480257
95.491377429803748 59.033507438066685 -43.640478161622632
85.050712121001098 60.487012499948392 -43.375326035502020
91.976593359067607 58.941181032448007 -42.989881775566069
93.853126765814352 59.064882335031989 -42.372927049549943
90.715173409188822 59.349291034034479 -43.075338159358992
91.450359288099023 58.926931147541232 -42.497706075498229
96.290547347158110 59.700232552078447 -42.358525761465636
97.910206951853112 60.537702992416122 -43.580607075063220
-11.351958390895607 61.148765638077613 -44.789674298750199
-9.681641094463322 58.812330647138921 -43.095377675779524
85.272430414113970 60.665750119674641 -43.429467984819276
87.524559889471334 59.485478988720118 -43.037394524849041
94.283488471444741 59.703698937647253 -42.995085404993027
99.375303265671306 59.734762612059534 -44.004681897202147
87.090188830118194 60.083804798353292 -44.263028668687227
89.859120074123993 60.327604502176868 -43.051204977249263
95.973886687998032 60.431170578110041 -42.403288061109777
98.111273204711068 61.609072598258031 -42.098041365681247
-12.170723382271971 62.179163463123999 -43.626187361987924
98.713303661093235 60.894440262302993 -42.912070213564412
101.047400799589440 61.642756768907411 -43.078888129205353
99.334015156335923 60.450384472056491 -42.384413822692018
-21.761141588912022 63.135526547717561 -43.892334789147178
-18.759362766645669 62.590716958121519 -43.029549767982694
91.378509719864795 62.594903703281560 -43.674113253665887
98.989590272850933 62.276800885029850 -42.794522427655103
100.625853001903835 63.195723727929682 -42.393229952709397
93.558130708378158 63.378935480705778 -42.774742798873071
101.388558303953900 62.678223129499855 -43.024729241503238
-97.953827995010698 63.650894072335369 -43.694787449509278
-23.692687878422181 63.175697365506643 -44.032068256656430
80.528454219299618 63.480113899088877 -43.793483317304350
96.565649436293967 64.042903898524600 -43.472762502062814
98.607769655650500 63.193238290560622 -44.840113864543781
-33.460511479168666 63.946344462107874 -44.064198636922896
-30.748395821189067 63.542587127697352 -44.266098214482739
-24.361934624070994 63.471450156931603 -43.131962216920741
78.684099825695540 63.894170521196806 -43.300405528347603
89.197062035808699 63.966228111746219 -42.428409044429642
101.076393724772061 64.512308568432132 -41.762206957092431
-33.240419220850363 65.149784545077807 -45.676900550016597
91.205549440153902 64.717652280999303 -43.918878508491886
92.943124904616440 63.722488750029640 -42.970674478950698
93.447414073173377 63.536235346238733 -42.932322307287798
84.218935357556546 63.994514566525893 -43.955125209011342
85.407088113771380 64.399345412708485 -43.523215050372158
87.195010343172584 63.465002174688287 -43.079872011874734
92.157336095844826 64.496889242638133 -43.240752285887886
94.727358133958134 64.322258397418182 -42.068594073968256
98.140277474371047 64.115011823826009 -44.035667356943861
101.256097237035192 65.048694272420732 -43.251665688879157
78.724442241891609 65.528702879128844 -42.988758963599572
80.955276233604593 63.652183027688423 -42.835705571789134
95.687983822480078 64.706649286514903 -42.155503881336465
96.135465509076795 64.691380848050272 -42.710807792278139
99.404649515274741 64.756582664892136 -43.379484511342220
103.163593521514869 63.767562336929934 -44.854091353044581
-98.401242819892374 65.562410305684580 -43.741711305629735
85.469524936870940 66.691660822192574 -43.619064135970014
87.477332049627648 65.702730541555638 -43.046763461117131
90.904718539814624 66.166907262409168 -43.149444730312865
85.437128741412650 66.333171212201606 -42.932917256902606
91.909091748066061 65.008017189167859 -42.142188612814898
95.661709176301983 66.173412140209834 -42.680570659979480
97.286782542207760 66.002288757690351 -42.705639537426805
82.783173883549878 65.900313328041364 -42.506378429902576
88.718026944983251 65.924954574292514 -43.269857052340370
79.991868165842206 66.663087108954898 -42.874214931650684
90.589023740280894 66.783341640833726 -42.811556734612786
103.778791677025851 66.298660741271476 -43.451302312585781
82.937932772677158 66.861740830524155 -42.633521380843526
84.796297021690179 66.549976848050150 -42.829915580697957
92.899264507760961 67.295915750434119 -43.015454288532311
95.969195080786179 65.809333291827159 -42.344445850031825
98.271223017447724 66.401024314798448 -43.025909500168396
99.455498968020052 65.577436800305676 -44.360330014974338
104.460626103661966 67.063286356349266 -43.778716633304754
-36.965408733495970 67.757281501404435 -43.200394207755984
88.610783694646415 66.548827353676629 -43.358969454652495
97.206740393973874 67.504907003703522 -42.667241490126898
92.175440964138701 67.689816429764875 -42.645193232744575
98.347151700633390 67.445084168345090 -41.520807575426282
99.145991279867459 68.386114710739918 -43.923172676486743
101.250998100443084 68.117155415082337 -43.742359608969885
102.371275147691634 67.767730469418353 -42.540543662359269
104.249882638970547 68.891390679698105 -43.369011991154224
78.837885649270305 66.974429137247796 -43.122083605220112
90.640373367397089 67.544919522278704 -43.387717753047887
97.847561045727062 68.503606074982656 -42.694034010978605
81.135091692607105 68.461700558822841 -42.836613487111379
82.628189743392070 66.825293920658169 -42.433466431864709
89.566556325436551 69.304446633478577 -43.289417981430866
92.001446927179487 68.908541480923475 -42.873232087453175
96.722850935692122 67.655875289310814 -41.914507782370144
96.736892746577112 69.184970226392068 -43.603543298777112
-99.790856646322212 68.719966947044853 -43.826398723631058
90.436415888720404 70.154156608686776 -43.060505786618180
94.939556871104003 69.170919361795711 -42.683544453905554
100.750384444242243 67.967409020795870 -43.573309475054074
99.850345824310551 68.570484761571123 -42.822030994263514
-100.281575623946580 69.296797499250644 -42.605881055894500
98.991882800551792 69.727984957345967 -42.323586318409141
78.189126545306522 69.537252075955195 -43.833084824544322
82.252625514130557 69.743202592641310 -42.915525752082580
85.338842133398558 70.013571233051053 -42.200585824551879
88.645132791276538 70.579832290513153 -42.886869833058455
99.447064928949004 70.318145738845260 -42.200909179296382
101.202048053188989 70.298416840425276 -43.686795013559482
78.771803573640597 69.803878377514621 -43.295280987276257
82.911746717837019 70.144679777855330 -42.944131244797482
86.148094058637540 70.251422667456808 -42.127896771990407
77.093701807085367 70.912972273003930 -43.683757196683331
90.352406532022655 70.140080558845554 -43.112052874643645
91.902152801910631 70.968241175701721 -43.578517079574112
96.580928293243531 70.573943906885333 -43.990200329982841
100.298648640359147 69.876375244575641 -42.472984438234469
102.855808624011701 71.721284498296200 -42.906202611895431
82.597283346649121 71.552612885087413 -43.397002785664363
84.203370075939915 71.488176401468365 -43.301018110230324
87.246149867790947 70.553035256076129 -43.466423381191532
90.327020488823308 71.287886640328310 -42.680389675775459
96.446532823551792 70.546532002714656 -42.250098669051951
103.040993619224452 70.530567452868283 -42.977417906694534
105.514086233353851 71.459284962665933 -44.360281598037382
79.734096236808185 71.408551258519722 -43.288126702207691
93.569964072792843 72.121576160279403 -42.733753929815201
100.198725810410835 72.860272776125811 -42.658018154220606
100.133961150074910 71.461372747851911 -44.464143616441405
90.531776052143016 73.052333201836845 -43.689482224835757
99.837380825661796 71.090874337232407 -41.848801433121793
102.830191195298539 72.551050087661281 -43.108693549036637
91.399831252819439 71.456505352415931 -43.154760280443632
-99.186279928313809 73.706760977548996 -43.168747937933979
84.156951077043601 72.311014748373324 -43.295353916603403
93.917063337016174 72.498860279796887 -42.529116942881316
96.272996875213380 72.666077591875734 -43.622668179337388
79.142926575646598 71.526360651647806 -43.215132991792331
100.700090636779066 72.524557662108194 -42.878671210971689
92.542948575392614 73.806151992778837 -43.133458401968490
101.974428354317496 74.826903652396737 -43.623913070424912
105.537976391380269 73.212539742666934 -42.981100172924961
-39.382845872126296 74.433221134600046 -42.733124302613660
86.485569915578637 73.868111381026878 -42.722454532231353
100.468714305399686 74.577470571397939 -42.510594976247646
102.727013551952339 73.239454763858106 -43.750194553765212
104.791486286862948 72.177351876693947 -43.799296919696644
105.858279917655324 73.011359092676386 -44.394949987159805
-39.262316551920172 74.621321546369359 -43.007401162209888
78.391863592109573 74.745120060377573 -43.874927833764552
82.010863093297615 72.547505833768568 -43.068237426066347
80.176802322486012 73.858016109326542 -44.444732684886162
100.620016592379713 75.450266410515070 -41.946708667447702
104.562519495410427 74.061689549377206 -44.141924937602859
-100.555205400159181 74.947307768941002 -44.653636571543295
-40.083197153617135 75.689053062131848 -44.008466634708533
79.933827164635829 75.494964909006640 -43.807018937422306
83.830652220640729 74.361245148341538 -42.368476952427642
86.173054699790740 75.984205524327024 -43.322518728084020
100.389539332378888 77.285169246786097 -42.706235624570120
104.323600643347874 75.639666131275320 -43.043967284552082
-99.954081806898472 76.408117438638655 -44.455011524229413
84.895400183028130 76.739665299395554 -42.865285414051812
94.309096378161499 75.688557889088173 -42.976144434352236
97.416179271099352 73.257631300981231 -42.670696359834615
106.492994767295528 76.371398261624520 -43.309501415142229
88.232733529416237 76.681909696240822 -42.404048276755915
96.931779790635062 77.485153086021114 -42.989817623603628
101.800207561186085 77.422444270317030 -43.072107981814440
92.533643097660800 77.814577500652661 -43.019613617393460
107.384443476213718 78.917365477603383 -44.091073889150252
-101.114992519639827 78.252869429111058 -43.155412881156614
-41.060513459656605 77.149696637162606 -44.534428765941293
80.496987809653817 77.195824939153013 -42.795874399276975
100.827334465912799 78.433126680864348 -42.034957766626349
104.845540020372553 77.624640246365686 -43.632196153971854
-41.683433621841452 78.504382809724845 -42.761044313669871
84.631563646803841 78.696204410023753 -43.430979733216816
87.311876406492445 77.372180859090875 -42.471063163946006
96.197921463214030 78.399436793372843 -43.672240351900030
83.200052902046195 79.557958380477871 -42.765063607305478
99.896132388633390 78.775080717838662 -42.527694453492138
87.899710744954078 79.702527573463229 -42.493769003843916
94.077190704917129 80.406858106187528 -43.518710715696045
104.058505664932269 77.754623667983921 -43.435453667736645
-45.084504483138083 79.782554215525337 -43.022132305067139
79.864835901810892 78.437841353196248 -43.233163715863562
85.898635571336754 79.168464091873886 -42.225272495891602
96.100651261037996 79.422629375167872 -42.719804635038322
102.172948316174043 79.057484768368354 -42.306212035117817
87.209093887083313 79.721099048587803 -42.691856534891819
95.236918485918622 79.328422996006921 -43.479095390396168
98.250291233369921 80.004464864686099 -42.890271072241482
104.685537161469284 79.415588663483405 -43.985538613689570
105.839530669554449 78.385860055845711 -42.440687687206172
-55.569588610568857 81.216105815411069 -42.803653332006256
-42.509094974299821 80.345653191593343 -45.277315216967637
84.203903986774222 80.066490662125659 -43.764633651163003
102.353154155879849 78.108398435339396 -42.993935550006476
