# This PCD file was generated using the MATLAB® pcwrite function
# from Computer Vision Toolbox®.
# .PCD v.7 - Point Cloud Data file format
VERSION .7
FIELDS x y z
SIZE 8 8 8
TYPE F F F
COUNT 1 1 1
WIDTH 815
HEIGHT 1
VIEWPOINT 0 0 0 1 0 0 0
POINTS 815
DATA ascii
78.619068205729576 63.904294845745433 -43.555551782303439
89.596172384522745 65.379897310120455 -46.339906964700695
95.430520728014770 64.917685747664308 -45.153457877787197
102.436872696254753 63.647305926180366 -43.662693695518421
69.920192765504638 64.846307046261984 -45.936895600273473
94.345750112245156 65.135376180910328 -44.707787891430122
99.746927491242488 64.665635403422883 -46.263034827338110
101.813564947992020 64.903408157021602 -44.923825981623878
66.380342335635433 66.776732185065882 -44.750132770011071
70.975742966510353 66.395197524899444 -44.863802148201316
73.167841034029450 64.263083748315509 -45.040790087761877
91.212899368159256 65.148999912553180 -45.673714556655753
90.895660574238377 66.272640992517651 -44.485934650772286
95.637033724189251 64.289184444087226 -44.131619870990370
65.500592092804453 67.029309214082133 -44.933103036055435
74.343350867760407 67.288111551631232 -44.747645326790924
95.530687057063346 66.903590621595271 -45.502608313063597
99.891510000003223 66.703317930943314 -44.873885682263627
76.511572684715617 67.314184929545178 -42.691061778616891
93.052219506208175 65.692421043871292 -44.441167841204468
101.245961396149227 67.864999582436909 -44.385400468544667
101.236401933222794 66.474469906576729 -45.057732722627868
95.986758410403283 65.612777089151734 -45.154405486267301
93.848932357959711 66.171729608315033 -44.339971362898908
70.633612859286075 67.707852792129188 -46.894497592795680
96.953794862553067 68.920076372815217 -43.398395979487020
97.437979404363389 67.151682009196378 -44.211680160163759
101.208682185833737 66.107718686316559 -46.107454861017118
73.822398301201332 67.441063518545405 -43.476020972548042
73.325962635689052 70.608776758810279 -44.881361946565526
96.028966733579836 68.476869354209526 -44.605361237553673
98.861887632219251 67.839836940280293 -44.378883429009832
101.790043445220704 69.016167041588531 -45.840483542983350
103.150293913795537 68.037543565371479 -45.802243846625814
69.041981831412883 70.678089349966697 -44.894758181629420
74.620501097171910 67.566038368913169 -45.460214477433290
94.213268636229387 68.033613570741380 -44.393197138706924
104.007540737750276 69.512231389998846 -45.004044314424974
-37.020498611146373 71.221198212106387 -43.885518044039650
99.589670296100820 67.047860552137763 -45.722562178839588
97.762792984857612 69.475347482979785 -44.342245131795970
99.537201605674994 70.976246932058359 -46.131584756239079
96.718441423463418 70.026699561987897 -44.532075849097758
102.731598430244262 70.768365518151228 -44.320659210039210
69.346391185357135 69.824585212420033 -44.749444853405080
83.460073584355612 71.509298633511804 -45.287899324507308
79.829499743826531 72.081356630771879 -45.939339097904899
-102.206621066828959 71.134498310300984 -47.902731704744994
73.784054610604713 71.966549461778769 -45.421476029323848
102.530784768753250 70.593198778619993 -44.913932954585619
105.301100666360313 70.764311217686682 -45.735301287368543
74.395713106495421 70.346793200985971 -45.137541506301666
76.413934450125410 70.987615988630466 -44.006857089023548
-101.327930135620534 71.985840479462667 -41.889222242066026
67.540797136533598 71.546664235039799 -44.376145728133423
67.406814295519482 73.238461377367543 -44.194730108171861
68.597936134214379 73.104751414055187 -45.652261667165668
80.563823721818423 72.388965296082034 -44.762475357061618
65.869516143288635 72.062529402474524 -45.320837155680501
69.139859994790115 71.528943878500570 -45.016132100970147
78.635299368797646 72.766539055415706 -44.650088886097350
102.022480059169851 71.107944035416224 -43.673408600575279
102.730386030663041 72.067250203184102 -46.619668999240076
102.327337828370162 71.980985818684417 -45.275881660131020
75.153204330915131 72.786913085477309 -44.953669931704511
74.201554821048362 74.297356595545409 -45.226861156706384
77.911887525809036 71.708916789621625 -44.128447531920834
80.808776231260538 74.027040897382605 -45.457817505248272
103.786799264362841 73.074210761463846 -44.371216482421808
67.950174612806748 72.800511182604339 -46.040011553994709
79.209087031557658 74.911056636218063 -44.562784458070738
81.426249037438595 74.712372637105091 -43.148542199887729
-39.664439621007766 75.532667308010630 -46.579479923202584
66.706113423563608 75.365825584243154 -44.429846796352386
70.967251587880412 76.603034686304966 -43.966858102737227
76.871697563921188 75.403835617200897 -44.889154496053408
103.521179625155625 76.348093735235210 -45.047180944589165
104.402773367026654 76.089594164648446 -44.507951527415308
76.217486069241943 74.651931439691182 -44.503100984276273
83.353956026369147 76.390724958339135 -44.998186952365984
73.419961497153338 76.043138535159002 -45.418755258435752
79.898669297963337 76.482285900327241 -44.661040181714910
-40.510091354364235 77.820757531963537 -44.827390534221458
83.064446093544930 78.721024417762976 -43.742924402549413
68.691283914015756 78.841979632110295 -45.128505513967269
74.843573921343221 80.121775114482034 -45.244313154673058
77.731602915335529 79.349134559022730 -44.384018162653753
67.594355463705085 77.936226124651739 -44.414896227206270
81.899842002154045 78.234424758132178 -46.404224334760990
81.777735514034788 78.717403945717692 -43.988888744761390
105.075933480857444 78.277009205963068 -45.984859519890371
67.878559988243822 80.764647228705400 -44.012740543569926
-101.073510665331114 81.501650016356578 -45.260082006554676
103.212309310883995 80.729046499831668 -44.612819513718726
77.529813970810480 79.551946908218014 -43.983322312099808
75.719643827680500 79.486678103771865 -43.876206108334607
81.091463080566271 79.184252653011512 -45.377382007649395
83.346423334964413 78.775415190963173 -43.716610382047755
67.300937497617525 81.963074600235544 -44.298886469470226
72.871940048244895 81.244508124638187 -44.451276739881905
77.828520991834637 80.034109973288651 -45.255023085493598
-99.643005488466770 80.349778933939007 -45.509220475163012
67.849028505768899 82.908975749472887 -45.213506128299741
69.144026769741842 81.303796607521065 -44.812868245439269
79.858546544030517 81.090007514818623 -45.216413649899259
81.774729235418761 80.945929117434176 -45.065058308284499
107.332149387719213 80.328388604486307 -43.487444757520677
73.639797638463676 81.320165314614201 -43.586749394002830
-45.777449944040256 82.411990868578940 -45.822696495948662
78.702982108629556 82.014231929517294 -45.438283153801834
76.598869392327330 81.688074198935098 -45.625188328564818
-48.440784615675000 84.521002690257816 -45.739917849922755
72.171710702866406 83.385988982133426 -42.970869678984236
-53.198352222612371 82.804904134983076 -46.011638862016632
-51.026955666062882 85.963827235490285 -46.158422298396367
83.535996010458632 83.651954356773928 -43.764528803870824
103.409347628099951 85.371371879047686 -44.278412931794385
103.621464117349035 83.208421033596707 -45.742394935161563
68.629613293956211 84.061827467736649 -44.600755650708720
71.884273317460682 85.601196146349650 -45.225242736457076
80.035760442292045 85.460554148075246 -43.393087741562532
68.075038638736444 85.541674406263624 -47.224636202297056
83.213143673011757 84.703279217105091 -45.863959721930421
70.676118343280393 87.406207523284820 -45.148606737894518
77.308515414275064 85.405540869077100 -45.611719143330177
107.249981321626365 85.746292608852073 -45.652979188397850
82.017273738579632 85.165476671210556 -43.733955356592631
-58.443854357251809 86.794311655097204 -45.626978778742846
73.674980939401081 88.040416427240999 -44.227316179997828
84.713035048618664 88.412884164362282 -44.839535476275231
107.320738411058883 87.859864215682379 -43.145225079336932
82.661964943555176 88.093235724951455 -45.067135094526598
87.190206605008754 87.971045156035430 -45.060300426635912
106.112297420389964 85.945523767604968 -46.635812718100645
-101.001572958418492 87.683417546824131 -46.546712753207956
82.629623310631757 88.343968398033198 -45.899509239337839
-56.465232650173000 88.121499496638506 -46.149127852158138
80.871046669850514 87.033871076976482 -45.962766162666853
87.789968031801010 88.461924676996333 -45.234032344724874
69.967283306355455 89.915428607663728 -44.755292281147128
73.075061270866939 90.006428768779045 -45.719545774396749
87.476302690629666 90.568473996858060 -45.298579394457512
67.276331256905124 88.739384216017129 -44.583554654447468
81.604498321332443 89.521710437457429 -44.220075486418239
88.500290215123101 89.481835241387728 -45.255747534115116
68.511338762143509 90.844307283469632 -44.619033359389569
71.551132942329190 90.312442609402709 -44.476487309156155
74.708793003068905 91.174400755022120 -43.841310778950216
83.476626107279742 89.969422233533024 -43.871766302875230
104.082376466244085 90.759476928115916 -44.966348122720028
85.607447564034629 89.956422382937419 -44.065033725214334
75.665803308679259 94.198777520420364 -46.197093398950159
76.196679825327536 91.432965462913828 -43.262292494458215
82.758095301711066 93.502719848374667 -44.944370170173094
88.520241957712443 90.579094327743022 -44.543339859702911
68.023338144650765 90.642132021183528 -45.374844797998378
70.083012884182097 90.324031059388176 -46.229257094041081
84.280824106362374 91.966876495406879 -45.342297808330564
78.683982218926886 94.558942338930521 -44.149092773317477
71.316742734236200 91.107948236738949 -44.966271050755800
82.465081326511537 92.256170214491007 -46.474279859811837
71.103058479261676 93.923898802244096 -43.844232014856367
77.885475464580182 92.854624594946841 -44.585697757811786
103.375899647640821 93.659219443733576 -44.663082179380638
68.542309788318192 94.807934221169845 -43.136858578949486
75.324538709934274 92.237546515292209 -43.996100946461183
87.770368090725299 92.176081979534175 -45.509298991864000
104.956709710159998 92.305429034340449 -43.106097256293729
84.244408334284628 93.046979356524020 -44.729916748237230
89.732064449335056 95.236155835010734 -43.286773270877624
83.143288348397633 94.963178757174248 -45.076611781232231
-65.241469615074564 95.177937504588542 -44.552007407880851
-65.893941294819697 94.849768523729281 -44.156219440238850
69.902967917771178 95.714756416663761 -44.923637040362983
83.936599217538159 94.816341031717698 -45.923610797246830
88.904111441947521 94.964512191252950 -44.971839777499468
105.422163522085796 94.677059840649122 -44.835501636447262
68.939324189845749 96.111030542991173 -44.896387344636381
75.790119698638165 97.326527163836403 -44.669676646015908
81.441649684978131 95.194233741836712 -46.404896366827785
85.462021458541003 93.858992356909837 -44.809511715691606
72.931206698515481 95.773099188068784 -44.969857655442667
73.651121719616029 95.014503850534894 -45.623096011662454
80.419362982259955 95.678706708258588 -42.867718419448991
86.206455152555435 95.397747407513407 -45.734070601225909
86.235405371094913 96.480866604629895 -46.250958095697193
89.774011596575292 96.609078172154199 -45.234336704961123
70.175844112779274 96.600264689856260 -45.772236738168118
70.980621883348775 97.235008974077658 -44.621790753833707
77.705354378288121 95.962969051077437 -45.100756984405457
82.828902795562314 97.682619177213766 -45.483618385411546
83.498141188977826 98.577019682877378 -42.633318597895226
103.874953654035821 96.012746652120626 -46.517476773589522
-67.321475767408344 97.873698461848505 -45.464519537646410
101.411913590911013 97.636107494466941 -45.284075738299613
-100.456421566649340 97.362475662823698 -45.123418753530522
73.982969353012066 96.500625837344799 -45.204581127392188
89.537848006879443 97.640356045204669 -44.619431945482852
100.620420992487126 97.084476228720973 -46.289918758309128
75.563444169707552 98.815821975821677 -45.995501619603864
86.246019154477125 96.529746338890476 -44.494225273332184
90.566988326119287 98.932698479855091 -44.080634353792192
70.772320561636334 98.773861340598927 -44.498584771736361
84.104494474349025 99.261631476035433 -45.708539924612033
87.606077510513344 98.284909546021339 -43.993130740444442
-69.176981345271116 100.701734474519057 -47.693258688564967
69.208229381953842 100.715287674060448 -43.458911435981619
74.747381878625973 98.123001323769273 -45.169735966328950
72.404982506860037 100.262967498393550 -45.056233959178954
77.204832674988154 99.196307586775902 -44.023755095751511
102.712914901041998 99.381555018445340 -46.520519394961887
84.168297036811310 100.487213727603162 -44.452300366269597
102.483147011581693 100.534165425596967 -46.339629315211070
70.771077104360288 101.019182939062304 -44.438906484082281
76.064249782182614 100.710211762262745 -45.114734169489395
77.991036673890591 101.933831482216419 -45.582075164466282
74.858220059237937 101.876301486875491 -42.876229666540368
83.380681915052108 101.594742920765825 -46.210326381642531
86.486755651625927 101.400507158627263 -45.793237311001988
72.671748804030472 102.111624986302360 -45.360132178183989
87.454129192380535 101.345303792840028 -44.500160847612655
100.480152024581812 100.228574393234851 -44.369812927156133
-99.511327640104156 104.465224325844900 -46.046592319538540
77.802316664412231 103.102532663336888 -43.199869262174936
85.882378601317001 101.739353832133688 -45.189381385879685
91.299623718286625 103.683063509659036 -43.745920020824983
-72.766523510656995 102.644580357076720 -46.193923585680963
77.227472027944501 103.705997545933940 -44.156033868054912
102.055701641585685 102.772281526137803 -43.758967734470858
75.641489979221831 101.841200904274928 -44.502699520723759
73.039824373814824 104.513206859234359 -44.178052929025291
74.039498047045186 105.910481329328888 -45.714032334377720
86.991694427073071 103.021318270251669 -46.924342806367754
100.861734599682194 105.040348924086302 -44.514682044537068
77.815051372298981 104.958918824579769 -45.676973620262515
90.481151797398653 104.792884432083156 -44.423475256343927
84.501622954526795 102.172808399781331 -43.861073982619054
102.642933630059886 103.471647254994849 -45.430244956102307
78.414053357727710 105.873321860048193 -45.403352144471178
99.330777309421762 103.363373480951708 -44.919426711458243
99.612868643171083 103.894919080149663 -43.236595561297200
75.085063503710728 105.555386180662055 -45.711487902944413
71.244040198449682 106.661237014195905 -45.819668229169963
85.980727018205457 104.060712240590320 -43.651899809896470
96.092075025355527 105.258661610781417 -43.524767218818084
-99.255574802041238 105.987482188208745 -44.395264212600253
74.616868817888061 103.673798681659463 -45.723085172056351
90.632811615845441 107.286671787440326 -44.361766630260661
95.060053238633827 105.727493615750305 -45.445276867331266
99.062934178213681 104.354719923074299 -45.656561038611585
71.906001905283986 105.893763869691412 -45.480211725162029
80.926358511921251 106.458133606237183 -42.364245316004251
83.107997171234288 108.215779297158676 -46.752080425545003
78.740006456983934 106.852419194537802 -42.942709568819744
85.328977737079484 106.516157889330756 -46.407433322639314
97.740298669912733 108.943311187011233 -44.439314708566378
98.044840059941180 105.768278868549018 -44.644336336959377
74.735956209950672 108.119755138155668 -44.671432450977193
99.591617828827211 108.779145041678419 -44.190903490198330
82.405219563096011 107.220062479853723 -44.227484454421557
94.576030804446575 106.998484376716220 -44.877692650746354
84.923113049174404 110.005823022126265 -44.904326457627413
91.116328459077778 109.666294874278535 -43.358701981807002
92.227388369230511 110.615030068925094 -45.410972359012938
97.266029624966535 108.573427237737576 -46.500252688005411
83.237860328512994 110.008807173377676 -46.304512066960392
79.884037768522319 108.379428441689058 -44.467210250571817
84.754929709075725 109.273333869697225 -44.304050816858769
86.518335422732278 108.389159566250271 -43.585949068004027
89.745463829528376 107.205762424968825 -45.251899672940780
96.133096318426354 108.818657806079784 -45.138946461070283
98.100545752484351 108.200061217478620 -44.985805417218060
-80.409033632333703 108.406450653141420 -43.433956152458975
97.936822414328375 109.822005532726664 -46.558217795293984
88.652201998641331 108.147733620506429 -44.311264197305775
91.277107990093270 107.977542000434013 -43.469866964910281
91.545264727074795 110.271668715145040 -43.062981534924234
94.259579910794969 110.603217577138835 -46.129405646565623
88.994569331788696 111.001203654623083 -44.238113908695603
98.874392182172102 110.494127481478841 -46.301948226369404
85.915132442912338 109.008213565582324 -45.645798522376253
94.082611173798981 111.564412438886464 -45.306525969538370
96.940005887516634 111.401923153088049 -46.749602131736701
-82.039669142347307 108.356704306652773 -44.202467991936430
85.007976691575777 111.232335172797406 -44.990509928013346
90.124236270118715 111.117599583471460 -44.968361358308108
94.639244150966519 111.530392264393242 -46.999419384211180
-83.379262959213733 112.543637057318136 -45.833514402323495
95.642587043401505 111.782661279287808 -44.724411823639805
71.312978698918513 113.898439690857344 -44.250278533613944
77.711537832890528 112.156185514813771 -46.058255065126659
83.004364996149206 113.603940000997540 -43.967262526321775
73.628062796377563 113.518384776256170 -45.097781485653982
76.034788677603075 112.969993320635737 -46.148648051255471
78.525628749823312 113.679523000672589 -44.449324809044832
80.837017758743514 114.558736674299283 -45.412965161439033
85.566801704457248 114.003379237512959 -44.587298585479402
91.630507314854555 113.377282954624874 -45.619470864584152
-84.891095292377074 114.545352117022318 -45.177409775939850
76.580908639227729 113.123598048639280 -44.776398304063065
76.726225002673928 114.156058334722857 -45.441620369760237
90.569786532667038 113.003688479712494 -45.788203681595384
96.346161713562068 113.168955452792588 -46.042418650635867
79.519084633463365 114.863259559416733 -45.250168725109589
90.247502922904232 113.780461602216747 -44.103710406027879
86.370388556143382 114.525181661300408 -45.275569725557837
-85.517333344877201 113.328798940487417 -43.669659208546001
-94.444699867763546 116.845369896464334 -45.598467307581316
-96.455619379007018 116.690033593069899 -44.899989246614233
-93.665015253411539 117.585466438289558 -46.041800208041302
-92.655688143159580 119.755660095846295 -45.084631109900840
-91.082462419253815 119.428074087881669 -44.708131500783644
-91.282540117783427 119.296897926401527 -46.919042703256686
-72.692144947226907 47.758695298026886 -43.905473768827193
-67.499430939179490 47.269997362723466 -41.382914433221579
-67.427034453474008 47.767332396725550 -46.435275330006348
-79.761712300642444 47.842598639390744 -44.775691274598486
-75.635708151585035 48.239478271225330 -45.213345775589595
-64.408752915791396 46.801146953745715 -45.099553729786699
-61.201981881260934 48.638696144436750 -46.295574381679877
-61.613995378230058 48.303965641587638 -43.898583081689075
-55.662853617109725 50.851619289711266 -45.152026528704788
-56.034487096075978 49.880279096377087 -44.509000699862895
-63.076586649844145 49.720377453901918 -45.438608331099509
-58.927843390466023 50.812238068196066 -43.738129297942663
-49.465648115067083 51.806792830577386 -43.987447421842944
-53.011140097701329 50.575721192374445 -43.169538061995368
-46.264333974254825 53.346447461523276 -45.101990172966850
-62.214918306070246 54.231339366162736 -45.230353361334174
-92.872412523544710 54.624633555768114 -45.667632133725874
-60.846938227370700 54.930939121335761 -44.547034643517762
-40.847239000639121 55.124924015354267 -44.761840472444838
-92.089919126272193 54.785233898430654 -44.081459183557683
-60.822550576368982 55.451816096662213 -43.599082816477136
-40.096523298782238 55.441282740574046 -45.531565490652866
-36.888203378028621 54.859106612076296 -45.422192011615749
-64.151021419294011 55.064749447892467 -44.498595020986635
-91.679640673520808 55.667306227246925 -46.121146841342515
-39.456984656864677 54.281276693999935 -43.922064992766252
-37.630319378166433 54.989801999619587 -43.874504620360270
-30.562883767645712 57.829207914240165 -43.454340593579474
-26.246160275746615 55.174540590520927 -46.273831618473643
-22.076818554113196 55.730517499662703 -44.128804837702148
-19.912591217507639 56.534841182522392 -43.253763720418007
80.049290172281474 56.302644339665477 -45.030378803386824
81.343077262802808 55.596163410584637 -42.818953396491885
-92.109375118822413 56.234062040058539 -44.058744846590628
-27.552639039198795 56.498596008833601 -43.418692916394789
-13.008943864591926 56.803961621177713 -44.223732489298591
78.483352191362400 55.812113475805539 -43.247457034509942
86.212868233016451 56.949385138069736 -42.790904091499044
75.704184546799553 57.168430269165391 -43.438359843019555
80.438791842854428 57.002682313053498 -43.184405905196726
84.209216180579475 55.820524157964535 -44.295159396861223
76.864402750833221 58.249539841915670 -43.443989228382812
80.211301315301824 58.051386550553403 -44.214936350949820
84.541551847304291 58.082307635297333 -46.754805319325037
83.718300200669660 56.294728857046074 -44.431371183490015
-9.268535345984127 59.087204900937799 -45.040504566508488
73.320052208154650 57.711318015490981 -45.411708259852581
73.352794829923255 57.187781893438903 -44.008084920419066
-10.138638209491253 59.355908575775089 -43.824073547357102
76.722501840331390 58.844295923259040 -44.523552082379652
84.073336205435524 57.509636955765615 -45.056144966656696
87.950728715410477 59.137440681357532 -42.842041885890730
84.549603658221827 59.469279872429752 -44.084445658254467
86.881184937279713 60.168026828965274 -42.988204613565465
94.504538697328158 56.982138333030271 -43.962257869332724
74.569727056506295 57.466829060063780 -44.557143705805196
75.682689035222850 58.832878121119634 -43.853518423100553
73.778438163107339 58.133276023361930 -44.591350793478753
84.439694848249488 57.607596813279251 -42.945579601295293
89.370930285894858 59.175337780126888 -44.146508579794833
88.670632360437850 58.680216065071349 -44.184740659248135
92.127098991495345 58.538028885221323 -44.440802828280631
83.616211849065223 58.206310896658380 -44.338853072303039
86.462719418097166 60.172426925514884 -42.410919856952830
96.060469622490587 58.710678761135540 -44.873516076354164
72.392615446849305 59.620197822874353 -43.778000800750647
84.148200006192369 58.893200283241832 -44.170838371461464
84.889905900339087 59.240522658079051 -44.076356570265737
87.399229226041498 60.712730924352186 -44.169265828078792
89.765557255075137 59.160727536052363 -45.039991438685526
97.181225865210891 58.915550712481341 -41.859043388705047
-9.013781061165115 60.913856202373132 -45.084165714803703
71.182413952323273 59.252667128825983 -44.904845833075775
84.773166875428018 59.861621390703533 -44.010254138587356
85.496483474455474 60.617248749866015 -44.172186634398479
87.258914040736514 59.733927925695653 -42.633348681709023
91.285244802307417 60.260012795590626 -43.091459000275258
85.308049668145316 60.675265627320712 -43.958468542813598
89.567979976093255 61.054575575874871 -45.867408514894549
97.438143873053519 60.411998746903045 -46.726922496114128
85.731226971127512 62.111893899839160 -43.051155470907815
87.121985787429793 60.158465330107767 -43.355001700826193
86.252335438777237 59.000540840948489 -43.875023533531966
-15.553929054245975 60.214938457118699 -45.098597551162442
79.385583137930652 60.010175779433034 -43.014154704592492
97.713610398222414 61.172945219757722 -42.601454565940337
96.280130619767220 61.584755577735791 -45.016543067117325
98.759783754021981 61.804231236652477 -43.510340763355536
98.432559251564825 60.804219577125998 -43.604914269979972
-96.468963884977512 61.302877399776463 -45.080087990781962
75.703320724252265 62.026982377032915 -44.354873841633029
76.515562127886142 62.879180986921135 -44.825019648372624
81.739938068647575 62.064387887704832 -43.511274297095561
-96.681942034760070 60.749340406238488 -44.965764090124217
-22.090093056147538 61.461454599039619 -42.791148764326458
-19.176118775245293 62.092418589402705 -43.048458069499198
91.881336465768655 63.951351799675734 -45.059469786785769
-96.481591555748238 62.328447922441185 -43.722914468573038
80.487155632697124 62.483120903814658 -44.452358531474978
82.347357278474362 60.893639250358760 -43.068879700157041
94.419225800432443 60.678514847757235 -44.836084540814710
96.864704098536876 60.810941447637980 -43.450960256303624
99.911362662010077 63.059823602687679 -44.164179063084198
74.130694558828651 61.848986244538537 -44.549262946414444
78.647274224051714 62.569640575368965 -44.564411027751305
77.404881652265573 61.338379436534524 -42.322327116599439
98.097184126445939 63.382087159528062 -45.874490444053571
80.973257075019973 61.784261452496111 -42.805124809129275
88.693846732848726 62.836164194483167 -43.994554723601773
90.639580532105455 63.527214210138872 -45.897205993542251
-27.799869619832805 63.072126957324002 -43.446554273997201
86.191795033463990 64.040543647615820 -43.939789472527693
88.503663438312799 63.869903499721097 -44.322135990885769
94.650640780664901 63.481262418689084 -43.431486746814194
98.250735933651214 63.167957620060918 -44.496788262978683
72.544588602367966 64.599692913829571 -44.046280685112677
77.798079979636540 63.844599092553345 -41.782087034838007
81.726902416498817 64.942450540649958 -44.236143535815479
90.471149277831074 63.429442319573106 -45.972317835016860
73.730248251701710 64.363430686048929 -44.334925656097489
82.633818192475985 64.112804639821263 -44.078445025220660
87.058858170188188 65.863934968213243 -43.885905131671123
81.470588511931737 64.809002889268370 -44.292438545041122
82.682027205788131 64.977636738458301 -43.132260085601494
87.909381323973207 65.245981798827472 -44.329921765133172
99.328281698267816 64.892033120287380 -42.225346985392754
78.114158571777551 65.169260790906065 -43.500812942805176
80.667135378618042 66.123641797769437 -45.067726289342936
86.411742527364055 65.262155822213160 -43.799750307865672
99.167469079779522 65.438675472059032 -43.078810409403765
-33.429179426607867 65.984240681603652 -49.052142614024959
103.000732617222496 65.654587046042565 -43.662938670892274
73.322067315133012 64.941265056000134 -42.630418278427612
74.408270673523205 66.574347205843495 -44.401272547807118
-36.464800552533994 65.158583265916150 -44.945873539113748
82.013466464976474 66.510124240619561 -45.041960407495800
83.563686435164826 67.391578582814830 -42.879656199047368
87.430513861490013 65.330596864473208 -42.916844039726335
98.788515082125969 67.666534759100756 -43.671193790758799
72.662605995467729 66.372536546690029 -44.003163963846355
76.293692131348337 68.059854402846341 -44.773868876362698
97.115436198623698 67.368027807567231 -44.133334145318905
-100.497116901829912 66.765593501775498 -46.562493916901104
-35.908277894545535 66.582465817336214 -44.739351729061170
81.295099996996669 67.799217740374019 -42.956220915931972
99.639905960728811 66.429360872726818 -42.976629592755913
101.641158434343254 68.760426130866577 -43.856373201329511
73.349915880529394 66.555021019910811 -43.425137529064159
-37.975463420532378 67.852671438948690 -43.373904313028063
79.966718738655530 67.101957510938334 -44.187626589985854
86.536354153559301 66.758247198361389 -43.760733258977929
99.988443815182691 68.053134404549084 -44.982439786258809
-96.849826053748629 67.615337771188692 -47.214250831595571
73.794247025459541 67.832499121677301 -45.402668740182037
78.372761743898607 68.557427292262801 -44.062529761717428
78.240804976194795 68.640069550146762 -44.439874165381248
88.222811861344766 68.718289953036532 -43.451261405801617
78.187243559291588 69.961775342541856 -45.121536828459135
71.457065340331695 68.444065010327378 -45.763894441140010
81.846916161245517 68.723553278497533 -43.640943169186457
101.504195170387419 68.642104473605713 -43.507516270984453
-100.989668293581502 69.643226003268239 -47.344912016181809
-38.834898554101791 70.306394898525866 -46.805564914771637
100.734479138751311 69.755075505253018 -43.248569101319418
102.481904751320101 70.689757995335356 -42.764198826179928
76.312777285082191 68.321948978193575 -43.505399586521584
86.934631405161383 70.396426407657728 -43.209734918404408
71.551198624155418 69.772350550104775 -45.348148985334426
82.913628926533107 70.164167812424807 -43.840505456350101
74.182046660696429 70.220103158787666 -43.582604316111812
104.404186400264166 70.419020675512044 -44.901168576044398
77.517840971500561 73.370319990128365 -43.244852013995150
82.763841056046104 71.143056459574694 -45.167753506945068
-40.022593440728713 71.662989016170471 -46.462139392556779
104.254624558638781 71.811643310598427 -44.557467522747210
71.865776336641829 71.486478545135782 -43.183919146480520
74.630584236766509 72.557211490983590 -45.194066813416953
84.544620626902201 71.443375526327912 -43.303815056648823
86.846491184123536 74.282203740093010 -44.432925566498639
-38.177288969919125 71.961514269022288 -43.729567878870334
102.233403216338601 73.133708543398157 -44.105735499869375
105.173768112954733 72.521980853870701 -44.391217315493904
84.922100494485832 72.550497516419767 -42.384815938320997
91.610544946819957 72.948063571453872 -43.445629385881844
73.477596509897978 74.804216499639480 -42.351337779347617
102.639756763628782 73.980156579967201 -43.170878979531693
71.327097872806945 75.695515438681113 -43.891328223491541
105.585658086231220 74.357293530026553 -42.923525563641888
84.315622965864520 75.063694073955233 -44.936564958954243
88.127081891098754 76.020650426202280 -44.294779974608701
92.235125486638736 75.722921318757912 -44.127813781882274
75.763844222127474 76.596722682338381 -45.159698038398503
74.821640084939432 77.669141529981857 -43.009330715101768
80.412603172761280 76.434563219862383 -43.474342184604410
-40.100728905383043 78.021603840613096 -43.612879687914443
92.300999039916718 76.977551122820117 -44.026522174375778
103.642997717125354 79.543960660625231 -43.033596097086857
102.867010900609955 77.377650762368901 -43.665299530740171
105.746486885343884 76.908180533265195 -45.694959905252730
-100.743076026568758 79.818588055765048 -44.620137985254111
84.557296513984298 75.250401443556882 -43.568295066873219
89.201987593839235 77.330012983206487 -41.683250004241280
71.397184848152136 77.708598818466371 -44.690137669696696
107.686290598666616 77.325421728285960 -44.336083496992103
79.078052824325781 78.540143876080975 -42.010315289899154
87.719043953154227 78.240232676393688 -43.596352558010132
-40.996301630327942 79.753919503792915 -45.421577735650011
70.639839216479658 79.471899695785694 -43.807570444379536
91.147833021506045 78.674634086473134 -44.601806348089795
73.198472186615135 79.515724956352159 -45.841507743597958
75.737505100766285 79.780198274625207 -41.976315289440983
83.560232147779274 81.701802681362750 -43.963638224955574
68.700180438136343 79.761987637315173 -44.428008325202399
73.653747630341343 80.328542674468949 -43.002228061127582
78.155018165042364 78.253341718805544 -42.534929619333880
91.955357362718971 80.904957443754355 -44.545099811881236
-43.950932657371673 81.515986934286758 -44.822967620898339
76.297003626792090 81.340502232773417 -42.998852477950393
80.387059248304027 81.336506051693647 -42.990998461359794
79.579814786972975 81.280653648269976 -42.625604063529167
84.956250310494880 81.766877401367864 -45.675968576351671
88.413054677918495 80.607219617319060 -44.087639991552038
-99.560549992014359 81.612587998953458 -45.786532992578849
86.541451265652569 82.406112955666742 -45.234443966810787
86.730701788082698 81.021183687995531 -43.707791364476101
92.166537159815434 81.514411721061975 -43.588136693002618
100.768503390932878 81.903792829132271 -42.402509179555295
-51.504237090219327 83.335560646986735 -43.328748877255769
90.057084882012887 81.625138895695784 -45.337127976917962
102.754184403855433 82.947662154914937 -45.385703113981315
-45.975332970135810 82.700531945962751 -43.675724855327800
76.228508298908309 82.367422906503151 -43.180376507971886
78.843424555277636 81.789092466283591 -43.340456075123342
93.194377509313796 84.055055700740581 -43.564056881388140
-54.543475475869009 82.079210456144082 -44.593308327947575
-53.341504954070544 82.471570380901440 -42.915089916921509
-48.422877315110718 84.066602227515816 -43.870876714167274
74.823563495486624 82.833010922221206 -44.810706470544140
89.642180807286721 82.002735396438666 -44.215044034617868
105.447383002958532 80.892506831493378 -44.908434134041691
78.488007636041914 83.976406299448584 -45.854901866259155
-55.941797145004244 83.803690426199694 -42.956966451739426
73.503573616120391 81.813478697124509 -44.793273304956799
82.154393481081144 82.834547550195069 -43.935151687458699
87.417707871132507 84.419656349458037 -43.917474971782141
-101.675048638524629 82.568970516533867 -44.111036399052161
73.999164380706205 82.068613468376554 -42.384963855467689
87.026540433917873 83.933458485527893 -43.953004622054571
-57.139049745890212 84.390249218077429 -44.822193437426044
85.846033320132165 82.965311266991435 -44.800131518607316
89.105457596766428 84.253566382658278 -43.726156033657986
73.972861697813343 83.979491602344027 -43.632340613348234
93.815300756440692 84.263576585581276 -43.222935794340948
92.546015878118467 81.774071348519470 -42.844351141600505
104.607810335461593 86.063570226338797 -43.437959454865201
105.574588291292372 86.374049004897074 -45.385980692733291
80.796528425774994 84.944456770031351 -44.129669334645484
87.410404686115527 84.706988089211450 -45.828962201153246
76.111597755858995 85.344971948235965 -45.416924654482713
75.624169191445318 87.605260144663490 -44.967544456562763
89.124325497227645 85.789568231442885 -44.324741947253266
105.796858457970046 86.340992815809798 -43.406645923900832
103.693513344358777 87.100035250878392 -44.211633502801831
102.651627680432014 86.235501369404858 -44.398804120022731
78.842193415490797 88.038628546924727 -44.393879834667189
81.373158882232985 86.597451161189397 -42.995908423905362
82.230037471623348 87.299161560197234 -44.818772388897294
91.359267376753138 89.163425437738212 -44.578921214874335
88.948057429562837 86.733283571769860 -43.116177567713997
103.891795691025081 87.972044413595384 -44.810821760659309
103.869617744044476 89.753574165641439 -42.266592596129250
72.900697038098897 86.469979528732921 -42.666761396512385
77.162202453857120 88.355930756156638 -44.703039677076383
83.702631005477471 88.899028550632195 -44.871380000171406
94.367154687195949 87.374241790683769 -43.674434779628811
-57.970382934692068 86.013819715977164 -46.377359553016476
77.468609368563492 88.332371840094680 -44.028940277722803
72.051838503320454 90.615272309053367 -44.744448060354749
80.865659158856985 89.217254667229369 -43.103279963396602
94.841438204397988 89.229113178788552 -42.314886399119544
78.817305392234871 89.503992320583947 -43.511103601596282
90.305552491507328 87.978410678018619 -44.848966542808213
90.026624522237100 89.089760392739308 -43.315133727867114
101.796376920766491 89.774966207379592 -42.645484094632110
106.852230609250583 87.779712978104769 -43.976296294649757
-60.443758856469032 91.911405497946134 -43.079769898379560
94.166413360588422 90.205601621446206 -43.820947258238419
76.270166123980928 91.079754726434913 -45.936737047160413
84.837397890418970 90.586245482050487 -43.384679842320722
98.031532551530347 92.287051144057202 -43.557112513936801
105.512576727284028 91.448422386820567 -43.820869752245294
80.782308569671329 92.036409484359837 -43.517520786160375
83.239395386338444 91.366731064030972 -44.348785746173178
92.128727950381318 91.502081002620329 -44.300828763830573
89.626178920900429 91.494278681267915 -44.260848376605431
102.757029636558386 91.715456686666130 -42.352915990294917
-61.929580399685641 92.742408543825519 -45.700498576160442
83.326825920447916 91.904964761155853 -44.301234416293717
-61.653896196400261 91.985780935489615 -46.046453205771606
80.006849906265813 92.371604827536231 -45.127724019694810
90.995922462868961 92.243908919736171 -43.565483428391516
95.391672889396901 92.097058824273049 -43.513934673827492
89.928637646970444 91.919086062355078 -44.456167325695439
106.193072162851294 92.540079542248577 -46.139728609554822
85.474097327824623 93.365582433315510 -42.690975659991210
84.748931249190704 94.114768884691003 -44.324097731628882
88.380684705669708 93.621605028758665 -44.101413991883561
93.236390181561049 93.687139403776257 -44.001392157309972
106.370210461716141 93.985862279649496 -43.698319016548020
93.239093176443305 92.939705340147938 -43.991011001496624
-63.481958650185412 94.670840088233021 -45.884748006004124
82.018693299299841 93.113603642024273 -45.415075191931294
-100.765417091054715 94.419933388763070 -43.997444698611595
78.866520601377701 94.415827634429419 -43.316147113976818
102.652726930687848 95.164784009744238 -44.402941006434581
79.158841411584547 94.853768244122179 -43.229484912862148
87.073978744299382 94.938342919129681 -43.308631853513887
92.703127107048545 96.007996587595173 -43.385348409109007
95.819425890568127 94.546003080838560 -43.566527848333401
101.589839719632693 95.179255301887380 -44.592523728484217
92.299177853933458 94.433762312378846 -44.042515871842959
104.068088577157852 94.011483234972488 -46.043420728240342
77.642332059807956 95.994293308612924 -43.670265843316322
88.348042046455348 95.071510699384675 -43.849338227000757
94.485194990194245 94.189419845670770 -44.551472174164829
85.953431542927717 96.855161009181316 -43.957651672962136
89.649681284072656 96.280292918910575 -44.677719691060474
91.211649658072076 97.987909333773757 -43.521821028131782
92.063679419951185 95.777292837666778 -43.787885439004235
101.912092505788394 96.458901671758667 -44.470091894212075
-66.949585266013713 94.760467994352481 -46.562512518036051
80.092933755513087 95.922446729573664 -42.838621395307882
81.806499444421803 98.989142133163881 -43.457648065942436
94.111700408260518 97.893570490326567 -45.066275176617090
102.557895288717219 96.992514121177265 -44.524333265101333
84.295258219493903 96.435252581497764 -43.282708285273252
85.879711056163970 96.769477511865944 -42.953554660296490
103.533231834314250 95.224927879842852 -44.516889032291395
91.834443430692275 96.563180720478158 -45.067329567729232
96.130183609421422 96.326656631028868 -44.431235809726850
95.882611774960750 97.989815686343633 -44.592406598032838
100.183353854529031 97.767286735207065 -44.757100731773242
103.313103802888293 99.442667306716714 -44.914229925511407
106.296808646034449 97.473713559147640 -44.693097867822324
78.499245912962351 97.405163995439736 -44.406582257391705
80.113596878000692 100.569462187248661 -42.621011369831798
92.160714300927637 98.818410209121623 -44.533934444204853
91.972691859441227 97.826392757903506 -43.150215645333674
99.733351082840670 99.246361670643751 -43.522788203586742
86.442362219908773 96.417789509651044 -43.219142422722690
99.566554026013264 99.958317618247804 -43.947163734952753
85.671949825917011 99.188905133888014 -43.592933615751605
100.001421820268277 98.156870383982948 -43.322879699165291
90.651184144205587 100.950546209805296 -45.171167826283117
103.786156710347655 99.122607539502482 -44.142907665882667
-70.210726082120630 100.383970082773999 -44.366698956259974
93.793854085387025 99.886673589990224 -42.130615162576817
97.082545596605343 99.522936728097250 -43.225364317262482
99.807877315471288 100.229393679880914 -43.133782792394420
100.677524474888628 99.782405890356202 -44.918447453735375
104.991002313901348 97.407566134867551 -44.386971814887197
-100.313137441398283 99.155086704168099 -42.742188018231538
80.761027001579933 98.433931034970612 -44.517039745055015
83.575452224969069 99.223626149250649 -41.909762950511613
-98.928816966435207 101.112321787962799 -44.657281786772486
81.945374438135602 100.945460775955510 -42.938569393777961
86.591551413820369 101.693306933988012 -42.960223047777411
98.952985119772862 100.280295597471067 -44.479794261776441
-100.118867758283812 100.602252698968400 -42.410360136123913
76.087560415632041 101.635783621315639 -44.820903314304317
82.612133044522153 101.697556995949071 -44.420394994819148
83.714974877664091 99.044240921861686 -44.250088065197950
94.937714437040825 100.828534016537134 -44.132158441651811
99.272988884835016 100.214628785160130 -42.167917591265216
99.672129515527587 101.265469049027558 -45.167206693148586
102.091508801300805 102.211026081914937 -44.093445051289436
81.471352327548800 103.264175306199377 -45.399364421466586
90.660306196747797 100.613711458928975 -44.055961686673534
93.355366982965847 100.916605014660178 -44.148578361309177
105.137707163468178 99.897175527864249 -44.297604722130480
88.733210842578231 101.834183983713132 -42.575733767653553
91.291744080564428 103.022884320695667 -44.245798053618856
94.828750985125538 103.196535852158746 -42.810356101643421
93.015127609983381 104.356862335826392 -44.025690320364966
99.386797710662464 102.543705889250589 -43.926098236718765
101.984304001597224 102.294231818691557 -44.738284435544074
104.054110868434094 100.936046244222396 -44.285467221927718
80.445213730498693 102.867058904607305 -43.219287605619627
98.431859376561249 102.541203545556698 -43.307287576530207
98.688868207191305 101.165239277760122 -45.270209254910917
-72.952610090921681 104.452317772937718 -45.824754143148752
102.814178468838563 103.204652913028994 -44.372452287738106
-73.597545251111484 104.768413816066030 -44.662934796798197
-73.697119564429983 104.201530121429272 -45.164554220265138
81.889833107338717 101.636279056722344 -45.595318217591462
96.379396407134010 102.468778191715074 -44.420637344899227
97.274549946486104 103.701228605230270 -44.134499596495139
79.766244211120025 104.219225021572427 -44.865602861639580
93.519188319423662 103.143092204164688 -45.095246262703228
-75.902903587979168 104.692301753233281 -45.410579957078816
91.735072363865797 104.920433421247836 -44.719122996689954
98.860587372286986 105.518362313737427 -44.284188176119322
86.177592934966327 103.319086003052590 -43.541396703501626
-76.059195279798686 105.476827634994606 -44.237945341740229
98.113976720043723 104.735308299965411 -44.919498187820103
92.317232654255079 102.993050771719467 -44.435713842741301
95.709513534048213 106.118107200943570 -43.544711325324805
100.182377513258970 106.422248298854996 -43.130511106490395
80.973529221069242 106.305154243495679 -45.137953140523670
99.905235774985243 105.146721666340568 -44.218680610022545
92.692845972870387 107.446914457551301 -44.276477078884774
93.463066062893901 107.200101035449848 -42.025471914858826
97.256975513922853 106.259327729100875 -43.176177248895293
-99.537335084699194 108.313862379799588 -45.232133740572763
87.954716333263590 107.018834894733843 -42.898952939686978
93.996554666542394 106.514534985714775 -45.594353418959834
98.587345721609765 107.326696790380339 -43.698534430007051
100.919909747561888 107.012832660295302 -44.786416861812967
84.288156101661258 108.227982234350435 -42.549638638098934
97.681198556980306 106.910337136123616 -44.710995901501676
88.786201873626410 107.102602938302468 -43.197197382207328
90.509929435542688 109.161894422591715 -43.157338373960556
84.603905608966855 108.179791933106955 -43.628088086647693
98.085037988969987 109.684374213813697 -44.162192578723214
88.701901184863715 111.046198755553291 -45.720059748326186
94.556901510856562 108.663477416733940 -44.642809919755308
85.297613410606161 110.174641766044928 -42.710203353118352
91.237998697338099 109.859414515253889 -42.329723496131798
88.905399737069558 109.572548947743726 -42.945863285712264
89.411921000805847 110.041320364674576 -43.994302255108721
-96.810923075262878 112.089625465397177 -44.147777031792607
95.872648140475377 113.016115354009202 -43.678338889569567
79.877507550687611 112.354224478399942 -45.064758876797981
91.075767366265183 114.471936199405306 -43.561377615272733
79.949959700957223 114.581519948749076 -45.788860757291452
82.669573966190086 114.155888154681136 -45.009199342667088
84.425822944153836 114.781561174631150 -44.661718158241811
85.407100210914294 114.508343290294277 -42.666080721499064
88.184530193206342 113.140843921309099 -45.254206764240337
-85.922186601197993 114.086389598557147 -45.448673073529136
80.381180337838401 115.615336228347573 -45.455332756704287
84.818397785061066 114.390160210516157 -44.419673753535172
85.355964409934003 114.868691532619820 -45.112122560431843
86.237882496098308 114.246416276714001 -43.283410610396480
87.772046679649407 114.619929326998772 -44.930355055549342
93.778470815489101 115.192756324784227 -45.375429161674113
95.091483724977550 114.623165999548462 -44.388537767338804
-95.717055965869093 115.579447441375933 -44.969451597149707
89.267450193916432 114.666940056636847 -45.137581761860808
89.167335853936223 114.433794825132907 -44.934949129338634
90.484697527762506 114.563058499186980 -45.605753756493847
-88.093280575648464 115.406974354488469 -44.757713565433320
-94.546836846907212 115.755759617507493 -43.958180592153710
-85.792217073807507 117.146146569453123 -45.002501461142757
-93.402857807728040 118.457612269511358 -45.547735058968932
-87.808023763941364 116.402173504935249 -44.331033845295124
-90.381633663551199 119.826432504962753 -45.165349565207400
-92.354133593049767 119.227882157844036 -43.922269273075479
-87.514216207588262 119.106102116265461 -44.216481357685957
-81.026514315452005 47.871899313611998 -45.157829348173145
-66.714046125892935 48.138238134483274 -42.428524050039115
-79.407348976219410 47.603379347302891 -41.447959313138426
-63.131437062088452 47.970835833725111 -43.164077394787569
-81.939181683383879 51.204209005556876 -42.554531522811203
-62.994603009933755 51.388317326231991 -42.590214856346208
-62.062881777343065 50.317843168052285 -45.047374140654412
-61.478626629990977 51.215783838472248 -43.622914669619846
-57.680602800881779 50.805074289461636 -42.168234068950682
-57.940720852952509 50.660173284379681 -43.730361161145026
-63.791522025317612 52.118890135517447 -43.999625337530965
-54.150566737996755 54.027647237457636 -41.794906371267757
-57.254163303636524 52.762167906589433 -41.232866886214076
-50.585797030860164 51.921387173435633 -43.164442977155268
-47.785256088141331 52.444650250220938 -42.571900583851217
-89.252090227590600 52.257721408480208 -43.393810274817483
-45.919604861221700 54.379436510753472 -43.255554280481299
-90.976314911071924 53.176862250920415 -43.409050717363066
-58.733282529614947 55.288296364815409 -44.113997364145440
-60.923508952665692 52.563317028865391 -42.587175250694195
-45.897488404124992 55.168203567851883 -43.648691581573296
-45.861061124897859 56.482125665123910 -43.040619940202376
-42.495910672082054 55.071881841397044 -42.927567878848301
-35.262560331898555 56.513802591014148 -43.909806230629329
-38.240592734306553 56.968615331125790 -42.861026553687346
-31.371281864470262 56.528763228296270 -43.487606933963079
80.458874082264245 55.336050913911805 -43.226594690402337
82.600054508419433 56.876726053789483 -43.367235202052299
81.135757197008985 55.411017762215671 -43.987543527763911
-30.877804765427125 57.608557821426920 -40.937376356974461
-23.536512244511268 58.370583918599053 -43.002577315490107
-20.422620530140595 58.768498575466147 -40.089499465281307
-12.227604103261433 57.385375607253124 -41.219757060443918
-29.388639625479726 58.690691497202614 -41.127347537890039
86.315685114917045 56.184264104549243 -44.598680340564997
88.040508164879100 58.196377325845688 -43.560995083638879
88.210666047436376 57.673663075291188 -43.671212335461256
-9.020496216306505 58.166724087902850 -43.925554888100756
84.469838672332145 56.494347625140549 -42.717622732868840
92.879839678958291 57.881034413069216 -44.780493528100976
81.393105943312392 58.117963624263531 -43.201192880564257
91.423861735483925 58.081759212012912 -42.031602189055583
85.550465496589084 58.695331394850975 -42.903246370388317
