# This PCD file was generated using the MATLAB® pcwrite function
# from Computer Vision Toolbox®.
# .PCD v.7 - Point Cloud Data file format
VERSION .7
FIELDS x y z
SIZE 4 4 4
TYPE F F F
COUNT 1 1 1
WIDTH 1430
HEIGHT 1
VIEWPOINT 0 0 0 1 0 0 0
POINTS 1430
DATA ascii
-73.203300 -50.320560 -198.123245
-72.488663 -41.539005 -193.151062
-75.210480 194.792053 -195.416748
-78.948639 70.914246 -198.113602
-74.503601 191.793503 -199.151382
-73.003502 -45.039352 -197.611389
-78.479683 58.939049 -203.166748
-81.796143 -46.889023 -199.621552
-76.423561 38.398651 -198.872147
-75.190269 47.970066 -203.362839
-76.434479 89.044205 -195.095230
-71.827858 132.500839 -201.326859
-74.474678 80.143143 -196.434418
-81.894547 191.733902 -197.716370
-79.214241 137.934326 -202.039429
-75.129364 198.533035 -205.142166
-71.711510 83.095978 -200.147415
-79.666672 66.547340 -203.733078
-75.367432 50.079453 -209.448227
-75.615639 142.241226 -207.523163
-73.220322 198.206314 -216.195129
-73.218254 150.252197 -210.041000
-72.767311 42.072815 -212.046585
-73.513634 71.874954 -201.845291
-79.006271 65.980507 -212.522720
-81.407402 198.226212 -207.632355
-77.223434 199.351471 -209.634537
-72.245369 72.219330 -215.355499
-70.344566 57.524811 -215.486130
-70.576370 42.757381 -214.555283
-73.753136 78.905495 -212.018295
-75.054085 -20.386633 -215.619247
-78.815567 -28.929014 -221.441406
-74.729591 68.271889 -216.535614
-76.035339 44.762936 -216.044891
-66.499832 62.431911 -225.297974
-80.429771 46.390797 -226.284332
-78.009544 66.685616 -224.717346
-82.711464 86.455345 -229.883331
-78.264954 51.373386 -232.286011
-70.967140 93.809959 -230.536819
-79.178818 96.687462 -227.123779
-67.998802 74.675240 -232.843018
-76.285385 39.883389 -230.926102
-80.141441 79.067490 -231.881119
-79.176682 116.531342 -238.531647
-79.544868 78.551666 -235.879562
-81.268875 49.661205 -231.611481
-77.435471 88.056664 -232.252731
-73.538986 39.003025 -231.460129
-73.996239 45.404778 -239.609543
-76.418121 90.585854 -237.341614
-83.479790 202.575195 -238.777084
-75.312477 197.192963 -236.798538
-74.065758 123.486717 -243.205826
-72.005684 101.348618 -244.035431
-73.290848 33.211582 -233.995270
-82.844780 129.095245 -241.054855
-77.771149 117.231514 -237.167023
-72.302711 52.586514 -233.388000
-84.203491 133.734863 -244.795639
-76.308228 178.221878 -246.461685
-77.411697 34.119884 -239.439285
-78.777412 182.723083 -254.473801
-77.129028 189.860977 -247.276566
-80.392975 31.850769 -270.885101
-78.456757 211.434753 -267.504120
-80.568848 200.784607 -274.240112
-75.644180 196.669754 -271.023895
-75.471069 81.421494 -278.819092
-77.817146 200.882278 -275.373291
-74.343178 118.974266 -276.951904
-77.749596 75.546509 -276.442932
-69.203300 117.626152 -268.376465
-68.576248 216.835876 -272.309509
-76.912415 194.340317 -277.441406
-77.420593 202.673737 -275.890594
-77.043571 50.528088 -279.565460
-74.995255 167.883453 -279.381378
-77.974075 186.783554 -281.249084
-71.285408 137.702515 -277.297882
-79.944717 123.060684 -278.000610
-79.343132 190.056366 -280.442322
-74.137634 123.426971 -281.002930
-76.834427 106.328735 -281.053833
-74.813263 85.603943 -281.248749
-76.119705 78.348984 -275.694977
-79.586456 54.598042 -272.584167
-74.656555 39.692776 -285.406738
-75.526817 184.904633 -280.978088
-72.671463 179.786163 -275.930023
-78.606575 40.591415 -287.356201
-73.016335 210.848206 -289.936096
-70.481323 206.351227 -299.851807
-77.155090 104.798447 -42.766262
-68.727539 124.771126 -42.190811
-73.322792 71.267960 -57.342148
-70.000099 70.545197 -58.950550
-76.001305 -34.980675 -60.604382
-66.725792 140.553055 -62.628925
-73.222237 72.855942 -63.165035
-73.672874 -33.973061 -72.788849
-79.931839 -24.316935 -73.691887
-71.212082 93.400681 -80.717445
-69.978523 -41.445911 -83.604179
-77.196831 146.006241 -83.724930
-77.514610 -17.621422 -80.355141
-73.766937 -1.544978 -92.401619
-69.320518 111.926826 -93.558998
-72.036415 -26.565668 -88.299049
-77.129585 126.613556 -90.613998
-70.890541 -52.755936 -91.657753
-74.256325 0.113887 -91.619080
-76.860184 14.644908 -101.414986
-68.577751 -54.582317 -103.856766
-73.950012 139.298676 -103.898048
-73.813408 -68.389015 -101.809494
-77.146805 0.816030 -108.228127
-69.109436 6.366413 -108.243622
-76.717285 10.475584 -116.454338
-81.616608 5.062291 -119.630447
-77.196259 -58.745293 -121.200394
-80.722603 2.163917 -119.018707
-75.130280 97.709946 -122.976898
-68.012550 110.048943 -131.510132
-76.083977 -64.943550 -126.371811
-71.992874 124.897400 -135.461746
-69.353798 90.416199 -131.360123
-73.837364 121.564598 -141.634933
-75.855690 18.148438 -138.390656
-75.768173 -55.007191 -131.432343
-75.417946 109.995872 -145.880157
-66.071869 118.066299 -144.533890
-77.563751 116.689262 -143.480164
-82.369751 104.300529 -148.070770
-74.083473 -62.791164 -150.656097
-71.098152 -62.426956 -144.431213
-76.595337 29.435677 -149.607819
-78.738510 -62.913506 -142.653519
-72.484795 111.062691 -146.962158
-72.442024 110.667015 -157.707306
-81.640266 114.544189 -152.008469
-73.046211 121.717026 -150.224106
-77.481384 97.944572 -154.436188
-68.280861 45.287754 -157.302765
-72.396248 28.210814 -158.999054
-74.921669 -69.136154 -164.292282
-76.545853 24.085922 -164.463776
-75.238525 102.822197 -160.028809
-80.344902 36.618256 -167.171616
-76.020966 111.645401 -170.393738
-73.905586 103.343895 -170.078232
-69.889740 36.296745 -172.954636
-76.981003 40.903919 -172.072723
-71.413597 72.655624 -166.698975
-77.453621 78.015175 -173.757996
-71.951859 21.677208 -170.982285
-70.273552 30.048002 -182.567902
-75.722115 104.115341 -181.117508
-72.859245 194.038315 -174.764709
-75.732132 199.538727 -174.585556
-76.673737 75.830513 -181.917999
-73.019089 91.431854 -177.709625
-64.475464 192.604996 -185.484543
-72.352142 30.634432 -184.465042
-72.843407 31.288990 -183.658661
-73.383514 92.772667 -187.157928
-76.200569 35.419861 -191.155884
-80.106491 183.850739 -182.156387
-74.521362 -41.841019 -181.358597
-69.231155 94.706367 -188.959366
-77.039154 187.465393 -199.211136
-73.103706 87.070206 -189.950150
-75.134705 26.918283 -192.260345
-69.785446 31.513306 -198.233765
-76.367828 59.854008 -203.921082
-69.913605 80.721146 -202.675140
-74.581177 66.593376 -203.277191
-70.401100 119.108307 -203.437439
-77.408752 -46.261871 -204.667938
-76.689240 140.197220 -203.958710
-79.086189 33.302727 -206.176086
-77.629929 -36.719887 -212.022232
-74.146530 -41.525261 -211.171783
-75.053566 189.684586 -211.549927
-77.132195 -38.017437 -202.402145
-69.983681 60.101074 -207.383041
-76.134186 44.057152 -206.508133
-73.756538 146.725052 -204.589035
-79.097870 149.190262 -207.179962
-75.388206 48.383305 -209.938858
-72.873970 70.945564 -211.048660
-77.311989 147.560654 -214.339981
-74.196930 -35.837990 -210.555038
-75.348701 33.909214 -213.398819
-78.083702 59.727333 -216.888229
-70.850655 -33.846104 -219.901749
-74.050041 52.275829 -210.601990
-77.260193 -31.349339 -213.605392
-75.950523 67.705093 -214.440811
-73.634712 60.145947 -216.500061
-80.898102 184.287659 -218.176483
-76.930275 180.308167 -214.187027
-74.095833 38.748951 -216.372711
-73.789635 190.736771 -223.021332
-73.637993 57.156773 -217.134354
-76.015038 174.824585 -213.443237
-72.675842 180.293884 -219.110992
-75.507454 45.223980 -222.613739
-72.935959 -17.287518 -228.621078
-79.504555 66.107544 -223.713699
-67.755241 -17.316999 -220.764313
-75.747185 213.111938 -230.580338
-76.262627 -13.974436 -225.210815
-77.399109 49.698212 -231.899765
-78.238602 -19.616053 -232.590210
-70.001373 87.530373 -230.613403
-77.239105 73.802620 -235.768280
-75.099800 101.047363 -232.557693
-74.135063 29.158077 -235.372833
-71.423737 29.177248 -246.002411
-66.596687 214.096756 -242.018890
-74.081085 138.026764 -238.775116
-78.958366 135.112839 -243.575790
-64.658783 131.999115 -243.265549
-75.831024 147.190292 -238.504608
-76.590233 136.033813 -242.804703
-78.025299 184.327271 -242.756805
-81.035248 167.413010 -246.985703
-73.600616 203.440231 -249.939011
-74.594063 203.712845 -254.715057
-68.315483 188.746902 -255.052841
-76.072281 219.597153 -246.033539
-72.049454 196.068222 -255.258057
-67.682350 176.844818 -255.426987
-71.996887 202.794159 -253.591309
-73.584328 198.124451 -255.775513
-72.972755 208.848938 -258.100128
-74.267967 216.348541 -250.963943
-71.705833 201.641113 -264.942688
-74.908218 217.429810 -266.167053
-77.076843 198.695099 -270.351410
-73.759987 207.187134 -266.073212
-74.439110 202.521866 -264.887329
-69.694817 215.181732 -266.967529
-80.846703 169.200272 -275.507446
-77.760269 80.098785 -277.239777
-78.717834 93.653442 -271.374329
-72.659790 199.797623 -281.860260
-76.616554 60.851269 -277.497620
-73.247154 133.326843 -277.442749
-67.978668 142.750076 -278.134064
-71.981476 174.603790 -283.091919
-74.486298 162.262589 -281.918091
-78.271385 146.059174 -275.518188
-66.794769 202.462860 -281.055786
-76.232384 30.933619 -281.817780
-77.496262 169.083115 -283.630463
-68.201065 157.750854 -284.159271
-78.225609 110.490143 -279.959839
-76.890312 146.009918 -281.804260
-76.274948 206.540894 -281.491882
-74.140533 65.478653 -279.305450
-71.965271 193.576981 -273.985870
-76.669815 189.590576 -288.355530
-73.004631 215.066391 -286.412354
-77.314407 204.562866 -274.325714
-81.785294 200.116287 -275.999237
-73.684692 204.495163 -289.440552
-73.429230 191.397400 -287.462555
-68.397148 191.251038 -294.373474
-75.230057 197.963593 -295.287811
-69.879860 195.281998 -300.914063
-67.215096 108.866890 -39.085560
-75.783386 107.047829 -40.530586
-70.446739 88.949135 -41.699623
-71.265091 84.577118 -46.324757
-75.757210 -41.869633 -60.175713
-72.381691 -23.175079 -55.736950
-78.039177 -21.872322 -73.201614
-73.198265 91.038124 -70.946846
-73.677261 -44.796974 -61.308369
-69.396088 -48.557503 -71.298569
-73.260773 -21.982277 -71.494400
-68.175873 -7.990642 -83.435463
-76.453178 -10.113024 -74.099937
-85.441643 -1.375650 -79.929802
-67.263092 -12.304482 -85.286217
-70.238541 -53.082100 -87.214737
-69.870895 6.939338 -96.525764
-76.125351 -29.384190 -86.465858
-78.234650 4.360099 -89.076294
-76.663101 -6.045473 -93.302887
-73.977943 -40.993847 -90.460762
-73.104202 -55.774658 -89.107658
-75.033730 143.690140 -103.749069
-69.998627 15.179350 -95.432556
-74.908638 137.088562 -103.123871
-73.297760 -0.412782 -105.304779
-81.616714 -58.056194 -112.693512
-72.430412 22.067635 -118.958595
-72.737526 17.272993 -117.375961
-75.067177 -62.963650 -116.407211
-75.840141 -67.279305 -119.034798
-75.089600 13.055188 -118.346947
-78.908302 20.535961 -119.119820
-73.071693 25.710110 -117.903656
-84.418556 -62.042229 -120.873756
-70.385574 126.011284 -126.324890
-71.989830 97.973923 -136.040207
-74.559242 -68.886436 -123.479279
-71.519485 -59.847237 -130.964081
-75.879974 93.656601 -124.175926
-74.917557 100.986145 -123.214745
-70.042183 25.746986 -139.799255
-75.698105 122.337486 -131.895447
-72.097214 9.155018 -132.327087
-75.295807 122.038132 -142.268967
-76.628494 125.701202 -140.805420
-70.539146 92.901367 -141.236847
-69.497429 88.432076 -146.473770
-69.618645 38.023342 -140.571640
-77.146294 -62.053726 -147.690430
-66.347450 -68.231750 -146.862747
-72.016991 28.266768 -144.824097
-70.868279 42.577442 -141.935287
-72.513641 21.474394 -144.856735
-74.830353 118.880363 -152.955322
-77.769325 87.144279 -152.517685
-69.800415 42.660576 -148.391418
-72.550430 38.230080 -149.119034
-75.434654 19.529100 -157.649734
-73.751129 92.827660 -148.667816
-79.390396 48.029472 -157.629379
-75.294495 -56.509048 -157.739685
-74.557472 51.472256 -156.626358
-75.923180 113.610062 -146.291672
-72.641594 -60.562672 -159.664520
-75.907059 111.779060 -161.005157
-71.102341 79.285965 -164.701935
-70.967438 106.668831 -161.100784
-75.686501 24.830015 -165.824280
-76.715500 -56.537327 -161.801788
-74.948807 77.762939 -167.039566
-69.803688 90.633888 -171.159103
-71.190338 87.177979 -172.048950
-70.435898 193.314301 -164.758545
-75.825386 109.030464 -169.809525
-74.730270 -61.737503 -165.256882
-85.891640 201.799545 -165.171570
-71.233521 -48.458328 -171.703720
-68.214203 70.266991 -172.432861
-76.206993 -65.861198 -172.417160
-76.223885 202.520996 -176.499237
-72.054985 -48.411236 -179.245743
-78.263847 -53.546429 -176.833847
-74.236870 -51.861099 -189.260757
-71.090919 71.846436 -186.215042
-79.220688 38.015999 -180.395340
-69.365150 63.997246 -184.772919
-73.986031 183.119293 -181.177704
-73.607643 173.446411 -186.456894
-71.056923 -52.638054 -189.190674
-77.485374 176.576050 -185.158218
-75.713081 -54.750633 -192.419083
-71.043152 64.892838 -190.903061
-71.607918 37.682045 -190.528076
-70.849350 82.806625 -198.292145
-73.170525 -45.353252 -189.695343
-73.627701 -44.665531 -195.932312
-78.490852 45.497433 -199.702225
-68.294083 -50.306393 -198.684509
-76.317848 -47.805710 -196.468948
-76.097664 65.458008 -198.890015
-66.162125 132.913483 -200.551575
-67.901489 80.173386 -202.816910
-78.734962 73.905220 -208.059860
-66.308250 -42.291016 -202.824921
-68.125488 130.295731 -208.744476
-77.183098 201.524185 -200.763275
-74.309967 52.895336 -206.458755
-75.824631 133.945282 -207.061508
-71.214073 69.158249 -206.254700
-76.857918 35.108120 -211.292725
-71.373474 -29.633305 -206.778229
-72.062828 76.174294 -210.587952
-76.576057 191.640762 -215.661011
-72.376556 59.646164 -217.046951
-76.028099 43.146626 -213.201950
-78.823471 -28.908657 -219.326462
-77.202171 210.955566 -215.307251
-68.577972 -26.348368 -215.087433
-76.086853 178.490875 -213.017563
-71.134521 68.947838 -216.292343
-76.340744 40.693707 -217.079666
-74.187912 189.982330 -218.347580
-75.357605 193.510895 -215.478500
-73.236916 -27.383821 -214.227341
-73.724342 189.521408 -217.931183
-73.122337 187.486374 -216.898743
-65.332001 212.299042 -219.137604
-81.058716 -28.500435 -224.112686
-74.516960 186.785324 -220.976761
-74.155266 178.832184 -219.952805
-77.962479 48.553570 -221.127182
-77.344727 54.669819 -220.030212
-72.956573 204.983948 -221.670486
-73.993309 200.598022 -222.095810
-71.483871 34.635155 -227.284073
-69.440742 210.727142 -229.025360
-72.634079 51.109936 -223.865829
-76.804794 58.360924 -227.321136
-71.718964 190.728806 -225.246552
-78.671791 -12.119596 -225.401993
-75.972809 77.191940 -228.847092
-69.200890 203.085770 -229.128464
-72.682304 209.496796 -235.080780
-80.528381 216.138901 -227.362427
-74.879692 29.254728 -234.705597
-73.684425 54.500565 -233.433044
-72.976318 28.340731 -226.478546
-73.571777 109.491005 -232.862991
-70.243683 101.357536 -239.806976
-73.502419 32.755081 -228.564774
-71.452995 -15.027155 -233.494431
-64.981804 100.701271 -235.869598
-69.805290 58.394016 -232.642227
-75.283989 203.678268 -235.614349
-74.899551 124.615570 -231.074142
-75.506355 34.811378 -234.387405
-72.494286 206.875076 -233.696411
-69.807022 207.640884 -241.658630
-68.935226 36.668228 -236.114441
-76.287460 214.330063 -243.719421
-75.501755 189.452530 -243.593048
-76.069969 199.351044 -243.005371
-67.843369 212.616058 -247.579056
-68.098808 181.808228 -246.879074
-72.929031 60.655563 -239.342773
-74.179062 209.428894 -242.617111
-77.106697 173.753906 -241.922592
-81.186943 145.842041 -243.643906
-72.304108 170.910309 -249.047592
-70.016335 150.882797 -245.151978
-70.059547 141.191666 -239.810104
-72.886909 141.224060 -253.852737
-72.284836 193.496567 -248.309784
-68.997864 158.922501 -252.616653
-75.202477 200.582428 -248.839401
-69.882774 165.308395 -251.600861
-71.899284 70.364944 -244.975113
-75.955956 201.397919 -253.835495
-76.793442 191.530991 -249.592972
-78.753189 215.645050 -256.385681
-73.347244 60.192753 -267.175903
-73.984154 218.597321 -270.089569
-76.233528 185.785492 -277.495270
-69.395668 124.991890 -273.222687
-73.383842 86.684029 -274.610718
-71.565468 79.648705 -275.584320
-74.949707 165.239471 -275.244232
-68.889336 54.798569 -271.732971
-64.924728 41.318443 -280.372375
-76.005890 35.806587 -283.730835
-74.249046 105.450981 -282.527100
-70.935074 128.813354 -284.399292
-70.493965 168.062805 -280.263763
-82.699821 70.938385 -273.007141
-76.887970 58.771454 -285.187927
-72.665298 168.130997 -281.113068
-73.543098 45.788410 -283.513550
-78.186638 33.452957 -283.444000
-74.643341 41.560715 -279.774780
-72.632706 212.788269 -280.576447
-79.712471 24.100725 -2.371823
-72.768791 21.823879 -8.322324
-78.972588 27.003963 -6.987409
-80.854683 33.566525 -19.099348
-77.803040 26.825264 -21.677910
-71.664253 23.636251 -15.349030
-71.176117 23.380823 -21.057108
-71.363121 11.848812 -23.151524
-83.705170 22.858130 -25.997366
-71.865540 23.706745 -30.564276
-71.615242 18.198229 -30.799635
-71.952721 17.791683 -31.923471
-68.270042 140.727524 -42.495655
-70.618919 70.329582 -45.302513
-64.671944 144.226471 -56.054222
-70.547562 72.963638 -54.449974
-75.804062 -28.700796 -65.543282
-69.080620 77.372086 -72.608803
-67.962753 94.864716 -76.305923
-74.900009 -47.767403 -72.714111
-67.758286 -52.736023 -86.226669
-67.748253 -7.701427 -84.666306
-75.412567 -2.421281 -84.136505
-67.754608 -3.435292 -88.260757
-72.616066 132.368729 -83.594421
-73.691261 -42.627239 -89.568649
-77.747787 115.054184 -84.727470
-75.395683 124.303207 -86.835815
-78.931221 -20.663807 -89.808456
-73.792229 -6.356083 -87.105316
-66.226822 13.258439 -88.953102
-72.580536 -4.174587 -104.423996
-74.297333 -59.131989 -100.223663
-70.824966 16.493113 -108.504829
-70.760223 142.627823 -114.154861
-72.610741 -64.810326 -101.808846
-73.021324 -60.361446 -109.100281
-76.112930 6.575145 -110.686867
-75.237434 14.311055 -109.156868
-68.616676 -59.502293 -115.670670
-71.988098 104.276230 -118.733299
-71.827599 -62.583935 -122.858597
-72.219818 125.168526 -119.694862
-74.874046 -69.142700 -124.356995
-71.363953 93.785858 -126.855927
-76.135765 -61.646473 -129.393387
-77.598610 15.016143 -127.574554
-70.328140 93.419670 -127.732391
-74.178978 -70.109512 -139.099854
-74.668282 112.950546 -133.649597
-68.990082 18.703657 -135.983505
-68.525139 101.987045 -140.237823
-74.021507 123.688850 -132.856903
-72.561295 16.566257 -137.922028
-77.102898 -65.619949 -138.983444
-77.376015 116.738457 -138.606155
-73.451393 41.030453 -143.121918
-77.126434 41.649319 -148.020676
-69.176201 -57.325211 -146.983551
-83.690590 96.650398 -141.031555
-69.367935 97.441032 -145.496155
-72.337685 110.777153 -144.470093
-70.069527 -60.035412 -146.529739
-68.610733 -57.754238 -140.844666
-64.983604 38.473278 -153.748215
-72.061218 117.829987 -147.990723
-78.164627 85.935555 -154.685638
-73.065689 -58.084133 -145.446945
-72.503136 99.581764 -149.757523
-71.970840 113.388542 -156.423767
-73.896828 -67.351570 -150.715012
-70.513000 109.121490 -155.475403
-76.076660 22.867828 -161.591141
-72.685417 -61.472961 -155.432419
-74.138931 87.160789 -159.374435
-72.794891 93.443817 -164.759293
-77.304398 76.209023 -169.028183
-72.632500 203.112366 -168.591385
-74.933640 192.301910 -162.631836
-77.680847 -52.942188 -171.265305
-79.268631 -56.139278 -163.748169
-74.164017 33.949253 -171.258789
-77.761131 -52.540871 -168.296982
-69.140869 27.038671 -177.102585
-78.512032 67.717529 -170.665726
-68.871498 198.314209 -172.543396
-71.781525 41.203136 -184.793015
-73.508514 -59.628681 -176.414001
-73.997269 -54.201942 -176.453033
-62.596096 78.313560 -183.772415
-74.898521 -57.814762 -180.693497
-72.340858 194.702042 -177.649796
-68.331749 193.159637 -184.002213
-77.310020 -51.887947 -177.136871
-73.309616 78.687454 -186.281372
-74.216644 177.826141 -182.821198
-66.769958 171.539246 -194.075897
-77.662201 23.577835 -186.823380
-71.950264 186.995132 -186.572083
-71.923836 185.238403 -192.018204
-71.679398 193.528442 -190.560043
-73.086121 -43.821239 -186.107574
-71.355202 186.584030 -191.602982
-76.692024 63.545311 -191.842484
-73.825180 75.718468 -188.505402
-78.769493 185.193298 -195.330658
-73.631256 167.284424 -193.119431
-71.221161 -40.781853 -193.416046
-71.669098 199.505875 -194.467072
-75.974800 198.810501 -195.645935
-69.981300 64.871262 -196.140732
-76.824860 42.180218 -198.643570
-79.116447 36.438847 -198.672989
-69.403015 65.756317 -200.563019
-76.365967 207.474930 -193.276672
-75.140305 32.709740 -196.633804
-70.328903 -37.522495 -200.968094
-79.038017 60.753254 -203.594391
-74.598190 -45.703392 -201.256271
-74.658417 84.107002 -194.697205
-74.579559 65.627106 -206.416306
-73.917038 -39.411854 -204.451004
-87.272713 201.511734 -208.342072
-74.864456 213.905960 -206.480957
-70.515747 72.409081 -209.114532
-68.832710 139.471390 -211.966034
-65.220154 203.113968 -208.240311
-77.387657 -36.429844 -209.919830
-78.111946 30.389364 -208.431107
-77.795250 -34.986706 -204.990479
-74.077309 148.842804 -211.506439
-68.050682 202.568848 -217.266830
-71.892487 -32.394203 -219.432449
-70.759605 215.511322 -211.631516
-71.950447 198.602478 -211.332336
-72.820877 66.929390 -211.553162
-76.242729 -28.537592 -212.326416
-71.218330 157.766937 -217.992477
-77.173500 172.551941 -216.570892
-69.689987 -35.701096 -218.097214
-76.351830 189.384842 -217.045120
-77.215691 215.480957 -223.811066
-77.706299 198.466644 -212.242310
-77.047569 64.057373 -219.818344
-75.008324 38.592560 -220.596802
-73.423744 205.083237 -222.223587
-76.384315 42.882195 -218.060928
-79.583366 39.368359 -218.150391
-76.657249 171.364273 -214.676544
-77.623932 -27.746559 -224.248886
-69.446091 215.297989 -214.129150
-76.895561 61.875507 -222.663345
-67.553116 168.782074 -219.219376
-73.536919 60.756294 -223.109802
-73.372108 196.092361 -223.063705
-70.209541 173.199402 -216.231628
-74.361435 192.668549 -226.492111
-73.254257 178.493042 -225.180130
-68.435097 57.129913 -212.560272
-75.988396 -30.166174 -220.751923
-68.502167 191.592987 -229.594330
-67.419594 185.825928 -218.316528
-76.991508 214.414368 -224.760956
-65.857140 208.241394 -226.123108
-68.369316 204.925613 -226.351822
-69.911308 -13.937740 -227.075424
-73.729256 49.620129 -220.422028
-73.353035 -24.438961 -222.569687
-71.210007 42.436230 -227.506424
-71.188423 69.545067 -223.899414
-64.414909 34.215858 -227.554108
-74.841942 -18.113220 -232.002777
-73.291832 57.735966 -225.443832
-70.038910 74.026146 -232.758621
-71.018944 37.842358 -231.919403
-75.756233 66.008850 -232.940399
-75.033134 51.952114 -230.608139
-72.073677 59.607738 -239.991943
-68.240410 4.313295 -244.563034
-71.379135 111.277313 -237.538803
-64.049309 61.183674 -240.260178
-73.548370 3.153539 -236.152206
-72.508743 36.844059 -237.324112
-73.761444 69.973732 -246.169876
-74.582291 63.847221 -242.787292
-70.230797 29.203251 -239.401352
-71.824310 147.780716 -247.948135
-76.477982 175.798309 -249.263474
-68.806297 148.928421 -242.223007
-73.953285 133.230820 -240.416855
-76.786201 191.998627 -244.452118
-70.179535 130.547363 -243.689957
-77.301704 155.139664 -248.711166
-76.721817 151.660889 -248.176056
-72.232346 155.365585 -250.876556
-74.696945 171.479584 -260.585114
-70.531715 188.879562 -249.305130
-81.731865 24.980843 -249.772644
-71.964546 211.739075 -249.001587
-75.594536 58.969582 -257.811035
-63.703972 191.328400 -260.318024
-70.154129 194.020538 -276.400391
-75.852051 47.756523 -280.373688
-74.009308 184.401398 -278.173096
-73.159668 191.912598 -270.776306
-66.818886 35.744293 -273.524689
-74.927887 100.075432 -277.773193
-69.991493 174.749985 -273.524780
-72.532867 149.027161 -283.152100
-71.927681 94.928284 -277.265533
-75.551735 86.990158 -277.559082
-72.400314 210.547546 -277.980988
-72.574814 162.661087 -284.040405
-69.237831 71.959137 -277.395752
-66.617821 47.569542 -280.528442
-68.168427 105.492935 -280.020294
-70.366760 97.205116 -281.539368
-70.237511 83.563683 -277.864014
-72.896545 65.502029 -280.682648
-72.576828 58.451843 -283.545471
-72.622337 218.536453 -281.974548
-73.109703 138.527878 -275.766846
-70.928818 44.559593 -279.399567
-69.843849 29.580153 -278.018341
-70.764412 185.356995 -278.768280
-68.249863 193.736816 -283.224426
-70.936874 208.454620 -282.466248
-76.576210 200.963211 -287.598633
-72.545532 206.291840 -298.876648
-73.927536 203.989090 -304.768738
-67.526054 13.382852 -0.733087
-68.623909 15.370477 -4.554338
-78.344063 23.024473 -3.484613
-75.093971 8.901474 -4.339140
-75.571022 15.767690 -8.445236
-71.245010 6.742923 -16.394339
-70.301300 8.188257 -5.254942
-68.987694 2.917384 -9.695282
-67.423584 -0.355683 -21.517647
-71.594261 9.571663 -18.397757
-70.554062 3.605944 -28.580349
-77.604408 15.080917 -31.380146
-73.316406 123.176079 -46.657913
-71.665916 122.879768 -44.115700
-68.953453 87.179558 -44.238579
-69.276497 -41.398083 -60.018898
-73.708900 -39.329792 -62.018379
-78.162262 87.322830 -69.113716
-73.181000 71.667091 -72.714096
-71.274033 86.246292 -71.181549
-74.184738 104.975769 -80.155586
-70.039940 -11.232125 -85.989548
-73.066010 -15.616288 -75.838478
-74.877876 108.954765 -83.485786
-69.759346 -3.212022 -81.753685
-72.973885 110.996880 -81.694946
-63.358059 1.191314 -90.750839
-66.185242 -57.085091 -88.118698
-74.886131 8.255190 -87.657310
-69.773628 -55.144001 -83.993462
-70.477760 -42.213902 -97.335464
-75.374680 4.998160 -95.748337
-71.390213 -54.512672 -97.592422
-72.487717 0.715964 -95.050430
-72.250389 -54.017887 -98.118019
-72.804993 -52.151154 -101.872780
-69.401497 3.641289 -102.366173
-71.026802 145.821915 -108.731995
-73.108231 3.555169 -107.014793
-73.987495 -62.257298 -113.612610
-68.209908 18.261663 -117.285889
-71.023949 -65.828522 -114.190208
-73.789650 -66.415504 -113.128944
-60.665958 107.722069 -117.573189
-63.443790 -59.750641 -122.552010
-68.661896 -60.221577 -121.391968
-72.279587 1.597436 -120.542511
-78.218201 109.449501 -123.891640
-65.922066 23.022390 -123.251823
-71.276138 16.169659 -127.837128
-70.645592 119.855209 -127.655350
-76.431084 -56.215782 -128.893982
-69.015312 97.248283 -123.323380
-69.447311 131.344315 -125.127716
-71.682518 100.047562 -129.845184
-69.132889 18.902721 -133.303726
-72.620583 97.098686 -129.374252
-71.820503 -63.660233 -133.252945
-71.833977 96.675346 -132.736206
-65.182533 124.371841 -130.542038
-70.358315 120.179115 -133.970978
-68.625122 86.859360 -136.589142
-67.238441 -62.997650 -135.245972
-75.646461 119.969635 -133.872238
-67.899986 122.683479 -134.543640
-70.299911 125.123123 -139.841248
-69.107971 125.554169 -133.421616
-74.029846 104.639572 -143.356476
-68.244507 35.346107 -141.382767
-67.264282 32.173512 -138.323730
-71.016182 22.161037 -139.364471
-67.834358 24.848454 -144.511627
-75.356812 44.017273 -147.989929
-70.020386 36.427551 -145.122162
-69.942596 23.228733 -144.841751
-80.106865 47.212624 -154.869034
-63.346611 115.377632 -154.043427
-67.693352 86.924934 -147.012558
-72.332649 42.491138 -154.122421
-70.564606 49.461082 -149.827896
-74.469666 -66.335243 -153.181686
-69.239296 19.800449 -153.897339
-74.718620 75.970520 -160.663193
-74.106598 28.015711 -158.011765
-73.431259 -57.938759 -168.614807
-78.913185 88.113060 -164.717422
-71.396790 -66.698761 -163.503479
-75.106316 89.018387 -164.190704
-75.176529 201.610962 -166.213104
-70.169022 80.080498 -174.071396
-68.665100 24.875738 -170.466629
-67.485161 189.777802 -173.726395
-73.984734 84.273918 -178.687531
-66.753571 79.455589 -176.203247
-72.683022 76.735390 -170.365646
-70.120216 77.519600 -177.581467
-76.919434 -57.612160 -175.247833
-62.970585 193.779922 -166.956665
-63.213730 30.577484 -180.921692
-74.487488 69.707718 -184.967590
-68.091682 80.095749 -180.462601
-80.769066 36.483006 -190.513275
-70.838020 205.573181 -183.598938
-67.319786 166.235992 -182.087479
-70.603004 186.422821 -190.719620
-72.359795 -43.403233 -190.809113
-74.785301 203.841904 -184.865311
-73.424797 202.352890 -187.909042
-72.816574 173.330460 -184.167755
-71.577324 -59.413361 -187.646515
-61.619751 27.689903 -194.387558
-75.703110 197.418564 -193.559586
-77.711540 198.123398 -189.539291
-69.179893 37.216961 -189.849701
-71.968933 171.474197 -192.300461
-65.560715 202.173874 -185.960571
-69.089745 195.488831 -185.211548
-74.737915 163.812042 -191.977051
-76.868118 62.008595 -195.461899
-68.768646 194.187225 -195.771286
-67.987373 207.436020 -193.172684
-73.771248 201.368332 -188.690384
-70.358948 -52.135113 -194.225510
-68.709877 69.019249 -192.707443
-75.334587 -42.616928 -201.729004
-73.240059 46.546368 -200.868332
-68.805740 201.731735 -202.384506
-70.636520 -48.176575 -199.035843
-75.089951 58.753853 -201.802246
-69.734344 34.342464 -200.272751
-68.723137 -27.931190 -207.599854
-68.834381 151.899246 -200.994949
-76.129456 42.757053 -207.041672
-73.432350 45.274685 -210.666977
-72.357224 -36.083771 -204.546356
-68.424942 71.233345 -213.814377
-69.596069 50.472866 -207.497192
-71.940445 145.744080 -216.592041
-71.280258 75.436539 -210.714462
-70.307922 197.350555 -213.433914
-70.136559 62.349266 -218.349304
-69.559837 69.292564 -221.878708
-76.705841 160.290649 -215.191864
-76.261681 160.595062 -211.872208
-69.809944 -28.712791 -214.932281
-71.009499 159.693848 -214.452866
-66.294846 -25.823481 -216.003403
-70.983009 66.864983 -217.240601
-75.348473 39.582508 -218.506775
-71.738113 -17.038134 -224.663605
-73.564972 39.430008 -220.263596
-75.209473 69.841087 -229.677216
-78.730202 162.900482 -221.236099
-69.801018 167.349411 -220.737747
-70.260925 193.221268 -215.452942
-71.281952 42.565872 -228.526855
-74.824898 177.902878 -222.814117
-71.195427 185.192612 -228.932938
-74.960983 193.501511 -229.873032
-72.552101 -28.419474 -220.141144
-68.077011 219.841599 -226.964569
-75.537590 47.629375 -227.677078
-71.084160 -17.807039 -232.429382
-69.388412 32.089733 -230.142944
-64.505112 -18.179235 -230.999710
-78.394699 61.593395 -226.952011
-67.051491 65.930031 -229.996094
-66.920250 44.232616 -234.030884
-74.250725 63.447250 -231.887527
-65.703812 33.995899 -236.159073
-71.947433 36.804863 -235.925705
-74.469124 114.035576 -240.241898
-73.671089 116.395538 -235.577530
-71.888313 5.505511 -240.101105
-63.441238 142.204346 -238.139557
-77.017090 -1.477596 -240.131226
-74.500153 118.093208 -245.411667
-74.359131 216.895905 -242.750961
-67.156303 141.814819 -232.077744
-72.666504 122.760483 -244.516571
-74.229454 6.928556 -240.443329
-73.132515 190.172852 -250.592697
-78.965202 159.370834 -249.510223
-70.817680 146.989868 -249.628815
-75.198723 172.595596 -258.788696
-72.156128 185.247375 -257.371826
-71.587936 216.354736 -264.511719
-79.789124 62.830540 -274.061829
-70.336823 214.332291 -272.856750
-72.668877 136.216293 -276.961975
-70.573868 128.699997 -275.432037
-70.523338 116.952751 -278.458313
-74.270546 216.304947 -271.540283
-68.523415 51.125664 -273.256927
-75.893364 77.373085 -281.682709
-72.991913 89.092827 -282.125031
-68.110840 65.057892 -283.474152
-70.902306 89.167290 -274.692169
-74.961365 71.484299 -278.859009
-73.354622 52.562946 -283.172577
-66.203896 124.336731 -282.492218
-71.528511 44.763149 -279.591125
-76.074684 144.744812 -280.837616
-69.237091 138.712616 -287.101715
-75.924873 182.404251 -285.018097
-71.026634 174.135895 -282.299164
-73.223625 193.846039 -289.261047
-73.022682 191.737915 -303.454376
-71.407242 197.774643 -306.964935
-71.530121 23.875977 -6.671424
-65.272644 12.207342 -7.441683
-79.318489 13.407719 -8.317932
-72.590996 27.958344 -10.084692
-74.351830 30.174263 -15.586211
-77.067574 31.718847 -26.737244
-74.186653 29.375410 -20.064161
-73.850937 25.886724 -18.800030
-72.683098 19.671526 -22.450945
-69.493958 20.653332 -24.133772
-75.538826 28.633226 -26.554602
-71.873573 25.598227 -21.510248
-73.551727 24.616663 -32.050377
-68.991386 17.717440 -33.131355
-65.163521 18.507168 -33.009117
-75.254601 108.531647 -35.783489
-71.405251 83.944168 -39.858250
-67.002022 69.195145 -52.171646
-76.398544 63.069870 -56.332455
-63.794674 -29.681372 -49.552891
-69.438622 139.937225 -57.419830
-69.184280 -33.247181 -50.831173
-72.202477 -20.525986 -54.951817
-69.751358 -17.762053 -62.813450
-69.666649 73.303741 -62.298538
-73.164459 -52.125767 -65.986832
-71.068611 -56.075138 -67.210632
-64.013893 140.381683 -71.837006
-66.465202 104.352303 -74.947876
-66.729591 -14.518723 -78.709145
-72.677963 -51.835876 -83.463104
-75.119209 -53.829384 -87.099037
-67.879868 -50.531170 -88.779373
-71.855103 6.515923 -88.046898
-72.469749 -8.170133 -94.315842
-70.340179 3.147032 -99.785515
-68.637955 -31.092037 -82.452957
-71.683121 -4.991446 -95.507393
-71.755165 -57.166828 -88.593155
-75.410934 -57.139660 -97.622002
-67.753914 14.351236 -101.366745
-64.080727 11.506614 -99.719574
-70.821136 133.011703 -103.311943
-74.686272 129.531082 -104.976845
-72.000595 -48.331284 -111.400391
-70.142761 17.778658 -106.624146
-68.451981 -58.857834 -113.574715
-76.422165 146.821381 -107.118843
-71.854614 -61.243637 -104.858559
-78.579231 14.235521 -106.875992
-72.151543 10.046373 -107.230583
-66.546890 -56.369606 -115.596352
-74.943047 134.942551 -115.886589
-71.686111 19.071960 -119.957260
-71.758003 134.508514 -116.688042
-71.812790 15.417516 -117.414482
-71.279617 9.635563 -127.037399
-67.961304 -58.118980 -126.869469
-76.428452 113.561668 -125.980492
-74.643059 101.909180 -131.449249
-68.537224 -73.114426 -125.057968
-74.198502 13.937385 -127.628677
-73.358963 104.106689 -139.007980
-73.491264 -58.024349 -127.182297
-71.373421 20.658802 -143.855774
-64.394890 28.922894 -145.120514
-76.372688 -72.832619 -138.336273
-78.440887 93.126534 -136.847748
-64.291107 30.692560 -138.758911
-68.577179 19.015673 -139.055878
-73.817192 17.659897 -140.407410
-69.172249 -59.984230 -144.445007
-82.447952 32.528107 -140.757721
-67.591843 97.858246 -139.413162
-63.445538 118.913719 -141.664886
-67.037224 91.564606 -140.319412
-65.487907 124.238770 -150.958359
-64.375366 88.791611 -146.708481
-73.561699 41.238941 -145.923859
-76.754356 -53.988556 -152.753662
-70.299599 -65.667488 -153.863647
-64.098366 90.687737 -151.849533
-70.103340 17.237255 -159.417984
-72.922005 30.288300 -153.464981
-70.736572 87.907021 -146.741562
-69.984436 -59.514355 -165.750336
-73.972000 76.796539 -158.630844
-71.859680 -60.653297 -164.500305
-68.029747 23.926100 -165.155060
-73.075996 23.528599 -156.723999
-72.386986 86.930084 -174.568054
-75.246834 -64.081390 -166.431473
-66.723282 35.088844 -164.877655
-68.274864 82.844589 -177.597122
-78.076019 -60.670841 -171.007629
-66.887131 -58.001743 -175.183929
-75.393661 82.412109 -170.488556
-67.189163 75.200111 -169.169266
-69.393837 201.983871 -174.263870
-66.174652 72.077682 -179.886719
-74.991348 70.369255 -182.770721
-70.504593 201.466293 -180.886765
-72.280563 -54.630737 -175.623917
-71.491989 84.637642 -180.496246
-74.381813 204.640396 -177.813278
-70.461403 205.010208 -184.401245
-66.955643 193.349045 -186.524826
-70.327972 200.586823 -186.581177
-67.833405 -47.665276 -187.989182
-71.575348 64.226585 -185.132858
-71.510216 167.662720 -187.588211
-71.002258 57.425846 -186.468307
-71.363800 77.590408 -191.077072
-68.423386 -47.195698 -187.254776
-71.224541 41.210522 -191.279907
-70.639740 171.636139 -192.304276
-69.965469 212.883530 -195.677185
-70.094559 194.665543 -191.940125
-70.834831 198.728195 -189.067749
-66.838699 63.998772 -199.637802
-70.792168 -49.714943 -198.400299
-64.537872 31.385725 -206.873337
-69.827713 32.090981 -206.001678
-70.657639 42.310188 -206.335464
-65.548164 145.590088 -208.816849
-71.934448 148.848358 -210.413071
-77.362808 141.437393 -204.651047
-63.035160 49.026749 -207.362839
-63.497097 213.840851 -203.419662
-63.357399 66.484032 -210.954224
-69.526863 39.747013 -210.948853
-76.061836 -29.627192 -203.625015
-74.404015 62.220341 -213.830338
-77.342209 43.580795 -213.492126
-78.762131 -23.058750 -214.078751
-67.503456 173.548309 -206.947800
-74.124123 167.858276 -212.348526
-66.756676 183.114395 -212.538910
-73.117538 40.274788 -215.999100
-68.644920 161.203156 -214.040741
-66.780067 217.398209 -220.930740
-70.185089 -35.215317 -215.904114
-67.480919 54.993359 -228.262772
-69.220276 42.866924 -215.690903
-76.208481 -17.119055 -222.248123
-66.891014 39.552502 -226.938309
-68.728012 192.756943 -222.131989
-71.746071 61.492531 -233.994904
-71.394920 54.148834 -233.932434
-66.836105 51.884029 -232.255539
-72.221512 53.980846 -230.098236
-74.883476 34.703026 -231.767197
-66.173820 38.376705 -222.620193
-75.363579 -1.261161 -230.260529
-66.977478 32.279781 -234.715820
-70.030212 61.010693 -229.630386
-67.709518 -3.711443 -236.984589
-65.350357 -10.848325 -235.947601
-62.905800 -3.357418 -236.617386
-72.850578 -11.707103 -238.593109
-69.906250 123.865005 -241.348633
-69.570717 189.179657 -240.479568
-73.383675 6.946757 -245.939423
-72.186577 180.450699 -241.994705
-73.764145 68.588707 -245.672623
-71.186165 11.310486 -241.442596
-73.060600 16.345058 -246.829987
-62.250145 202.280212 -255.329102
-76.465111 68.169380 -252.667236
-71.181213 168.995697 -254.345154
-72.359070 187.983521 -254.528046
-71.088440 164.916504 -255.913864
-72.125748 206.860077 -255.734848
-66.402168 175.087814 -260.232086
-66.729904 206.321579 -247.833191
-69.655807 199.229874 -254.035751
-70.381805 211.283783 -256.075348
-62.599476 20.370016 -259.791595
-73.850174 62.253826 -259.661285
-70.491272 35.708790 -263.566711
-71.374298 215.791138 -268.797852
-72.214333 212.914536 -268.614197
-71.482033 204.827621 -271.104248
-73.126816 219.004715 -279.283417
-69.975533 180.442719 -273.160034
-71.467049 195.532684 -281.223694
-73.121346 183.956955 -273.871368
-66.538109 175.366043 -274.758514
-67.356682 203.550751 -275.250854
-63.284069 157.342331 -278.579437
-69.250481 122.584305 -282.276672
-71.383095 114.606781 -277.231873
-77.308350 109.082916 -278.704254
-74.464249 97.480377 -277.378021
-70.326469 102.369286 -275.969299
-74.714165 42.735901 -277.057495
-62.488312 118.312523 -276.809753
-71.929268 118.735001 -280.148468
-64.417000 56.181133 -277.087311
-74.163643 217.211563 -276.369263
-63.659603 145.715500 -285.662994
-66.531235 164.114670 -277.454498
-72.325653 180.943695 -282.302979
-69.572357 166.723907 -280.650024
-73.022461 204.621140 -283.503815
-73.363403 204.344177 -284.429504
-75.438057 201.816772 -306.873779
-66.348778 18.582960 -1.466639
-65.172874 7.008775 -8.903776
-72.374702 33.436562 -9.907137
-73.445419 0.521948 -4.020683
-64.038818 13.163780 -14.020245
-69.962173 21.231779 -14.085750
-71.969467 -4.640294 -27.140528
-67.778496 9.871365 -14.113235
-71.805107 0.113053 -20.357447
-65.745583 2.762524 -22.236671
-69.743866 5.531321 -23.465290
-70.739433 2.967697 -23.399614
-71.666489 19.459223 -26.258745
-73.830444 22.229650 -21.854261
-66.249519 17.071903 -35.399906
-63.165501 7.850439 -25.453239
-70.214828 15.507074 -29.413523
-70.266640 13.882568 -26.788055
-75.319489 21.856117 -34.350555
-78.860443 8.645061 -30.293678
-72.501839 111.501587 -43.652828
-69.972664 102.158989 -42.110165
-63.184639 72.386337 -50.730965
-68.227623 134.331604 -51.021297
-76.162361 -27.853897 -58.476505
-71.007866 70.230026 -60.591293
-69.013618 -18.778172 -70.917633
-72.115486 -12.341623 -82.198402
-65.123001 -9.662825 -74.663216
-70.602455 -11.704363 -79.706566
-67.374695 -5.827495 -86.024872
-63.348255 110.584244 -83.520828
-68.886833 -57.397610 -91.623474
-67.962708 146.441818 -90.885986
-72.065025 -59.334892 -88.036018
-73.278244 -44.056591 -83.605438
-72.751602 130.839386 -91.848671
-68.234787 -2.613727 -95.488365
-71.026985 -24.471462 -98.277275
-74.063156 128.199783 -101.752556
-69.143379 11.059585 -93.483292
-70.968147 -50.075291 -100.556740
-67.216423 -3.589888 -91.626022
-67.374710 -41.601791 -98.099625
-65.794006 141.004318 -95.912071
-65.540558 -0.754027 -108.607994
-71.732025 9.588771 -97.725365
-74.137581 2.437818 -95.763748
-72.676491 116.240364 -102.687523
-65.632980 146.609161 -107.118080
-68.405190 -62.007019 -98.758812
-72.270966 141.336502 -104.809792
-65.937195 -60.566013 -107.305771
-64.058678 -1.605572 -106.239128
-73.967812 12.355268 -110.732849
-66.616447 8.822636 -106.951752
-64.483971 -63.751595 -116.166389
-70.843369 132.514206 -114.935814
-67.267746 103.821739 -118.260658
-74.956635 108.443428 -119.065956
-71.436241 -58.121136 -115.829041
-74.956551 100.356285 -119.758911
-75.259285 23.754684 -125.385155
-60.492947 130.960403 -121.487770
-70.881279 140.900726 -117.327339
-68.808624 -68.301216 -125.250771
-67.877411 129.148788 -121.185631
-71.146194 9.562798 -130.916687
-64.382423 126.567207 -117.431671
-62.999802 -68.045197 -124.887329
-71.822632 136.311417 -124.396431
-70.266708 118.331802 -123.267143
-67.483978 15.521544 -131.731125
-75.021034 124.081482 -135.925888
-74.798866 -61.495068 -134.460129
-72.688248 115.263832 -136.637512
-68.232483 24.005983 -133.796310
-68.384018 -67.687683 -140.983978
-73.376289 88.115578 -143.286301
-75.213562 -74.720230 -146.386505
-69.330383 96.568901 -137.838470
-69.007568 98.326820 -138.600479
-62.850906 40.242916 -132.893753
-70.354866 118.263512 -136.303391
-72.497948 104.581749 -143.552582
-73.082237 34.852886 -142.869080
-64.459282 90.742455 -145.417114
-75.613983 44.324268 -148.175919
-68.548233 95.510208 -149.127899
-70.665939 36.124466 -151.029663
-73.490761 35.748329 -148.175613
-72.979103 33.951595 -160.447113
-62.290619 29.493341 -149.157745
-73.183365 -67.955544 -158.427795
-71.478493 24.911432 -152.356415
-69.992599 91.561493 -151.378113
-62.543266 28.910231 -155.876724
-73.869843 -62.101524 -153.689117
-70.655624 94.317612 -158.949844
-64.274323 26.463675 -157.945709
-71.152580 -63.424461 -156.419098
-67.569954 202.316147 -166.515182
-69.857239 189.756622 -167.599594
-69.090981 24.795210 -170.541107
-74.168884 27.800766 -169.273666
-77.792809 158.964005 -174.843903
-68.007690 25.701826 -166.843933
-64.914581 68.987343 -171.706512
-67.928764 162.693665 -177.213928
-69.438934 155.866104 -182.439529
-69.356438 83.894127 -174.664505
-74.584068 196.437424 -174.456192
-67.380089 26.798054 -178.703903
-67.570213 78.214493 -177.803619
-74.306984 38.715057 -185.240433
-69.685661 69.594116 -180.226166
-69.394516 37.414719 -186.315750
-73.780876 180.751511 -179.108124
-63.667229 22.831421 -178.508194
-75.561081 194.339706 -185.749115
-77.881989 72.432625 -189.060501
-76.877419 28.784115 -187.172699
-66.776855 214.401352 -184.299866
-69.094040 -49.772263 -190.388168
-67.765190 153.808029 -191.383972
-76.625977 32.359505 -187.853012
-69.423462 71.374435 -187.222946
-69.074951 26.015175 -192.185043
-65.657181 191.001389 -200.288956
-69.606033 178.178864 -201.563065
-68.574745 178.027313 -196.578812
-66.169441 26.094751 -196.310181
-67.239243 57.200184 -200.241196
-72.651825 -40.523544 -200.798248
-69.176651 38.511257 -202.481674
-66.169891 63.299042 -200.029510
-68.151253 -40.702946 -196.581482
-68.412003 40.180099 -201.166672
-67.327187 66.219299 -202.742920
-69.006027 56.626766 -209.126755
-69.926453 -43.686283 -210.242447
-70.717972 -44.405327 -217.398239
-62.711781 55.869102 -207.251083
-71.051239 52.684582 -213.272461
-71.180649 155.399155 -211.802536
-73.309288 195.250717 -209.663513
-72.219276 50.438606 -214.301498
-63.911827 -35.984310 -217.543884
-71.151955 184.049301 -211.965820
-65.286613 59.955933 -215.384064
-73.224640 190.802811 -214.791321
-70.582191 188.683029 -214.695480
-72.832123 185.225479 -216.101379
-69.750992 70.796822 -221.984634
-72.644424 59.945446 -216.090393
-70.767456 55.968269 -223.825302
-71.651680 48.066147 -213.261307
-68.072281 56.628368 -216.578323
-69.915627 206.068863 -225.171677
-74.905739 57.967426 -225.037033
-71.314774 38.523254 -220.168732
-71.555527 37.868874 -220.326218
-70.985748 179.884354 -223.065567
-74.431419 56.442192 -228.663254
-66.098114 206.364639 -223.754562
-72.719009 175.925278 -224.260071
-71.217613 -16.105610 -223.587280
-71.915840 -23.707253 -223.075760
-66.266533 -20.216326 -226.207825
-68.958138 194.456879 -233.519135
-73.143227 -23.173822 -226.744583
-67.731537 -9.869241 -229.812119
-66.669746 200.975693 -222.530502
-74.481941 68.231270 -238.148743
-72.225891 -14.961297 -230.922684
-69.265373 47.996059 -229.137726
-65.551170 39.145611 -242.130768
-66.471725 -10.044045 -234.769241
-71.505486 216.300461 -232.842575
-66.693535 -4.263978 -237.201080
-71.271194 69.811012 -234.802704
-73.578133 203.819901 -236.734116
-67.498116 2.331281 -233.455246
-67.002831 136.383759 -246.482391
-70.081108 134.636276 -239.475693
-66.682739 143.927917 -246.868820
-73.834755 25.472715 -238.701004
-70.278679 197.200943 -247.326080
-66.059181 212.332825 -241.992447
-69.282013 204.367462 -248.133835
-66.375732 136.313797 -241.243271
-66.917007 159.692627 -246.722244
-76.586899 134.030334 -242.345459
-65.841080 27.695263 -251.481812
-67.030121 155.508652 -255.488159
-72.352051 71.202370 -252.076813
-72.937424 23.273603 -249.825928
-71.806931 17.101295 -255.693817
-67.796051 183.257721 -264.875488
-73.687019 186.649307 -252.631409
-72.450821 219.536774 -251.306046
-65.398117 219.707672 -251.863907
-73.846725 179.479141 -253.086395
-79.733032 205.776779 -255.251999
-76.027458 214.258942 -252.202499
-69.712914 209.284317 -267.245972
-67.447754 198.675964 -265.266846
-70.294922 57.695908 -265.451385
-70.916832 218.166138 -272.754730
-70.189110 31.398764 -268.177795
-77.432251 205.428711 -266.433838
-70.535904 215.101379 -276.355652
-72.566612 55.978104 -268.051605
-64.237396 33.721661 -263.329468
-67.575790 217.853882 -271.271973
-68.483543 203.287720 -276.156128
-66.834015 175.636139 -270.985229
-69.886032 55.729881 -272.498749
-68.927597 171.825119 -273.257263
-66.283714 165.846359 -266.536285
-74.019569 162.388992 -270.319031
-68.313690 138.590942 -282.872589
-67.737534 194.318817 -274.443573
-72.317551 137.727325 -271.493378
-67.435860 114.984406 -282.001190
-71.407822 215.023331 -280.480255
-67.154198 130.923508 -277.109344
-70.746109 143.843658 -278.936920
-76.360329 203.744156 -276.687134
-67.178764 156.069595 -275.149780
-67.354034 44.488884 -283.730133
-68.725723 207.079224 -281.757172
-68.723907 194.219131 -285.679871
-72.681702 188.131226 -282.870453
-69.570763 187.318985 -282.593048
-67.617195 207.209259 -285.998657
-69.215187 212.700287 -297.627625
-68.780144 13.080375 -5.227144
-75.587250 0.717199 -14.033170
-73.075615 15.658457 -28.738520
-61.489952 131.458405 -36.613216
-74.300751 -48.274414 -62.066719
-73.275978 148.194626 -60.567066
-70.881706 -47.474243 -71.660812
-65.913124 -21.461525 -76.454544
-72.436630 -13.528233 -70.108299
-69.916534 -10.449643 -79.087486
-72.532936 -52.418018 -73.630699
-69.438904 -17.990040 -76.502480
-70.151276 -0.525935 -74.621727
-72.973793 -8.476360 -80.462608
-72.930649 -12.925138 -76.214867
-63.907818 -12.585726 -92.341217
-69.044708 -18.642138 -89.061478
-71.364990 -57.971828 -89.812721
-70.327934 -55.291744 -91.355202
-71.218681 -22.404226 -93.565926
-67.988091 10.599047 -93.267914
-69.460732 -24.659117 -90.917694
-68.147980 -40.933098 -91.973129
-73.419609 130.252167 -112.336716
-66.956955 4.366231 -103.704498
-71.700905 10.736969 -103.973427
-68.029022 -63.671825 -104.385773
-63.920002 125.001129 -109.946999
-66.779991 146.322937 -110.899475
-68.333229 132.716324 -108.794327
-70.762878 135.376999 -107.491943
-70.603035 9.261473 -120.905190
-66.924210 112.760704 -111.487793
-61.355534 -62.692081 -113.757790
-69.600105 -61.054489 -117.191345
-70.999290 136.554474 -121.983421
-71.995438 -66.402824 -114.036255
-78.135429 109.016922 -125.537971
-65.987373 130.267319 -120.277245
-72.789841 120.187309 -117.339981
-66.002426 23.112766 -126.611893
-67.832466 16.800987 -119.318909
-71.342903 124.920143 -120.355553
-66.632698 -66.360085 -129.233658
-65.100006 140.926819 -126.567886
-70.604149 105.887772 -137.666260
-70.839462 98.092239 -129.438110
-71.337555 116.640091 -133.781876
-73.159775 20.457823 -137.417557
-66.486816 103.526466 -137.054688
-65.819107 102.204315 -131.139084
-64.363022 144.549164 -137.411728
-70.321632 34.090290 -138.622208
-70.875961 23.970327 -139.389801
-77.699318 94.996437 -137.792435
-71.251595 102.222466 -145.808105
-69.048203 149.124176 -142.087082
-73.534546 147.596466 -143.550613
-64.198181 39.753616 -145.407684
-65.686058 100.948120 -153.812363
-65.412460 81.226448 -149.350739
-70.804611 29.334089 -151.805130
-69.142693 20.509211 -155.828217
-69.381470 31.586613 -155.276932
-70.181084 152.630615 -165.891205
-73.389999 153.699509 -154.000061
-67.122871 81.598587 -156.771347
-67.861145 151.796204 -165.008667
-68.073425 25.778267 -158.769333
-64.659737 151.929535 -164.825241
-68.169945 80.418739 -164.517441
-70.291481 85.732491 -164.277237
-69.594009 206.384918 -171.090195
