# This PCD file was generated using the MATLAB® pcwrite function
# from Computer Vision Toolbox®.
# .PCD v.7 - Point Cloud Data file format
VERSION .7
FIELDS x y z
SIZE 8 8 8
TYPE F F F
COUNT 1 1 1
WIDTH 785
HEIGHT 1
VIEWPOINT 0 0 0 1 0 0 0
POINTS 785
DATA ascii
19.949787871374170 -70.273658495583248 -168.150473005990904
-41.453347266252635 -66.617725782709257 -168.988383952408043
108.516094314448111 -69.125805370440744 -171.544388134552406
-24.631400224172051 -70.127878902957733 -174.591735488732667
112.022315934356527 -71.417058509146344 -172.975526078200460
28.446133088491251 -68.380844874166769 -176.863103446479982
30.316766480844723 -71.155898353682616 -176.414140408339165
-33.190919531680407 -69.282829124837590 -178.237067920675258
110.727447869767346 -67.030029115492354 -182.362874929667697
14.054129788261172 -71.439949566293507 -183.030180648835540
-29.254387887092850 -70.520539827505758 -178.828325384636742
105.839776639371138 -71.956584130531397 -181.075105243961815
110.024435331004355 -72.088711576578888 -182.683832766600801
-26.697097922100408 -69.576100701541932 -183.978186258433368
-20.065578298156755 -70.703453116866612 -182.690171211179489
-154.214585312361294 -72.012986388264196 -185.094944976505786
-23.107637869364229 -69.315099700693224 -191.630019162929386
-15.676929353850721 -68.678633379657740 -185.458811730286698
-147.079613647745475 -66.814723372632912 -190.251253684227748
100.680452299323903 -69.171556095268087 -191.257919450981746
-31.709121771191189 -68.540320753843218 -193.744567696375384
-150.317070129211118 -69.978967910646190 -192.966809477316929
-157.611964685643244 -71.965869668577966 -191.411815323128934
-145.135524329785852 -70.164995079438356 -193.302023046738839
-157.466979510489949 -65.200032964287615 -195.879053096944943
104.656013280447652 -70.502005205262748 -197.072356188828621
-16.631244427194854 -70.315316444068642 -198.615541198062971
-109.225415705127645 -71.176070543960051 -199.920228841694524
-10.660348851896092 -74.730826053069507 -198.183124763477451
-22.030718542776409 -71.138689503875000 -199.916907583618581
98.557213567628580 -70.784380654429071 -199.040307048432311
7.866627873596759 -70.172623737207871 -203.898917085223275
-119.668170066261283 -70.913016226225977 -204.766727626741215
-167.522520493714211 -68.891053083093254 -201.722903973832643
-141.403364854070162 -70.985258790577717 -206.739035540055141
-143.548541891068993 -70.938094505272076 -205.888130476920651
-8.407128249670702 -74.245565697168828 -206.760092426761929
97.640218531136910 -70.643689495176218 -212.398765199344496
12.914360567496542 -70.316936840376641 -216.058866304341223
18.751383399792005 -68.376343463046595 -216.520784727821109
17.131960421258078 -72.661158945033876 -218.438489310463780
-91.439922023396463 -69.876419770170671 -215.669774995344142
-99.340981324131761 -69.304337881682940 -220.367412002673319
-91.263965401117204 -71.026958980953978 -217.273562444936374
-0.681678350186402 -71.929161656527128 -220.970978987260565
-168.351195817149630 -68.108139520705663 -220.903681540505289
-11.790494725536060 -71.885674429641412 -219.524972477974330
10.158215202260994 -73.658951322240895 -222.276847968924869
88.234669821794157 -67.873398371982731 -223.834476094247066
-5.967753864134988 -70.131079132940414 -224.084816253722749
12.410605018051378 -71.390858244425090 -225.919286772612054
76.814122812205483 -71.286220336278163 -226.452290484333133
-124.225158325775922 -70.996614442482823 -223.574560822367829
-117.690098971157724 -71.688067575455449 -222.457190211962654
-132.195318254229846 -70.047489947651712 -226.513919390130098
17.403103651300839 -69.206411390302904 -226.506762283960938
-115.698975649253256 -70.966961918201349 -224.397770499954731
-168.160893997367282 -71.519308163258614 -224.871780233112190
81.782386934784611 -70.483819505956490 -231.274164971622639
-13.522307637340401 -72.003994546703638 -233.983623534540271
5.991111533233521 -70.947562257737843 -232.186408678659092
65.119123699980577 -73.364512922229238 -232.909258762291614
12.954084483998605 -70.003591894097795 -236.584257714279744
-146.375197318977428 -69.826614917955197 -236.265332101513025
-2.770075645400997 -68.930487366694635 -237.184563827721234
-0.351674702693344 -68.218223481845627 -237.086417524933580
-4.329410736246874 -69.855357243167575 -243.792337064394331
-0.886157597944276 -68.619392251354071 -244.579661455844104
14.401279377020005 -69.337843530753787 -241.641711512614648
11.050950354139484 -70.280345154882752 -244.481456300909059
57.894571090521787 -71.532437879711736 -243.858752727191558
10.351520696763949 -71.134481191961399 -242.958062074973952
-10.157720916432783 -71.931182973283853 -241.841096052216386
63.616748277100001 -72.719417774265040 -246.369256029465504
55.940950814258272 -70.740622681949802 -243.683464881848096
56.816219539287410 -68.397857777009094 -247.181768854569754
62.910432949649490 -72.051828653680047 -249.406925989496045
-71.759411080391743 -68.035140560851261 -248.904255276869861
-144.019065718781491 -71.627832244681912 -250.960491707260104
36.159072897892685 -71.460539106880560 -257.332498699967914
-131.998813944371619 -69.211631813868493 -254.701445540309095
-14.676374361547449 -71.161088402834196 -256.702089267390932
40.771443284304254 -69.848632349510439 -257.729152306310766
34.552381072164579 -71.599919864589296 -257.526920709175727
-155.573725727197342 -70.431725190131033 -258.632461432559069
-15.346161988076442 -70.426053385488018 -263.677631443416431
-115.613221413458504 -69.625000114325800 -262.048273803869506
-143.532552965558494 -72.121083359469154 -261.291186565260716
-112.433118017813243 -73.351182916255610 -262.047440028853998
-154.091554306894722 -67.805499492855319 -265.412674832804555
-128.265950566243447 -69.495275328407914 -265.489035176189816
-154.327392875292844 -69.731389573182085 -264.365698828638926
-142.519553434840276 -69.459390492348263 -264.311207184534453
-158.895419594692044 -71.682778270087056 -266.755380387676894
20.965076196074385 -73.721810380466849 -273.631170877518059
-14.092114694315651 -71.228372300454836 -275.812929226384654
20.970829828306421 -70.766228698367755 -277.631574209369205
-170.189509599730314 -74.213371330104593 -273.186086429862087
-159.101200493104386 -71.680100495214205 -279.797469561717946
-153.600909749420765 -71.701236649124098 -279.411187406420140
-168.333819968244825 -72.778871769602247 -282.174519371835515
-132.395346766852498 -70.037638189571027 -284.829550872913956
-136.873622766459363 -72.989143649432137 -285.585845082045694
-133.508162477450043 -73.238474827816887 -283.553029442289528
-117.017604340422636 -73.793648053910260 -288.364577620580121
-156.113853637849672 -72.072254950450557 -289.971614622335608
-105.158573551537089 -72.482833659615380 -287.334034864580531
-74.269076424933260 -71.446218630744184 -286.215999468515463
-62.914655943194717 -68.581609405573232 -288.062011921932196
-57.986696373637940 -69.519721041238256 -289.184554592949098
-50.857963397136032 -71.819759642257281 -288.513217101660302
-51.017709099520388 -69.125508154209200 -286.736395019409770
8.338336109075101 -72.691894754437982 -290.292947231124401
-70.998687271413871 -75.526861503130775 -289.457631051912813
-65.072727260575903 -69.755805436231228 -292.663185496173128
-3.394893548987657 -72.661749712055155 -291.587484707548015
-166.892841141434189 -72.703624445833967 -291.448230467099791
-93.343878677549540 -69.780992892337011 -292.412088935246800
-116.104561473082143 -69.155533986558581 -293.652068047749708
-136.430856730710190 -74.836353411504618 -292.756207701484186
-116.290654291781138 -69.885869453149866 -293.312802674967031
-155.683085087857023 -74.574715570717018 -293.972308443552777
-154.713272886253947 -71.905075503411766 -295.942402331727635
-153.222923947163395 -71.313838769289404 -311.823897790127603
34.856961624178425 -65.777638855091396 -16.077169460110220
44.631509905750661 -65.547942108717734 -15.959651120355268
25.090586967974591 -64.023548188352720 -18.057165899257836
50.912236817029751 -67.570998714237874 -21.247224053521215
45.101880836897365 -66.890643416940492 -17.511755032055856
31.504257225424794 -65.862200779156765 -20.535155483392593
53.381033643500700 -66.273665536482426 -26.700734232625699
46.061865100841175 -64.736400501625951 -26.725113763521982
48.029285117466571 -66.388057295250277 -33.896043778235516
51.024822929795000 -65.162452873956838 -36.279588526403032
41.856037262624795 -67.586754295183283 -37.873724116190637
48.612757082347940 -64.808560546818740 -34.577412140377206
42.879359855527795 -66.542439882687688 -39.023173986881460
38.465187639721869 -66.355220312062073 -35.981102130481879
36.714125765615108 -68.031316737936237 -40.722544010579433
47.640728119974639 -66.483423480718002 -36.913241315185594
34.427010829615043 -67.655374918588720 -42.167451323586739
36.447590552352260 -67.906164573062625 -42.582677221249675
33.618942021280226 -67.051661281753141 -41.147189382849277
41.197492388181672 -65.806420235565440 -44.877899101037364
-60.447331003503294 -67.860538976701548 -46.312167833903331
-41.062135009679878 -65.959476385428829 -49.037148119058429
-21.006767621277984 -64.548027523440638 -56.496251277137056
-85.318870398889175 -66.939336377770033 -58.867955882827083
72.299559700016601 -65.066845962072719 -72.589679186464053
-18.922243787131013 -67.602870841002087 -73.344047978574451
70.554771848402694 -67.252665541882763 -84.409290082926503
63.153648105772447 -69.828344535969521 -85.700706783796846
59.818529458530378 -68.933661889979632 -91.459563757190068
62.127111749697491 -67.845186955765669 -89.560763096005900
59.735141638800258 -68.852439716817997 -93.010555503167041
-61.783396113884564 -69.753481654140629 -91.353655626864565
108.183554061704967 -71.043391438208801 -100.395379235299998
-93.460746853706084 -71.845863614810568 -99.295158533549426
105.875863812059990 -66.326924387071259 -103.428426778353014
99.299152122485197 -66.419463664397256 -101.503014157822150
-72.664507877094039 -65.692659711850396 -95.450758665579457
57.299928285682029 -65.943417214774925 -100.768967576527672
73.784835700991664 -69.545632431212013 -102.987259489968892
-81.063665052013747 -66.052402907524780 -102.244092014390247
42.273587637479537 -69.744102285703917 -106.193374615518366
105.818817428439999 -66.509011344253111 -104.364410104602229
55.298796635550346 -68.639766941338138 -106.944925575872077
85.725825613449260 -66.774296851741312 -106.321253131660853
-83.999884088643441 -67.841647974639756 -108.311046751891155
46.720670511138678 -65.647845134129810 -111.199225560821702
44.202824837117937 -67.951670760858747 -106.400731687650222
48.124652348520513 -70.650663119994334 -112.320580958203777
-74.117144905450388 -66.360510940574883 -109.932883282152858
-95.698961640170111 -66.790506685498229 -111.204762793674803
112.178855719721170 -67.422160554939055 -112.650583329340236
-86.733696199069243 -68.321410349084445 -113.061784866078341
115.956705385097649 -68.093243323266861 -115.578137843924310
49.820877225005816 -68.795002817017263 -119.731788629101317
34.981963781303506 -67.754525145805033 -121.321981829513277
45.458335377029300 -66.717080828212417 -120.348103796921777
116.707381057665842 -67.745813680010187 -125.791541423481334
-74.921760314195211 -70.214424482935271 -123.679681557630829
-57.035853561158845 -67.110070910829890 -129.844592709618553
-57.234771075714590 -66.019962376462615 -130.214079305171566
113.564284181048976 -69.006296463204436 -129.894684915029387
-55.239837254973807 -67.289792276566743 -132.186950784519070
32.824329088951956 -68.944837039555040 -130.715982566804655
-83.045129715586071 -71.025732218688717 -130.958053298826087
-88.530604876259858 -67.174983200698392 -133.216546347573455
115.450235567024308 -69.419836052106533 -137.190676202310442
-76.405663038372026 -69.987856727943253 -133.421142341610761
40.068006847877001 -72.866486587713382 -133.466446578135105
-73.405140436295355 -67.895446009014094 -132.803574325926348
112.759153537251677 -66.369008640298688 -139.390563691301651
-89.568981986966477 -69.125460012900646 -135.836989569859185
-72.752503783776945 -70.611352107151419 -139.340724974843454
34.055161522836123 -67.590720208995165 -141.404952190842465
-69.687178265937092 -69.485589267061783 -143.939731911973041
113.095966106353956 -69.437985912084002 -147.082644050962500
-61.785704850761746 -70.699890334947511 -146.541952209773456
25.648086156810621 -67.441791312147444 -146.724412772782358
112.583364758286180 -68.522852970177567 -149.639640141821531
-42.778486746947806 -69.016601520897567 -149.869182151287788
121.038858195600824 -69.271506572619131 -148.603692411266792
-45.165045200178810 -64.634731787462599 -151.856836729274505
-42.527093564634697 -67.159737152260874 -152.563890893131543
14.965666077426361 -70.135777673435811 -152.674818619190688
-71.948158912218759 -69.356842940387480 -154.241223674056130
-53.455290591679798 -67.539635260466554 -153.542671326719415
18.047764865128315 -68.746287863052942 -152.871901272312556
-38.398631245349506 -69.878930535969346 -157.666109834061700
15.511314991519475 -70.800509562771083 -156.421293730919331
-45.006678246472958 -67.620843264847906 -158.934234497823269
12.238926026423897 -67.824485173710158 -160.049720787381517
11.605246958074869 -69.309823299682591 -158.818265297304379
21.100363361842611 -69.594697883785287 -159.759560333010540
27.083121693005314 -72.802695552240820 -161.616553751403529
112.383360972990246 -69.743299942912373 -163.440891182705883
25.003974292098160 -69.411301182958425 -162.881222758211891
-33.587321302274034 -67.318176638972361 -164.256067504614180
23.504061280492067 -68.846982757247062 -166.280340464805818
116.210778693800563 -68.364982228617947 -169.315298530780098
-42.063409914213949 -67.953619345089152 -168.283420467875231
27.708913265364334 -69.198432955532155 -168.394871860684333
113.714982030573054 -70.685259652375933 -174.165310640401430
-153.077290285374289 -70.963057428121843 -173.581735566481626
-137.957263752024346 -69.538765713244842 -177.018703572541256
18.897820077132756 -67.926800648306127 -179.595752742423826
17.395556175143895 -69.472341494433948 -177.749987700258544
-105.981623389272656 -69.339896130411347 -180.439516290406090
23.419475620699849 -68.156220638094482 -184.512042722552110
-22.337642210900380 -69.235346262341665 -181.647409468607833
-109.245252495017539 -70.159148250159788 -183.666866592653861
-104.171642099749832 -70.164599047282167 -185.565847156640558
-32.029348753224440 -72.342672907723539 -186.596752586941903
-144.153591136026847 -68.511431603661521 -187.181552299485361
23.397754324099388 -64.379678584979928 -187.144333342852406
-23.592218413644016 -69.115416334904765 -187.656368957635834
12.145681648461792 -68.607942819814497 -191.586286875385923
-15.054277424627184 -71.017212247233729 -193.969168127301089
11.901158744417689 -71.681953361365643 -194.054054548435545
-136.171919955377177 -70.487285573348458 -196.580460713802609
23.094726637878374 -69.276905753494987 -197.514556590738977
-141.882525558891132 -69.339169831104300 -195.577384765071031
-18.619326231899951 -70.249791703932459 -196.380134911508861
17.328579236022762 -69.736732193613790 -198.515088565044351
-165.394932477291718 -69.182971145120717 -198.777539729168438
99.168484199016987 -70.786545751440627 -197.780428209568299
-108.675708529078079 -70.785236548446477 -201.939367948125749
6.699255373738673 -70.405690418455393 -200.768921582642037
-20.805652575948944 -71.423457119132024 -199.008287252554368
16.373015125705763 -68.856146206697090 -203.992193632447396
-138.882177527509526 -70.649464335057800 -204.969588088131303
-133.582706291224923 -68.306454014500119 -203.318065282511498
-124.720401236372325 -70.879629356345177 -207.074932173080100
19.516987392612680 -68.730524202752036 -204.266074527838526
-10.350913011348030 -69.865461532742358 -207.701825916504134
99.815731844627649 -68.984714364339567 -210.440074672814205
12.662518195530811 -70.779541933364129 -208.795676475307943
-15.699901673159037 -70.762682115716672 -208.451331653208996
94.112969258848764 -71.427191535828712 -211.504950864115159
10.838650609859364 -68.479495262023477 -214.248307494242539
-21.328355135474073 -71.389626543340128 -213.837188452664293
-9.784145195126985 -73.814233124025478 -215.076099947998301
90.915530075758667 -68.031732711308123 -216.803327765675846
89.532664225256809 -72.253520462114210 -219.148664200283918
-8.986355258606903 -70.413124138720733 -218.663240166849192
-2.357365499890093 -69.623537815364699 -218.934831745236039
-104.279573030483149 -73.164523758011001 -219.216169703994012
-142.709041500837827 -69.752708268356358 -222.381211479679820
-2.764798213920511 -69.900673701119487 -223.195399822467834
81.956475148846934 -68.812289419765776 -223.513146355018819
-133.592743044169737 -71.589472723150962 -221.695636550264595
-8.535467712281079 -71.816800488156417 -224.700990982837823
-140.192718045264115 -68.136480735721378 -222.345405789193251
-135.047111501790056 -70.341346953644518 -224.828600595823218
-134.774823688785347 -71.701738598341976 -223.157766579270742
-16.534069807325320 -71.620378769042830 -231.847720142807589
-11.407710591614720 -69.108549942655088 -229.108581134358388
-6.893275618161947 -70.056082919954846 -226.980381988855925
1.690116495061854 -71.615625854913901 -231.383458293448115
-3.541828052427949 -70.551088739601525 -230.362829259503826
-154.504359701685956 -67.976992385034691 -230.650856418125471
-7.464540649614275 -68.821902216478904 -230.723872573472306
10.445241369939612 -69.999119006594043 -236.682553760910736
6.826280543216804 -73.058901466201689 -232.500373645883144
-132.979409343303615 -71.182243206564607 -231.848850087235093
-4.017978782084935 -69.249000949616160 -235.482369637039056
-151.577489346318941 -69.308403269176054 -232.593338782780990
-125.862580521567892 -70.972606400517421 -231.844397845894008
69.091437735260044 -67.690722626755672 -235.133584242423893
77.235891049712535 -71.125399685245029 -238.888828730064205
66.504271999785914 -71.537136554016755 -237.179680396210244
-142.869737483943624 -70.291644707602273 -237.540791682043391
71.423454872077073 -66.922354285092354 -236.183235144291217
62.565212623245927 -68.328017212403282 -237.928500372271174
-157.003655054365908 -71.576490798593369 -235.868753124356459
-19.479187162957285 -69.603522011578931 -241.496668486109797
70.541472352407894 -68.759335884729921 -239.011264699671216
3.703029141493328 -70.985193974276569 -240.460746885155231
9.659800495753508 -71.647165795647112 -245.625901969109776
54.934227623525842 -72.147245327039528 -243.417958860861660
-166.243236574971462 -71.934315808704952 -244.489860306267047
65.520093963839656 -73.986975141876513 -243.454338465062875
-12.169907058252218 -71.751343572804885 -245.700916548158801
-153.634909259547470 -68.694886746856810 -247.774314309239259
46.169325417748141 -70.656921346638114 -254.617703836553659
-81.047741800295739 -67.048187903457020 -251.894760384000250
-76.430864051214456 -72.452608083729686 -252.641964337656788
-91.190824938942868 -70.465897306537570 -252.505674488475591
21.026463656238029 -71.629046250811513 -254.828803871315728
-155.094121904063911 -70.036122606451713 -250.080041805242416
-153.087017047149772 -70.821874801733571 -254.407312415566565
-156.687993388493965 -72.097964175874608 -251.815052409244430
-86.469954846895675 -70.208636372204808 -253.234594799052587
-106.529627827289843 -68.474096967546075 -255.419994145337881
-90.065676674884813 -71.866724351881246 -261.009503225799790
29.007243826067633 -70.173234383967113 -258.223717982239009
-103.622393012076728 -69.994382158441084 -262.891965379280123
-11.642827110278677 -69.300732092661619 -260.646176683751207
26.979728499360693 -70.696654833087749 -264.615452853809359
32.281567326905758 -69.296206998385031 -264.770314632098859
-123.090071258288830 -70.124788803003753 -265.287017122770465
-133.901291456323776 -69.220632522019500 -264.813846941182021
-166.934193618914378 -69.385317970117313 -263.990007820225571
-168.458818518076953 -68.924702370758666 -262.762194581566803
-132.564556899724380 -67.742832374390701 -260.215214634938775
-153.764627404986300 -70.947014359848211 -266.441882287101578
-159.255766289528594 -69.326553497452139 -261.918873150021568
-164.489576078229248 -70.588169102357895 -268.257593027437110
-145.174254073770925 -70.304027655866349 -272.050837416061370
-13.045601602011889 -70.760084646403669 -271.302949187527815
-167.682243295840237 -72.481353282670710 -277.946741909600064
23.468170215322324 -73.819035173818790 -281.787404574459345
-160.245374140071931 -69.443644292366017 -278.918354034833385
-166.917045994578501 -69.658537157242549 -281.148404613894911
-9.519777447350560 -71.445809138108885 -280.923219073465020
17.791460383075744 -71.613690518709319 -284.128792967436311
-168.268641679451576 -68.446644731247261 -285.887661694135886
-155.414646318313856 -70.542527856047258 -284.536125873612946
-126.544954374520827 -72.087373755921163 -284.127378746286411
-10.877746618629285 -71.608478513122463 -287.577048186607556
-125.482734449597487 -71.206497036619936 -285.011412102395752
-115.733143332832853 -71.823731244119983 -289.166144690760802
-113.729089574813500 -71.381266394329216 -288.426149003336604
-97.755844934335826 -67.473852292728267 -285.281156559876649
-150.399763247181795 -70.743512634627734 -286.745714426315772
-90.470029644696439 -69.843321990955317 -288.011254114764029
-70.188627087494027 -68.819101773356394 -289.066426046750223
-161.436530936104390 -71.219755550386665 -288.024872609770057
-81.294171550427905 -71.614735351608644 -288.002830569730577
-89.717492020878041 -70.545609025615349 -291.642693936996920
-156.841683787624106 -69.526156753533670 -293.171667685300804
-105.945783939664906 -69.460958284772445 -290.957875555905844
5.147592324798971 -69.398055617797809 -292.530846050002026
-154.433009209985386 -70.861158982469917 -291.522911502957811
-144.075941147363466 -73.688937633617940 -294.460728540332809
-131.142954263128019 -71.391996563881492 -294.092839841968953
-148.080576629117900 -71.006396199770464 -299.018461783348130
-157.937443029179576 -71.139903066086617 -300.135392122201210
-152.600211484928536 -71.141966256593236 -306.954197680175184
36.414449826040226 -66.933762320882778 -13.860477832567465
54.027211463252669 -66.312267182444543 -24.430632090287148
34.713740867990765 -66.510176591283184 -40.353933792863430
-73.776086801234413 -66.120406851484461 -49.818661332380927
96.297365954479034 -67.144812224145028 -72.551693172717364
-90.817215821085114 -67.665101120874112 -71.687548760837643
102.434573901787672 -64.526887006273412 -80.840625676468363
66.150191024415733 -63.668688478325073 -84.685283532683144
69.440179082512941 -67.331414249698270 -87.880663330606467
58.071326096878551 -66.847191988199441 -89.699396608431954
102.796260308814567 -68.651879089368052 -90.089931462541671
67.411019601645222 -67.017992083965851 -89.064706397047473
53.359879198618998 -64.652961652455446 -92.518668973324480
66.620429790904012 -63.498503549075984 -90.917388981180693
64.317376179259838 -66.932970521815037 -92.938547602162032
59.328090584536383 -65.950746855766127 -98.266127473336724
65.296406796027995 -69.457124411961587 -99.007173856332429
104.904737938617757 -64.769077042148396 -100.369805725166174
103.694702166897585 -64.535608541462111 -99.997274798108862
72.081335834800356 -70.367438451274623 -104.660713915110961
48.307412413487576 -66.669604677392670 -104.123923710343718
76.318888722282807 -65.102755197148397 -102.452715751698463
93.778883407357725 -69.310113738088248 -110.467174883504043
-75.225259556890919 -67.772097612308457 -115.856444958881525
45.561573261370079 -67.761535086580963 -116.515746208873594
42.637671952964801 -65.538343431559369 -119.148160129917869
107.442291948054645 -66.657882892682423 -121.313783863432292
-73.109636525683158 -68.367121693714026 -119.805641797933816
-94.875840460744982 -67.126237554328739 -122.296580475003992
-73.540487547906025 -65.502666957593377 -124.877253993906407
-84.562684553944251 -68.079030251777809 -121.275817052168890
39.176406956455537 -67.835809142624058 -121.460800474085659
-61.728837326975139 -65.266316908856950 -129.759884747223396
116.106926946948604 -66.180676625548884 -123.053286649370676
114.991135267855810 -68.091187972913062 -129.840303628589282
-84.893947664051353 -69.784775988291884 -130.145274095528180
116.560926705851628 -66.920030845366824 -135.143881942135437
-57.863447112612022 -66.284611051774448 -133.293043055666431
-76.076196490436359 -67.976802233351037 -136.779058604517502
-62.612243733363684 -66.742158566713414 -135.194751644925105
33.350592989851322 -63.810422779735575 -134.563948232464668
35.885431371724486 -69.480618246750979 -139.557909024970428
-76.107121707874299 -69.919896041810574 -136.991747973527993
113.475886250107649 -64.967059666747659 -139.958287781050444
-88.945517306562067 -66.768500632218760 -142.612328542953918
-56.268941722533526 -66.600884162248235 -147.153743408963919
-47.919420073969718 -65.098952649443774 -142.998103124342720
-74.935804543047055 -66.941526876317553 -141.379213907650580
30.733589897429479 -69.031548612706814 -144.412013946568464
-52.819839077840058 -68.724281772850944 -145.999264823198558
-53.652050458338067 -65.336317300564374 -146.763099049962221
-93.515767906826056 -69.789961447011137 -147.812607547643836
21.469565758243792 -66.875660377458487 -148.425707811403839
25.693110510945942 -66.205848975288731 -151.770290421476091
-40.999669095412159 -66.285647252149388 -147.999453077433600
-51.051122444670597 -68.358444515008344 -155.230532243721711
-97.394697018037419 -67.005940050954280 -149.089374138764981
-100.081202359572572 -67.157988027883363 -153.039999540120647
10.143047473799104 -69.362130155666080 -153.362806773469032
-44.092274646369574 -71.052779229659194 -156.573354364045883
-36.483770084448309 -67.181745159047153 -160.413224400793325
26.032196771537475 -68.745732908681092 -162.423671814267607
30.452959779939043 -65.621913297664037 -160.802576012677292
23.116045255789128 -69.535415175033876 -170.408790112153014
-101.505000996870066 -67.603066644812287 -162.409100581913890
-104.997226724988522 -66.918671291674457 -170.624272190609560
-33.896188621798586 -66.385898340892595 -166.471610684100909
-102.983650077440487 -65.948623984211338 -170.282876788080131
23.979835529098487 -67.952347115499904 -174.515198281382595
-103.152109084122216 -64.725538801705781 -169.217644963186331
-32.380520682887791 -69.702367757736056 -171.027636003145602
-33.852024612380106 -64.249610201869018 -173.281429687431626
-153.701222149110976 -66.948592420612343 -175.565970690511136
16.905141596649898 -70.691868695243585 -179.898624859248628
20.055295670470272 -67.416920630727560 -180.566932362915878
25.663769593060767 -67.235603819275809 -182.010982009340182
-27.751311610298142 -68.925487829817527 -184.106796196528762
-28.801028974412201 -70.115173234165766 -188.013891175098024
-141.154546160987877 -67.453791502853448 -186.397926249747456
22.817928430885466 -71.128212747237214 -186.982490001997718
-19.908496831250975 -68.716756438517564 -189.677255479792279
-113.417862793393553 -64.478078656422127 -189.350731485982806
22.428490763753597 -69.051782960515297 -193.631671417426531
-23.976759034944816 -68.075589327520021 -197.148880915644639
-115.005461365699503 -66.320231951852676 -195.941740116448102
-19.928228446531694 -68.998586900182048 -200.242581321018292
15.900793871397667 -69.104276481971610 -202.193093146177887
-11.848506579172959 -67.578005379495593 -203.787691014021789
-112.813904978755247 -69.607024711205867 -200.808653635961491
12.120933949271560 -69.495521225495096 -205.432554077317747
-158.698062002425786 -68.077013609853850 -201.707427280395393
-138.205345357556723 -65.771138398880410 -203.793893091237010
-16.971926471438660 -64.581472174829059 -205.963500774047787
-20.370532498043591 -70.793237687367466 -209.636576281447816
-140.966435404230083 -70.662367899253610 -205.888429887210549
-169.111554348768038 -68.697201606670390 -206.790787446731741
18.407410621528616 -67.547078405025033 -212.328317553345471
-13.346341330241867 -68.677912871790653 -209.092267993717599
-8.313022655151958 -67.916791943525155 -210.359558261916931
-151.645638480571904 -67.537405591738946 -212.611315157303380
-15.729938588093713 -67.924966986082808 -213.604655072642089
19.471939297971417 -70.840067854814521 -218.942937819520807
-8.509521853114091 -69.442139065057503 -216.795129417728930
10.608689254723430 -65.794063242743846 -218.855431859512493
-13.069398885232832 -69.733898725858111 -216.903852467272884
-98.924215326078595 -69.431417817026770 -219.775286327478682
-157.474022925752763 -67.563330957270750 -219.883649309369900
10.799568840195452 -66.401265239188348 -226.113561854556764
-95.462380619384703 -68.344471373944700 -224.704295360789843
85.077800827840434 -68.175982440550811 -227.343733487365199
-151.241768379819348 -69.362092915241234 -223.795723118207462
-128.447047400174370 -68.329750925719623 -221.221893364101845
8.778780989223808 -66.814865939656741 -225.819605888072459
-153.255524645352352 -65.641152172915994 -224.189234606639701
-134.860705008503800 -69.766022811316674 -226.115959360418884
-134.393678969139245 -70.342672884480294 -225.180279324067072
-121.497845243882310 -67.621368153645136 -224.545104990644290
-112.844329029258304 -69.974835641219755 -230.439542437392532
-1.985343176032035 -68.258829928512441 -228.024208687245192
0.069616891881893 -68.170230261121887 -227.214983218187257
-167.782714095031793 -70.277791813060915 -227.640527021842928
-5.845473854744935 -68.264142787926659 -233.085928082665959
1.272443868526903 -68.033091799095217 -231.954353787000372
70.629417299478789 -65.743358264050030 -230.024677769591563
-8.424398997450300 -69.605938453669495 -233.966824870202259
75.123203648197816 -68.354496827476908 -234.715479984505265
-0.112575424028005 -69.913986962119353 -235.601212889141038
-5.427920101856483 -69.601626774668773 -237.793787633696155
-8.001757755766338 -66.761496388122694 -234.624940973746760
-155.225717398179199 -68.135862136590916 -238.666819800177592
-2.387705751625450 -71.882848916921390 -241.213704802341368
-165.348843222464552 -66.938306216950579 -237.990004264181891
59.033336187594962 -71.868705723490152 -244.523660861230184
-160.075835281621579 -70.201626917278134 -244.509885597030262
12.946542182319652 -70.841369892826691 -244.927894913341419
58.453403329224805 -69.936008644942049 -246.498033643875686
-162.982675721880582 -70.691807392041000 -240.244610953576654
-160.494681413716279 -68.137740579988005 -243.046416120254975
14.850886748825623 -71.052216827806959 -244.773362333873791
45.180463122767478 -72.296751893685936 -251.309657750184471
24.579202786560280 -73.073975097963668 -251.970498511467866
-13.056072713834748 -68.317233282680576 -249.755761400694979
46.272123916276762 -68.158202518841193 -251.222839653845341
-166.936946536947318 -70.545659272583308 -247.393996136902871
40.165379499962924 -68.935038048577510 -251.919469504472289
-146.992614396031740 -66.732431327376517 -252.821295643842035
-163.381558921049873 -69.622789126292432 -252.930496728107101
-142.779165353470404 -70.311887593821439 -252.030200400329846
-90.049190687597857 -70.775819440638330 -255.347247779375010
-126.465201348382166 -67.612367079208425 -253.859544692709306
-101.447055627126090 -71.038108790902228 -255.971291643992259
43.784897231057968 -69.640059116276689 -253.710347144550468
-11.898368075462830 -70.633316574402485 -254.511303783252373
-139.702200116131849 -69.847077713225630 -256.639432797947734
-134.172846134696044 -72.282864372682127 -255.718989335423174
-114.164794027543664 -69.276897391237128 -258.008948640223707
-116.058080025877118 -69.417510423263352 -256.802800009590214
32.801870090082417 -71.970752617425461 -258.418998664095000
-94.845216840488604 -67.399808836536110 -258.694010403528978
-156.010230309159937 -67.614382945786673 -258.575831428449192
-163.007521109521662 -71.943609288347275 -257.661490628342960
-157.943712367676369 -73.197181229811207 -261.236946739101370
-165.304280278766242 -68.648576727044173 -263.232369756883372
-155.377851816107551 -70.990022376183376 -262.652718061521625
23.170049012091901 -69.085336021513783 -267.327877583017425
24.572277774565606 -71.889294921420543 -267.565192552897713
-10.076723868753096 -67.025997848282998 -266.392126970779941
-151.508815719554377 -68.902679473149661 -272.566574916284480
-13.128320415319582 -67.236907857205011 -279.603083472413459
-135.892356256512613 -69.219182932422513 -286.321054464745544
-141.467075074012911 -69.010651762788243 -283.195592712679172
-105.975294930593904 -70.446305835131952 -286.534927670512104
15.369771266393197 -69.449513722053439 -290.391388897094203
-88.491284954023556 -72.465767967697360 -293.786247787075524
-149.832640654833199 -67.763468289619482 -290.549750919873418
-99.718585118222350 -69.979396259229887 -288.868289622198404
-6.140404441838225 -74.127556702267441 -290.619041902083552
-145.313716900276006 -72.007481760786789 -291.541198515489498
-106.924898842267240 -71.280455127529791 -290.599760862836661
-143.908879028419818 -69.412777040180259 -288.692346679362117
-2.145328575325426 -71.399021265670953 -292.627310453281098
-134.136348690021748 -72.018933024071501 -293.166418229135900
-116.407992061744906 -71.348204345496356 -294.208174807522084
-128.126307575339553 -68.741842728659634 -296.489720675582987
-152.764481347353012 -67.836069551294216 -297.314035076892139
-147.121135739666840 -70.528071848909278 -295.014730615894280
-143.527127948131721 -71.553096957519116 -309.013232271957179
43.689513761454663 -63.760992933910060 -32.383065313400117
-27.823364229378331 -66.905114687489601 -52.714138715976496
90.813785409967593 -63.083845596263423 -66.330980608150838
98.483791118545952 -65.881753969976131 -67.411278243606972
68.844649221219811 -66.613246061344853 -80.262589399742893
-94.393422924869753 -62.869547206672202 -89.066607746538608
53.899243363423565 -65.384130604836756 -88.898294125484796
60.016979431554468 -66.585205766208432 -87.170033965798467
-51.874998884415106 -65.684849201436819 -87.580378069120655
53.414407938347935 -66.813679275069006 -95.101331117507101
64.969221776200428 -65.833809112081028 -90.906745182494944
68.016752995648332 -66.130131365811962 -98.022155484701727
49.153231952894259 -64.522032785601198 -97.017971646291102
44.498327086020055 -65.558462534641407 -99.772200750400486
100.816038126664893 -66.541073222959028 -104.084791204275376
-70.952378080637715 -67.214352765961536 -98.313830516305018
-75.045827669586927 -67.249573727783925 -99.667033242748118
59.737911018645505 -63.590341657868890 -101.539871751979945
72.014407754332794 -63.198952946575929 -105.748446360061934
-72.989441867096374 -67.426250163561306 -101.856190924620023
-73.259875695746274 -63.584806985848964 -106.467667545825151
-70.397888887926939 -68.128557098895769 -108.352299321680789
94.503603260076133 -68.683880320844082 -108.528473036510064
110.264560305993555 -64.912473972162630 -108.400990861646648
45.581674969459101 -66.556473751781297 -105.135829795448302
54.706854010430348 -65.343947804985817 -112.298166827558589
-81.863864142819310 -65.294416284992906 -113.095658189579751
104.434627105751062 -68.095349527498996 -112.259827385817800
108.674392874580263 -66.885942666618647 -115.208135154983012
108.767689056074445 -66.313216181790111 -116.766948538277802
-82.733250164241099 -68.246790002870569 -118.640205491864066
-77.003371717865633 -66.007370392305276 -125.055475054545894
-54.958120784916773 -65.395473737794688 -128.021169831537009
115.586517836778626 -67.736494625426374 -127.848570596517732
-77.947062258668083 -66.214671191793528 -127.472724432517026
-51.136285909038548 -65.944841010816745 -128.802756091903262
-60.509246339328925 -67.180921736561203 -135.263796877960459
-88.056996774323153 -70.174625741629143 -131.035724990942555
-69.757756967992734 -65.044385650485083 -134.500977766955629
-76.658451000569201 -65.901391140108529 -131.349772553388590
-72.501324162864663 -66.499432620056311 -131.459646779932683
-59.468681754047381 -65.412810857635108 -138.565084245158374
-49.114541602422662 -65.705870954518133 -140.517121477048875
-69.682535740825514 -66.291408078854886 -143.130050337077108
20.563675987127638 -67.041996434843696 -142.862283533694381
-73.202088373649786 -66.663324565545082 -150.077043195609463
-46.045993687436223 -67.626816935058571 -150.550886895877625
-92.604268520765274 -68.919064496733441 -148.277192299268449
29.839289936850584 -66.504510478308987 -155.452646795047031
-48.946648098126730 -68.080024488137497 -150.345204455569956
-42.061474090055825 -65.846567805195448 -154.435088907551489
27.956842537269850 -66.615487260789493 -158.352904170093808
27.103332771505521 -66.074636352545795 -160.641312562048967
28.634035880884021 -68.315186439471006 -166.791069111842091
21.993687694498810 -67.083883160463373 -167.809183008693310
26.759899409078887 -67.294686103745420 -174.173859783266977
-146.148561139576060 -67.741497340037853 -177.660839985569254
-111.575762673223707 -66.324067924037720 -175.991857389384990
19.020196191572531 -68.369370075004227 -180.426696607039901
-107.995730892656994 -68.841182648306031 -178.722200247059845
-106.008442439570032 -70.595512800882105 -182.068601496445524
23.367377052301450 -66.922502079026373 -189.421047017145071
-109.014624759712731 -67.175673408926173 -189.912020125458440
-138.489695134584508 -68.571761366454353 -193.239207749002219
17.011954469170199 -68.059927227789160 -194.462306842156295
-124.915844435813185 -69.942127508502111 -196.301181123060161
-141.477016064038452 -65.891512114346867 -194.865854854723523
-135.817785529354353 -68.150661675923232 -195.860342928019008
-158.133930252786342 -67.466357672777647 -193.017467050091113
-121.688394459432587 -68.527961090055157 -198.240149995195338
23.952558441541278 -65.949706741558145 -197.286944634802779
-113.435200419181811 -70.269759860971831 -196.907855259944029
-107.020151806327718 -66.535745837348941 -197.206204414272804
-153.227492324644857 -69.859704456499429 -199.766266815977247
-168.095948659410823 -70.051837755631865 -199.986521005406217
12.511070408624935 -67.704949885749713 -204.271822057605817
-156.143883809673554 -69.935075722384624 -204.968003128320930
17.911226802441249 -65.196599899541326 -205.575279980834296
-20.093411566018904 -69.793186068056258 -201.509922384077868
-118.654998680856679 -66.530245754699422 -199.042742580116141
-165.182351196765609 -66.511098266642932 -201.989509351525669
-122.904819020359255 -70.435137607485274 -203.115103861389258
-12.246396892690488 -64.830640429135158 -209.262216089140253
-143.183116742275928 -69.391810554677249 -203.555452713810553
-148.661540373661836 -68.659195607941143 -204.498283701052145
-13.940375753870530 -63.800745645856821 -210.203155414870139
11.650468899163158 -64.778818662709313 -212.735206322732239
-164.946806628775676 -70.024766324513877 -214.598310348241341
-4.147645605067918 -67.234642360100352 -220.877530578951138
-158.090677265646860 -68.442031296824325 -220.579377737074964
-106.021701853953019 -67.094686702130716 -220.417162271465315
-100.417806887231578 -65.264857894367481 -224.941604224626076
-153.113447445104924 -66.900416971907987 -223.249720349516281
-143.090778738519901 -68.665835048659687 -227.803500191856870
-132.260284187830649 -68.271092423606277 -222.142010900702104
-164.124788322104308 -66.836681799241646 -233.087698360486598
-105.150770438930081 -66.554445233375233 -228.410829099289970
-157.798703860344716 -66.516775367934315 -228.300694640259508
-8.606232172288085 -66.290062997811845 -227.031814363407619
-145.274445513580218 -67.897178753936032 -229.219693475148460
-104.826999959438766 -66.260824039142094 -226.437572966693494
-147.823589332237731 -67.623250307260307 -229.256065599018143
-110.186577663272388 -67.976485276720211 -229.808541439866417
-151.983712636403368 -70.470951726009034 -232.774354055359879
-141.647543576089134 -65.596662902773403 -231.986469407304185
8.817327832117417 -66.768411061389770 -234.681050142383327
3.535424875821949 -70.129744881544923 -236.792320759845836
-162.274397363987504 -70.387715387401471 -231.513148960622260
-125.793202686568165 -64.974029322212004 -236.338239097534029
68.173634268187371 -67.301031248881358 -236.267127268585597
71.800473186066725 -69.790203820961480 -234.867329427910960
-165.129115657941384 -66.012696548154992 -236.378332051719127
64.271096346766996 -67.563280922730414 -239.000010281421794
-1.242502504603607 -67.395422148250262 -238.951192545782789
0.824258547913580 -69.050476414303589 -243.176937988136871
4.531745294627072 -69.600469522452883 -239.593270112424420
-161.002465468098080 -67.219323086535468 -239.481375457573421
-12.924757824092740 -67.422177213255878 -241.529425536057204
4.991691274968044 -66.047929227880701 -243.183093201499446
68.248822371952258 -69.629387523914104 -242.738534894484957
-15.548218001937666 -64.625732116985176 -242.292859883286752
55.425322721465903 -67.037560097879734 -244.358076987605813
62.453933576897882 -67.068390893918490 -248.517245188442786
57.494723019508832 -71.338404245515505 -242.554189268221336
53.170991627750425 -66.928069454073054 -254.441767840595134
-164.751025966846356 -65.959018952050897 -247.656168862354804
42.415978967912991 -69.709253247728441 -250.010148738935612
52.319356697634092 -64.921779854389726 -252.359316409520119
54.644189825742707 -68.088604434154064 -253.920395689998571
49.954886200867968 -71.077136157560943 -256.873977161177550
-132.002456260642390 -66.809100693798641 -254.190654395334406
-94.487399131074881 -66.740864094332224 -260.242870837428995
-92.347009363874932 -66.507503228206218 -253.476682607898255
24.600962094646345 -72.342698021814400 -253.900219641149505
39.865801892534641 -69.627243917378351 -255.932138065816417
-134.576741369665456 -66.881504078598240 -258.205751271087877
-122.071198813576430 -66.971024627251367 -254.708938817122174
-145.980111399377336 -71.138094913276802 -259.402597941335614
-150.647027651968529 -68.051952568980340 -256.669920881244877
42.097316926156317 -69.232319504494882 -259.664685310839502
-100.219520032313127 -67.858338313295476 -258.280417522767550
29.624330186453395 -68.605044646803165 -261.531722609365261
-150.185621859562445 -71.065238738365906 -263.786452390442832
-108.615369198360170 -67.094527574724879 -261.275548684099249
26.558537553289995 -71.744739536100937 -261.929373536327546
-141.153769390982006 -67.699333557196340 -261.037859599321109
-112.105943347933717 -69.434351960012222 -258.202446400651354
-134.285806770429303 -67.243215616898880 -262.478551879354654
31.658680165277641 -67.843881057839752 -260.577674756053284
-11.528909909825575 -68.899378933233763 -264.027427022866277
-131.316077723479026 -66.876896273925794 -264.666748814411278
-124.011888670925956 -68.352718189081656 -264.517105631149093
-148.916155977161509 -67.120704355734418 -267.014317001427969
-5.020839762927114 -69.009572960541604 -263.501874459222392
-152.738056991336038 -72.515968513279077 -280.833142732719296
-8.966174851949351 -69.086341850576687 -285.303884959810205
-145.787312600815568 -72.260812602998286 -281.769173313769443
-123.446219872222073 -64.332907033371939 -283.199920426222832
-135.372122732197994 -69.575621239041382 -288.302072859331361
-125.938531588248125 -68.244424494355044 -288.603412277244217
-120.951121822782099 -72.033448310936819 -286.537330449262186
-113.235100723002049 -68.201681909213519 -289.662950271509715
-107.290153297122217 -64.906884476160315 -287.577736364738996
-136.180614393814380 -67.934404779752938 -288.043355894531828
-118.819922491135841 -71.591194623174928 -286.927050023385220
-124.782385632383964 -70.246853932942130 -290.502942343879852
-124.871185675340186 -68.030630648088874 -293.125157537376083
-148.602961940917567 -67.770827837647303 -292.585987398015050
-150.081622977339521 -70.115734426203460 -296.318292095333220
-150.007568419029269 -66.527596402856645 -296.302160059578966
-151.351190925192526 -69.684119053477005 -302.588744975239024
-144.433171979698983 -71.162216960443530 -304.451308055801405
-151.630451175783293 -70.556139388867237 -310.061577686903945
-151.515522477773004 -67.640639318922766 -314.055744068591650
-150.699982849862153 -70.745392324601966 -309.699273569402919
-17.020946680497435 -63.994708048033836 -58.019243311060670
-90.185376618037239 -65.160894464351131 -59.331642777982843
77.714106720757897 -62.508925951355742 -62.299994819899162
-10.012242849063949 -65.955826414654652 -62.485716160350954
-10.413474814653309 -64.334744824650642 -70.793623622070925
98.539520889086901 -64.575663344231799 -67.563741921834406
-20.482857897950634 -58.914081504564678 -72.745528031118425
-91.694177914077272 -62.177972751508825 -76.537694886143356
-39.067908147036846 -62.034722230222371 -77.488868623156179
-39.432661580754854 -64.750013300395736 -79.057996749654137
-30.131497107568098 -65.488657519697071 -82.400296481889910
67.338831382585383 -62.934030405235035 -82.415165731628178
55.415642997472695 -67.365159334555486 -92.351499421835456
105.139546775752976 -65.396936471878618 -89.272236378874680
-66.541882606409629 -67.390249907963863 -94.107140992600506
60.933024090003087 -64.194346856756624 -97.033409212756368
101.208837842009075 -62.995838981201416 -98.943170882213337
109.059426448092168 -64.598133372734480 -98.286053345597423
103.846574992872476 -64.985735425295900 -101.777456988923149
106.113843799157252 -66.565785372714913 -99.368836887347811
48.222318490449652 -67.264137580334122 -104.303493273999493
53.695984200287050 -64.361841876715843 -98.740737373854529
-71.656850437421269 -64.153808209175494 -99.665834456652817
56.182169750638607 -63.298058356221254 -100.979276971710703
-70.576342094397972 -63.800585507871183 -101.144439530951956
-79.057536349804167 -62.308728143050296 -101.034991399317505
46.297508764699167 -64.066853072120495 -105.051095425386620
110.583327879526323 -65.098651152850096 -108.831269709899317
46.882416602534221 -62.439413274287986 -109.792843253534954
108.770145810341106 -64.257640799680956 -113.964542207728272
-94.492838322395855 -61.580972946553736 -115.285390887487154
-92.513643999249652 -62.284405549064957 -120.038076719557239
-85.924274199622161 -69.248774691300781 -125.932156838458923
-58.690837164584650 -66.140755865487989 -129.715844849428976
-73.153583319968277 -69.447492203156486 -126.295547948039058
-83.811455698151775 -67.427917645972798 -130.873672806593675
-52.294065813900801 -64.263407055696149 -132.234535900366041
-84.286306729749583 -66.103976412004215 -137.036007695695844
-50.935667106973241 -64.144405502187013 -134.070112780384790
-77.361532540445126 -67.138858334838119 -135.792226835313983
-72.460749220424461 -63.960832427770107 -138.037699321460650
-74.765679542800655 -65.338998529458735 -142.201871854832206
-91.867765233619991 -66.223862855786777 -140.607433923900032
-57.236813206963916 -63.493275595082359 -143.976613631923158
-55.166982518842360 -66.772857643024963 -144.666766076858892
-96.817432945741743 -66.723730936386843 -148.695925691240348
13.941832579450640 -62.921212412662911 -150.902267991971769
12.607172728016328 -61.717297438005346 -154.305533267121632
15.863473650483707 -63.535019145608210 -156.297641721159209
-99.542740292946078 -66.777077061465619 -157.779917191986442
-97.999493134625951 -70.511352575159606 -156.041139247793325
-101.577643484340896 -68.217348716243364 -165.801719025242761
-99.840095308790680 -67.241951534050202 -167.684924637995834
21.566984223068165 -66.097487552126907 -177.161256967953591
20.339317708022545 -66.365710388584631 -174.740837819543486
-142.793526471916039 -68.168804357497734 -175.357280418086305
26.220599074701632 -61.620780956020916 -179.838657465063932
-101.119797040975371 -69.141186435343599 -178.863336962699378
17.146346365365211 -63.453904233971045 -187.189726455482258
-154.292342627176737 -63.881991247814952 -188.531515792981196
-142.210749863272241 -65.022896654537689 -188.851445603846742
17.870980915146635 -69.123807320790050 -191.940817763782547
