# This PCD file was generated using the MATLAB® pcwrite function
# from Computer Vision Toolbox®.
# .PCD v.7 - Point Cloud Data file format
VERSION .7
FIELDS x y z
SIZE 8 8 8
TYPE F F F
COUNT 1 1 1
WIDTH 786
HEIGHT 1
VIEWPOINT 0 0 0 1 0 0 0
POINTS 786
DATA ascii
27.129938436814861 -72.403133683330140 -107.290789035079740
92.993076475842713 -71.406876389031794 -93.439538592063087
-103.327369023638099 -77.413621825963688 -123.089898823759768
97.844578591191180 -80.203982908895028 -101.735911784489531
36.247659208975669 -77.851020729360698 -113.451171010491862
21.733835818709625 -81.294226377661644 -110.239786272051845
35.102249344730218 -71.168160331484430 -118.576804100177014
40.116142838908168 -75.226859682142120 -124.399611290195935
102.457245646177029 -72.657413760550327 -117.230525104278342
34.559676516990201 -79.777045308018472 -130.717076316372271
-61.681770215855060 -78.205614822401813 -141.116819156207242
-66.321762876992722 -70.031758839152829 -137.967881649805264
99.467349195465843 -78.162714360431266 -129.232024424976373
-79.390390428059916 -72.095453709268440 -144.751511684865449
-55.847831896179827 -77.925577881547895 -142.007879332727754
-70.871018699595226 -69.403917745503236 -149.598929507453022
26.539123594203854 -71.799367028260988 -144.646836317519217
100.076249301743374 -64.018544505269489 -141.564377156230023
-55.845525457621115 -65.576320840846037 -156.620404633547651
-75.076245178847003 -69.190595136667284 -153.876305624593186
-72.242564354533798 -71.737811326152098 -167.795385069064309
-48.433511985015961 -66.116365412880313 -167.982735803909321
108.427993634686842 -71.341095387322810 -143.884162799254824
99.786061612828888 -72.508462209585986 -146.099366865121084
17.189810924081598 -70.792591466524968 -158.837875821596072
104.082477024458299 -70.295268906414336 -155.839461834455591
-76.552110917136517 -76.261154741539102 -173.300673373518805
-66.142628194391293 -74.740393056270776 -167.139993321678674
-62.103288340218668 -67.476205080744847 -177.257334541203704
-77.251860051215218 -67.948117108002691 -174.835878786403498
-49.271001167266775 -69.580109336071615 -173.372765569447949
-6.766176401145487 -75.610831370452331 -160.889850461786352
13.547386796925014 -76.010800113402539 -161.272817850424588
112.266372825428448 -77.731873083354500 -153.560048499306504
29.504094735405712 -67.913098129777111 -166.360485794062100
-61.216438371402397 -75.648567797442226 -179.203845146240241
17.106024888672014 -69.178855813790392 -176.208378658925142
-59.559514057350931 -69.279353082668180 -184.330704387215917
-55.586811766351410 -70.953214736857944 -184.580778177261379
10.307285235637185 -71.253759272470802 -172.863203729947145
14.905345745683777 -64.210121152077178 -181.203793284668393
-32.731346843190266 -72.355690732107902 -185.693894756010934
-33.261891340190772 -76.392433399045046 -188.507753350500622
16.291581241642891 -76.496280713512718 -181.113700167971160
26.285680685704769 -66.316601749887226 -173.031305624612173
-49.580257245919789 -69.733081818272396 -189.238645554231852
-148.700041525356653 -72.172861557525280 -202.702252586951374
-150.459855206327802 -69.809910652553228 -205.747724570085467
-30.203471789473245 -77.954270390952900 -191.261788312531053
-51.260622644159916 -75.720084862157009 -197.227136895358825
-153.479562206390142 -78.083821786392761 -199.596092854245569
20.352819159797530 -68.024872066579562 -187.901923425910013
15.941857375757071 -69.970340240221333 -192.313781314199616
-46.357194809995022 -73.312715476720754 -200.644972774745213
15.130965365515216 -73.772785054328267 -193.732638981641941
-142.211095866000505 -77.857275983614414 -221.700476803341473
85.909926951084202 -68.509273599595602 -193.356849908692851
-46.952254893636706 -68.358752369379346 -201.610688714757600
-133.581953157425943 -75.171274788362169 -214.833747795595400
-39.172040000609236 -69.171588033467160 -207.820694830954352
15.452753533918907 -76.506903441171289 -204.097983442633051
16.852592096558862 -70.558309946437717 -199.742255355859612
-2.160947293904045 -68.963999933054538 -206.636994046826231
-36.388901880809129 -76.934381531837474 -207.625000453564951
-14.499006575045039 -71.330271666998684 -210.516701741486486
-78.141606353042704 -79.678142246609866 -216.360902836951112
94.416569778248842 -76.340952510721749 -201.690569194933374
-84.636541006347912 -68.809161270910479 -222.845435038339190
21.998953992845482 -71.398833229747027 -211.754782997524927
95.139372229750606 -71.456511612076056 -199.614595535529133
93.632087416428732 -73.184324333255162 -201.095453037313320
-139.410912847961072 -77.282346576734554 -229.365984905208876
87.901564506188478 -68.801929706960408 -211.026918710784088
-17.219659011577846 -76.016073494994018 -215.732935229073263
-1.166127115473111 -78.736757505758035 -219.736305006571911
-101.524879428357167 -73.093627813315351 -232.384092771403857
-91.305943828655273 -65.068030150105656 -235.351568250768111
6.760859571500813 -67.047051950665121 -219.772943539953957
-26.038120571223388 -76.687367801366079 -221.691346435153605
-93.140195080466498 -72.071216908769074 -233.351572223273962
86.987375672416263 -69.144086236996586 -211.515102480137614
17.946867183250298 -71.330883929125321 -220.422747625129347
-9.927491839007484 -77.451605119029949 -225.677570871328072
86.618279140967957 -71.443787989287387 -207.793810025838184
-1.236451523973914 -67.757606174489510 -225.858095318500062
82.398834138883416 -70.528114960456278 -219.472623524708467
-13.909479723391240 -68.372950700901100 -229.094185895650526
-8.851509256758405 -71.292506265869619 -225.327076268962429
-124.988308790877099 -68.605641412090080 -246.495495763764865
-123.989947249827139 -66.036045456310049 -244.774233986010898
16.457724238575889 -65.897606626918801 -225.720683511248609
-135.179502509593021 -71.295441380110020 -241.176874462289589
-7.454077712960371 -71.348325100476288 -229.072545334495885
-134.104909329170056 -78.355099866343949 -250.411737750346248
-123.959754097247767 -65.363435397308976 -243.197466732699439
9.099811520725021 -70.042787472617249 -230.440112105080885
71.931067756001426 -69.597872510139510 -224.322956161900720
-14.916120013730987 -72.686667530820415 -244.225577497657213
65.015276228189251 -66.397538774684165 -225.964278452655350
-153.641533019732407 -67.763282530046027 -255.773390510261180
66.283065831534657 -69.425862701118987 -233.018212021297842
8.086766721265917 -69.277349566943982 -239.986417364979928
72.003099045896278 -75.077081286785301 -233.509432652479489
-34.834499541428464 -67.891954417228121 -242.092917249169460
-15.110314897377313 -69.751261679241395 -244.476747946173163
-44.089977375612683 -67.697327184465891 -247.768602838768544
22.053313046789548 -72.266710353292652 -243.028050106181666
31.294011150448011 -69.817854643798910 -234.812263785817493
-158.448251148565390 -67.150875050246341 -260.277823594274764
-84.025991976630465 -68.831780930079603 -262.095203593765177
-81.217551785746082 -74.537672250925056 -266.147193615629021
-78.817199254149415 -66.340410077008883 -254.070087097930269
-90.648854791286581 -64.951523871883694 -268.904439900396824
-78.410282244869080 -67.898377876168809 -265.784601698435608
-130.424893961438357 -70.604948587276482 -277.660763442463121
-115.402149830024626 -75.767696690830221 -280.358960631686841
-155.773103674598701 -78.393544090463450 -277.428577594719627
-138.703069076639110 -65.135858998347601 -274.169631842989133
-128.694684913446821 -66.716282894610316 -267.299806979783966
-161.880697515934884 -65.566671515112574 -284.039423050545338
-146.176761265814804 -76.788188718467666 -277.999206025473654
-122.204164176826382 -69.500823236360119 -271.076171122404844
-146.817287302355282 -68.151957075734998 -281.002782492131473
-140.262453665107927 -68.609673829292902 -281.216016120627387
-152.920616271081258 -71.663851642259715 -282.159997414472969
-162.124122586446816 -68.133435659126533 -288.205795831507317
-140.665987468044506 -70.182789408998829 -278.722276787359192
-155.498104173397962 -68.031530321726379 -291.136913760498146
-138.623877556559194 -72.456104656035407 -293.239048418597918
-145.381672413784486 -64.616997141591540 -294.529316770383048
-149.069005912880840 -69.274528793623759 -302.735747280997316
-165.517772772718928 -70.986035218206808 -301.901960981762727
-111.799390250496145 -75.700366343994204 -302.570335910051313
-16.685232044465781 -68.096350494708844 -288.887559541866949
-36.181099525357041 -69.664760553118583 -295.464813307590816
-143.039959079576619 -75.963230365172777 -298.129577165253636
0.013287529090853 -69.238926738634433 -287.576474130395354
-79.500765276062111 -74.463639477266369 -294.839780562883107
-91.675203533783758 -74.432160799355088 -292.111908668692081
-111.550648489703434 -68.952119953179874 -295.360137766687785
-98.959125130249006 -68.326453840392361 -298.238213154285177
-91.270026237836490 -73.611609498142911 -304.203339464357441
-143.675384125351371 -67.496069629884062 -298.171105347179491
28.226316860972258 -71.840777155810130 -286.469737562893215
-101.911917102974826 -66.345830850938725 -302.941209750692337
-102.223348951701496 -72.845384004655742 -295.196000263484734
-49.096060637963888 -68.947947643186438 -299.764261347691900
-88.938550040756013 -74.088858817220498 -302.878579706324899
-145.075084174986330 -69.005395642860904 -309.862274808225038
-8.433212854744017 -69.245329638322801 -293.580011468471184
-140.637526831562525 -68.437943652076129 -310.140296591475249
-118.663470557392316 -64.789775118041902 -304.493034190347203
-146.456983482115476 -63.380833108150355 -305.881616998839149
-149.346033394373592 -67.981071763095514 -318.966442119398721
-138.235427022415848 -64.862274172047037 -321.352506996778516
-140.508219186782128 -67.685094379802521 -310.893529006472249
-137.181894258455571 -73.910351419431336 -315.043795802386398
-133.776887464293878 -72.230510094202884 -309.159692713810614
-135.355051454651147 -65.063293533671370 -328.553548928977420
-137.240661266991196 -69.472728308576009 -324.914933549405305
-83.098217108003936 -74.992203315857580 -55.128986401942711
-69.272208982518634 -69.014317881902869 -60.152096446817794
-59.043729948438020 -72.990927493947723 -57.319053421649485
-51.561471313158272 -71.693512706627686 -59.779621274651845
74.702481555884631 -74.865810134894616 -62.987093686547112
54.459151764096340 -70.303733705803637 -65.831453445330453
64.313624222872306 -73.045596068663954 -68.512481691085966
-49.678720153903718 -69.926587979808247 -79.313245750191939
75.536521060431213 -72.058619995875134 -69.951314137148273
80.539022727764049 -73.816649560572756 -66.249995320053827
54.675734507029865 -74.849974628631770 -74.280616910163772
43.899890010823803 -72.890433123233421 -76.802631288920367
37.100697695535835 -76.222412647536984 -95.242090529806816
38.200027040971101 -75.880657449626369 -101.047012093807481
39.067838023608864 -78.995189147454056 -84.189184689749538
88.840514819634834 -71.272040659061432 -83.288440447023220
34.425699987219794 -72.496832073884406 -86.726636905448444
61.976934772886992 -75.966349610092280 -95.043264383126328
34.333307168857438 -72.998385713300920 -99.597817074513301
46.453367307659406 -73.184041762215173 -95.902900211399455
75.655626568858338 -73.971017679427433 -93.380926127779304
88.064369577290691 -74.761799229521259 -91.616757132301515
-98.032042328374146 -73.349385373303562 -112.765882632713897
24.775185751572565 -68.456114575229535 -98.064798899960721
-97.561042817205390 -72.738834272953198 -125.566157097852312
32.198790685867834 -76.949171555298065 -115.248461260747973
101.368478420476961 -72.610909791583808 -117.264596516009476
22.090795409753056 -70.681490270481675 -118.330553483931226
23.039963094196438 -73.106597579652984 -119.943186630540197
101.497131338890725 -73.463425118158753 -116.268040780535472
105.020158022811117 -76.845280160221236 -115.298319020463538
28.926725044761380 -70.330566713247151 -127.391105915285522
20.333226174513300 -72.297955768659932 -135.614884816395687
11.827381763186757 -69.845174005174201 -135.073665415794011
106.094059792718255 -71.607316837892924 -132.708226022188711
-83.708777871267500 -69.117130636373446 -143.747127843514562
-52.102387728937401 -71.850905879747785 -141.610480636756051
102.171135281971701 -74.248269102273824 -132.785234660718515
98.885519725661425 -71.641826836502261 -129.319251967143714
-59.309513506401984 -73.866355230044235 -156.064756987326632
-72.387040821921133 -77.482828412970662 -159.131075019130776
17.016256294230509 -73.234190964360849 -136.620136287233947
-84.177135107197543 -74.125174710114450 -159.776597066390877
22.910529468868994 -77.474447137417101 -144.588967561526346
-73.477206512295766 -70.004983814448082 -156.878042583182093
-78.412528276089546 -69.890311787645643 -161.381755019554475
-49.734774765175466 -69.081439568497544 -155.705658014052119
-44.202122204217211 -71.794121434210382 -151.378075467508495
0.305436027602215 -72.157177548182858 -150.175661246910039
109.921930501293843 -71.941737384050938 -140.656500054208436
107.411843881061600 -73.725444941044145 -131.972471004075885
15.237239231948738 -70.455028847491008 -151.047961233071049
1.467610317477650 -66.481587224399547 -153.991585315837568
23.016471389305064 -69.141505317584716 -151.730898012464138
-66.851317021404526 -69.118756941408037 -162.460821371820884
-34.948905773821807 -68.242944114992724 -165.267704952900061
-1.386843897244495 -70.580876551690281 -157.242150854489523
11.852014289477676 -63.925123664636388 -157.439732249676979
31.224821120784178 -70.350571356951264 -156.597533019594380
-52.923627825559066 -72.243655932892707 -171.914405337098799
-0.875503571925117 -75.132577764279389 -166.636814658388886
106.409119135374169 -68.045412269611973 -153.018703167853801
-7.112756588328676 -72.554791633656379 -167.272623827847355
-77.936721448078131 -73.018333205665854 -183.974983295020564
104.845951407178731 -70.797578335228565 -156.018410579862092
-65.178770433107132 -70.916740487577712 -181.597248688521290
-32.969374216748989 -70.908456772247376 -172.475703824129681
-64.446891512015242 -71.365205258638355 -179.523988128113075
24.958259562046965 -69.734831986747523 -170.932413730714302
102.420889229016922 -69.811358645871337 -166.004737781134310
-26.836476378233499 -67.763248832488728 -179.300800527109772
-38.819283042384946 -66.490749977417707 -175.920343151691753
-39.654667942659650 -71.742890432673747 -178.118863465449294
-155.773970012236020 -75.467124495879190 -196.049901046782736
-56.632432974537650 -67.070536622622456 -186.692408681147270
101.012128711451027 -74.323222875853176 -170.656009244107167
-144.937071086998714 -63.462089488494556 -211.633527279174871
99.956065289090574 -63.910302302606382 -167.256184705854480
-26.900407025115737 -71.478701361838020 -179.861374145579219
106.080568391727326 -76.869688988040409 -174.465421056079805
-149.735850752506451 -68.187940838166767 -204.614946711948647
98.174979735889067 -68.534557021273571 -172.359305140195090
103.783540827446174 -68.688169474141105 -180.277440517123836
106.383200143650228 -70.587108566044321 -173.769896238454379
-18.509181069663349 -68.003299150035389 -187.676774875062932
10.017925097339385 -71.858479198337179 -196.869146127159894
-19.108470461174232 -70.761121741980730 -194.266648505362411
-136.943173322315346 -68.671738536946393 -216.531663332768176
-126.977706832837754 -71.944245698334370 -213.493428852893715
99.406429526156458 -70.048302662055875 -185.097993008137877
-133.728023638637808 -75.337895274562214 -221.392536254870180
100.530416175681893 -75.546050751295411 -189.279367557379857
-17.112559995559199 -69.473922986971459 -201.445479319355059
6.315263233955529 -72.588556039000125 -200.559360653347426
-35.888997484957869 -74.861067605282742 -203.149684331426812
86.781105639446920 -73.647138840943555 -195.401075877209593
93.323455601800248 -70.840233932956451 -193.745397785506782
10.773793079355698 -67.941567327312612 -209.298290165946071
94.302534186576949 -72.628153782722023 -191.858391234575436
91.561736186645533 -74.241006567873129 -203.354232855590737
-19.190314102934074 -73.176248540649084 -217.274390750302643
-88.878380548406000 -71.015232951293171 -216.856188015765468
-34.114423103346645 -71.066793072837115 -211.710232727830800
-17.496491054747903 -70.668617381027417 -217.650584758657772
88.234150304764654 -68.620601285004213 -197.627991732689082
-81.229045858383330 -71.803979458994860 -217.719944282535323
-149.618484163790669 -67.270243690090069 -239.210676127393896
-4.134991188959702 -72.257765315719681 -217.378516490556422
-88.489890233009532 -75.801253353215017 -231.870076776802364
-20.452509061664980 -68.997132193625220 -219.617929528926624
12.293935665840493 -77.203101736744415 -219.004725186778813
78.342448315355526 -68.549057495582133 -208.545587632346042
-21.826376659534475 -66.048548588787583 -221.092916021904642
-139.027468796490041 -74.257682700720849 -238.692754949299371
-7.247874284883435 -71.162714098799967 -221.162989841472438
18.320160747609826 -60.832359930627007 -223.082896651070030
90.596977242991770 -67.185108207387373 -213.337296450826301
-156.477922333942502 -70.428056619438124 -245.789616690739109
74.650392693489906 -70.102395596426277 -210.855328195529808
-130.154603903930678 -73.235235486561010 -244.253196548967281
-20.676492218767983 -72.670380189124216 -224.891365926211023
12.783244373240789 -69.920582521097487 -227.066712955278746
-130.391416000313683 -63.866987206840577 -242.583478219435989
-147.423405162832495 -75.059881941564214 -248.867803642856330
68.304342312441349 -75.713454403499057 -224.076743689446687
-139.927311976137787 -71.490410541282657 -247.473878582473816
-134.273595448725700 -66.528612150325344 -246.889634231940960
-157.844546062881903 -61.707817542873983 -243.803092899447819
83.594640654520234 -72.220186577712781 -227.927981833339516
-129.896112941670708 -65.198551948841271 -249.193558556661884
-124.559888740603000 -66.415304063990874 -249.443365389050683
12.147548817662193 -61.775902715200061 -237.000846443506504
-8.038610093093448 -74.287357373539393 -240.609937975395638
-158.690162547353111 -73.947498709421922 -254.610398894430745
-149.080508887070181 -69.189423880249464 -254.911525907804588
18.869217187967276 -69.084669811852848 -230.063171001588643
-159.770263196638211 -72.636014321477134 -249.332277849575604
-1.744164021886693 -70.591268803802649 -236.517947961139015
0.290759670072669 -65.828971766520155 -239.538556108651420
-145.024839750003110 -75.006772511540078 -253.596662003892419
64.010839723078405 -69.995177215071450 -238.219834097154461
-23.381238191941112 -70.020049849801850 -244.193015732176974
-150.270023308378626 -67.206335501035582 -254.922266721653131
-152.448551920310138 -69.788968504738733 -255.532628562507085
-159.117894495947439 -67.839517809544873 -267.409726510451037
20.160787309686398 -76.591677469077283 -238.926401630672473
-0.952962161922662 -70.695198473817413 -241.176051905524588
18.324026454728369 -71.445424508938714 -241.542763482112122
-56.096713581537067 -69.241083334507039 -250.750792624249158
-41.731020804022499 -66.621414777686226 -242.775253462324628
8.664071060153480 -77.320970715153649 -245.245890730007346
62.763784997738277 -73.242090477030857 -235.095806269303779
-48.400292706429433 -67.018684967058590 -242.366318490854411
-2.952617213250757 -63.697324888893675 -242.806380539020410
-144.607831016022431 -66.357769153624588 -263.321967303153315
-66.334796534430751 -62.577902327171458 -256.173894168352376
20.999805746171390 -67.552727271688653 -244.927143346472548
-148.729698117067898 -63.579901253024929 -263.363775504076671
-154.754142790713701 -73.717212250962532 -258.335981199718958
16.248256078021669 -67.571260163248439 -239.968499419634639
-154.708662249414147 -69.880504368157673 -268.094207054453364
-137.966594826953951 -75.913463270853001 -268.625231573590895
-143.754558710432690 -71.310081134009437 -270.743549313267408
-155.677679185579763 -68.779422133835652 -263.158115881662638
-128.938200210182913 -70.660376883496596 -263.906919205124382
-13.732379099708300 -72.590217115917426 -258.133115418821376
-150.854306302119682 -64.865017454091856 -274.269682101179683
-112.052456192591450 -62.420359671988862 -272.934691303371324
-85.753354787612423 -67.610541261135012 -272.744397441050296
-116.167429561062065 -71.356656402104917 -268.232642337590732
-102.122990691767910 -72.761766071626369 -266.489499698393274
-99.020808645856647 -75.104070781551016 -268.607856497636703
-81.193626413056052 -70.205626854501546 -262.042283534533453
-143.359608142429977 -75.410356393236768 -272.119187916433248
-107.727502193951509 -74.574756613970706 -265.328910310157198
-140.712732954579167 -65.990882285911880 -277.525289444042528
-110.155692556347077 -69.187216048688882 -269.058755668444746
-14.727811472385168 -63.808631983231209 -262.758098587714358
-145.447232042002412 -72.861808801980246 -279.770813545958731
-135.152960276381918 -69.241520499250683 -281.566455254984135
-155.929153215150677 -69.880772132692158 -288.263909612286398
-2.706983967725680 -69.856889568887027 -274.568877024372227
-159.655325175196737 -67.547235492743226 -301.595544206941554
-123.878994907002948 -69.035081783177745 -301.265622616276460
-69.298410435230039 -67.063202718588755 -291.710382114767981
-26.259143170636186 -65.314848831542776 -289.775897924964625
-19.861284970715481 -65.740187992404714 -286.795092197791632
-106.267845120669705 -68.329718101367163 -301.101844269395201
-2.984399126120230 -68.372658962402113 -285.536928247612423
14.132908510725908 -68.681990170002706 -277.302745262618942
27.412142178436028 -69.523472387149624 -284.741805678265564
-34.705136999160004 -58.847971041276224 -294.000131914785129
-65.649581906590143 -66.027763206300307 -294.467571907882075
-105.910580892587589 -62.891599128730405 -302.347304862281248
-11.424571061182514 -66.372321464441299 -304.879919885586901
0.430153978043599 -73.095152818214288 -292.847729245204391
-111.981441095021779 -70.762728637479754 -305.004910807992815
11.235325506356455 -71.478127162311765 -290.301669975463255
28.152933557852979 -69.111737000889306 -292.962626863515084
17.629357066105136 -66.096273052755507 -293.749658512576843
-150.781450058470284 -63.182071022910563 -312.717210513192299
4.102408847075899 -73.849616018454810 -23.012699201929181
9.417190986742602 -71.699532193504453 -13.196434692418908
5.895621343316209 -69.820491639821171 -25.274045571933272
9.119240060185577 -68.235142091872234 -26.258518949000461
10.626951086325224 -72.018907265698559 -25.927697741252565
-2.944501451058922 -78.127934274996193 -29.581763171380494
3.182381202018339 -74.584821289860955 -29.691869366144566
19.153453141028361 -69.290357599168004 -32.103975087811286
11.682587373345417 -74.553221815902177 -43.974325382946368
14.371731831885041 -67.311729886096302 -32.060503474412876
19.239464282200828 -67.898760598745412 -31.314337538614218
11.360738589022905 -75.941037609406990 -35.103517582396989
-106.050435526496130 -64.073839513059653 -68.220872411336458
-44.469330329846805 -75.194021261160557 -63.920349314928004
-108.720715906009872 -66.961895083103414 -69.746906224933383
-38.201978419102979 -66.634964981231917 -72.929683251244086
60.824901498066744 -78.037900559547722 -66.318884063642230
-42.064855014589419 -74.135252362922401 -75.711368791352712
-58.324272778113212 -71.820457077374158 -82.107673929041056
81.657469099154454 -72.815893893594037 -77.258042577711748
84.115183660324007 -75.560485912225431 -77.911885757130378
42.855026643628179 -70.482288714043605 -83.975226530542542
36.430862069132168 -75.085847448509980 -93.006826056501950
39.258686734349197 -70.161229683230701 -88.021391961814487
-94.034350425690633 -66.968740229598367 -111.249586804776584
82.455289741518854 -69.348716785370996 -89.588009723330231
-83.049966204413394 -76.229565223186128 -115.975484129530429
-87.555019567258327 -71.125304254079637 -114.827905621773681
68.175959093893781 -63.113521624231680 -99.405807040106353
36.048221868475736 -75.347037963753095 -101.615457029151031
18.701609338049582 -67.697285794377095 -101.347391413353819
43.539855753674793 -74.775037614612145 -100.041562217947572
97.016670880254864 -70.737287358217884 -102.828904440211929
27.851006752555509 -67.470906497604233 -107.929543108161283
-98.754862160129719 -71.301094362486239 -124.294574024765978
96.517462341276413 -72.613020864158003 -110.214742961666531
98.618132523539671 -71.697569301635596 -107.860334009337279
34.958330298385320 -70.402370947075468 -120.350883488789265
25.884903259808802 -67.182843734206813 -127.202169277317097
93.257455597465139 -72.945450589737177 -114.044523829785760
-63.182538060648803 -68.735381840876045 -138.575009107502069
103.410106967545431 -70.642484565867250 -118.039406092239119
-89.275789764760219 -72.857768157511586 -145.949675009949914
107.827343636687317 -73.995087820873820 -123.135866368521334
-56.413486203568802 -75.577761346368646 -139.852961968413638
107.177068209723828 -71.143474753395338 -123.531599166355363
31.055443315423922 -68.417407715137273 -138.768862704977579
-56.670242046207321 -71.339869159395519 -148.688955370615133
109.981700738263555 -77.201262823856354 -130.051080350323275
-75.430165443395097 -76.029987474662221 -156.046375287403151
15.861865370446090 -77.000587367113539 -139.274890049384254
-60.751333657936762 -73.786639736960737 -146.212714937111315
-81.281265563791536 -68.947271295099910 -158.858945050543781
25.027723248196203 -71.542396148822277 -144.377795909657209
103.798990297120568 -77.309723723518829 -140.023906761917203
-73.860104836160758 -72.491810489227760 -163.500971355746600
4.136962041643613 -69.585079625816149 -151.772727556993289
12.816557399587833 -65.777814059866429 -152.656339341378214
105.044289513889439 -66.523079268459682 -135.316518962124604
-54.177711333384508 -75.777636273203782 -171.013241632299980
-56.929276076562651 -72.266216311156199 -158.307854502936010
-71.734265762509835 -73.245881195972032 -166.185924964379780
103.857039609081028 -67.644545024110016 -142.522133825419559
97.494385883910795 -65.728988322330991 -145.857401661873439
4.798969329217618 -71.286717137366850 -147.331141121680758
-76.964895485726686 -73.023847466881122 -167.199478198006602
-35.424246107245580 -71.835652814426709 -164.900512035648234
97.313076977624519 -70.784626452625034 -151.349025908407782
-54.145107414370734 -68.534918426229439 -166.940728624573950
-64.638776729983164 -68.806246423751546 -167.795689210464730
104.743445515218554 -75.593828514425155 -152.389377803987713
-69.544717700825899 -74.453860984893794 -171.711225863622985
28.767807421408744 -69.471837189961164 -162.917668401526157
103.019407015639118 -71.304896733742311 -155.903093846484154
-46.520686648199096 -75.996098155538974 -175.512197198756184
-40.448326476736980 -67.239871008561636 -170.717155569755079
-22.926627185493693 -71.493662405453009 -173.592471051499075
-148.632584445651617 -65.133466136096430 -190.336957773347677
-147.702316081162678 -71.228294669023143 -195.816243633469952
105.477126041457097 -69.026498605952810 -166.787390926223480
103.624947785781814 -68.822323988916281 -172.150778987552485
15.789239871717722 -69.260969165647822 -176.540034415975214
103.411060389877733 -65.092410856538166 -175.104308182494634
19.559068446331629 -69.264420386174805 -179.111781290594251
-22.933923356994491 -71.200860911514809 -196.138286396182508
-155.648774630830161 -69.407472795184674 -203.852876780309231
15.265360952561462 -66.393293547818530 -179.808363111022146
105.218791325544416 -70.769714218603340 -175.112124029149868
99.515906410140190 -70.520476502238921 -177.989238923912978
-33.399048833653552 -69.791019648378935 -182.887461057130650
101.865715528115757 -73.997249939266666 -180.138394541536627
-153.238364246098257 -73.271736307955166 -211.415412572549741
-148.294659852546403 -72.632281197455342 -204.367272847599708
100.901172562408675 -65.475126987823899 -188.096974053475918
-25.819060453094355 -66.230812764374363 -197.860241226946499
-133.615409858302826 -72.735686784471625 -214.322657392641560
-121.486036767933527 -71.801508976173466 -200.659195657815843
23.604913195841689 -73.673136574168112 -197.609743785088710
-142.094819514135736 -72.598332476413304 -214.088729210148841
-131.231282260990810 -67.463127281495403 -210.791759679365100
-141.039505478756752 -66.459357306783318 -214.997116405683471
92.830966695836565 -65.463631770836642 -191.168985138450438
-133.605832109035845 -66.110355456956796 -214.301109810853546
-9.993961642136073 -67.604418467898384 -205.210113894291112
-27.223465234515594 -68.057875903076251 -207.056323444021018
-125.823873533931362 -65.650026382658211 -220.809894073809232
-123.281752585334772 -75.881415633708102 -218.087008397943862
93.906868623675692 -63.371897083280132 -191.675045515443429
-150.716696397361716 -69.109495840466550 -223.138778403037804
-143.133548759622130 -65.851547462831562 -224.877166251488205
-13.443201815869541 -65.312003562806410 -205.968530988899886
20.904013824022002 -59.688298221396380 -206.010467405052026
13.140518213768559 -73.735907598535988 -211.058582583971827
-20.977757074102993 -74.416692793896942 -206.230618819786031
-165.552002916419809 -75.195133574462929 -235.129845111276325
17.875174367563670 -67.541811024642485 -210.313493628870873
90.975671051797491 -64.536542964396830 -196.186266200729762
0.114883024707174 -64.182889429537369 -214.638360673838605
92.940594508802818 -72.570095754370513 -201.562778356311895
-34.409186845419015 -64.407954483950178 -222.045621089734880
-11.852129953748378 -67.884963528808740 -217.453058169777847
85.773394925985485 -72.052657092602232 -207.761845611547102
-138.673310877680905 -67.495598815638033 -244.677571780068178
-162.248697497842898 -69.527851653116088 -238.824045972514767
-19.934539560289103 -67.384828127624587 -217.035971338877886
-85.220743655194809 -67.214042293869653 -222.197832587223814
-157.704187531121505 -71.062645343155410 -230.166880421222174
90.054626984493723 -69.116312725505352 -211.901017231489760
20.133985189344170 -71.107887934168403 -223.110607912535841
85.528426132862506 -67.625153741680748 -216.832044203984680
-101.860417801368669 -74.550046060174736 -234.714950609406202
-146.401279807176820 -66.874177282064593 -231.658818455837519
93.835322972740883 -63.666935597581542 -206.390212706332022
-161.524491762545182 -65.399978337700006 -239.992370056806379
-150.475478617274831 -71.513504548180833 -240.292265827309933
-16.611847228410394 -68.480319410720384 -226.485894172977453
81.293030518730106 -67.720584615800988 -218.182590267334859
-102.407590862999854 -67.963103871812891 -232.758011722939926
-117.818425748792507 -70.066353176012882 -242.386969489655627
82.852070822293470 -73.129721289360035 -211.887877745242946
-135.571264781193548 -70.490386223786004 -244.612917662592366
-152.670262441025613 -67.433028791207931 -244.391830835214620
-145.859751603860900 -68.108770962127238 -250.348957030972514
-9.441033623221939 -71.282882950468604 -229.587698458053211
23.559814433440689 -62.971688531349415 -223.357187686842366
-147.785617998183227 -68.996785687086287 -242.206350074594496
7.634520913309125 -73.146564528072744 -228.542318406825274
12.767918847426243 -73.415410926235921 -230.699553658347781
-119.867253835158166 -69.841050864103650 -246.452047828592953
85.913018780212468 -69.791732781129184 -219.304176696683129
-162.324091775429679 -63.646917483169787 -246.014426940738389
-2.292105839347539 -67.049299858439099 -230.107028576390974
-111.407136091284116 -61.200561612138657 -237.424749947380946
0.913052294898981 -63.068652528361667 -227.080057062196857
-140.382489227936247 -69.507466060194844 -244.365552833535361
-124.134771653210223 -68.603471775142324 -243.080022062965696
-139.377488252518930 -74.664804587728497 -244.868669954523654
-115.818070474847829 -63.065429117723610 -242.179652791434279
-15.551054511228875 -70.463265715072467 -232.462271444743692
83.676876964407640 -68.976954206017481 -223.291458807869247
-133.973771687279537 -68.325126239330430 -239.737079889304624
-136.975309898046817 -66.651376833066138 -245.896611143265687
-158.217639402591658 -69.964842179267364 -254.264779721293195
-152.695510806347158 -64.972697098858021 -243.667019955804591
-149.645526405767470 -66.524341339264936 -246.121121836260244
73.203802205382445 -62.157963539573316 -221.666815328231763
0.090032338944979 -68.841326618501029 -237.276024269432384
74.832402995629579 -68.611264007556983 -228.340720608114196
13.740947363039323 -65.183066921795699 -232.858343682429648
-20.801835061275348 -69.359622289298613 -239.852761830474918
13.060365933958932 -69.599831141027423 -228.332343526130842
74.819833701701057 -68.469838622997614 -229.958557644132725
-3.020651932000507 -64.229504968001706 -241.836652236231856
-19.480614870630983 -68.639489418314596 -237.392601078196407
18.143884530726648 -66.522543096747597 -234.825053217754686
-12.441728150373615 -70.895445911746748 -245.921655357087303
2.575089252777656 -66.694161305106277 -246.240640630685249
-3.230696303652043 -69.264660212009346 -243.055795000084089
57.900412293029277 -63.628329231409708 -232.030254181073218
-56.615145477858562 -66.794797466073419 -254.231975927524360
-9.807912679104126 -67.411502220605158 -241.737110460471371
52.011080178541974 -65.376998206634013 -244.685443135232532
22.435601349214746 -60.297996200987242 -249.654764425906052
-5.428759169184082 -62.444875060929164 -251.237133960859666
-5.686440018757360 -66.724743138248229 -253.379573055919167
21.822984964996706 -67.786266261754832 -249.291746581416390
-86.268194046586473 -65.441298005349907 -260.096039853256457
-112.331212245102478 -66.449273362627011 -268.609880879944626
-98.587340723138993 -69.144426106370631 -264.127865425462801
-80.405285284061804 -68.009324409531274 -267.408321475578646
-134.844799472424256 -68.916474733845391 -274.439286136429473
-85.458706423207445 -75.531575944132356 -264.832789420029712
-92.174052376380700 -63.397915589485123 -274.246701059871725
-99.225087903750051 -73.165450951571046 -275.170710340925098
-102.355616002131541 -70.802337209791943 -273.154685587439644
-102.437947668385334 -63.786949013485938 -271.078491139952121
-132.279268220940850 -64.491429117041719 -277.115287905652849
32.348201969094077 -69.565780214094929 -267.436613855043902
-163.842693904481735 -73.768746827133455 -282.914576481940117
-7.855004456195035 -72.973158348265784 -275.495038964913533
-143.937995306100476 -72.226974501458471 -280.935975467075650
-134.130029566845366 -69.292644569970236 -292.378924306036083
7.954009536076033 -78.199609029536290 -280.796453930941539
-118.153531368546595 -64.805532578386675 -296.387617112065755
-136.484215315526399 -68.831154654616810 -302.307484414606620
17.543429136861469 -68.222372588865952 -277.984967326447077
-39.774945202099282 -69.067975053497548 -291.135552947681731
-118.008832870253542 -66.549871860804672 -298.561320362320430
-84.758872497226278 -67.804051089299961 -292.894270454176876
-33.636786512186184 -65.241034669539786 -289.268711612604307
-17.942594913962381 -59.653464871282068 -290.427786837796475
-156.928556398260923 -74.518309589338543 -304.182507217778834
-95.656671393598046 -65.589627625456146 -294.332235573902267
-19.548617097702394 -71.966378999804121 -286.650774098235729
15.582472282559790 -59.844274618187114 -282.894587634865047
-49.167282067016828 -67.442913739439945 -292.580497327729290
-42.139905916786184 -71.039956638749416 -293.297983866064214
-30.128698483589382 -69.547519417882583 -293.463453913096714
-7.657189555316229 -68.552785551222399 -292.314891014344767
-1.702011085106393 -71.741715377330976 -290.066611306037089
-152.521850157219035 -61.974364660698242 -308.792339626226294
-89.115455222433894 -73.243182943761354 -305.384211507998543
11.065317065010522 -67.567605730105385 -290.845114269955388
18.351622366312181 -73.267563867088967 -290.264175714354451
-128.631605188321004 -65.441700812997425 -310.088771748500903
-139.223444146787557 -68.966066810345140 -308.995294897084250
-147.962792114658555 -62.796947501263730 -315.005249926261172
-142.388414432071045 -70.411436249874825 -320.516533073943947
-138.035510916762519 -66.763834888150413 -312.558201665666957
-139.727102373751109 -69.096906496703667 -326.148755756656783
6.557867412169252 -76.632158557166846 -6.940089799844671
14.747426631382842 -69.857966438674580 -5.501223793761771
12.621962491802064 -66.810432894148320 -19.376052392797412
22.019748992491298 -69.334492461252950 -17.058618948653269
21.331686630164260 -66.177086270149275 -16.726016665871846
26.645632176710755 -71.617199404634547 -13.173273145156227
16.046134692730174 -70.248828995188831 -20.952524294989480
22.119311012213299 -71.372070874023407 -18.809872114000342
25.742372773887148 -74.543399476295207 -22.049455645280105
18.879255348702870 -69.432046246775528 -31.910646532715383
25.040174083598032 -74.252862770962835 -30.909709298313444
20.332036983021791 -71.366182752748429 -41.351606987897497
-80.102350808066660 -67.596715875061776 -55.758210599576316
-87.361501724050584 -71.508789235725729 -57.877610404416600
-57.776936259703689 -76.042009731870408 -51.935695121155220
72.716763262838526 -73.846685338359464 -54.870563002155606
72.079936504535780 -76.251741568649734 -58.654710705559538
-44.387784846343180 -69.589524834168230 -84.120801954009451
-34.999341542021725 -75.590123327591314 -77.618667581576318
-53.169474492886380 -75.686929950328263 -81.429746518253182
-60.783420255597527 -67.317003979353800 -93.260691737280695
46.337072650022151 -77.320524098757915 -76.033628853664311
52.882613030587081 -68.392333988837905 -83.002190230464251
-67.500857509768124 -70.610140987933747 -98.492420428283424
37.810287062598753 -71.448412515489139 -84.491791749255512
-78.056923982993538 -75.194626061271492 -102.024147880128510
31.746258652116737 -74.256337537021437 -80.521409052574867
90.801994915032935 -71.661141044901072 -79.156650793098365
34.644694305792150 -66.383833148100820 -95.729662239650310
82.967964744022112 -75.121827427346346 -87.770608430113555
84.657917278586254 -68.664623437801623 -87.936952527499841
31.702385903353719 -73.253013534592668 -105.586777070524832
93.898690115588735 -68.275207341564411 -96.006972949952612
33.808177585821305 -71.509138102501865 -106.544529746036460
90.866182951707074 -70.888247962763401 -98.723090400918721
98.915910947515854 -62.744823564784866 -99.421062386365151
30.154580072124041 -72.397120525080581 -109.077007249828910
-99.877654872630359 -65.252108150999618 -126.547047407072029
34.097049109090847 -71.844232600931491 -114.942026827572988
105.127977866079689 -72.077339575839872 -104.113614580089532
22.485744043881688 -69.211184207261041 -117.582722647605976
97.877717357458081 -75.857789097164471 -114.237841297594400
102.932321162354270 -71.196536192057451 -118.290661207258864
-74.146426278439776 -70.567544976849504 -127.012238705316122
99.323720228533020 -67.293975821647521 -110.286252802793427
100.970927468699003 -67.928434932992531 -115.746699694714437
29.339327622656516 -79.293704992897162 -128.688998321001293
-60.960236182971862 -67.360570165875714 -144.863946451622638
13.871148061585432 -70.225947871763992 -126.981207525683601
28.570497270828746 -68.163995286533307 -129.612434946884434
-80.045084928136831 -72.549253964815890 -143.550582242172680
106.884064115387147 -64.475513867406079 -126.552923596830425
-59.676291714496081 -69.552456869209067 -143.049003467675277
-89.585100604678587 -66.713632101851317 -147.153681662051753
-63.917045649295844 -77.268705330344673 -144.181133722875074
22.254528993945378 -73.105415134466895 -129.875314942559584
-52.974362581648826 -66.990824252449741 -148.546549617866447
106.170797151602585 -70.585138363894657 -126.714892795542909
-53.357920880870900 -70.208776151394105 -146.107319944717830
-90.172702871036847 -72.759883221172558 -148.170508035057253
-79.260923433334369 -71.191448487966980 -150.868713304174008
-51.030057837348096 -75.273318619971903 -148.905890598224744
104.651073297075243 -66.389931154233210 -130.123379334672762
-77.604953943879693 -69.760331838674958 -161.380049754374141
-78.642168198059750 -64.468799931380858 -153.625477882464992
-78.747028427380428 -66.424275160078466 -156.133201551161591
-87.760538639042636 -69.096049465805280 -159.437282391693742
-54.877628566231650 -67.919875883893269 -154.891930941348278
7.629128363212592 -69.089509675733154 -144.013067972466416
2.325073448664717 -74.307247709689705 -145.887452219209734
16.052386617218858 -73.380089428820256 -147.311756590563419
18.212485978425349 -69.636921351965142 -144.226136971663465
3.334968395044045 -70.198020038629522 -155.875183342825693
5.970511297822407 -69.612326783968911 -152.484777519211463
24.227907645033227 -64.146010751725527 -150.290436809568007
6.392848007176288 -69.718036808117034 -161.587099464268590
-71.116909949124476 -68.070736881481963 -158.738972977781827
-48.535017019339762 -70.437085410317621 -163.648676569489965
5.328142348420052 -69.128000390318064 -157.901973337561657
-5.638724145279753 -66.977126114125113 -163.164820353533372
108.729179822980299 -71.090579982566339 -154.843497419894248
19.103230067032676 -71.879618712318802 -162.214344933761311
-33.707762154477038 -74.689401584664552 -175.883517400964365
12.006990200276217 -72.382975883905900 -174.773378119147594
105.360757824186422 -71.738360133672373 -159.886042325085697
-38.982824289805187 -70.683686423571487 -184.067866032843227
106.395100006763073 -73.492761824997004 -161.796729725352861
-39.474178472833280 -65.581748156475115 -185.159994805157595
-153.321670419033012 -68.736197243455450 -198.792199258974250
-26.747229264977065 -65.808345253793661 -176.829034612956775
19.584141671555169 -69.657517634546750 -173.811458723440836
-145.660963828769582 -71.665653277529501 -193.517567643861327
-31.458644805709795 -69.731288980382530 -183.926170119268647
-27.149916980717848 -63.686122370518703 -178.803841312957786
-36.257678579207393 -73.923308926993073 -188.826173105805935
-30.089173267194070 -70.398051493500944 -184.184114162565891
101.096736644079158 -74.688572965640120 -177.674094229161739
-156.700753268024471 -67.372134418189447 -200.782702046423339
19.085147278082342 -63.748551362654268 -176.392330283347491
-16.629443340818050 -70.138409293538245 -189.148499228728298
-30.989562054323759 -63.755856734473028 -193.598943398204938
22.417804872627936 -69.313115881505524 -193.309432204235264
-156.046521101049507 -66.421350227878179 -213.095222421084486
-122.178293905331373 -67.984711310956996 -207.682264890386620
-137.582473017192541 -71.805859062188730 -209.162427830689097
98.625406035728503 -65.212038747674612 -182.238849354439907
-159.268573919101811 -73.733411600911936 -218.518976551433923
-146.834283792176024 -64.134127130917975 -214.680845968720064
-124.130844251807488 -66.652971202574548 -213.884408638335799
102.006839820274294 -74.190297555559084 -184.170254397841745
17.368040178360598 -71.502377888238257 -183.122165796595624
-139.728014499159514 -67.069421293888468 -214.759197100812031
-144.443851618526026 -68.366127978657829 -220.350359523446031
6.552448950318706 -72.625392720939629 -195.100975842951243
-120.087455481165918 -69.126743116239695 -211.779112233009300
-161.373351271158725 -70.752503986837937 -214.885879583988469
-152.910901466623642 -69.786125712789243 -218.473071488508197
-110.867654326731724 -67.850951602143454 -215.287394743803475
-8.911798254273148 -70.998343623066091 -203.790433674372963
-138.782448558198041 -64.444389245332104 -213.001185693256616
-165.641185932530220 -75.170547306921009 -218.034659225968625
-155.206791680591465 -69.438825427291292 -225.914781378065555
95.803519390578472 -71.418211257877914 -193.737225748018915
-24.791497977174142 -68.890170066259799 -208.289420655115720
95.721039491962941 -70.445063445390687 -195.518976526707831
7.391558283776757 -65.065837982644695 -210.941964576677435
-151.790736149157397 -68.217510492159960 -226.256861060331488
91.962984628714480 -71.050302448482952 -201.057792756094784
-6.472155930632008 -66.313087425773872 -218.566064953569764
11.254045425375089 -68.525981528626190 -212.635975862488721
83.902657652597966 -62.210884382476294 -201.250603339676047
-105.290747971621158 -66.036427147399635 -229.867486434455913
12.281046132322508 -65.442705207757129 -220.602104209254890
8.617933595761400 -66.833664939084372 -219.372316854917898
81.944635930343154 -68.711251377659195 -212.977880747018503
-18.179302242118798 -66.271053443625874 -219.168357295631409
-5.588589396297696 -69.653044660406294 -222.352387816253469
-93.262617031866014 -70.678132421949613 -231.790290018506624
-22.512240335597753 -64.252056016100923 -226.300721388684678
-141.773372565769478 -63.174157267042574 -239.873699405369877
-7.619090496962926 -66.713535999093764 -222.380291432022318
-15.218150677499912 -69.702326747784255 -221.672916889138037
-99.257792712356164 -61.167975425384867 -242.456151244305801
-110.758424234823920 -68.720600962028740 -246.793151239151626
76.379869351415763 -68.151680782647972 -218.258760705200785
-107.078170138236999 -64.502178783569448 -241.397603415270140
75.223821088774443 -64.910053569248078 -215.449558337420655
-12.148431489386885 -63.205642078343331 -230.553898772978613
14.018162328066806 -67.820558701758685 -230.572340005365760
75.619995815942389 -64.803294522430406 -218.277219550031276
10.915573049900347 -70.489213560207332 -230.673733465311301
-4.279045896918758 -64.006233530866965 -229.127323348218653
-106.125548293798474 -68.235507224250597 -249.153664538822255
-121.717022740492766 -73.249557398013962 -244.924724794233924
-143.893622490509415 -64.790918055482976 -252.048687810986422
18.976422510990695 -63.151119724472764 -226.619329056964318
-120.275689167644387 -64.522074617700710 -250.617578393378238
-125.118898478331502 -64.391196596542983 -246.288045905425378
-135.445863440959300 -69.230198097525729 -250.857668021516560
71.284859799131993 -73.891384064707694 -229.027345984931884
-166.342515688091311 -64.670355997959575 -255.869529624163505
5.282529814758067 -68.806321512243201 -242.464467616632334
74.574266878241403 -65.701173689626899 -228.243702958865157
19.124876744541552 -68.300186642548340 -235.425298998552591
63.182681748978240 -72.145099157632274 -225.579027215813198
-4.391576222028901 -64.619791981803502 -248.436071868911228
-17.099339670083115 -68.189390602352162 -240.301281880310370
4.615271900115330 -70.881466420853258 -236.497273421084515
-4.138714591127417 -62.614336383916807 -245.474654286439346
14.970151435099073 -70.166627704847556 -236.379800024965533
20.707723326310266 -63.423599939721811 -244.341052546503334
-57.707566297626258 -69.541335562258297 -254.967530380530292
-66.921680912552858 -71.862755146385467 -258.358232348687693
52.568333907819586 -64.870505110569354 -240.935733830968417
-84.024773646659369 -58.461853540007112 -251.838863082740005
61.290481204616050 -65.285971345322920 -245.992153786905845
-55.611985289128754 -65.689674393531774 -256.081366041771616
-158.535676477038550 -67.885014988662476 -270.110928304144863
-94.722637604551778 -65.477352131218140 -262.252068885381277
-64.406830903453709 -66.569793900433865 -259.090866127932827
44.908101517932472 -69.045259975097025 -251.541179030171776
-130.046778462771101 -68.302576549487753 -268.722831896321964
-100.227277136283078 -70.174248082087317 -273.789319749748870
-88.593572737075263 -65.728692717763423 -266.161569768157847
-109.963940905007320 -68.550787431120227 -274.475961558922563
-123.791915792667183 -65.387753399846986 -277.163789207045738
-159.743764746436483 -68.662559228274830 -292.538380505203577
6.136838616532844 -63.958047442530386 -283.268383676697226
-153.096662412149215 -61.583199112287744 -303.905842280182469
-71.857738198106929 -62.433374598827328 -294.827736927787328
-61.670881183033352 -56.867972774908012 -293.153606697782948
-49.831058012914674 -59.174255602755622 -290.233816667541532
-159.728552020001331 -65.963888828679572 -312.016835297887837
-2.376902246200182 -71.212046802853450 -287.063680319080277
-13.467897498339569 -66.939575515378124 -291.252530941336886
