# This PCD file was generated using the MATLAB® pcwrite function
# from Computer Vision Toolbox®.
# .PCD v.7 - Point Cloud Data file format
VERSION .7
FIELDS x y z
SIZE 4 4 4
TYPE F F F
COUNT 1 1 1
WIDTH 1456
HEIGHT 1
VIEWPOINT 0 0 0 1 0 0 0
POINTS 1456
DATA ascii
-152.525452 212.004471 -71.577927
-140.960983 211.141266 -70.805832
-37.709843 207.377716 -69.324516
101.595200 209.789230 -70.029556
-38.682144 209.876404 -68.350983
-144.128113 213.298920 -72.545944
-37.985081 217.121246 -68.944008
-18.402851 219.809875 -71.125244
95.390633 214.080292 -69.562119
93.842896 219.380295 -69.352379
-28.928232 226.505432 -70.055687
-86.622330 221.909775 -71.034019
-73.445946 221.529297 -69.936935
-17.678421 228.532761 -70.114403
-149.632477 222.101624 -67.675728
87.520615 224.179520 -70.961891
89.005280 229.745911 -68.806671
89.979767 228.738159 -69.953629
-101.003792 232.655945 -66.146378
-148.929047 233.542252 -71.799477
-18.816433 229.938095 -71.976616
79.842751 233.895477 -68.735863
-147.122284 236.211319 -73.929749
-28.644896 231.336411 -69.591728
-132.338379 240.196487 -66.918579
-12.158160 237.186584 -71.078255
18.849861 230.792892 -69.376518
17.852316 242.871048 -69.618355
-154.618744 243.052475 -73.204758
-123.922684 242.015137 -67.568810
-8.009672 243.634201 -68.924591
0.683680 247.631836 -68.531952
68.575401 245.306610 -70.231728
71.248550 246.182678 -68.524216
0.417735 250.373734 -70.316460
18.363718 248.283066 -68.972137
-26.593744 250.144379 -68.290543
-36.896961 252.359222 -70.873245
-45.199276 249.886658 -69.948280
-38.693027 252.423080 -69.939301
-18.850048 253.000031 -71.365608
-53.651150 252.053574 -67.940109
3.580220 254.589752 -69.176773
-69.125481 256.065979 -66.333260
17.924479 256.037231 -68.279053
-146.365204 257.151917 -71.476883
-70.723808 259.684631 -72.198364
13.026401 257.840515 -71.672913
-162.777069 259.742462 -69.260658
18.032436 260.444366 -69.425484
-80.776855 261.420898 -70.556427
-74.073807 261.077942 -68.726685
22.326403 266.433258 -69.518738
-88.320641 265.075104 -68.435577
-127.272964 265.522034 -69.960800
-135.720367 267.632721 -69.819817
-133.516464 267.984985 -70.282059
-145.532913 269.402527 -67.818558
-140.615982 267.757782 -70.713783
-135.769913 272.040039 -68.226852
-160.122101 269.761230 -69.844215
-126.399948 273.995239 -66.891945
-133.931580 270.410095 -68.737488
-164.167969 274.355469 -70.440636
-156.839813 273.375275 -68.907585
-150.436798 275.481567 -68.871986
-146.272446 275.095551 -71.309883
15.346079 289.061768 -74.256393
-164.782135 278.492615 -70.490540
-153.340317 284.441437 -67.599785
-6.147170 284.509583 -72.062599
-160.346207 277.906219 -69.267433
13.747824 289.775177 -73.184326
-151.956268 292.391815 -69.000465
-161.545700 298.329071 -68.268501
-153.202530 292.651154 -67.992577
-166.872345 293.846222 -66.788734
2.824824 297.917450 -69.062057
9.048445 293.955048 -72.505486
-96.927940 297.119659 -66.606110
-150.838394 297.723236 -69.908798
-148.222351 295.735809 -69.549675
-109.698044 299.558838 -67.777100
-150.202484 300.270477 -68.714539
-148.852707 301.664246 -68.818375
-67.697777 300.499756 -69.047928
-162.017731 301.119110 -70.719788
-122.662003 299.922943 -69.903328
-43.222389 301.085388 -71.625847
-154.884262 300.702759 -68.355415
-137.898788 302.227448 -68.176231
-16.870024 301.989929 -70.114189
-126.125763 305.388855 -68.882645
4.302058 302.032104 -69.715858
14.353589 301.198486 -70.135155
-133.400513 303.890442 -69.429581
-145.413132 304.691315 -68.653954
-155.784027 320.255615 -67.711998
-71.882477 60.637085 -66.781479
-23.521881 70.666924 -67.091766
-21.598154 75.061310 -68.838593
75.033554 83.777817 -67.586281
91.708206 85.330200 -68.552841
-37.528736 87.774208 -66.014824
76.707283 86.247162 -69.467567
88.290352 90.370598 -71.275627
71.497643 91.125534 -68.091988
71.018219 96.687836 -67.830345
-47.648449 96.706970 -71.383942
-92.556541 98.029793 -68.425224
58.224331 102.620399 -69.153015
49.296745 106.797081 -69.177040
95.974762 106.215034 -67.130783
-94.098892 112.449028 -66.817184
84.930595 106.573341 -68.691475
78.383774 108.404381 -68.293243
91.942490 106.974861 -68.897194
82.616631 111.267235 -66.079430
89.624153 108.464836 -69.116112
-81.511070 111.919434 -71.625763
40.794437 119.726395 -71.009972
105.550201 121.230927 -68.788673
111.295341 120.105522 -66.835144
46.104870 126.407166 -68.389381
108.975349 133.668457 -66.903374
115.464081 144.573807 -69.520531
-52.138668 142.682083 -67.911507
28.484524 143.243774 -68.871155
37.857174 140.957077 -70.414406
24.583670 153.222610 -66.456665
113.967224 149.381195 -68.121254
111.910538 143.853195 -68.448860
-73.675087 158.430008 -69.608170
-45.759323 157.249863 -69.699524
-71.662170 159.047333 -67.126480
21.330015 161.985184 -69.791779
112.854301 162.312134 -67.867538
-53.460037 160.194992 -68.862991
-69.687523 159.146088 -67.536804
-39.035812 164.853241 -71.918823
35.066875 161.164520 -67.196251
111.336365 163.826187 -68.830177
115.204330 167.624573 -68.851410
-68.274010 162.632568 -67.424339
-70.251633 173.076706 -69.053192
21.112570 172.739716 -70.566170
-58.508907 174.766235 -69.485657
-31.964317 171.850388 -72.317902
7.211267 172.956009 -67.901291
111.595909 173.477005 -69.593285
5.379336 174.847916 -68.638138
-34.650581 175.878525 -69.338470
0.185544 176.073746 -67.444145
107.587051 181.811142 -67.765663
-40.955654 180.950485 -65.090034
28.645569 179.668854 -66.102936
111.678825 181.677353 -67.442749
-54.801628 187.976349 -67.589050
-28.275419 181.791000 -69.825348
103.225105 183.672989 -69.211815
30.752577 182.363846 -69.628693
114.047607 184.793930 -68.121414
-37.246433 184.337189 -69.550583
106.753555 190.523224 -67.530624
-58.550900 187.855072 -68.442070
-24.418852 188.665573 -69.647285
-143.727890 191.975281 -68.101494
-54.184334 194.017105 -68.409370
-146.381500 195.602127 -68.037491
-32.191265 197.151138 -67.912506
22.857567 196.618042 -68.292610
109.346962 192.285889 -66.501900
-29.897112 198.453323 -69.606888
12.833063 201.254013 -69.753967
18.646095 209.810638 -68.579887
-147.132690 202.845474 -67.713661
102.932716 206.022339 -69.760452
-17.978243 203.908447 -66.105453
104.088600 200.590027 -66.445862
15.368337 198.453278 -67.684311
-131.026047 211.291534 -67.824577
-141.677277 209.407059 -68.378403
96.447433 210.235458 -65.722549
-11.512005 210.825653 -69.282791
-14.821652 209.163147 -70.453705
10.882650 215.723862 -69.234001
-148.444458 215.883331 -66.693123
-146.058899 216.221359 -69.862030
99.740196 213.891479 -70.431091
-76.494637 219.688492 -69.005135
-36.629547 212.700195 -67.298088
18.731987 220.449280 -68.378563
-24.753080 220.864761 -69.991310
-78.435173 222.191528 -67.364639
92.252510 219.281662 -67.990807
-81.816299 223.642303 -66.498589
-146.356750 228.310913 -69.691025
-78.660934 225.259079 -69.534637
-15.315173 223.001236 -68.012497
-20.948883 227.230530 -68.632523
20.850212 221.131058 -66.971252
-5.408966 224.053787 -68.400185
-84.912460 228.821198 -67.577644
92.038254 223.776215 -68.361046
-94.762428 225.418167 -69.545578
-147.711716 233.516586 -72.247215
-16.089558 230.510849 -68.684731
16.559944 226.154907 -68.097458
-102.184456 229.677887 -67.333862
8.686985 230.319458 -69.650764
-24.246767 226.527985 -70.128471
83.688423 233.698441 -69.271935
-145.938339 231.256668 -68.822952
6.160706 235.785019 -66.283295
-7.713608 231.878830 -69.721092
17.465683 230.803680 -65.936531
84.420517 233.536423 -67.318466
-12.229185 236.924881 -68.696053
-129.710022 236.823639 -69.778725
-9.781260 234.978409 -70.887703
17.330889 244.096619 -69.098000
-125.047226 235.681702 -68.328651
-148.925812 238.311966 -68.044823
-140.215347 238.770660 -68.435036
-132.986908 239.926453 -67.914581
-13.300467 236.954498 -68.457344
72.134460 239.735703 -68.088776
-140.978104 243.345428 -68.405876
73.872589 238.537796 -68.453949
-17.355600 236.622742 -70.343307
-141.551987 241.513245 -72.919022
78.383949 240.124756 -69.675117
11.451786 246.021515 -70.901405
-142.838898 245.074036 -70.073219
-149.772781 245.893326 -68.286644
14.833849 243.516724 -65.995499
-2.342414 246.736664 -68.748917
-23.875473 250.173004 -67.723907
-2.641279 249.893829 -67.082283
-161.091888 247.211945 -68.942131
11.139376 255.083420 -69.149979
-163.745178 245.237793 -67.477997
-14.892366 245.752792 -68.734764
67.141998 249.178177 -69.234406
-10.283181 250.763367 -68.132332
-24.728750 249.552216 -67.778450
-25.724848 251.671829 -67.122383
-15.188681 253.545517 -66.785385
-144.713165 245.433060 -67.541557
9.256680 253.726868 -69.801247
65.127007 251.382492 -69.394020
13.022127 254.523270 -68.689346
-161.405090 249.659180 -67.492287
-47.900135 254.082214 -69.171318
4.177863 257.306885 -73.348274
17.370010 257.495300 -66.210266
-55.780899 258.264191 -67.618286
-3.460129 254.314560 -67.564346
21.564325 258.426880 -69.856743
-164.857285 257.322968 -68.125900
-70.953201 259.314667 -70.245743
-50.910763 257.188782 -67.658714
-78.701286 258.551758 -68.160103
-160.076538 255.900238 -67.552040
-150.966873 261.803406 -68.585213
-58.949932 260.990051 -67.461777
-68.477089 261.280701 -70.743637
-153.503845 263.227844 -67.420731
-151.772095 261.333801 -67.100044
-77.310005 262.428802 -68.366943
-92.554901 262.607269 -66.476776
-164.566681 260.653717 -68.611488
-155.061157 265.390411 -67.849335
-133.870010 266.021149 -66.914490
-81.978493 263.323212 -69.966866
-162.799423 262.794067 -66.713020
-143.660965 266.431519 -70.121170
-88.152924 264.946198 -68.055168
-96.961258 268.748810 -64.573067
-147.991852 267.800598 -67.687920
-95.417297 268.832428 -67.785545
-149.975662 265.868439 -67.662994
-99.701523 266.478333 -68.696297
-165.371796 268.095673 -69.883156
-160.783844 268.594360 -70.153549
-123.189697 266.939087 -67.376091
-149.351700 268.899963 -69.516098
-112.217003 270.243317 -67.512886
-14.374818 271.282013 -70.674919
-142.471039 271.588928 -67.584740
-124.494919 270.727295 -67.924797
-155.365646 272.884644 -67.838051
21.998106 278.313995 -69.073410
-148.641037 289.457611 -68.060440
-167.298370 287.925995 -67.521385
-6.009436 290.310974 -71.893578
-147.447098 291.325073 -69.888336
-6.913174 290.793579 -67.746307
14.086293 295.506348 -67.986130
-134.545639 296.656860 -67.982315
-70.530861 294.570801 -69.736023
-35.346752 294.723236 -68.213638
-113.961960 297.627228 -66.967880
-91.429893 301.785309 -68.656723
-90.572807 302.648743 -67.797493
-47.799934 299.931824 -70.407578
-115.171867 301.517700 -66.944237
-109.374725 301.025482 -68.705826
-31.624943 301.334412 -69.286209
-113.822044 300.781250 -68.126968
-124.889877 301.269897 -68.544907
-143.580078 303.059753 -69.370758
8.574548 301.034851 -66.859459
14.914068 303.807800 -69.844292
-156.409241 304.126526 -68.608330
-154.398041 311.751129 -69.320465
-144.684540 321.154846 -69.752571
-149.955383 320.555420 -66.070168
-151.791504 322.629395 -71.671295
29.122362 25.952509 -66.731476
25.742872 28.265596 -66.077049
23.274601 31.644978 -66.790680
28.850271 49.608826 -67.041168
-54.723564 61.025143 -63.678604
-64.689720 60.519115 -65.532837
-38.159542 62.477352 -66.375282
-80.581909 69.026505 -67.965897
82.891647 84.663277 -70.200432
-18.434593 81.973206 -67.373009
90.075714 80.034859 -69.158661
97.597244 89.226906 -66.667839
-92.419151 89.798622 -66.574295
72.630165 88.701920 -65.716125
-41.410866 94.180618 -70.541100
101.224266 93.981422 -65.873108
-53.132381 99.555588 -69.008812
52.848251 99.485420 -66.953827
73.130241 100.060837 -68.368904
58.286877 106.203331 -69.055061
51.934460 109.956253 -67.947968
71.877205 104.747650 -69.190239
46.973274 109.373634 -65.555428
103.949944 110.214790 -67.793945
109.609604 115.343361 -68.573715
81.903526 111.884659 -64.247314
89.708168 112.182556 -67.905792
102.555786 108.801590 -66.586678
108.523651 111.974030 -63.785954
40.207699 115.973343 -70.726387
110.703819 129.546295 -66.537781
114.100883 129.048050 -68.607918
33.900063 130.629059 -67.334541
43.974468 129.499680 -68.268906
113.296387 137.740387 -66.428177
39.961792 136.306931 -69.137390
114.188484 139.312347 -66.042641
110.954445 133.744400 -66.861572
26.011061 147.720383 -65.780678
-48.242039 144.234650 -68.889915
-52.984158 147.443741 -67.425430
113.126617 143.624832 -66.166580
-71.885445 152.434525 -69.101753
-74.263885 149.687454 -67.685219
-56.968494 152.592697 -69.073929
34.576633 150.452118 -67.011055
110.327667 155.222473 -66.550072
-65.959496 155.656235 -67.542145
-44.715244 154.506363 -65.240227
37.113308 159.087387 -70.008331
-65.673012 159.205887 -69.000885
114.291656 153.802475 -65.008415
112.487976 166.669067 -67.656601
115.205368 159.760315 -68.576218
-37.365105 164.655991 -67.904854
-65.073624 170.471207 -68.145317
-70.707382 165.122375 -65.088394
31.856087 160.523392 -66.775002
-0.588889 172.809006 -69.353432
108.642265 168.516296 -67.943100
111.179245 164.473190 -65.512970
113.163155 166.913834 -66.586739
-64.146965 171.960495 -67.869553
-45.542652 171.464493 -68.985672
2.300211 176.497055 -67.867371
-25.097256 184.128265 -66.209084
107.152565 174.610977 -67.651482
-35.958244 170.522293 -66.833626
111.233551 179.061447 -67.982292
-40.802002 182.128677 -67.336731
110.895966 176.823380 -68.012169
-148.564865 191.748001 -66.626839
-28.894178 185.221115 -66.138718
-20.477057 191.213333 -65.839722
27.846277 186.548248 -69.802231
16.687160 190.755890 -67.933609
25.734854 192.674789 -68.097122
107.363739 193.804611 -68.589584
-150.825333 197.118271 -66.043747
-20.173824 198.271606 -68.749542
104.939522 188.267197 -66.590645
104.157173 200.659927 -66.818573
106.716850 189.893173 -67.425247
97.493294 204.784943 -69.922081
-152.664780 205.157822 -73.062622
100.470917 213.433258 -70.041214
-29.063515 204.882370 -66.452614
99.498451 206.893509 -66.326958
-125.128448 205.841232 -67.847549
-29.221031 202.120453 -70.262474
-140.559891 209.718506 -67.311676
93.755814 209.483170 -67.403427
9.762799 208.976425 -68.268837
23.771793 204.629028 -68.799561
-147.236588 210.097733 -66.929985
-139.276489 213.123611 -66.124313
-11.874236 214.408005 -67.944542
-124.257980 211.901688 -70.239052
-143.876297 212.951645 -70.795303
8.245055 210.247620 -66.689278
-22.350328 213.068100 -68.408249
20.063494 214.906769 -67.663895
8.254022 219.685226 -67.762352
89.090889 219.258331 -68.226288
-20.744305 221.519760 -64.280457
93.633087 219.266632 -66.874573
97.987251 216.786652 -67.345779
-147.405380 226.910995 -65.776344
96.197876 220.971832 -66.036682
6.885529 219.094086 -66.797104
5.495375 222.675812 -68.204292
-33.856865 219.066940 -66.794930
-89.741341 223.606430 -65.719879
-29.539993 222.752991 -67.217445
85.039406 225.358902 -68.397758
86.568954 228.378555 -67.826637
-33.902416 223.859344 -65.875908
-82.441780 229.002167 -64.479492
-2.230170 226.711960 -68.193283
88.408188 226.180481 -67.629425
-149.112396 232.104919 -68.130341
-166.020279 223.417938 -67.655075
-158.592331 231.971954 -66.683624
-19.904854 237.145416 -68.017708
-151.843460 233.458740 -68.209488
-7.013644 236.150803 -71.090096
7.750765 227.864029 -66.420471
-162.520569 233.302048 -69.043457
-161.848160 235.821106 -67.324554
79.886108 239.934235 -67.974648
4.251616 238.329681 -66.742325
-152.359894 234.518372 -67.643318
-141.786026 234.523071 -67.343796
-19.786406 234.604340 -68.883186
3.276979 234.375168 -69.974075
82.190941 232.915894 -67.365196
-160.055344 238.516708 -67.888123
-146.331177 237.925049 -66.529732
-123.970047 239.796387 -66.090843
81.311508 238.508057 -68.278587
-114.705116 239.847748 -65.505791
-148.097580 239.035080 -68.390312
-150.184799 239.991653 -68.663139
-146.804169 239.130310 -67.485237
-153.961960 239.364975 -65.747284
-165.219788 242.283875 -65.874115
-135.240585 243.760071 -66.334938
-133.621368 242.694138 -67.555466
-154.639008 240.663986 -66.966835
-144.662384 243.889725 -65.800194
-151.806549 244.201370 -65.774673
73.694611 236.793091 -66.964569
68.473152 248.072037 -65.582253
-159.564102 246.701218 -66.625214
70.389236 243.406845 -66.905388
-18.661364 246.534729 -67.505867
10.127244 246.430466 -67.375893
9.912008 245.598343 -69.450844
-148.335876 254.246185 -67.116310
14.493312 251.475906 -67.244560
65.233711 246.792709 -68.121758
13.223336 246.584091 -66.669617
6.644080 252.633041 -69.399269
-6.126387 250.872238 -66.089272
-18.760227 254.053925 -68.823586
0.713794 253.145126 -68.636940
3.227955 252.307236 -67.430870
57.837608 251.778625 -68.150673
-56.747395 254.922638 -67.691139
19.129044 257.292847 -67.441078
-59.740585 254.638580 -67.718536
-7.514796 258.102905 -67.153038
-63.846767 260.952911 -65.675194
-85.125778 261.358337 -70.462303
-81.741402 260.301880 -68.740395
-13.370829 261.856689 -66.882820
-123.798370 267.255707 -68.626205
-13.986119 265.387299 -66.580444
-118.436325 266.649658 -67.527802
-115.152710 268.266724 -65.976303
-102.797035 268.566833 -68.950195
-143.415741 272.683014 -67.059738
-145.287643 275.942169 -66.199760
-167.008041 274.533691 -66.230354
16.167065 290.230316 -69.292145
-56.026169 294.938995 -68.491623
-64.964279 295.090424 -67.639381
-42.382359 295.425354 -69.048988
-28.162647 294.006378 -69.169823
-94.889641 299.430756 -67.537689
-29.195271 297.650085 -66.286232
-3.068214 296.345917 -66.206039
-165.965088 299.053314 -67.898918
-12.372760 297.908661 -68.879272
8.367168 298.645905 -66.502129
15.205050 299.588165 -66.356697
-55.715664 301.273804 -67.961182
-28.858063 298.982666 -68.341087
15.237229 300.961121 -65.967255
-68.463516 302.148499 -68.264404
-36.680676 300.606262 -67.069839
-16.527155 301.090271 -66.468712
14.561683 300.530212 -68.076355
-11.223508 300.740234 -68.685020
4.891810 302.138641 -66.066772
13.857506 302.952637 -67.528709
-133.953125 302.957428 -68.035057
-142.617783 311.385468 -69.176392
-147.544205 321.917572 -70.400055
40.455090 22.524107 -62.726906
31.292984 20.762333 -65.681602
39.467770 25.534595 -65.912491
21.421005 30.293440 -65.785194
43.986729 32.621941 -65.940941
23.964262 31.202419 -65.365402
24.716167 39.374573 -67.936043
22.795141 44.798592 -67.465782
43.437191 41.670830 -64.554604
27.575947 45.798038 -66.080307
41.766407 43.498974 -66.104263
32.971249 46.896484 -65.062157
34.854008 48.062721 -66.344894
32.481625 50.324512 -65.633286
42.880276 51.190090 -65.916473
35.761944 52.500610 -64.435974
-37.923965 61.907154 -62.676983
-29.872301 58.872139 -62.402184
-87.698509 66.327179 -62.829231
-86.536568 74.239822 -67.740494
80.522636 78.520729 -66.919754
84.077377 81.303917 -67.373085
-16.105333 82.704605 -66.340149
-86.643280 81.076859 -68.715408
-24.278910 87.686127 -66.542366
-49.148979 96.975548 -68.332054
65.401283 95.383034 -63.988438
55.008942 101.504417 -65.003738
99.094131 99.512947 -66.252762
72.579330 105.389687 -67.058777
-64.170532 103.139763 -69.714127
-64.924530 106.100967 -66.504288
45.541538 106.686035 -67.677185
75.999413 111.544273 -68.545654
52.958302 112.931229 -69.717346
101.613312 107.547516 -67.481995
-92.882965 116.807343 -66.343185
38.823029 121.214409 -69.850563
107.384949 117.155396 -65.400650
47.471298 120.284218 -64.807129
103.924889 116.967461 -65.167770
-84.916763 123.104973 -66.864952
36.754704 122.302139 -66.858925
108.091873 127.137825 -67.587395
104.175629 125.151207 -65.520515
108.331978 124.426315 -67.698067
110.295624 125.051918 -68.391136
36.744133 123.502213 -66.304390
32.772930 128.927322 -69.182800
44.402458 124.831902 -66.217216
110.188400 132.908371 -66.498230
40.003437 134.849457 -65.623901
109.692825 141.164871 -67.401962
113.942650 139.469666 -65.409973
33.724239 132.225357 -65.915977
-76.635651 137.475555 -66.909920
117.075905 144.862976 -68.303993
-57.255939 148.115540 -69.060875
36.132828 145.544403 -67.655609
-72.705925 148.465103 -66.977547
29.769342 144.250076 -65.829498
-75.265167 151.253006 -67.468811
-43.867599 154.062698 -69.094032
-71.621735 146.520203 -67.058350
111.720772 147.810944 -64.089333
115.091438 150.943298 -66.745155
119.810555 154.545883 -67.579506
-71.738052 154.355621 -66.116127
10.032869 160.399826 -64.998703
-55.101765 162.372330 -66.433350
-47.667706 164.776672 -68.117393
109.101616 168.730759 -65.538116
-40.868523 160.839691 -67.985382
12.695079 167.993515 -65.872963
22.781477 168.454132 -66.277420
114.953125 173.359741 -67.838982
30.715042 171.788345 -65.391968
-1.149046 171.328583 -68.822182
32.036263 171.983688 -66.919937
-67.916328 169.241745 -63.321465
-63.132179 168.840134 -65.449036
-66.686523 173.627609 -66.561943
114.564201 170.659653 -65.416161
-44.481121 172.996689 -65.416054
19.531811 177.816635 -68.951614
-63.094410 180.903885 -68.190140
-59.788380 182.016174 -67.993835
-39.710888 170.309113 -67.232010
-33.159477 178.750687 -63.916508
114.152092 181.815048 -65.207352
-35.362804 185.463394 -66.964874
16.572876 182.593384 -67.028877
109.937103 194.274063 -69.444351
-149.370010 186.216080 -68.493492
-143.841949 185.267975 -67.759018
-151.024384 187.273224 -66.073738
-142.849350 190.433029 -64.886932
-28.581409 194.326324 -65.942261
-23.031580 195.355026 -66.047035
23.362585 199.414841 -65.305260
-141.658554 196.874329 -66.434288
-144.944305 196.313950 -66.089447
-20.449951 197.509247 -62.191528
14.444541 192.087372 -69.235092
-144.685516 202.240585 -67.357635
-32.497581 194.012253 -69.579506
101.621567 198.394394 -67.746689
108.191414 201.073532 -66.558502
22.672960 201.719238 -65.875290
-18.613436 198.855728 -69.260933
-25.247789 205.509888 -69.111900
-150.904312 206.075912 -64.942276
-132.432114 207.463028 -66.614075
-123.249496 205.078491 -65.873421
-122.385399 207.643005 -66.869354
-20.838341 206.640182 -65.018349
11.420634 202.749924 -67.959572
94.894806 210.249725 -64.764458
-146.821671 206.514603 -66.360481
-145.739655 209.847107 -65.230019
-147.799072 208.452148 -63.628925
-154.698425 209.719925 -64.386467
-26.569592 209.798492 -66.961372
-13.562869 205.106812 -70.510063
-146.476486 208.935318 -63.825874
-16.411982 207.731888 -67.723923
-162.249146 208.863297 -66.663811
-132.327484 209.399887 -66.846619
15.541409 217.920502 -64.977928
-162.755676 213.248672 -65.824600
-144.355042 214.696747 -67.317261
11.299859 210.383667 -67.327240
-153.864960 214.253632 -67.341232
-22.644281 210.490372 -67.708824
103.276009 209.593857 -66.531639
-154.534454 224.944656 -66.447090
-163.487167 221.015518 -66.979782
-78.406731 221.906494 -65.496376
90.200752 220.036758 -66.400978
-3.199493 224.747086 -65.902870
-151.530609 222.072662 -66.342529
-88.129776 225.048050 -63.949211
-6.913958 220.779388 -67.046021
15.577905 232.326828 -66.088219
-144.746658 228.441849 -67.587479
-2.303824 230.295364 -67.779518
-19.270620 230.465668 -63.891930
-15.837189 228.678711 -64.013771
88.382622 225.282104 -67.106720
-21.504019 226.725464 -64.700485
-28.185724 226.515350 -66.739990
-105.230011 232.439270 -66.372307
-14.716199 233.257950 -66.099609
90.379585 228.804337 -65.467186
81.909348 228.362915 -66.147614
6.467616 231.812698 -68.859024
-10.781146 235.456528 -66.932838
78.887459 232.289688 -70.350502
-124.928261 234.010773 -66.471840
-22.994598 232.004227 -67.035919
-100.137085 234.472321 -65.269554
-105.430580 237.126602 -67.581139
-134.066345 237.625305 -66.628601
81.078773 233.950653 -66.537735
-124.444801 237.363983 -67.222504
4.595663 238.643906 -66.765320
78.410042 233.693375 -66.335480
-14.105785 237.119171 -67.345314
-10.461327 240.433228 -67.520851
-4.595187 240.677750 -66.701317
8.506079 237.871490 -67.092026
85.379318 234.751205 -67.066528
13.176552 241.980225 -66.687134
3.617254 239.852173 -68.020287
-7.135935 238.327866 -67.774414
-5.933611 243.500031 -65.668877
16.855726 241.728958 -65.624367
-10.694839 244.262695 -65.651703
72.822433 247.193405 -66.798866
-7.680568 246.283127 -64.948036
20.302597 243.226868 -67.603050
-164.158813 252.141525 -65.669823
-4.442626 250.221985 -66.455925
-9.172738 251.499985 -65.611809
-167.127853 263.884186 -65.547379
-9.612379 254.587097 -67.346252
18.126106 255.219620 -67.332771
-146.405289 261.727600 -68.854027
-67.738945 257.985107 -65.582420
-59.159512 257.295959 -65.576874
54.662971 256.925812 -66.449570
-76.682716 257.262360 -66.879356
17.541906 257.581482 -67.495155
-74.282860 261.652008 -66.147499
-15.486128 259.604980 -67.287460
-146.624008 263.620361 -67.601662
49.104950 258.461823 -65.907822
-79.698402 261.931213 -64.628014
-99.294235 264.914612 -66.452431
-96.482689 264.065887 -69.807556
-119.094490 266.755615 -67.641457
-106.049576 266.894653 -66.373741
-106.693085 269.477631 -66.408218
21.219475 269.614441 -67.735275
-127.535515 275.368622 -64.974701
-9.801274 286.561218 -68.475174
-145.561890 291.950226 -67.925537
-168.364700 293.126648 -66.486794
-125.472275 296.645996 -67.271034
-114.432106 294.482208 -66.680748
-76.397995 297.340698 -63.726601
-56.190918 297.714661 -64.003998
-43.174698 296.468750 -66.204803
-13.926475 298.246246 -66.062447
-12.441296 298.456818 -65.479668
-36.345615 299.088104 -66.436195
-33.916309 298.251801 -65.875076
-18.682182 300.254059 -64.942673
-70.307350 301.370789 -67.111610
-53.740395 301.954041 -65.279533
-14.282496 300.875458 -64.295235
-13.593557 300.934357 -66.660965
-3.859814 300.909454 -65.650932
3.104886 302.543640 -64.665001
-88.482452 299.420868 -66.408966
-143.522446 301.012939 -65.182854
-117.275444 303.634155 -67.394554
-153.418732 308.841797 -69.166962
-154.392792 309.281158 -66.987595
-144.621201 310.892151 -67.369156
46.670742 30.825285 -66.515427
19.483879 33.551865 -65.472443
49.736664 36.162918 -66.366447
48.210190 43.346462 -67.111526
86.923225 77.154175 -64.017258
96.278252 83.459610 -65.222862
99.859734 90.205246 -64.210335
97.818520 93.994591 -66.038651
55.859188 97.623962 -66.155960
49.637207 102.848495 -66.917633
62.686600 100.993622 -64.219658
-64.349045 101.875923 -62.152954
70.607780 98.966461 -67.007050
102.887131 105.442268 -64.517006
74.760902 109.357780 -68.126640
95.604874 109.080086 -64.262512
-80.568939 110.827446 -66.781517
45.065407 112.324112 -66.147797
-85.049400 116.920807 -67.279015
50.723568 121.342453 -67.375832
41.015766 114.890404 -64.300743
105.403091 113.856094 -66.474365
39.326637 118.205544 -64.033752
40.226795 124.582695 -66.005180
42.932163 123.962494 -63.666134
106.665016 124.956116 -63.424419
-81.648750 130.260971 -65.032532
112.329109 134.355988 -66.097504
38.335945 131.414902 -63.338451
42.725334 129.070831 -65.026497
35.344177 131.482468 -65.758286
-55.970577 140.273392 -65.823769
30.839483 133.041046 -65.066322
-76.623871 146.558212 -67.422386
-57.092548 143.269806 -65.475380
-78.000717 143.399399 -64.501015
34.096657 137.772873 -64.972000
-57.628246 143.198395 -64.385078
36.771545 143.250610 -65.237366
-73.996368 149.127304 -65.356827
-58.175213 148.847397 -67.725258
29.307127 148.969131 -64.994652
110.429665 154.142960 -68.006889
117.323212 146.651657 -65.059784
32.447163 149.511429 -64.759163
-45.919754 152.094818 -64.005943
109.856392 163.552826 -65.183899
-73.434280 155.681122 -65.371902
-55.302422 151.098618 -66.461884
32.910999 160.307968 -67.521492
-73.640182 155.366699 -66.185944
-70.460045 159.093414 -66.922150
117.091919 158.778137 -64.293175
-64.037361 162.037338 -65.851501
-39.247437 162.188751 -65.107735
29.253174 159.761673 -63.003956
-74.950317 159.010452 -65.230606
11.227494 164.098755 -67.088226
32.916248 164.900131 -63.872734
29.084473 158.587830 -65.522537
10.202390 164.915344 -68.554695
-47.961124 163.529297 -64.265068
26.924885 162.453278 -64.529030
-45.476212 158.844238 -65.983498
7.055534 162.310837 -66.544800
22.068899 159.138245 -65.810600
-71.731552 164.616608 -67.312012
-44.981968 164.311661 -64.747772
-68.448914 168.422821 -63.722652
13.649372 170.394363 -62.782879
23.372328 158.371521 -65.526627
2.413855 171.585220 -64.668213
21.265089 165.492538 -65.141922
30.409023 173.416229 -66.446968
-46.791859 171.897385 -67.519196
-33.177036 170.759262 -65.765663
-38.284206 170.439331 -64.686417
29.179165 171.429382 -65.724289
-44.230953 176.795029 -65.958435
-41.277462 172.232452 -65.342033
20.823025 174.824799 -66.531570
-40.710506 182.805756 -65.556824
30.506100 181.165649 -64.422951
115.430977 175.694733 -64.304985
-32.003506 182.135315 -64.930664
106.810089 181.531143 -63.928730
-33.897583 186.827576 -63.974319
-37.000805 189.788208 -66.364647
18.369848 184.586456 -67.192024
104.209625 190.482452 -63.945179
-28.579882 193.790894 -64.999794
-32.451271 183.802048 -62.642742
-23.097258 195.821198 -66.192001
-147.554871 197.627472 -68.109627
15.085766 192.685547 -66.711044
106.818947 200.486954 -64.409203
-156.606049 204.121017 -65.340569
-25.973143 201.098801 -65.776199
-115.147858 205.571686 -64.747086
-132.570358 207.190155 -65.976807
-108.843330 210.098389 -64.261971
-110.876213 209.860214 -64.123734
-14.709128 207.298340 -64.078415
20.213610 206.691254 -66.940773
-17.623184 210.993271 -61.659172
-124.331360 213.635162 -64.788155
-23.068836 216.314163 -64.169464
-130.641006 212.841553 -67.858276
-12.314275 212.028229 -64.533829
-144.016632 214.304169 -65.346046
91.615585 217.845062 -64.881332
-164.880219 212.577560 -65.668907
-2.419663 223.317108 -67.773270
11.620994 220.000076 -62.917114
10.173878 226.261505 -63.308659
83.497360 227.789200 -65.054550
5.844390 223.773651 -64.125633
15.258138 223.727005 -65.517403
-15.026059 224.783920 -69.069855
-89.603493 226.039474 -65.043137
-98.512505 226.673187 -66.416039
-3.333730 230.706421 -64.459938
-167.017960 236.019226 -65.904366
12.969162 230.894669 -64.430458
-143.503265 232.995544 -65.967598
12.189637 235.105194 -64.199471
-133.573959 233.297531 -65.938087
-116.115982 236.251480 -65.672966
17.577234 232.852097 -62.825451
75.951584 236.176697 -65.018044
6.408399 233.858704 -63.650341
-112.737373 236.430603 -66.748077
76.093575 237.494934 -65.002731
80.748726 240.009888 -66.146629
-122.588913 241.269989 -65.992867
-115.996490 241.576584 -66.911552
-10.975025 240.826569 -65.168571
71.220329 238.276810 -67.014900
65.968361 244.980759 -65.098969
74.451057 241.903381 -64.775459
-133.105194 245.756042 -66.181648
71.066620 244.531754 -67.609985
66.333359 245.452316 -66.643799
-166.627213 238.173019 -67.082558
0.193352 249.711487 -67.983604
16.644598 251.931946 -65.322296
-4.657237 250.337372 -66.115303
14.224602 250.786804 -66.361504
66.526497 249.232880 -66.541084
11.156091 250.414902 -67.199669
-8.691701 252.594574 -62.244919
-0.469438 252.647614 -65.275154
65.824219 253.675476 -65.827293
6.219679 253.864853 -67.660126
-8.914313 251.711319 -65.982651
14.371787 255.301849 -66.610542
-166.394165 251.005539 -63.413528
60.092064 258.193909 -63.989803
52.534740 258.846466 -64.585709
56.316429 251.807892 -67.487640
-12.640205 259.518494 -65.524605
56.398888 256.189545 -67.533890
-72.996597 258.169861 -66.157913
51.935841 260.083862 -66.497231
-89.819717 262.879089 -67.311897
-126.317352 263.913757 -67.640900
-133.652191 263.159454 -63.524532
47.021015 264.188995 -65.270866
-136.377716 266.038849 -65.262856
-108.549149 265.012421 -69.021400
-112.666473 267.072723 -64.507263
-83.177994 263.433838 -66.498383
-111.867241 271.641998 -67.395813
-124.074928 273.352478 -65.430328
-144.690750 275.776123 -64.819374
-14.023254 271.204834 -66.412132
-169.425919 274.951385 -65.219276
-12.037807 281.433929 -67.624779
-158.887711 276.593597 -62.985859
-153.218369 283.915527 -63.654297
-168.406265 285.714661 -63.549599
-12.341523 285.334595 -63.993267
-133.463013 293.437439 -66.520691
-158.641571 296.750763 -64.279526
-144.348495 291.658539 -65.346687
-135.308792 294.463043 -68.358543
-8.376830 293.406952 -64.875275
-124.696136 293.563293 -69.354034
-141.492264 295.229248 -66.536179
-115.378029 295.611542 -65.033493
-76.399300 297.637695 -65.007133
-62.018101 295.551086 -65.329628
-5.198030 298.000793 -66.116394
-51.474514 299.436981 -66.085228
-59.383095 297.928864 -65.951286
-68.972336 300.532684 -64.331543
-86.545929 302.990814 -66.583778
-100.556526 299.820923 -62.059517
-160.941132 300.838898 -64.673920
-159.804184 300.615784 -65.909187
-125.888580 305.417206 -67.402512
-144.986496 304.734894 -66.366844
-156.198868 309.989532 -65.935181
-147.089630 324.504089 -65.985725
47.146748 28.514299 -63.817039
20.019814 36.239697 -68.616470
43.055191 44.938618 -65.382645
-17.554050 76.258247 -67.240036
81.841194 75.643921 -64.195511
85.858459 77.978195 -61.640018
76.719353 78.597054 -63.945370
75.562340 77.925339 -64.626518
93.903076 83.236778 -67.236191
-94.406738 81.238808 -65.254333
70.260918 86.645058 -66.595032
-36.101444 86.536156 -62.804897
99.968300 96.663765 -65.747536
61.981609 99.550484 -67.329308
108.005356 103.892410 -65.605682
105.652565 107.685890 -66.174469
71.230026 108.189323 -65.443741
-77.508453 108.983101 -67.028816
55.132130 114.125557 -66.587761
106.570923 115.014267 -65.377228
49.200893 121.292419 -68.596199
82.513039 113.011864 -64.979042
42.887520 117.764740 -66.931465
107.001465 111.919250 -63.586311
48.356720 117.427780 -63.862301
110.608368 121.566452 -66.317879
108.858002 124.398071 -64.555679
-78.168686 123.642616 -61.843086
-79.799942 126.183418 -64.789070
43.982025 129.542847 -65.986938
115.234505 127.914650 -63.543266
115.270561 132.893143 -62.991856
-82.576958 136.668610 -64.786346
108.184860 132.657196 -64.338303
-61.110134 142.626160 -65.926826
-86.757431 136.277802 -63.738407
-74.760109 138.004379 -63.617989
-57.134968 135.666916 -60.953804
33.153652 139.270905 -63.970837
41.030231 143.082916 -65.455307
-75.163544 146.105240 -65.174126
28.900421 141.511719 -63.959557
108.509995 147.911255 -65.596298
-41.270710 156.925507 -64.746498
25.934683 156.685043 -63.159954
113.845192 155.662689 -61.768814
35.354946 153.422852 -65.398201
111.649719 152.923920 -64.663879
-53.696552 158.061569 -65.846100
-67.025391 159.552902 -65.650200
-51.731079 164.569580 -66.256912
-42.338730 176.027161 -64.589134
5.040519 164.844223 -63.231064
111.326172 164.205154 -62.122658
109.479393 168.806564 -63.856075
9.193932 168.813507 -61.772408
4.132394 171.436951 -65.247032
15.954350 167.759506 -64.353310
23.734814 162.910828 -63.792870
113.095634 175.642502 -65.538567
107.489746 179.640121 -66.044296
25.184439 182.027512 -63.344627
26.956438 172.456772 -63.854904
114.501869 171.727997 -64.068886
-28.792353 183.823837 -63.799438
111.073746 179.130844 -63.500954
18.662363 184.060043 -63.248714
20.188299 175.052338 -65.366356
109.477798 184.914139 -63.640785
25.130535 180.398605 -64.425186
110.364120 191.177826 -63.737839
-38.367561 185.276810 -63.279423
27.395786 182.869476 -62.668888
107.732033 193.483826 -63.938530
24.394749 189.256226 -63.937313
-152.651535 194.425323 -63.027328
-29.754982 197.935059 -63.767609
25.568541 194.632462 -65.093239
-111.332298 202.190979 -64.486069
-110.287933 198.925156 -64.908020
22.061449 200.594254 -63.153156
13.125013 195.746994 -65.358147
-26.223400 200.261276 -65.673744
-29.506916 197.895401 -65.341049
-25.720650 195.233963 -65.182159
19.367414 189.075134 -65.544357
-151.493530 203.107697 -64.487358
-144.420517 205.824799 -65.703484
-140.890213 204.864853 -64.708672
-20.141691 201.143982 -62.805748
13.931993 208.870636 -64.286613
99.631577 205.042587 -65.200722
-114.393280 209.765396 -64.502220
20.057468 210.101181 -63.878689
-16.985876 205.928909 -63.833965
-18.255692 207.489761 -63.202168
99.055321 209.415421 -64.116257
9.144005 209.913605 -65.282188
-23.242929 205.215393 -63.474319
-121.914154 211.323914 -66.110832
-133.689072 211.665207 -63.629578
-111.896698 214.502441 -63.148094
-143.263809 213.563385 -65.017166
19.868052 207.217026 -64.805481
96.012054 215.856369 -65.181030
-166.443954 214.198517 -63.283024
100.660072 213.148224 -64.905762
-17.534214 218.280319 -64.570961
93.539284 223.094986 -67.370499
89.261688 225.947113 -63.092590
13.529258 220.563095 -63.739349
17.275646 220.280548 -65.059601
11.455688 218.862137 -64.261879
-9.978960 229.559525 -64.422279
-96.376015 227.252563 -63.903351
-7.147599 225.991348 -65.550117
91.427933 224.202240 -63.540497
-91.925323 230.036499 -65.614899
-102.488548 230.053299 -65.865990
-92.727058 229.756989 -65.557350
87.829567 231.290756 -65.533455
-134.243958 235.514755 -65.455650
-133.657623 237.233704 -61.022240
-117.834938 235.728958 -63.850338
-112.551918 235.527466 -62.699162
-133.373413 233.889816 -63.882229
-108.105087 236.417465 -68.578400
-113.710907 237.605591 -63.907764
-8.330460 235.052917 -63.714584
-18.189274 234.204971 -65.512672
-0.946647 241.895096 -64.738876
-9.606868 237.879074 -63.348022
15.383011 242.232025 -65.299149
-17.064859 237.949753 -64.892380
-164.523193 234.127716 -64.186462
-1.949948 241.832504 -63.231865
81.327461 239.224228 -64.635109
8.938203 245.118820 -64.263847
-7.811249 241.593933 -63.793747
-155.751907 245.534210 -62.084373
-139.598282 243.280411 -65.106552
66.992188 245.318924 -62.146225
-6.273966 244.738052 -64.761246
4.901699 243.844803 -64.537300
70.914230 246.409851 -64.310555
77.414772 244.718338 -65.858452
68.937347 248.328247 -66.163155
-1.539414 246.578888 -63.705589
56.405716 249.331818 -64.605286
-17.321564 248.691193 -64.633888
-16.138586 250.750122 -63.923603
9.175076 250.024948 -64.763885
66.329208 252.017639 -64.824318
61.384953 249.277222 -64.579163
52.126175 256.852264 -62.823277
61.791134 253.479614 -66.235199
-16.168758 259.073822 -63.656116
-83.318871 259.008972 -63.385601
-76.850792 262.179718 -62.385048
43.746140 259.642212 -64.863152
-144.007874 260.626282 -62.857445
38.539024 266.241852 -65.208366
-89.066727 261.749390 -64.689957
-154.229767 265.707214 -64.313347
-141.967224 265.264618 -63.882664
48.368759 262.269806 -65.605331
-125.122154 264.851715 -62.323093
-116.204193 266.258514 -63.501728
-94.237762 266.151978 -63.295006
-15.552775 264.279175 -66.718872
31.868961 269.065277 -64.851219
23.721878 270.703308 -65.434715
-156.455215 267.660828 -64.008095
-114.277084 272.893341 -65.615944
-13.647948 270.503632 -64.610779
-134.242126 274.843964 -64.312874
-12.910518 281.120941 -63.355373
-165.197540 285.996521 -63.873951
-9.396298 289.296021 -63.481331
-162.619705 298.795776 -63.189754
-160.581100 287.159454 -63.597595
-145.775330 295.254364 -63.528664
-168.312759 294.175690 -64.404228
15.629817 297.141571 -62.725674
-103.849426 296.517120 -66.229736
-87.143333 296.295715 -63.725174
-167.743744 294.762329 -63.590664
-90.223465 298.280701 -64.345634
-152.640579 297.941101 -65.940948
-73.834785 299.702362 -64.649467
-67.828773 299.083130 -64.370667
-81.415901 300.286438 -63.402889
-3.643433 299.477875 -60.636322
-84.495514 301.294708 -64.927544
-98.155334 301.496826 -64.418831
-115.185806 302.519775 -64.434166
-116.378922 303.399841 -63.653893
-135.981262 303.233948 -61.200737
-143.031204 310.466492 -67.863609
-144.321915 320.946533 -67.325035
24.684141 26.819296 -64.690765
30.860817 29.664555 -62.582233
29.585169 28.236874 -65.768120
44.809631 33.843151 -65.175980
25.169622 41.627300 -65.434906
-76.546562 58.819778 -61.987698
88.497353 74.325066 -62.557781
-13.917704 78.136337 -64.428719
100.952469 81.809479 -63.271717
96.831566 86.806503 -63.992672
70.817772 89.385292 -67.189873
68.010353 94.678291 -63.849003
-46.398449 92.823799 -64.901505
61.249630 93.231094 -63.672581
-96.958572 97.735062 -64.249535
-50.396217 97.260757 -63.241428
-55.423927 98.984947 -69.193283
97.798294 106.318703 -65.442108
57.587482 107.319412 -65.429977
63.109478 101.366882 -62.369274
-96.362358 105.839966 -62.078281
108.317474 105.384590 -62.705990
47.144093 106.907257 -63.403160
100.793732 107.598572 -63.027985
106.283081 115.905281 -63.484524
102.287636 115.230408 -63.416035
74.099358 113.726128 -63.180233
87.263573 115.533783 -64.301384
48.557438 120.925720 -65.975319
109.866661 116.408440 -63.783253
45.194489 117.959007 -63.700592
44.852703 111.072586 -61.619068
110.134933 122.387428 -64.374603
-78.989723 119.713875 -62.531693
47.309361 123.581863 -63.114822
36.679699 122.869530 -63.885014
105.598503 118.862198 -63.324593
42.798203 122.093765 -62.006668
-89.361809 126.699348 -62.792004
-96.600594 125.824608 -63.040871
107.867096 129.536148 -62.253212
-93.584244 127.502670 -66.516724
38.829582 132.411041 -62.741817
37.484783 127.706047 -62.830173
-79.990074 134.131592 -63.604542
30.274656 143.319794 -61.789547
109.154167 142.081116 -64.341858
-50.186283 144.487244 -63.457077
-88.776436 140.026505 -64.022934
36.706463 145.154922 -64.173698
-90.377571 145.029633 -62.287521
-90.182343 146.663330 -64.452942
-48.284908 146.876343 -66.153412
-71.159264 149.791550 -63.856327
-50.252506 146.213516 -62.737747
113.402832 148.698853 -62.119907
-75.041306 150.341949 -61.843063
35.481178 141.285355 -63.448402
-77.550240 148.646240 -62.498352
-76.087875 144.939178 -62.377712
-87.216812 146.659073 -63.145901
-53.717342 160.091995 -63.768070
31.495049 157.427094 -62.165085
29.934418 161.055008 -62.448139
18.588943 154.453506 -62.140244
113.507187 157.870926 -64.587677
-97.140076 164.611542 -65.409164
16.644440 160.186920 -64.560799
-71.101006 159.238129 -64.345566
23.239048 160.094788 -63.279514
-47.057487 164.700516 -62.605492
8.511729 160.881241 -61.724724
10.770209 166.839096 -63.539383
18.327015 173.220123 -64.013115
-46.045002 172.377655 -64.279724
-40.310123 163.481857 -61.521950
-45.487324 168.094971 -62.326454
-102.828735 179.949661 -62.792770
20.106224 182.275192 -61.746357
-36.648655 183.193390 -63.644806
14.532069 188.205765 -61.056217
-145.733597 183.510620 -65.862366
-33.782562 183.997849 -61.049816
-152.404739 186.575714 -62.047314
20.576244 191.648575 -63.665855
-31.861740 182.342606 -64.779327
-108.660446 191.051865 -64.762100
-106.166008 192.192245 -63.630516
-30.829830 192.878036 -61.993145
-20.738316 194.283783 -64.046249
15.438663 199.457367 -63.457859
19.148952 205.215759 -63.123684
15.955585 196.747101 -60.419022
-141.867035 196.890106 -64.084976
17.497530 201.643311 -62.848438
10.336053 207.079376 -64.327042
-140.156891 205.874985 -62.150303
-117.191093 206.772903 -64.043259
15.167448 207.715881 -62.247456
-112.624878 204.727951 -64.766495
-108.257065 201.528534 -64.106651
-163.000198 208.625122 -65.182838
-21.396826 211.448730 -65.671074
16.084671 211.498413 -61.726585
-139.229813 211.636719 -61.834419
-133.326157 215.878372 -63.235332
-18.114485 216.383682 -62.594631
-11.395061 213.583191 -63.283253
-15.555805 217.425415 -63.613457
-144.610916 217.016968 -64.679672
-17.113359 219.257645 -65.118828
-12.342342 222.239578 -62.178940
16.460911 219.962234 -62.794926
-11.261127 219.812317 -63.252750
10.959277 221.738129 -61.013115
-8.439203 226.448807 -64.205658
-16.477499 221.887939 -64.600609
12.905890 232.739197 -63.329655
-1.663587 230.024597 -64.660706
11.930537 232.107422 -62.361069
-4.874622 234.167435 -64.132721
-157.161865 232.016113 -63.246922
82.667549 231.263397 -64.017937
-134.357849 233.465378 -63.085545
-134.351868 234.581284 -63.123112
-8.576993 236.372528 -63.616013
12.288741 242.557816 -64.612244
-153.177277 234.675797 -62.474449
85.769020 230.715698 -62.131123
-4.592467 234.379608 -63.385174
1.662482 236.021652 -64.544525
73.341476 237.522110 -63.542023
2.610301 242.555710 -64.067719
-16.523371 240.517807 -63.811806
-123.286278 245.436172 -66.050705
-3.378114 246.170349 -63.504719
1.402531 243.945999 -63.354778
67.022865 247.658279 -64.358856
-159.662460 248.899719 -62.614067
-10.379176 254.624710 -64.098923
-166.668610 248.379395 -64.238533
8.894459 253.635284 -64.823189
-166.164291 248.455704 -62.595802
-159.517227 253.478958 -62.031498
55.324276 258.254242 -64.334320
64.138847 253.745987 -62.342361
56.356525 252.962387 -62.958561
51.634979 258.406616 -64.697723
-159.230392 255.360016 -62.548500
-154.941376 260.363861 -64.025879
-14.663976 258.493591 -62.802143
-152.785248 255.914169 -62.942905
21.693151 263.166382 -66.209473
-166.602692 260.354340 -63.491943
-166.776398 254.323532 -60.697311
-81.204025 261.354553 -62.516716
-168.753448 273.099945 -64.180565
-85.673004 266.359680 -63.633488
40.303764 261.609772 -61.454018
23.781609 265.369781 -66.474472
-158.790985 269.081635 -62.016327
-100.729767 269.466400 -61.168156
38.919136 267.825195 -63.872204
-101.248390 269.456635 -64.240837
-153.541321 271.308502 -59.434940
-106.686050 269.689209 -61.557922
-164.390411 269.005646 -63.024815
-112.895882 271.983551 -64.511368
-153.232391 275.845093 -64.433739
-157.133362 273.801544 -64.876945
-166.554581 273.686951 -64.578079
-161.093201 272.929962 -62.702484
-165.437256 277.418427 -62.036942
-162.031662 276.483093 -61.399258
24.532343 274.495972 -64.451149
-150.974716 275.727142 -62.648937
-147.474991 294.049561 -62.146313
19.506041 288.453064 -67.431519
-9.461257 284.761566 -62.669003
-126.343124 293.835938 -65.543213
-136.443512 296.305359 -67.076195
-136.318741 296.524994 -62.871620
-126.307327 295.293121 -62.893444
-116.122696 297.283112 -62.927433
-107.316170 297.291077 -63.806061
11.987022 299.983124 -63.567612
-87.327652 297.235931 -62.831459
-148.223434 302.042145 -64.482292
-100.066223 299.383789 -61.990055
-126.025093 301.032776 -62.109653
10.128378 298.988770 -67.472382
-114.071274 302.451050 -64.110008
1.136701 300.910858 -63.856804
-142.816895 300.623138 -63.999786
-154.611313 308.459534 -65.235229
-158.768860 319.136047 -64.583649
-153.583618 321.872681 -64.895157
50.023563 34.549686 -65.480766
20.954296 42.450790 -64.647903
34.455063 47.143772 -64.990540
-48.971176 59.013584 -63.123707
-14.286932 71.137779 -62.442688
93.943336 81.205177 -66.431717
68.530426 79.547935 -62.115559
-21.373014 84.388580 -64.876534
-93.875626 92.399620 -64.471359
-40.531254 88.803284 -64.126305
65.678070 92.237488 -62.904972
57.867249 96.176048 -65.826630
56.828911 97.170021 -63.437046
-57.178421 97.593910 -63.497505
66.932457 98.770836 -62.061844
45.130486 106.475464 -65.681732
67.359459 102.658691 -64.301445
-63.990246 105.560616 -61.853863
50.734936 105.831192 -62.695568
45.289474 108.340759 -63.690826
103.795219 106.477325 -64.276093
-68.852463 109.257469 -65.619423
109.831757 111.390862 -63.610291
-79.247551 107.838303 -62.031963
56.132252 113.920914 -64.846413
48.764099 110.445602 -61.640697
94.329018 111.634155 -64.584213
87.113579 119.724747 -57.573483
53.857704 113.742310 -63.211975
-73.121162 117.460320 -63.806232
-76.207298 120.663063 -62.786350
-80.789040 129.077682 -65.114929
-92.613457 128.058167 -67.266205
105.966782 124.665886 -62.817955
-85.382721 129.495499 -62.241138
-78.895973 129.872147 -61.446190
110.902893 125.389275 -61.358574
-63.603584 128.306183 -58.867935
113.844307 141.119156 -64.246223
109.648888 139.294525 -62.723663
111.250404 130.732040 -62.200768
-93.043472 146.822083 -62.184509
-50.343185 150.309814 -61.229980
-75.798820 155.669403 -64.177742
-68.843094 159.772827 -62.145294
-72.737274 154.516510 -61.375710
-54.461906 154.401489 -61.030247
-47.966530 159.483734 -62.358299
20.565292 154.541656 -63.602726
-94.470474 158.434738 -61.118160
-43.909031 158.050125 -63.853527
-53.939312 159.886337 -62.228260
-42.317268 165.557404 -60.959171
28.646175 172.167175 -64.691612
-48.205006 161.554611 -61.677296
-96.759491 159.771759 -63.134026
-41.829433 169.471741 -62.092934
26.248377 163.549667 -61.334488
-101.469193 172.225937 -63.198292
22.409924 167.375259 -62.341560
-105.737091 181.066956 -60.797779
-100.042465 173.057404 -61.170155
22.757360 174.656921 -59.923466
25.852985 177.962448 -61.140835
-105.245369 183.921402 -63.681873
-142.148804 185.722168 -63.102318
-22.929249 196.871933 -61.993259
-25.007740 193.356659 -61.293282
-112.625229 197.673370 -61.904720
-142.668320 198.373322 -60.285892
-105.561218 191.260941 -63.657097
-153.337341 204.567337 -64.276955
-130.242065 203.745529 -64.563927
-134.601624 205.399841 -62.385448
-20.634262 202.579086 -60.039150
-121.343918 204.136551 -62.953037
-113.943977 205.703110 -61.081745
-21.737232 205.793839 -63.578968
-154.074875 208.618835 -60.636890
-132.724182 216.570862 -65.071411
-124.180267 214.824356 -61.210995
16.759552 212.792526 -61.056759
-160.815628 215.029099 -61.403122
9.627978 221.871857 -64.499733
13.764672 223.585495 -64.542465
-18.897024 217.310593 -61.897057
-5.141373 224.607727 -63.202812
-166.290756 220.450455 -62.468987
-158.524277 224.971115 -61.659302
-96.978271 227.462906 -63.407516
-100.882484 235.440369 -61.826405
-159.752808 231.272995 -60.783489
-103.811134 230.410370 -62.750080
-13.936770 227.915176 -62.948906
-125.277885 235.545395 -62.653652
-141.838989 234.696213 -64.317368
-4.504539 233.423401 -63.369392
