-39.997589111328 -78.489883422852 -276.155609130859 10.676934242249
-117.007667541504 -62.654258728027 -264.069000244141 3.499330282211
-95.326019287109 -68.851318359375 -270.392059326172 11.473881721497
-98.772750854492 -70.957252502441 -271.323455810547 11.824578285217
-55.587516784668 -77.018623352051 -278.187103271484 8.764379501343
-119.309356689453 -70.480659484863 -264.601440429688 2.518760442734
-112.880149841309 -66.516105651855 -269.447357177734 7.115923881531
-38.039001464844 -77.178009033203 -283.377990722656 3.223762512207
-116.609100341797 -67.766998291016 -271.812133789063 8.038675308228
-132.827941894531 -63.684345245361 -264.755676269531 2.940707683563
-146.839218139648 -65.216911315918 -267.294647216797 1.875373482704
1.664247035980 -81.487693786621 -291.264587402344 4.256945133209
4.864062786102 -88.411048889160 -289.175842285156 10.995240211487
-158.503860473633 -62.404659271240 -264.393310546875 4.534581184387
-160.323242187500 -65.926261901855 -272.565399169922 3.866529703140
-148.252243041992 -65.157806396484 -279.392395019531 2.323822498322
-154.789489746094 -64.816085815430 -280.323425292969 3.565692901611
-153.296310424805 -70.563537597656 -280.068176269531 0.734156191349
75.517700195313 -38.372852325439 -22.621856689453 29.194406509399
63.313907623291 -35.857799530029 -27.608804702759 20.665214538574
68.222053527832 -36.607276916504 -29.014986038208 23.838323593140
68.844444274902 -36.265617370605 -46.163749694824 14.016275405884
-19.215478897095 -25.823522567749 -37.748611450195 23.833286285400
-27.185434341431 -31.158300399780 -40.224475860596 19.529783248901
-3.513824939728 -36.877250671387 -45.829376220703 13.818772315979
-46.050342559814 -28.685817718506 -46.883804321289 13.615118980408
118.159820556641 -53.688789367676 -85.854537963867 13.089887619019
16.230091094971 -38.806793212891 -63.674736022949 27.266361236572
118.997108459473 -52.455646514893 -85.210319519043 13.932600021362
130.020462036133 -51.732063293457 -93.226249694824 24.758546829224
-54.259212493896 -32.850685119629 -61.861625671387 3.792697191238
99.422683715820 -53.402576446533 -89.619796752930 2.578936100006
-9.596785545349 -42.715507507324 -73.655746459961 14.461512565613
129.544494628906 -53.522209167480 -99.736282348633 25.080120086670
-23.254865646362 -37.145244598389 -81.869087219238 19.923845291138
77.046012878418 -50.098789215088 -96.543434143066 2.874254703522
104.094154357910 -56.657546997070 -104.050895690918 3.247955322266
84.717155456543 -53.162979125977 -102.934272766113 4.367455005646
80.700431823730 -57.517971038818 -103.917587280273 1.244917988777
100.226867675781 -52.259044647217 -105.400703430176 3.465338230133
70.120468139648 -54.079109191895 -105.299209594727 3.205796957016
130.844879150391 -55.912502288818 -110.984786987305 23.104047775269
128.440399169922 -61.122714996338 -117.716567993164 17.001466751099
108.210540771484 -54.762622833252 -117.826873779297 12.899697303772
111.497062683105 -62.093257904053 -112.540397644043 5.744821071625
130.619445800781 -59.309242248535 -115.463562011719 20.195934295654
130.303344726563 -61.778095245361 -116.887016296387 18.537090301514
65.092918395996 -55.917854309082 -115.010917663574 9.959158897400
130.040695190430 -60.837417602539 -137.762573242188 16.951045989990
136.610488891602 -60.749111175537 -129.241683959961 23.104705810547
59.677398681641 -56.965324401855 -127.502052307129 16.357942581177
70.148818969727 -58.660961151123 -122.311912536621 15.103802680969
136.116836547852 -67.845298767090 -143.383529663086 19.564002990723
61.717475891113 -60.493885040283 -130.940704345703 20.297664642334
135.542404174805 -67.753822326660 -145.377944946289 19.153194427490
131.684234619141 -65.023910522461 -136.677368164063 16.594995498657
43.390548706055 -58.013683319092 -138.259567260742 11.099808692932
-29.339277267456 -44.876220703125 -125.940490722656 29.140466690063
-28.656091690063 -43.109394073486 -122.639839172363 30.709167480469
135.395843505859 -66.224723815918 -151.743057250977 19.407720565796
-50.637016296387 -51.372058868408 -130.849761962891 8.697855949402
-49.031455993652 -47.196407318115 -126.851478576660 12.377979278564
-33.836597442627 -49.649551391602 -133.750701904297 22.136083602905
58.442222595215 -56.050678253174 -145.812088012695 27.177576065063
128.628616333008 -70.881889343262 -157.053771972656 12.433917999268
-44.400718688965 -49.784751892090 -128.290679931641 13.928245544434
-26.181779861450 -47.470241546631 -138.124664306641 29.020164489746
52.053760528564 -61.082275390625 -151.446670532227 20.745775222778
-48.057334899902 -46.072795867920 -134.456985473633 15.056475639343
135.827987670898 -69.584014892578 -155.920455932617 19.595129013062
131.884353637695 -73.441757202148 -170.612915039063 17.514860153198
130.594009399414 -69.153671264648 -164.181076049805 15.429598808289
-19.634695053101 -53.551334381104 -145.029998779297 27.366460800171
-49.726558685303 -49.731124877930 -153.028945922852 17.839429855347
-54.076763153076 -51.270835876465 -145.252380371094 13.199019432068
48.739368438721 -61.019485473633 -153.266143798828 18.476997375488
14.367095947266 -60.094879150391 -161.815307617188 9.951143264771
126.568054199219 -70.717483520508 -173.755691528320 13.232759475708
129.971023559570 -66.282989501953 -172.314697265625 17.025316238403
130.205596923828 -71.537284851074 -172.654098510742 16.239610671997
-45.311004638672 -52.114818572998 -150.685897827148 15.460984230042
-27.236648559570 -54.312038421631 -152.325317382813 20.045120239258
16.040315628052 -58.844135284424 -164.143875122070 10.759098052979
-7.064986228943 -54.734580993652 -165.404266357422 19.214735031128
122.105415344238 -73.253440856934 -181.214065551758 10.738773345947
-13.717172622681 -53.957546234131 -153.820892333984 24.921632766724
124.750900268555 -70.540222167969 -186.897277832031 14.746351242065
-24.418115615845 -54.532470703125 -165.810974121094 17.029924392700
125.946395874023 -73.149620056152 -181.415191650391 14.371716499329
-131.198455810547 -46.002738952637 -155.268417358398 29.932136535645
-10.999301910400 -63.379032135010 -170.258010864258 12.141367912292
-5.483117103577 -60.228649139404 -172.547180175781 14.607172012329
39.700309753418 -65.542861938477 -180.287780761719 13.819618225098
27.434619903564 -59.941024780273 -176.136734008789 8.128596305847
43.107593536377 -67.595405578613 -186.279479980469 17.566389083862
119.797973632813 -74.684761047363 -200.327911376953 15.047543525696
-134.824829101563 -45.464729309082 -159.798934936523 25.625055313110
-7.824040889740 -64.917457580566 -188.662765502930 11.274770736694
115.670860290527 -78.082962036133 -190.812500000000 8.350883483887
117.803047180176 -75.449043273926 -200.800857543945 13.588026046753
120.771560668945 -75.548461914063 -196.032348632813 14.202917098999
106.733184814453 -72.594528198242 -206.400512695313 6.287858009338
-134.504608154297 -49.136669158936 -166.470794677734 19.375457763672
107.789672851563 -78.698333740234 -218.354965209961 13.941649436951
-14.827193260193 -58.501510620117 -188.629745483398 11.567392349243
111.256256103516 -71.761009216309 -210.837570190430 12.351093292236
-106.031723022461 -52.181873321533 -174.648498535156 10.814524650574
-18.007354736328 -62.236282348633 -180.190338134766 9.275345802307
-128.150985717773 -43.256961822510 -176.630676269531 24.755458831787
102.856216430664 -76.130920410156 -212.827270507813 6.681531906128
20.358205795288 -63.801601409912 -196.158020019531 3.660930633545
38.208026885986 -64.885360717773 -195.443923950195 15.992850303650
-137.138183593750 -43.300640106201 -174.639114379883 20.257179260254
-128.511795043945 -47.326953887939 -180.663955688477 21.539407730103
-2.877736091614 -63.259548187256 -201.670410156250 10.886877059937
-115.758659362793 -51.233001708984 -174.905044555664 14.552151679993
-128.731964111328 -53.025497436523 -179.785385131836 17.501060485840
18.437841415405 -67.902534484863 -201.319808959961 1.086986899376
-8.210298538208 -65.198944091797 -196.370452880859 8.086957931519
29.322467803955 -65.029441833496 -205.677261352539 11.065868377686
21.300848007202 -65.332336425781 -206.163726806641 4.741489887238
95.786140441895 -75.566268920898 -220.849792480469 5.179333686829
-9.951181411743 -63.398220062256 -204.259948730469 5.305990695953
98.329971313477 -75.900695800781 -219.671691894531 6.612086772919
100.740905761719 -75.793876647949 -219.811752319336 8.849869728088
-138.658416748047 -51.394355773926 -185.783905029297 12.793678283691
106.050735473633 -79.740615844727 -226.910522460938 17.627439498901
13.584874153137 -67.012977600098 -211.134185791016 3.043218612671
15.258418083191 -68.667182922363 -212.724029541016 0.712863743305
-28.227811813354 -60.462417602539 -206.421478271484 11.076240539551
-77.963851928711 -54.984279632568 -192.203872680664 24.390617370605
-16.720573425293 -64.738822937012 -203.271896362305 1.883890151978
91.820739746094 -77.305877685547 -226.654357910156 7.033826351166
92.227981567383 -79.605842590332 -227.175109863281 8.862911224365
-22.924222946167 -65.838104248047 -198.734497070313 2.151802062988
-79.120079040527 -57.512096405029 -198.793594360352 18.069223403931
3.441813945770 -70.971771240234 -209.253479003906 4.353754043579
95.109123229980 -75.683563232422 -227.035827636719 8.748753547668
-143.136718750000 -51.575634002686 -193.491439819336 8.261644363403
-153.713317871094 -48.099929809570 -182.014739990234 14.597888946533
-149.647613525391 -50.061286926270 -193.602737426758 9.766052246094
-14.164791107178 -68.588500976563 -219.855484008789 2.265646457672
-140.392211914063 -48.323184967041 -196.733139038086 11.778234481812
-5.159817218781 -72.071960449219 -220.975692749023 2.507897615433
12.551151275635 -66.854995727539 -214.961242675781 1.287229180336
-160.930953979492 -50.081390380859 -191.885803222656 14.047086715698
-152.316940307617 -55.242435455322 -198.234176635742 5.309859275818
79.162330627441 -79.911285400391 -238.953842163086 8.788585662842
8.332011222839 -70.409469604492 -221.196365356445 1.983472704887
-144.670227050781 -49.625701904297 -194.636016845703 9.913947105408
-132.212860107422 -50.841026306152 -201.550582885742 11.829627037048
-10.176101684570 -69.112297058105 -218.263488769531 1.438978791237
5.171370029449 -75.197647094727 -218.345336914063 3.075099945068
85.101325988770 -78.115272521973 -231.906951904297 6.773751258850
-150.229888916016 -45.045814514160 -199.504776000977 15.396054267883
-142.798400878906 -50.304141998291 -201.778839111328 9.846297264099
-116.830352783203 -52.649375915527 -207.134323120117 11.590450286865
86.848632812500 -79.829635620117 -237.706756591797 11.493653297424
-106.485427856445 -54.504512786865 -207.287490844727 13.167422294617
-140.039016723633 -52.675483703613 -204.705902099609 8.342338562012
-136.300369262695 -54.555133819580 -203.078109741211 8.154953002930
-136.764373779297 -53.429683685303 -206.422683715820 9.835641860962
-144.308807373047 -50.852169036865 -203.027755737305 9.490132331848
-153.507080078125 -52.104179382324 -199.605072021484 8.322883605957
-126.985374450684 -54.629135131836 -207.176971435547 9.430330276489
-126.458152770996 -57.570285797119 -204.330871582031 5.622731685638
-145.995895385742 -51.504383087158 -202.975418090820 8.850040435791
-137.819625854492 -49.595531463623 -213.930831909180 14.610834121704
-146.502593994141 -53.407398223877 -204.237808227539 6.739888668060
78.534629821777 -79.169883728027 -237.247207641602 6.893977642059
68.202507019043 -76.931457519531 -246.881042480469 6.867731094360
-147.677978515625 -50.356578826904 -207.910842895508 9.962963104248
66.992248535156 -77.744247436523 -242.815933227539 4.647951126099
-12.831794738770 -72.057563781738 -229.338668823242 1.151440501213
14.549584388733 -69.685157775879 -233.605606079102 1.662276387215
10.049825668335 -72.310501098633 -235.321014404297 0.830699801445
-146.500213623047 -54.124401092529 -217.416656494141 6.604040145874
18.855024337769 -72.695793151855 -239.839767456055 0.936764001846
70.215362548828 -79.715904235840 -238.291778564453 5.413965225220
18.522277832031 -70.285156250000 -234.957748413086 2.001770734787
6.511834144592 -71.578239440918 -240.607879638672 2.057800769806
-0.191199004650 -71.223396301270 -231.815490722656 1.136036515236
-19.293491363525 -70.992004394531 -236.711334228516 2.446623325348
0.268514007330 -71.698677062988 -238.537399291992 1.567536950111
6.321575164795 -74.015281677246 -235.708282470703 2.710726976395
59.785858154297 -81.340980529785 -243.194900512695 7.992692470551
-48.449382781982 -64.353393554688 -228.925781250000 16.911218643188
19.868566513062 -70.674743652344 -243.693969726563 2.191027879715
-58.104843139648 -62.238628387451 -229.718460083008 18.359647750854
-3.977368116379 -71.163597106934 -243.667938232422 2.922750949860
-59.977077484131 -63.099906921387 -238.043029785156 12.250375747681
-81.632141113281 -65.600502014160 -232.246673583984 16.811431884766
-77.504058837891 -59.357589721680 -229.089828491211 19.705095291138
-9.579585075378 -69.253059387207 -246.249588012695 3.386586427689
-117.045112609863 -58.373477935791 -234.880310058594 6.834177494049
-13.515975952148 -72.261970520020 -249.546875000000 0.515208303928
-114.507789611816 -59.891292572021 -236.241195678711 6.646091938019
-110.804367065430 -63.758117675781 -236.614028930664 6.286549568176
-102.631477355957 -61.934322357178 -234.900573730469 9.719115257263
-146.367340087891 -56.086158752441 -235.636520385742 5.557213783264
-147.599777221680 -60.852439880371 -236.583190917969 1.177893519402
-164.768493652344 -58.071388244629 -234.676803588867 9.723879814148
13.962676048279 -82.031211853027 -275.848114013672 3.263518810272
-54.321285247803 -71.444442749023 -268.297973632813 17.613451004028
-68.108360290527 -69.393951416016 -263.728454589844 12.326902389526
-44.884571075439 -71.229927062988 -275.968841552734 10.553776741028
-36.463459014893 -77.542648315430 -277.409912109375 9.292886734009
-102.918762207031 -67.448974609375 -263.798889160156 4.162355422974
-35.905525207520 -71.374633789063 -279.827758789063 7.739270210266
-10.871870994568 -79.245216369629 -282.631256103516 5.391650676727
-165.523101806641 -61.419773101807 -255.925537109375 8.193110466003
-16.040712356567 -76.694549560547 -279.604125976563 7.071025371552
-0.438735991716 -82.764358520508 -284.563507080078 5.826965808868
8.365444183350 -81.388732910156 -285.934204101563 4.514006614685
-58.421070098877 -74.217453002930 -273.822052001953 12.023142814636
-34.757446289063 -79.652923583984 -277.134887695313 10.077066421509
10.237993240356 -80.683784484863 -287.772308349609 3.684758424759
-74.124542236328 -71.279792785645 -272.632446289063 13.880820274353
-41.430114746094 -77.464080810547 -282.197296142578 4.745187759399
-22.960947036743 -75.331428527832 -281.032257080078 6.265034675598
12.641397476196 -84.609878540039 -292.705627441406 6.515679359436
-14.921772956848 -79.672859191895 -283.334045410156 4.754771709442
-1.052566051483 -78.992401123047 -286.952789306641 3.301968097687
8.625939369202 -83.223266601563 -291.279968261719 5.391090869904
-134.265853881836 -62.622245788574 -263.510528564453 3.645972013474
-154.683151245117 -66.755065917969 -272.087005615234 4.647202491760
-152.924697875977 -71.109214782715 -282.293762207031 1.632562279701
85.818832397461 -42.510223388672 -20.283151626587 34.048225402832
74.736366271973 -35.546249389648 -24.534770965576 29.706348419189
81.485099792480 -36.643589019775 -24.631565093994 30.701616287231
66.846199035645 -31.719987869263 -23.570508956909 26.100500106812
89.549240112305 -36.098808288574 -30.122632980347 26.063770294189
65.122703552246 -38.005218505859 -32.343399047852 20.715536117554
65.198249816895 -37.300979614258 -37.436653137207 21.728414535522
64.658302307129 -36.640686035156 -41.981838226318 18.551544189453
86.519760131836 -39.522548675537 -43.016887664795 12.432321548462
71.182304382324 -35.070293426514 -44.237483978271 15.426249504089
83.188537597656 -40.954936981201 -44.236316680908 10.646720886230
72.030021667480 -38.244812011719 -44.307701110840 13.160252571106
75.235137939453 -42.152072906494 -44.802276611328 10.168666839600
68.752426147461 -40.738189697266 -45.630672454834 12.158590316772
79.103195190430 -39.144626617432 -51.124782562256 6.380950450897
75.685920715332 -41.299438476563 -49.130046844482 6.645071029663
-2.028868913651 -29.015689849854 -48.458950042725 17.671499252319
5.364422798157 -34.563011169434 -44.695011138916 21.378009796143
-46.437126159668 -23.243049621582 -47.889495849609 17.248434066772
-50.760074615479 -32.201683044434 -48.281909942627 9.236093521118
112.537078857422 -53.497268676758 -80.801658630371 7.473450183868
113.014976501465 -58.798286437988 -87.674293518066 7.908970832825
20.090663909912 -40.163993835449 -65.534759521484 29.134773254395
-54.177505493164 -32.586528778076 -62.781967163086 3.891294956207
7.510735034943 -37.559642791748 -72.502113342285 23.443666458130
-19.211561203003 -41.898139953613 -76.955123901367 15.892139434814
96.756713867188 -48.600166320801 -94.646018981934 4.067854404449
85.839889526367 -50.326465606689 -102.361587524414 4.601338863373
127.021903991699 -57.174236297607 -105.131126403809 20.012798309326
101.114364624023 -50.618347167969 -106.254348754883 4.116975307465
-34.127315521240 -36.813041687012 -83.666137695313 12.850866317749
-33.796432495117 -41.717643737793 -88.263854980469 13.595223426819
71.365959167480 -52.614604949951 -102.496994018555 2.592180967331
105.000740051270 -55.131034851074 -116.343887329102 12.531723022461
81.699340820313 -55.075508117676 -117.056907653809 9.122830390930
127.926727294922 -58.771514892578 -112.628570556641 19.037994384766
-66.555519104004 -37.425724029541 -91.100364685059 5.501384735107
63.995590209961 -54.847106933594 -115.701431274414 10.474199295044
131.805679321289 -58.624141693115 -123.390922546387 20.425367355347
70.867080688477 -57.545585632324 -120.086593627930 12.548555374146
130.646484375000 -57.648906707764 -121.908241271973 20.212949752808
-56.497890472412 -38.596729278564 -98.495414733887 7.684535980225
62.959953308105 -52.790313720703 -113.986282348633 8.674584388733
129.362823486328 -62.281791687012 -133.562911987305 15.604403495789
126.888610839844 -62.905185699463 -131.222030639648 13.270689010620
136.351959228516 -61.901874542236 -130.617843627930 22.247602462769
130.276168823242 -65.325340270996 -129.495086669922 15.648331642151
66.681083679199 -53.872074127197 -119.618843078613 11.621250152588
56.255172729492 -51.149211883545 -120.691757202148 10.247707366943
65.009620666504 -52.883842468262 -123.371688842773 14.739355087280
132.018035888672 -64.069717407227 -137.597091674805 17.049625396729
63.674289703369 -52.663017272949 -130.240554809570 21.106323242188
131.221023559570 -64.080627441406 -148.320358276367 16.135608673096
131.970153808594 -66.560707092285 -144.967788696289 16.052846908569
58.954067230225 -54.098716735840 -127.318038940430 15.976947784424
-49.556251525879 -45.342453002930 -115.356620788574 13.339767456055
137.441482543945 -69.517791748047 -154.297912597656 20.948093414307
-33.819931030273 -43.146057128906 -125.167587280273 26.139738082886
57.884216308594 -58.269989013672 -138.279693603516 22.171699523926
-47.203987121582 -42.842357635498 -123.036949157715 16.584693908691
50.432071685791 -55.952865600586 -139.507919311523 17.539413452148
-54.589019775391 -41.895629882813 -130.353179931641 14.761204719543
-26.534099578857 -46.927780151367 -133.799880981445 29.457092285156
-46.530765533447 -43.040248870850 -124.766197204590 16.886997222900
134.159271240234 -67.865943908691 -154.627334594727 18.104705810547
133.638000488281 -71.189170837402 -162.173522949219 17.882282257080
134.118392944336 -67.657104492188 -159.198272705078 18.623466491699
-49.354953765869 -42.673633575439 -131.425430297852 16.567701339722
28.610816955566 -54.837177276611 -155.950744628906 12.692406654358
-36.489776611328 -49.458259582520 -139.589233398438 20.596864700317
-33.092548370361 -50.265865325928 -149.437393188477 20.849632263184
125.625701904297 -70.821533203125 -176.207901000977 12.718838691711
-20.292364120483 -46.738769531250 -141.714126586914 32.608757019043
29.451532363892 -61.148273468018 -156.553009033203 7.698404312134
44.872489929199 -58.961158752441 -157.295150756836 17.549230575562
134.459503173828 -71.297622680664 -176.255004882813 21.255302429199
45.127162933350 -63.184112548828 -167.449081420898 17.037185668945
17.676427841187 -59.176357269287 -160.875366210938 9.394475936890
49.211223602295 -63.323574066162 -165.454177856445 20.184858322144
-49.843036651611 -46.192329406738 -146.002914428711 18.826322555542
-43.668605804443 -43.788684844971 -147.008850097656 23.011993408203
-48.611587524414 -55.054836273193 -150.636550903320 12.180572509766
131.337036132813 -71.331657409668 -176.422958374023 18.211994171143
-23.427444458008 -54.978530883789 -151.116790771484 21.980247497559
37.736072540283 -64.724044799805 -168.238845825195 10.618414878845
-47.710762023926 -50.869743347168 -158.434066772461 17.447013854980
-40.736431121826 -52.899433135986 -160.872451782227 15.330198287964
-18.917142868042 -49.373840332031 -151.035385131836 28.400466918945
-14.641943931580 -57.840969085693 -162.101867675781 19.875017166138
125.249984741211 -72.427734375000 -186.259170532227 14.700234413147
-21.138736724854 -52.458690643311 -169.828414916992 19.257328033447
34.036697387695 -61.046123504639 -173.484390258789 10.700212478638
120.276062011719 -78.190612792969 -197.997360229492 14.921323776245
-131.027694702148 -47.158508300781 -153.104919433594 31.002162933350
-128.391647338867 -48.177577972412 -150.318542480469 31.414903640747
-132.584045410156 -44.245532989502 -149.727569580078 34.443283081055
-127.749717712402 -49.222827911377 -153.888946533203 29.207082748413
-17.081581115723 -60.535163879395 -179.121520996094 11.444763183594
-9.425363540649 -56.853076934814 -180.522155761719 18.393741607666
35.441398620605 -62.752128601074 -192.765945434570 14.127716064453
-127.946388244629 -44.149597167969 -165.845596313477 26.841457366943
-132.998504638672 -44.914833068848 -163.812210083008 24.430299758911
-3.848510026932 -56.569114685059 -181.680847167969 21.225099563599
27.117364883423 -67.271041870117 -178.492401123047 3.181198835373
-131.962265014648 -42.466510772705 -168.640792846680 24.767650604248
-14.527192115784 -59.045661926270 -174.531936645508 15.911149024963
111.089126586914 -71.716529846191 -205.275802612305 10.109616279602
117.834831237793 -74.119277954102 -202.760025024414 14.155537605286
33.400192260742 -63.921298980713 -193.686843872070 12.143773078918
-0.806176006794 -63.259128570557 -182.800659179688 16.325695037842
-11.359857559204 -62.319766998291 -184.552764892578 11.959723472595
-134.713165283203 -45.925243377686 -170.230636596680 20.096649169922
-114.920692443848 -51.341072082520 -173.122406005859 14.088835716248
-113.612426757813 -47.437053680420 -171.543075561523 16.937034606934
-113.099426269531 -46.741130828857 -179.531311035156 17.268692016602
-12.919848442078 -60.498802185059 -192.826385498047 9.155390739441
18.188152313232 -63.753116607666 -195.249343872070 3.034502506256
103.128791809082 -75.870285034180 -210.372940063477 6.097877979279
-132.962066650391 -41.462707519531 -174.363174438477 23.878696441650
-130.416168212891 -46.908260345459 -171.424133300781 21.430660247803
-133.010101318359 -41.686199188232 -172.945037841797 23.872913360596
-142.854797363281 -44.883750915527 -175.121002197266 16.994714736938
-19.686199188232 -60.112358093262 -191.772888183594 7.814037322998
-3.938113927841 -63.144844055176 -194.630035400391 13.043418884277
-139.466110229492 -44.397342681885 -182.706222534180 18.585832595825
-3.423348903656 -59.183315277100 -192.637176513672 16.109474182129
-149.072036743164 -45.512596130371 -166.456924438477 19.063768386841
-122.424682617188 -51.420372009277 -177.642196655273 17.668977737427
23.946350097656 -66.785072326660 -206.879287719727 5.984311580658
-151.273788452148 -46.008785247803 -174.066741943359 16.219818115234
-135.185455322266 -50.475463867188 -181.957778930664 15.064621925354
18.909259796143 -64.200286865234 -199.462295532227 3.575876712799
-139.891937255859 -47.855224609375 -178.647109985352 14.779240608215
-11.578160285950 -61.873500823975 -191.469985961914 9.483717918396
113.966339111328 -72.432449340820 -217.211441040039 18.206605911255
-146.541458129883 -49.955505371094 -191.868896484375 9.963022232056
-150.724639892578 -44.227302551270 -179.890625000000 17.405363082886
-67.552764892578 -58.753314971924 -190.317810058594 21.048011779785
97.088912963867 -76.712913513184 -220.855972290039 6.432621955872
6.461421012878 -66.348709106445 -215.056793212891 3.855772256851
-142.499923706055 -50.744831085205 -186.667877197266 11.975483894348
-81.680595397949 -57.128292083740 -194.998489379883 21.114366531372
-0.974021971226 -62.501457214355 -201.537872314453 12.785702705383
25.680099487305 -69.699790954590 -225.545227050781 8.720643997192
-132.186950683594 -51.307876586914 -191.102600097656 13.523627281189
4.972971916199 -67.837738037109 -217.703765869141 5.338873863220
-12.736713409424 -62.001087188721 -216.964111328125 5.371960639954
-6.921945095062 -60.975070953369 -210.300048828125 7.093991756439
91.577178955078 -77.617637634277 -229.844100952148 8.597346305847
-11.145513534546 -65.277565002441 -209.661590576172 2.014615058899
-17.329957962036 -66.972244262695 -210.107162475586 1.986596226692
-99.573692321777 -55.117321014404 -204.983367919922 15.846033096313
-6.551863193512 -61.348800659180 -220.638305664063 5.634388923645
99.321731567383 -77.987953186035 -225.198730468750 11.242091178894
87.389900207520 -74.632369995117 -225.346099853516 2.300393342972
9.633610725403 -71.723526000977 -220.471710205078 1.667545437813
-1.439661026001 -71.881179809570 -217.634185791016 2.319999217987
82.159721374512 -73.949485778809 -229.669082641602 1.441314339638
-110.964515686035 -52.808845520020 -203.722518920898 11.683189392090
-15.337263107300 -66.864326477051 -215.433181762695 1.868809223175
-91.024124145508 -53.205165863037 -205.680801391602 20.113128662109
-97.728569030762 -57.643714904785 -204.833480834961 15.545378684998
-128.452941894531 -56.853347778320 -202.030395507813 6.447968959808
89.269874572754 -79.517387390137 -234.357528686523 10.835021018982
-114.780891418457 -50.261638641357 -205.969360351563 13.806261062622
11.502648353577 -69.315414428711 -223.576278686523 0.858502030373
90.874862670898 -76.672286987305 -234.555770874023 10.952392578125
-5.870258808136 -63.928668975830 -218.373901367188 4.415954113007
-7.066495895386 -69.243362426758 -226.284622192383 1.373149394989
-4.032997131348 -70.114715576172 -224.812408447266 1.620330572128
20.568180084229 -69.847358703613 -219.667922973633 3.779588460922
93.003295898438 -75.907562255859 -238.257461547852 14.534753799438
15.990671157837 -65.681869506836 -228.605148315430 4.922707557678
7.140141963959 -68.566169738770 -228.715118408203 3.062144517899
-5.946053981781 -73.967498779297 -223.939422607422 2.037845373154
-5.456828117371 -72.772224426270 -229.952743530273 1.208946347237
22.473560333252 -67.377830505371 -227.266036987305 7.422398090363
-10.486527442932 -69.056152343750 -227.717041015625 0.668803393841
77.382606506348 -76.930976867676 -245.143402099609 9.816018104553
-5.215147018433 -70.836769104004 -234.228408813477 1.266397356987
23.189771652222 -77.213706970215 -234.448074340820 3.789089918137
-157.528579711914 -50.671382904053 -214.913894653320 13.557594299316
1.501971006393 -68.467628479004 -232.780487060547 0.618574738503
-8.617979049683 -68.919456481934 -234.754150390625 1.752009510994
-168.317489624023 -50.254100799561 -220.712997436523 17.630327224731
-2.147032976151 -75.646179199219 -238.713302612305 1.277851581573
19.700466156006 -70.655799865723 -244.641967773438 2.386096239090
-141.354675292969 -58.864360809326 -227.658599853516 3.129794359207
-62.741981506348 -59.501308441162 -232.559677124023 18.615478515625
-60.212112426758 -66.119819641113 -234.053649902344 12.994794845581
56.637069702148 -76.394935607910 -249.615859985352 5.253467559814
-78.980979919434 -62.416259765625 -233.588943481445 17.610923767090
16.319610595703 -78.169082641602 -246.289154052734 2.404260873795
-70.129638671875 -67.993141174316 -243.765182495117 5.327994823456
-9.314185142517 -70.081985473633 -242.849319458008 0.921794652939
-141.598220825195 -57.170921325684 -225.736312866211 4.307894229889
52.878684997559 -76.492416381836 -254.066146850586 6.576956748962
-75.127761840820 -65.050369262695 -237.248794555664 12.511189460754
-98.508018493652 -59.618835449219 -235.539855957031 13.505725860596
-95.504714965820 -61.173637390137 -233.558349609375 12.571112632751
-116.450424194336 -62.000633239746 -230.459869384766 2.857402563095
-104.816207885742 -59.511844635010 -235.562881469727 10.274970054626
-104.112747192383 -61.888801574707 -238.560043334961 11.464939117432
28.123329162598 -78.007797241211 -252.267944335938 6.703240394592
-127.415229797363 -61.748767852783 -246.790588378906 9.557327270508
-14.915950775146 -75.595809936523 -270.558013916016 2.799216032028
-147.634719848633 -59.840038299561 -250.237854003906 2.950714826584
-171.567153930664 -56.748165130615 -249.842361450195 13.166913032532
-126.881393432617 -64.690116882324 -262.450103759766 1.140754222870
-117.472511291504 -67.732353210449 -261.763946533203 1.748795509338
-75.178260803223 -70.483894348145 -271.133209228516 15.343403816223
-63.034343719482 -68.896919250488 -273.877960205078 12.821743011475
-43.589321136475 -73.224433898926 -274.905761718750 11.019113540649
-18.159839630127 -78.796722412109 -275.882629394531 8.461146354675
-17.472858428955 -77.225044250488 -281.818634033203 5.809819221497
-39.727798461914 -72.518508911133 -276.202301025391 10.102222442627
-38.181095123291 -76.035697937012 -274.971679687500 11.428289413452
-21.744012832642 -74.597671508789 -279.284942626953 8.360406875610
-73.849922180176 -70.926666259766 -274.373565673828 12.211833953857
-58.704990386963 -72.017478942871 -272.589752197266 13.503302574158
-15.810936927795 -77.576301574707 -279.828338623047 7.275615692139
-16.695335388184 -77.176704406738 -281.160522460938 6.122827053070
-7.699569225311 -74.929962158203 -287.099243164063 2.697829008102
-2.583431005478 -76.767662048340 -283.409027099609 1.021723389626
-95.737106323242 -71.223731994629 -272.594390869141 13.464504241943
-146.111251831055 -64.103050231934 -266.392852783203 1.262939929962
-118.444038391113 -70.926521301270 -270.116149902344 7.078862190247
-158.007934570313 -63.530395507813 -266.080047607422 4.755554676056
-161.097122192383 -61.953022003174 -269.118682861328 7.620100975037
-148.750396728516 -66.737655639648 -275.397369384766 2.269888877869
89.933860778809 -37.212028503418 -32.004665374756 24.070236206055
63.145648956299 -34.837089538574 -31.614044189453 21.490791320801
89.110206604004 -40.158298492432 -35.818202972412 19.571804046631
89.469352722168 -42.025733947754 -44.874649047852 10.830382347107
120.725746154785 -52.165039062500 -87.189437866211 15.753129959106
125.177024841309 -54.877452850342 -91.079513549805 20.667858123779
130.935699462891 -56.955371856689 -99.727996826172 24.453365325928
127.937408447266 -58.358169555664 -95.850929260254 22.038793563843
90.762947082520 -51.932670593262 -96.402442932129 2.148338317871
76.414871215820 -60.545059204102 -97.599288940430 3.041444778442
91.669677734375 -51.326637268066 -100.920356750488 4.074352264404
-37.450641632080 -32.322303771973 -81.911155700684 13.348246574402
97.849014282227 -53.961483001709 -99.822204589844 1.202857851982
128.182373046875 -58.873451232910 -112.772956848145 19.133615493774
101.690696716309 -60.694969177246 -110.461952209473 5.779930591583
122.174583435059 -54.353858947754 -116.512985229492 17.345897674561
-46.512195587158 -35.580379486084 -88.701644897461 12.055712699890
72.262351989746 -56.525482177734 -111.128898620605 6.249884605408
-56.443748474121 -38.902599334717 -95.203292846680 6.690050601959
77.488510131836 -53.520187377930 -118.181541442871 8.729288101196
66.310333251953 -49.538192749023 -110.261215209961 3.055685281754
135.830337524414 -56.443859100342 -122.329307556152 25.046855926514
63.973094940186 -54.205722808838 -115.529037475586 9.999785423279
67.125770568848 -55.323963165283 -119.436042785645 12.116979598999
66.833366394043 -52.551898956299 -124.057640075684 14.507546424866
132.648025512695 -59.279537200928 -125.563339233398 20.768878936768
-55.524036407471 -38.668792724609 -105.720252990723 12.518482208252
129.554443359375 -62.280841827393 -139.271438598633 15.515605926514
60.457862854004 -51.033321380615 -129.006332397461 18.741477966309
67.481903076172 -55.538951873779 -129.485870361328 20.324241638184
59.233753204346 -52.475566864014 -129.105239868164 17.577936172485
-29.683963775635 -44.602104187012 -123.024650573730 29.073865890503
55.737918853760 -61.016994476318 -128.762268066406 14.702116012573
-50.787376403809 -38.648456573486 -122.465347290039 18.130624771118
-34.963966369629 -47.285293579102 -119.714035034180 23.771909713745
-55.740657806396 -41.721263885498 -120.376708984375 12.923937797546
61.316234588623 -53.841247558594 -132.454971313477 21.168649673462
-36.987190246582 -45.718799591064 -127.226417541504 22.136875152588
54.485389709473 -53.732086181641 -133.880996704102 17.123805999756
-50.342430114746 -42.499576568604 -128.149291992188 15.573638916016
-34.957889556885 -45.855636596680 -126.666770935059 23.756126403809
46.997169494629 -55.198116302490 -137.350723266602 13.823732376099
131.362014770508 -69.084510803223 -156.907714843750 15.491401672363
130.818786621094 -61.332675933838 -151.707473754883 17.568664550781
54.523651123047 -54.536247253418 -146.535614013672 25.186105728149
-22.511695861816 -41.793800354004 -134.290573120117 35.763881683350
126.185142517090 -68.608993530273 -165.839904785156 11.737033843994
-49.960685729980 -45.504135131836 -133.160171508789 14.419545173645
-32.727161407471 -48.525440216064 -123.873527526855 24.588144302368
47.243049621582 -62.000408172607 -156.973953247070 17.630231857300
-53.739521026611 -46.429515838623 -133.439651489258 12.344649314880
-49.150722503662 -46.998374938965 -135.779556274414 14.003434181213
133.150390625000 -68.628402709961 -168.788223266602 19.002281188965
-46.170581817627 -47.160190582275 -144.801971435547 18.619806289673
-17.149164199829 -49.585494995117 -146.890640258789 31.110210418701
47.834842681885 -55.665904998779 -150.681655883789 20.649637222290
-56.119518280029 -46.396568298340 -138.509750366211 13.692548751831
30.394847869873 -57.950378417969 -147.320037841797 8.239900588989
51.022270202637 -57.855293273926 -158.713195800781 23.261281967163
56.064441680908 -56.910034179688 -152.352493286133 26.418317794800
28.693149566650 -56.225349426270 -154.614868164063 11.440456390381
-29.704658508301 -48.684143066406 -144.640640258789 24.781051635742
46.397193908691 -58.241935729980 -158.347183227539 19.362653732300
-21.925746917725 -52.854202270508 -139.903640747070 28.081367492676
22.401203155518 -60.174060821533 -151.897079467773 3.919098615646
40.574489593506 -53.245292663574 -150.745742797852 18.211149215698
-49.316825866699 -48.059478759766 -141.176025390625 15.177500724792
-22.460266113281 -49.339668273926 -142.077117919922 29.336172103882
-44.144336700439 -49.423755645752 -141.174224853516 16.374759674072
34.220069885254 -52.497161865234 -157.568130493164 16.984216690063
45.930843353271 -57.828994750977 -149.815658569336 17.669906616211
22.188531875610 -54.430809020996 -158.603317260742 11.511395454407
35.164573669434 -58.922245025635 -155.455673217773 11.749434471130
48.057361602783 -59.913860321045 -167.938186645508 21.231821060181
-31.128133773804 -55.510162353516 -153.549453735352 16.614994049072
-13.773017883301 -50.690540313721 -156.471923828125 26.760017395020
-22.932025909424 -54.742275238037 -150.829177856445 22.553453445435
41.929161071777 -59.699039459229 -163.152038574219 15.997791290283
-30.179464340210 -51.331928253174 -160.629699707031 18.616926193237
-19.210933685303 -54.491119384766 -152.796646118164 24.057876586914
35.983249664307 -55.940059661865 -170.130310058594 15.384696960449
-25.677787780762 -54.374168395996 -161.631103515625 17.966794967651
45.101131439209 -62.036792755127 -174.610946655273 18.975431442261
130.976104736328 -71.000038146973 -183.719635009766 19.901706695557
-16.037048339844 -52.934680938721 -166.990982055664 22.073764801025
123.126144409180 -66.942375183105 -189.088638305664 15.216983795166
-15.519295692444 -56.362049102783 -166.896209716797 19.957170486450
-20.163597106934 -57.265136718750 -170.555099487305 15.438064575195
36.860652923584 -62.604412078857 -175.281463623047 11.980326652527
112.775436401367 -71.396858215332 -196.576889038086 7.612564563751
-19.371202468872 -54.176197052002 -176.054931640625 16.984626770020
-17.648042678833 -55.268947601318 -161.988952636719 21.145303726196
-13.994668006897 -58.641395568848 -181.179367065430 14.112936973572
-133.005935668945 -41.608005523682 -162.141540527344 27.693958282471
29.516622543335 -62.269222259521 -182.266433715820 8.012161254883
118.423164367676 -73.429771423340 -201.912185668945 14.391028404236
-143.726898193359 -47.375858306885 -169.533355712891 16.378381729126
-16.270622253418 -65.579307556152 -182.282775878906 7.640781879425
-104.855712890625 -45.724506378174 -175.835189819336 17.315534591675
-116.293167114258 -43.587619781494 -176.952423095703 21.345827102661
-97.711784362793 -48.603317260742 -174.783752441406 16.156419754028
-98.558776855469 -47.023384094238 -179.495315551758 18.075237274170
-3.748016119003 -58.272480010986 -193.995941162109 15.911143302917
30.920190811157 -67.894966125488 -192.272491455078 7.688265800476
-2.147867918015 -58.884414672852 -194.072998046875 16.642238616943
-115.916679382324 -49.425712585449 -182.573028564453 15.407591819763
-13.145249366760 -56.630893707275 -200.532562255859 11.120321273804
-123.774261474609 -47.544094085693 -180.445159912109 21.177772521973
-2.423909902573 -60.260730743408 -194.880859375000 15.389526367188
-134.741027832031 -45.977275848389 -178.531997680664 18.920280456543
99.184982299805 -73.381393432617 -217.135787963867 5.620733737946
-153.247802734375 -40.585777282715 -171.748062133789 22.157331466675
4.497453212738 -68.454360961914 -208.111892700195 4.401377677917
21.750146865845 -62.660881042480 -206.535583496094 7.277213573456
19.090785980225 -67.263351440430 -216.764465332031 4.195641040802
84.324653625488 -72.562156677246 -227.501358032227 2.512191057205
17.910837173462 -65.743507385254 -206.442276000977 3.484090328217
21.413436889648 -65.442253112793 -216.639038085938 7.020830154419
-8.869403839111 -63.766597747803 -208.969238281250 4.713688850403
-81.384376525879 -55.343109130859 -201.492828369141 18.649555206299
-86.631034851074 -51.779701232910 -196.731124877930 25.246988296509
3.193818092346 -63.588611602783 -219.722167968750 6.775646209717
-156.514480590820 -47.325588226318 -195.291229248047 13.498903274536
20.208963394165 -67.450630187988 -220.591461181641 5.121466159821
-134.848648071289 -45.360969543457 -197.999557495117 16.301912307739
20.069244384766 -69.419502258301 -218.531692504883 3.626752614975
-130.254135131836 -51.478672027588 -203.753662109375 11.636657714844
-107.510559082031 -52.174804687500 -206.078414916992 13.928978919983
21.731868743896 -72.471221923828 -219.905776977539 4.283354759216
83.169692993164 -74.235954284668 -236.031692504883 6.024072647095
12.059931755066 -65.130325317383 -222.152770996094 3.699064016342
-106.106399536133 -57.038894653320 -211.257308959961 13.993058204651
79.174064636230 -77.080566406250 -232.725082397461 2.922185659409
87.835563659668 -75.986587524414 -237.430038452148 10.634655952454
-116.134727478027 -48.932907104492 -208.299484252930 15.489679336548
-106.254447937012 -55.694297790527 -208.762619018555 13.141447067261
-3.410121917725 -62.104103088379 -226.696609497070 4.779998302460
77.510253906250 -73.528427124023 -234.735870361328 1.803804278374
66.614837646484 -78.975860595703 -240.461181640625 5.331885814667
76.372596740723 -81.050628662109 -239.540466308594 8.270977973938
-125.174751281738 -52.420440673828 -210.505935668945 12.878551483154
71.932136535645 -80.011749267578 -243.219009399414 8.121713638306
72.445373535156 -77.209877014160 -242.527267456055 6.205236434937
-156.231933593750 -51.608619689941 -199.149871826172 9.183475494385
2.522003889084 -65.120841979980 -234.054199218750 1.470155358315
22.419418334961 -76.305816650391 -241.830673217773 1.878532528877
-0.032375000417 -70.145317077637 -234.818496704102 1.765387296677
16.481697082520 -73.189239501953 -235.538101196289 1.609839797020
71.622528076172 -75.363716125488 -244.346740722656 5.812085628510
15.194128990173 -75.427375793457 -239.290481567383 2.553547859192
-7.515314102173 -63.632049560547 -237.543395996094 1.006203532219
4.458740234375 -67.587318420410 -234.796859741211 0.771982491016
67.110511779785 -81.756263732910 -253.674041748047 14.121136665344
10.781388282776 -71.792587280273 -235.792007446289 1.454728484154
-4.964116096497 -65.911827087402 -231.996948242188 2.608706235886
15.297998428345 -73.665908813477 -239.580795288086 1.267262339592
-163.540359497070 -48.167060852051 -209.100219726563 17.394847869873
60.459194183350 -76.364562988281 -251.218307495117 6.499093532562
57.109500885010 -77.772071838379 -252.306091308594 7.659098148346
56.487106323242 -80.701675415039 -242.800796508789 7.729234218597
-7.879959106445 -74.089675903320 -245.078277587891 2.224043607712
57.683757781982 -80.017356872559 -249.442626953125 8.236540794373
-63.975044250488 -63.735435485840 -232.937240600586 15.583816528320
55.994403839111 -82.623184204102 -256.216094970703 13.408080101013
-89.088333129883 -62.889873504639 -230.957855224609 13.440647125244
-119.249389648438 -59.141635894775 -229.657821655273 6.378243923187
-124.995674133301 -56.298038482666 -226.745269775391 7.088106632233
43.100559234619 -78.385360717773 -251.336074829102 7.059931278229
-134.286865234375 -57.224044799805 -227.920578002930 6.588335037231
-106.673500061035 -62.784267425537 -235.875198364258 7.835418224335
-110.601913452148 -56.438343048096 -234.588195800781 10.197845458984
-83.425430297852 -61.119033813477 -237.237548828125 16.159011840820
-110.549537658691 -58.211784362793 -235.007537841797 8.874332427979
-120.799652099609 -58.141208648682 -241.534362792969 10.821462631226
-145.388351440430 -54.605751037598 -239.399963378906 8.001400947571
-16.935804367065 -71.993484497070 -253.522720336914 2.840141534805
-163.639083862305 -55.112319946289 -233.010696411133 11.424578666687
-21.145709991455 -73.752304077148 -264.648681640625 6.546471118927
-154.244689941406 -56.517150878906 -237.016387939453 6.709810256958
-154.507278442383 -54.826351165771 -248.701751708984 8.548765182495
-166.991256713867 -54.542030334473 -245.478927612305 13.890175819397
-13.516182899475 -75.262199401855 -266.531799316406 1.270383119583
-136.052001953125 -64.239547729492 -260.904968261719 2.337331056595
-162.185043334961 -59.500686645508 -256.964172363281 7.911724567413
-150.536880493164 -57.842521667480 -256.479064941406 4.401451110840
-135.481048583984 -61.815410614014 -261.325866699219 3.727693557739
-13.445912361145 -72.636459350586 -278.757110595703 2.873682975769
-124.893539428711 -67.422958374023 -260.164489746094 1.561351180077
-144.680404663086 -65.425277709961 -253.800918579102 2.044202089310
-115.417114257813 -63.284969329834 -258.357360839844 3.086005210876
-80.527893066406 -68.057189941406 -268.259643554688 13.582808494568
-65.293449401855 -71.036819458008 -266.388275146484 15.380916595459
-8.964952468872 -74.064933776855 -282.814117431641 1.405133128166
-58.193237304688 -68.418312072754 -279.172180175781 8.267965316772
-61.487983703613 -70.371368408203 -274.476226806641 12.130617141724
-68.473312377930 -67.254692077637 -276.391418457031 11.148684501648
-85.969505310059 -70.897865295410 -275.000427246094 11.678502082825
-102.515571594238 -64.877365112305 -268.734283447266 9.227204322815
-161.042633056641 -57.738670349121 -258.871887207031 7.768185138702
-168.292205810547 -62.705032348633 -263.616821289063 6.769261360168
-132.876266479492 -62.358802795410 -267.795928955078 6.087817668915
-147.909347534180 -61.175403594971 -264.902374267578 1.508082509041
-155.942703247070 -66.766777038574 -270.463195800781 5.661048412323
-154.348403930664 -62.786193847656 -279.674774169922 4.420732498169
88.747879028320 -38.537601470947 -28.863010406494 26.482633590698
58.570884704590 -35.902011871338 -32.041320800781 18.019258499146
85.418411254883 -37.990859985352 -44.692203521729 11.476029396057
24.178058624268 -36.595405578613 -65.278053283691 29.322305679321
118.392753601074 -48.515686035156 -73.936790466309 12.897455215454
118.444435119629 -50.560951232910 -83.367340087891 12.568125724792
107.861740112305 -46.014831542969 -77.163360595703 2.402905225754
106.213165283203 -49.668731689453 -79.675132751465 3.573859453201
122.711036682129 -53.431514739990 -86.313529968262 17.640468597412
-59.392749786377 -27.629976272583 -64.565795898438 0.739312589169
103.542816162109 -55.190677642822 -87.934753417969 1.507497549057
-2.173548936844 -33.431903839111 -72.293197631836 18.891014099121
131.534378051758 -53.803836822510 -101.959877014160 26.299213409424
88.724212646484 -50.694625854492 -96.969474792480 2.222011804581
130.530105590820 -58.176593780518 -109.952728271484 21.624267578125
128.815460205078 -53.837902069092 -114.922660827637 22.133525848389
95.948951721191 -55.585239410400 -108.670326232910 1.797859668732
-48.170463562012 -39.007320404053 -81.927017211914 5.059603214264
81.021652221680 -54.357818603516 -111.362022399902 5.380943298340
130.299163818359 -59.627395629883 -119.434974670410 19.138938903809
69.448806762695 -57.995662689209 -115.531372070313 10.024641036987
105.674331665039 -55.093250274658 -120.570472717285 13.382499694824
65.988204956055 -49.210948944092 -114.173149108887 5.303319454193
131.522613525391 -57.112899780273 -120.846641540527 21.380891799927
76.823379516602 -49.238407135010 -113.934394836426 2.789659976959
132.808471679688 -61.783290863037 -128.260406494141 19.494773864746
131.881744384766 -62.352745056152 -132.250656127930 17.833589553833
-50.667999267578 -35.429046630859 -99.142753601074 12.350025177002
-57.375434875488 -36.538452148438 -104.116622924805 9.481417655945
64.883102416992 -56.807338714600 -125.006790161133 17.916358947754
135.912673950195 -61.497203826904 -136.340728759766 21.824497222900
135.753707885742 -62.553398132324 -139.303253173828 20.823348999023
-62.031120300293 -40.534118652344 -114.094245910645 11.172302246094
129.404937744141 -63.787670135498 -139.402969360352 14.593095779419
-35.010128021240 -44.989437103271 -122.499214172363 24.327892303467
-64.389625549316 -38.718322753906 -110.921585083008 10.398191452026
-49.884906768799 -39.211109161377 -115.868904113770 17.723890304565
-30.732990264893 -42.268569946289 -120.087005615234 29.712602615356
52.642745971680 -51.806179046631 -130.504119873047 14.258296966553
57.846759796143 -54.651851654053 -137.389633178711 21.715997695923
-49.633388519287 -42.742748260498 -125.609771728516 15.283025741577
48.769523620605 -54.186176300049 -139.504089355469 16.701801300049
125.421585083008 -67.819984436035 -159.670227050781 10.393179893494
-23.436893463135 -49.889141082764 -136.605224609375 29.608219146729
45.999752044678 -51.243896484375 -148.903976440430 21.758424758911
135.375274658203 -66.488151550293 -163.592895507813 20.555700302124
53.136032104492 -54.389328002930 -147.483184814453 24.479928970337
124.085235595703 -64.528778076172 -157.215286254883 10.454972267151
-30.749116897583 -49.658740997314 -136.661666870117 24.389497756958
-44.980804443359 -39.877719879150 -140.596572875977 23.371335983276
-30.407548904419 -46.611553192139 -142.983779907227 26.362524032593
-27.289453506470 -51.660839080811 -153.951675415039 21.408399581909
