# This PCD file was generated using the MATLAB® pcwrite function
# from Computer Vision Toolbox®.
# .PCD v.7 - Point Cloud Data file format
VERSION .7
FIELDS x y z
SIZE 4 4 4
TYPE F F F
COUNT 1 1 1
WIDTH 1470
HEIGHT 1
VIEWPOINT 0 0 0 1 0 0 0
POINTS 1470
DATA ascii
57.096268 -27.154142 -20.549999
62.012901 -22.241423 -20.549999
61.655102 -22.598936 -20.942499
71.768562 -12.493526 -20.837200
76.346992 -7.918741 -20.549999
76.389717 -7.876050 -20.950001
76.488190 -7.777658 -21.314899
61.569084 -22.684887 -21.350000
56.639507 -27.610538 -22.150000
61.169056 -23.084595 -22.150000
76.977699 -7.288537 -22.950001
72.599457 -11.663291 -23.350000
60.685204 -23.568064 -23.750000
77.078926 -7.187390 -23.750000
72.803543 -11.459371 -24.150000
72.866570 -11.396392 -24.549999
73.147903 -11.115287 -25.350000
76.873657 -6.815016 -25.350000
73.147903 -11.115287 -25.750000
76.909775 -6.851162 -25.750000
77.299416 -6.967073 -26.150000
60.187698 -24.065174 -26.950001
77.295036 -6.971455 -26.950001
56.036709 -27.763739 -27.750000
60.222572 -24.030327 -27.750000
56.083996 -27.811064 -28.150000
60.226036 -24.026865 -28.150000
55.587593 -27.314264 -28.549999
60.240398 -24.012516 -28.549999
56.314392 -27.935394 -28.950001
73.121368 -11.141794 -29.350000
72.443382 -10.471892 -29.350000
77.107788 -7.158553 -29.350000
60.480839 -23.772264 -29.750000
60.687607 -23.565660 -30.150000
77.048225 -7.218066 -30.150000
72.699203 -11.563626 -30.549999
60.808216 -23.445147 -30.950001
76.952728 -7.313486 -30.950001
60.980892 -23.272610 -31.629999
72.563522 -11.699198 -31.350000
76.891541 -7.374628 -31.350000
61.074551 -23.179026 -31.750000
76.584457 -7.681462 -32.150002
76.488190 -7.777658 -32.315899
61.500042 -22.753872 -32.549999
57.088276 -27.162128 -32.950001
76.364319 -7.901425 -32.950001
57.131851 -27.118587 -33.349998
61.791134 -22.463015 -33.349998
62.176449 -22.078005 -33.750000
71.319092 -12.942642 -33.750000
71.107300 -13.154266 -34.150002
57.702641 -26.548250 -34.549999
62.691425 -21.563437 -34.549999
63.003597 -21.251514 -34.944698
70.679398 -13.581825 -34.549999
75.614067 -8.651084 -34.950001
58.283974 -25.967382 -35.500000
63.677811 -20.577839 -35.577499
75.354454 -8.910489 -35.349998
58.477020 -25.774488 -36.150002
58.958187 -25.293707 -36.633900
65.700516 -18.556742 -37.338200
67.070938 -17.187412 -36.950001
66.781120 -17.476997 -37.349998
59.948460 -24.304222 -38.150002
65.759651 -18.497652 -38.549999
66.611633 -17.646353 -38.549999
60.980892 -23.272610 -39.083302
72.442772 -11.819853 -39.116699
61.242626 -23.011086 -39.349998
65.813980 -18.443371 -39.349998
71.768562 -12.493526 -39.706299
61.612518 -22.641485 -39.750000
65.901482 -18.355934 -40.150002
63.082188 -21.172985 -40.549999
65.681274 -18.575970 -40.549999
70.323792 -13.937146 -40.549999
63.677811 -20.577839 -41.004101
66.594444 -17.663528 -40.950001
67.048935 -17.209394 -41.345600
67.723221 -16.535648 -41.523499
68.457352 -15.802105 -41.349998
-3.070925 -87.273438 -42.465801
-2.396641 -86.599693 -42.371498
-1.722428 -85.926018 -42.326000
-0.374007 -84.578667 -42.278599
0.300206 -83.904991 -42.278400
0.974490 -83.231247 -42.296501
1.648700 -82.557571 -42.336201
2.322911 -81.883896 -42.454800
-6.442053 -90.641884 -42.885700
-5.093632 -89.294540 -42.697899
-3.860136 -87.832024 -42.549999
2.997194 -81.210152 -42.553799
3.671407 -80.536476 -42.633301
4.345618 -79.862801 -42.861099
-7.790474 -91.989235 -43.094200
-8.464150 -91.315018 -42.950001
-7.116266 -91.315559 -42.980801
5.019829 -79.189125 -43.052299
5.694042 -78.515450 -43.289001
-9.813184 -94.010330 -43.640301
-8.408591 -92.606857 -43.349998
4.500382 -78.669266 -43.349998
6.368325 -77.841705 -43.430000
7.042536 -77.168030 -43.562099
-11.161675 -95.357750 -43.940201
-10.487468 -94.684082 -43.781200
7.716746 -76.494354 -43.808201
-11.730136 -95.925758 -44.150002
-11.835889 -96.031425 -44.172199
-13.184310 -97.378777 -44.881302
8.875592 -75.336433 -44.549999
10.040730 -74.172226 -44.950001
-14.129736 -98.323448 -45.349998
-14.532806 -98.726196 -45.513000
10.391666 -73.821564 -45.349998
-14.918051 -99.111137 -45.750000
11.087877 -73.125908 -45.910000
-15.313128 -99.505898 -46.150002
11.762161 -72.452164 -46.252201
-15.833130 -100.025490 -46.549999
12.387348 -71.827477 -46.549999
13.110582 -71.104813 -46.632000
14.459079 -69.757393 -46.663300
15.133289 -69.083717 -46.722000
15.807500 -68.410042 -46.891800
-16.660406 -100.642311 -46.950001
15.719147 -68.321617 -46.950001
16.481712 -67.736366 -47.054199
-16.872986 -101.064514 -47.349998
15.897096 -67.151283 -47.349998
17.830208 -66.388947 -47.368698
18.504417 -65.715271 -47.443199
19.178701 -65.041527 -47.585602
-17.903938 -102.094643 -48.122002
19.660290 -64.560318 -47.750000
20.527124 -63.694176 -47.921398
20.964432 -63.257217 -48.150002
-18.275808 -102.466225 -48.549999
22.739410 -61.483650 -48.549999
23.224043 -60.999405 -48.629299
-18.560394 -102.750580 -48.950001
24.189838 -60.034378 -48.950001
24.572536 -59.651985 -49.011799
25.246748 -58.978310 -49.208199
-19.428144 -103.266205 -49.349998
25.508905 -58.716358 -49.349998
26.595173 -57.630959 -49.619099
-19.471506 -103.660965 -49.750000
27.269384 -56.957283 -49.836201
-19.788982 -103.978188 -50.150002
27.807636 -56.419460 -50.150002
28.617878 -55.609863 -50.394199
-20.278074 -104.466896 -50.549999
29.292089 -54.936188 -50.664700
-20.497715 -104.686356 -50.950001
29.960077 -54.268734 -50.950001
-20.846458 -105.034828 -51.349998
-21.141439 -105.329575 -51.750000
31.315331 -51.567204 -51.750000
-21.453184 -105.641068 -52.150002
-21.702047 -105.889732 -52.549999
32.529804 -51.701050 -52.549999
32.663219 -51.567741 -52.683300
-22.055725 -106.030373 -52.950001
33.026676 -51.204575 -52.950001
-22.266186 -106.453423 -53.349998
33.321869 -50.909615 -53.349998
-22.441338 -106.628433 -53.750000
33.848873 -50.383030 -53.750000
34.011715 -50.220322 -53.991001
-22.595474 -106.782448 -54.150002
34.219685 -50.012516 -54.150002
-22.989279 -107.175941 -54.549999
34.499386 -49.733036 -54.549999
34.891987 -49.340748 -54.950001
-23.473986 -107.307838 -55.349998
35.154160 -49.078785 -55.349998
34.885185 -48.397568 -55.349998
-23.605204 -107.791374 -55.750000
-23.708054 -107.894142 -56.150002
35.469139 -48.764057 -56.150002
-24.320871 -107.808693 -56.549999
35.713337 -48.520054 -56.549999
-24.141687 -108.327431 -56.950001
35.780186 -48.453259 -56.950001
-24.289316 -108.474945 -57.349998
35.881050 -48.352470 -57.349998
-24.435886 -108.621399 -57.750000
-24.715532 -108.762283 -58.150002
35.465267 -47.629650 -58.150002
96.715034 12.433089 -58.444500
97.389244 13.106760 -58.334801
98.063530 13.780507 -58.312500
98.737740 14.454184 -58.334301
98.116936 15.075482 -58.150002
99.411957 15.127860 -58.425301
35.965702 -48.130478 -58.549999
96.040825 11.759413 -58.598400
100.086235 15.801607 -58.625000
99.797501 16.090576 -58.549999
-24.973223 -109.158302 -58.950001
95.366608 11.085736 -58.998600
100.760445 16.475277 -58.995998
-25.154947 -109.339882 -59.349998
-25.900356 -108.924942 -59.349998
35.578075 -47.742546 -59.349998
94.889977 10.609479 -59.349998
101.434654 17.148954 -59.451698
102.108871 17.822632 -59.691898
102.783081 18.496302 -59.524399
103.457359 19.170050 -59.404598
104.131577 19.843725 -59.411201
103.844177 20.131350 -59.349998
104.805786 20.517403 -59.498798
104.496834 20.826601 -59.349998
105.480072 21.191149 -59.582100
105.857910 22.161428 -59.349998
-25.568361 -109.257202 -59.750000
35.922161 -48.086903 -59.750000
94.455284 10.175134 -59.750000
106.724304 22.642765 -59.750000
35.408863 -47.573200 -60.150002
-25.673464 -109.857986 -60.549999
93.803635 9.524009 -60.549999
108.265907 23.974764 -60.549999
-25.774199 -109.958641 -60.950001
93.572960 9.293510 -60.950001
108.936295 24.644623 -60.950001
35.802742 -48.430717 -61.349998
109.424965 25.132900 -61.349998
-26.125315 -110.048233 -61.750000
35.649128 -48.584213 -61.750000
35.360172 -48.872936 -61.981800
92.350662 8.072189 -61.750000
110.012169 25.719635 -61.750000
-26.152298 -110.336441 -62.150002
35.276176 -48.956863 -62.150002
110.451309 26.158430 -62.150002
91.599770 7.321894 -62.549999
110.692314 26.399244 -62.549999
-26.387291 -110.571251 -62.950001
34.846504 -49.386196 -62.950001
91.321198 7.043547 -63.028198
-26.488235 -110.672112 -63.349998
26.607725 -56.295097 -63.349998
28.877253 -54.521019 -63.349998
29.966372 -54.262444 -63.680401
29.576557 -53.872314 -63.349998
30.204260 -53.152096 -63.349998
30.777891 -52.377758 -63.349998
31.992935 -50.896923 -63.349998
32.672306 -50.228271 -63.349998
34.362862 -49.869453 -63.349998
33.556519 -49.764763 -63.349998
90.971611 6.694233 -63.349998
111.160255 26.866808 -63.349998
26.861757 -56.549332 -63.750000
28.553980 -55.545914 -63.750000
31.127480 -53.102261 -63.750000
32.663219 -51.567741 -63.884701
32.416256 -51.320580 -63.750000
33.211758 -50.768150 -63.750000
90.646988 6.369870 -64.056198
111.433594 27.139931 -63.750000
-26.953968 -110.567482 -64.150002
25.482941 -57.866264 -64.150002
26.595173 -57.630959 -64.339996
26.358173 -57.393772 -64.150002
90.545830 6.268796 -64.150002
24.080021 -59.159077 -64.550003
25.743053 -58.482399 -64.550003
25.002186 -58.733551 -64.550003
90.249649 5.972847 -64.550003
112.017471 27.723345 -64.550003
24.572536 -59.651985 -65.056702
24.438944 -59.518284 -64.949997
112.549210 28.254660 -64.949997
-26.935799 -111.119316 -65.349998
22.757256 -60.532246 -65.349998
112.268456 29.230160 -65.349998
-27.077135 -111.260544 -65.750000
22.088554 -61.211437 -65.750000
23.298037 -60.925468 -65.750000
89.614975 5.338683 -65.750000
112.889397 28.594576 -65.750000
22.386341 -61.509460 -66.150002
89.505470 5.229266 -66.150002
113.221870 28.926785 -66.150002
-27.136414 -111.319771 -66.550003
21.529699 -62.000702 -66.550003
89.298569 5.022522 -66.813202
20.716948 -62.535725 -66.949997
113.359810 29.064615 -66.949997
-27.902847 -110.966263 -67.349998
89.039238 4.763401 -67.349998
113.570610 29.275246 -67.463501
21.051086 -63.170631 -67.750000
20.052561 -63.219234 -67.750000
88.852127 4.576443 -67.750000
20.361303 -63.528221 -68.150002
88.729256 4.453669 -68.150002
114.058006 29.762251 -68.150002
19.373613 -63.888172 -68.550003
88.624283 4.348776 -68.831497
114.210091 29.914215 -68.550003
20.076094 -64.144844 -68.949997
114.318321 30.022360 -68.949997
-27.592894 -111.775887 -69.349998
18.605749 -64.468117 -69.349998
88.352570 4.077283 -69.349998
114.455551 30.159483 -69.750000
-27.648773 -111.831726 -70.150002
19.190018 -65.030220 -70.150002
88.240105 3.964900 -70.150002
114.553879 30.257732 -70.150002
17.919874 -65.130264 -70.550003
88.184563 3.909410 -70.550003
-27.753468 -111.936340 -70.949997
114.686874 30.390617 -70.949997
-27.764219 -111.947083 -71.349998
18.432886 -65.643684 -71.349998
88.198288 3.923123 -71.349998
114.919601 30.623165 -71.529297
17.166002 -65.724213 -71.750000
88.129890 3.854777 -71.750000
115.080177 30.783613 -71.750000
-27.839701 -112.022499 -72.150002
18.217997 -66.001465 -72.150002
17.400455 -65.958855 -72.150002
115.282486 30.985762 -72.150002
87.953819 3.678847 -72.550003
87.687416 3.412655 -72.949997
87.575508 3.300833 -73.349998
115.593742 31.296766 -73.471199
115.796059 31.498920 -73.750000
16.505222 -66.411331 -74.150002
115.924797 31.627562 -74.150002
-28.637211 -111.579742 -74.550003
17.546333 -66.672592 -74.550003
16.664680 -66.570915 -74.550003
87.415428 3.140882 -74.550003
115.974319 31.677040 -74.550003
-28.548576 -111.668449 -74.949997
116.055664 31.758324 -74.949997
-28.639261 -111.577690 -75.349998
17.496389 -66.722496 -75.349998
87.400993 3.126462 -75.349998
-28.306133 -111.911087 -75.750000
17.343241 -66.875526 -75.750000
16.937939 -66.844391 -75.750000
87.341362 3.066876 -76.150002
116.064156 31.766806 -76.150002
-28.312851 -111.904366 -76.550003
116.016052 31.718740 -76.550003
116.018883 31.721567 -76.949997
6.368325 -77.841705 -77.667397
6.394658 -76.519638 -77.349998
5.694042 -78.515450 -77.943001
6.593062 -77.617149 -77.750000
6.755140 -76.880409 -77.750000
16.913151 -67.305275 -77.750000
15.943464 -67.197693 -77.750000
-28.153992 -112.336540 -78.150002
5.385690 -78.823555 -78.150002
5.019829 -79.189125 -78.358902
6.827773 -77.382622 -78.150002
7.042536 -77.168030 -78.321404
87.147392 2.873064 -78.150002
4.345618 -79.862801 -78.630699
87.201653 2.927279 -78.550003
3.489681 -80.354607 -78.949997
7.362345 -76.848473 -78.949997
15.937164 -68.280479 -78.949997
-28.202732 -112.385246 -79.349998
2.811718 -81.395485 -79.349998
3.038162 -79.902725 -79.349998
7.429124 -76.781754 -79.349998
7.716746 -76.494354 -79.613899
14.459079 -69.757393 -79.707001
15.467247 -68.750023 -79.349998
15.133289 -69.083717 -79.494202
116.606720 32.308941 -79.349998
-28.193962 -112.376480 -79.750000
2.154343 -82.052330 -79.750000
13.784865 -70.431068 -79.908401
86.913109 2.638964 -79.750000
1.486568 -82.719574 -80.150002
8.347525 -75.864082 -80.150002
8.512505 -74.593758 -80.150002
10.413664 -73.799583 -80.504303
11.087877 -73.125908 -80.387901
12.056362 -72.158195 -80.150002
-28.284927 -112.467369 -80.550003
0.974490 -83.231247 -80.638901
9.739453 -74.473259 -80.595596
116.613091 32.315304 -80.550003
0.789364 -83.416222 -80.949997
86.736900 2.462894 -80.949997
116.536690 32.238964 -80.949997
0.371511 -83.833748 -81.349998
116.516884 32.219173 -81.349998
-28.293346 -112.475784 -81.750000
0.091598 -84.113434 -81.750000
0.002279 -83.606827 -81.750000
85.927361 1.654002 -81.896500
86.686180 2.412214 -81.750000
86.601578 2.327679 -81.989998
116.431290 32.133648 -81.750000
-0.073011 -84.277916 -82.150002
85.481216 1.208208 -82.150002
85.253151 0.980328 -82.234398
116.397331 32.099720 -82.150002
-0.413477 -84.618111 -82.550003
84.876610 0.604086 -82.550003
-28.308205 -112.490631 -82.949997
-0.567477 -84.771988 -82.949997
116.562866 32.265118 -82.949997
-28.361963 -112.544350 -83.349998
-0.642249 -84.846695 -83.349998
84.281487 0.009433 -83.349998
116.571358 32.273602 -83.349998
-0.854251 -85.058533 -83.750000
83.976173 -0.295631 -83.750000
86.366081 2.092376 -83.750000
86.750481 2.476465 -83.750000
86.182571 2.747019 -83.750000
116.628647 32.330849 -83.750000
-28.339825 -112.522224 -84.150002
-1.100282 -85.304367 -84.150002
83.653389 -0.618158 -84.150002
83.641647 -0.103732 -84.150002
85.857666 1.723752 -84.150002
86.848663 2.574573 -84.150002
116.619453 32.321667 -84.150002
-28.392241 -112.574600 -84.550003
-1.193965 -85.106483 -84.550003
83.457939 -0.813452 -84.550003
85.695839 1.422660 -84.550003
85.611412 1.970206 -84.550003
86.900940 2.626806 -84.550003
-1.292478 -85.496407 -84.949997
85.456314 1.183329 -84.949997
87.015182 2.740958 -84.949997
116.630066 32.332268 -84.949997
-28.384884 -112.567253 -85.349998
-1.492953 -85.696724 -85.349998
-1.722428 -85.926018 -85.675400
82.974373 -1.296639 -85.349998
85.164162 0.891409 -85.349998
86.975784 2.701589 -85.349998
-28.431288 -112.613617 -85.750000
85.009666 0.737039 -85.750000
86.924217 2.650062 -85.750000
116.583382 32.285618 -85.750000
-2.148291 -85.499817 -86.150002
82.642891 -1.627856 -86.150002
82.581718 -0.391527 -86.150002
86.984909 2.710708 -86.150002
116.617332 32.319542 -86.150002
-28.413040 -112.595383 -86.550003
-28.461920 -112.644226 -86.949997
82.254181 -2.016256 -86.949997
84.507690 0.377959 -86.949997
87.051117 2.776865 -86.949997
116.511230 32.213524 -86.949997
-3.032925 -85.962906 -87.349998
84.406975 0.134823 -87.349998
87.075386 2.801110 -87.349998
-28.434542 -112.616867 -87.750000
84.385551 0.500197 -87.750000
87.107422 3.169997 -87.750000
116.424217 32.126583 -87.750000
-28.464468 -112.646767 -88.150002
-2.997143 -87.199715 -88.150002
81.980949 -1.138699 -88.150002
84.199356 -0.072629 -88.150002
84.359825 0.525946 -88.150002
84.763603 1.470266 -88.150002
87.388191 3.113671 -88.150002
86.911560 3.366013 -88.150002
81.837524 -2.432576 -88.550003
84.844955 1.388847 -88.550003
85.317368 2.264480 -88.550003
87.470245 3.195661 -88.550003
86.913818 3.363752 -88.550003
116.262932 31.965422 -88.550003
-3.341854 -87.544151 -88.949997
81.894005 -1.051690 -88.949997
84.198792 -0.073196 -88.949997
84.412132 0.473598 -88.949997
84.923485 1.310254 -88.949997
85.487999 2.093716 -88.949997
86.137894 2.791727 -88.949997
87.617172 3.342470 -88.949997
86.972702 3.304826 -88.949997
-28.474651 -112.656944 -89.349998
-3.745135 -87.947113 -89.430000
81.669762 -2.175687 -89.349998
84.466698 0.418989 -89.349998
85.032761 1.200893 -89.349998
87.695618 3.420852 -89.349998
87.095833 3.181597 -89.349998
116.207047 31.909588 -89.349998
-3.827406 -88.029320 -89.750000
85.253151 0.980328 -89.946404
85.927361 1.654002 -89.922203
86.601578 2.327679 -89.831802
-4.006871 -88.208641 -90.150002
81.607132 -2.662791 -90.150002
81.911255 -1.068949 -90.150002
81.663544 -2.169462 -90.550003
81.707581 -2.213533 -90.949997
116.093155 31.795786 -90.949997
-28.476913 -112.659203 -91.349998
81.774429 -2.495627 -91.349998
82.121323 -1.279184 -91.349998
82.575569 -0.385372 -91.349998
116.089622 31.792253 -91.349998
82.253853 -1.411820 -91.750000
82.737434 -0.547364 -91.750000
83.323860 0.214310 -91.750000
84.010796 0.875255 -91.750000
84.753212 1.480666 -91.750000
85.553589 2.028070 -91.750000
87.275856 3.001426 -91.897903
87.950066 3.675099 -92.000900
82.517113 -1.753531 -92.150002
82.982704 -0.792828 -92.150002
83.589203 -0.051244 -92.150002
85.126060 1.107518 -92.150002
88.003410 3.728395 -92.150002
115.981392 31.684109 -92.150002
-28.501884 -112.684158 -92.550003
83.171349 -0.981629 -92.550003
83.785835 -0.248038 -92.550003
84.578941 0.306655 -92.550003
88.094727 3.819644 -92.550003
115.970779 31.673508 -92.550003
-28.478823 -112.661118 -92.949997
115.905701 31.608479 -92.949997
88.095505 3.820421 -93.349998
-28.496719 -112.678993 -93.750000
88.135193 3.860078 -93.750000
115.982803 31.685522 -93.750000
-6.090766 -90.290878 -94.150002
88.196739 3.921570 -94.550003
115.965118 31.667850 -94.550003
-6.593432 -90.793144 -94.949997
88.305176 4.029925 -94.949997
115.930458 31.633213 -94.949997
-28.462837 -112.645142 -95.349998
-6.670824 -90.870476 -95.349998
88.466743 4.191365 -95.349998
115.825058 31.527901 -95.349998
-28.486395 -112.668678 -95.750000
-6.812230 -91.011765 -95.750000
115.609306 31.312319 -95.750000
-6.616563 -90.816254 -96.150002
-7.509261 -90.922256 -96.150002
-28.447985 -112.630302 -96.550003
-7.307179 -91.124496 -96.550003
-6.635654 -90.448128 -96.550003
-5.852661 -89.883324 -96.550003
115.518761 31.221846 -96.550003
-28.472315 -112.654610 -96.949997
-7.116266 -91.315559 -97.052902
-6.680041 -90.403709 -96.949997
-5.835202 -89.900795 -96.949997
88.654411 4.378883 -96.949997
115.522293 31.225378 -96.949997
-7.399007 -91.598076 -97.349998
-7.790474 -91.989235 -97.607101
88.630363 4.354854 -97.349998
-28.424002 -112.606339 -97.750000
-28.419828 -112.602165 -98.550003
-8.138302 -92.336784 -98.550003
115.486214 31.189329 -98.550003
-28.382267 -112.564636 -98.949997
-8.383836 -92.582123 -98.949997
88.959084 4.683314 -98.949997
-28.390686 -112.573044 -99.349998
-8.597393 -92.795509 -99.349998
89.165146 4.889211 -99.349998
-8.668697 -92.866760 -99.750000
89.357132 5.081044 -99.750000
115.290977 30.994244 -99.750000
-28.305868 -112.488297 -100.150002
-8.815834 -93.013779 -100.150002
89.501228 5.225028 -100.150002
115.126869 30.830265 -100.150002
114.919601 30.623165 -100.349998
-28.290730 -112.473167 -100.550003
-9.087473 -93.285202 -100.550003
89.764099 5.487682 -100.550003
90.069618 5.792960 -100.949997
114.702431 30.406166 -100.949997
-28.188231 -112.370750 -101.349998
90.377541 6.639529 -101.349998
114.455551 30.159483 -101.349998
114.244751 29.948853 -101.565002
-9.420724 -93.618187 -101.750000
90.949677 6.672322 -101.750000
90.655724 7.709554 -101.750000
-28.145077 -112.327637 -102.150002
-9.582999 -93.780334 -102.150002
-9.813184 -94.010330 -102.511002
91.156097 6.878575 -102.150002
91.072464 7.292479 -102.150002
91.459915 7.182154 -102.550003
113.986557 29.690863 -102.550003
-28.236725 -111.980553 -102.949997
91.731834 7.453857 -102.949997
-28.219477 -111.997810 -103.349998
-10.031695 -94.228668 -103.349998
82.655228 -0.465096 -103.349998
83.310997 0.227184 -103.349998
-28.578756 -111.638245 -103.750000
-10.162420 -94.359291 -103.750000
81.943275 -1.100994 -103.750000
82.654449 -0.464318 -103.750000
-10.354616 -94.551338 -104.150002
81.328651 -1.834301 -104.150002
82.093124 -1.250961 -104.150002
82.689438 -0.499334 -104.150002
92.669693 8.390965 -104.264999
113.069069 28.774107 -104.150002
112.896469 28.601645 -104.292999
-10.561670 -94.758224 -104.550003
80.666809 -2.520498 -104.550003
81.533348 -2.039161 -104.550003
82.191154 -1.349075 -104.550003
82.652115 -0.461982 -104.550003
98.131783 15.060627 -104.550003
-5.093632 -89.294540 -105.232002
-4.419349 -88.620789 -104.998001
-3.811225 -87.880974 -104.949997
-3.298664 -87.045517 -104.949997
-3.057241 -85.938568 -104.949997
80.752121 -2.605881 -104.949997
81.513199 -2.019001 -104.949997
92.995163 8.716179 -104.949997
93.343903 9.064641 -105.171997
97.511421 14.333049 -104.949997
112.569092 28.274521 -104.949997
112.222328 27.928038 -105.239998
-10.782372 -94.978752 -105.349998
-3.149242 -87.195061 -105.349998
-2.828158 -86.167831 -105.349998
80.112465 -3.314146 -105.349998
80.875389 -2.729249 -105.349998
81.548187 -2.054016 -105.349998
82.118988 -1.276850 -105.349998
93.592834 9.313372 -105.349998
93.397453 10.359477 -105.349998
96.847603 13.648832 -105.349998
98.854836 15.685424 -105.349998
-11.001381 -95.197586 -105.750000
-5.738270 -89.938660 -105.750000
-2.737616 -86.258446 -105.750000
79.389420 -3.938940 -105.750000
80.257721 -3.459516 -105.750000
80.946991 -2.800907 -105.750000
81.541542 -2.047367 -105.750000
81.938118 -1.095831 -105.750000
94.071945 9.792105 -105.750000
98.314919 14.877344 -105.750000
111.908882 27.614843 -105.750000
111.548119 27.254362 -106.124001
-11.218904 -95.414932 -106.150002
-6.218873 -90.418884 -106.150002
-6.442053 -90.641884 -106.413002
79.461517 -4.011095 -106.150002
80.249382 -3.451169 -106.150002
80.927628 -2.781524 -106.150002
81.482384 -1.988157 -106.150002
94.254883 9.974894 -106.150002
94.692398 10.412065 -106.473999
94.181152 10.923719 -106.150002
95.384392 12.416364 -106.150002
96.208313 12.940215 -106.150002
97.035126 13.461162 -106.150002
97.792389 14.051863 -106.150002
98.423340 14.768830 -106.150002
98.952377 15.587804 -106.150002
99.418144 16.470232 -106.150002
-11.362927 -95.558846 -106.550003
-6.649931 -90.433838 -106.550003
-2.173383 -85.474701 -106.550003
78.800171 -4.697643 -106.550003
79.610512 -4.160212 -106.550003
80.297516 -3.499342 -106.550003
80.922958 -2.776856 -106.550003
81.359818 -1.865498 -106.550003
94.998352 11.454285 -106.550003
95.628464 12.172103 -106.550003
96.715034 12.433089 -106.782997
96.471039 12.677279 -106.550003
97.389244 13.106760 -106.556999
98.737740 14.454184 -106.566002
99.111763 15.428289 -106.550003
99.506287 16.382021 -106.550003
111.296707 27.003157 -106.550003
110.873909 26.580690 -106.902000
-11.554983 -95.750748 -106.949997
-6.981434 -91.180840 -106.949997
-7.020943 -90.062538 -106.949997
-2.054424 -85.593758 -106.949997
78.070259 -5.315577 -106.949997
78.961327 -4.858928 -106.949997
79.676743 -4.226495 -106.949997
80.313065 -3.514904 -106.949997
80.869026 -2.722881 -106.949997
99.230858 14.946910 -106.949997
99.589340 16.298903 -106.949997
-7.402956 -91.028641 -107.349998
-7.055084 -90.028366 -107.349998
-6.341146 -89.394447 -107.349998
-5.613079 -88.774681 -107.349998
-4.984668 -88.055023 -107.349998
78.171188 -5.416592 -107.349998
78.972282 -4.869892 -107.349998
80.711121 -2.564851 -107.349998
99.645676 15.361394 -107.349998
100.086235 15.801607 -107.574997
99.777710 16.110382 -107.349998
100.760445 16.475277 -107.679001
110.625969 26.332947 -107.349998
-27.686762 -111.869682 -107.750000
-12.003399 -96.198807 -107.750000
-7.790474 -91.989235 -107.857002
-7.737000 -90.694336 -107.750000
-7.073602 -90.009834 -107.750000
-6.266223 -89.469429 -107.750000
-5.507480 -88.880363 -107.750000
-4.847190 -88.192612 -107.750000
-4.285999 -87.405823 -107.750000
-1.591563 -85.795258 -107.750000
77.453293 -6.046693 -107.750000
78.311073 -5.556586 -107.750000
79.024796 -4.922450 -107.750000
79.675400 -4.225151 -107.750000
80.244438 -3.446218 -107.750000
100.991127 16.705776 -107.750000
101.434654 17.148954 -107.903000
110.142960 25.850327 -107.750000
109.525414 25.233267 -108.122002
-27.694965 -111.877884 -108.150002
-12.260390 -96.455589 -108.150002
-8.132781 -92.331268 -108.150002
-8.295714 -91.483589 -108.150002
-7.015785 -90.067696 -108.150002
-6.208123 -89.527573 -108.150002
-5.452488 -88.935394 -108.150002
-4.782657 -88.257195 -108.150002
-4.224930 -87.466934 -108.150002
-1.475763 -85.679550 -108.150002
76.540955 -6.482049 -108.150002
77.645767 -6.239316 -108.150002
78.383163 -5.628737 -108.150002
79.039642 -4.937305 -108.150002
79.654762 -4.204494 -108.150002
80.151489 -3.353196 -108.150002
101.813889 17.527885 -108.150002
-8.435755 -92.634003 -108.550003
-7.784146 -90.647148 -108.550003
-5.201000 -89.187088 -108.550003
-4.509541 -88.530525 -108.550003
-3.610586 -86.733353 -108.550003
76.767708 -6.708977 -108.550003
77.663864 -6.257425 -108.550003
79.881126 -3.082620 -108.550003
102.256996 17.970638 -108.550003
102.783081 18.496302 -108.852997
109.119942 24.828117 -108.550003
108.851196 24.559591 -108.766998
-27.576410 -111.759422 -108.949997
-12.654719 -96.560371 -108.949997
-8.807135 -93.005081 -108.949997
-5.897754 -89.838188 -108.949997
-3.745135 -87.947113 -109.023003
-3.434306 -86.909767 -108.949997
75.929649 -7.218678 -108.949997
76.963356 -6.904783 -108.949997
77.718002 -6.311610 -108.949997
79.020630 -4.918278 -108.949997
79.537140 -4.086784 -108.949997
104.131577 19.843725 -109.180000
103.474365 20.501457 -108.949997
104.805786 20.517403 -109.225998
105.480072 21.191149 -109.208000
106.154282 21.864820 -109.161003
106.828491 22.538496 -109.175003
107.502708 23.212173 -109.169998
108.176918 23.885843 -109.014999
-27.567921 -111.750938 -109.349998
-12.892001 -96.322899 -109.349998
-9.002304 -93.200096 -109.349998
-6.771363 -90.312317 -109.349998
-5.734945 -89.935341 -109.349998
-3.350121 -86.994019 -109.349998
-0.901931 -85.106171 -109.349998
76.248642 -7.537923 -109.349998
77.060265 -7.001767 -109.349998
77.749809 -6.343441 -109.349998
78.396530 -5.642108 -109.349998
78.987335 -4.884960 -109.349998
79.372169 -3.921681 -109.349998
-9.086060 -93.283791 -109.750000
-6.594447 -90.489372 -109.750000
-0.693603 -84.898010 -109.750000
75.163696 -7.800677 -109.750000
77.765358 -6.359006 -109.750000
78.386421 -5.631992 -109.750000
78.917358 -4.814927 -109.750000
-27.343182 -111.526375 -110.516998
-13.367450 -97.195488 -110.150002
-9.204424 -93.271149 -110.150002
-7.542129 -90.889359 -110.150002
-6.367138 -90.567032 -110.150002
-2.787968 -86.990707 -110.150002
-2.709412 -86.286674 -110.150002
-0.514282 -84.718834 -110.150002
75.544464 -8.181746 -110.150002
76.386757 -7.676147 -110.150002
77.103592 -7.045128 -110.150002
78.776909 -4.674368 -110.150002
-13.921268 -98.115150 -110.550003
-13.549527 -97.013268 -110.550003
-10.467989 -93.355003 -110.550003
-6.442053 -90.641884 -110.550003
-2.396641 -86.599693 -110.801003
-0.412063 -84.616699 -110.550003
74.642441 -8.627432 -110.550003
75.702576 -8.339991 -110.550003
76.440475 -7.729909 -110.550003
78.303299 -5.548803 -110.550003
-13.676969 -96.885727 -110.949997
-7.447202 -90.984360 -110.949997
-2.391157 -85.256760 -110.949997
-0.235146 -84.439919 -110.949997
74.849396 -8.834557 -110.949997
75.740891 -8.378330 -110.949997
76.482246 -7.771717 -110.949997
77.138222 -7.079790 -110.949997
77.727547 -6.321160 -110.949997
78.227875 -5.473324 -110.949997
-14.609982 -98.803314 -111.349998
-14.126058 -97.784843 -111.349998
-9.310023 -93.165466 -111.349998
-2.083621 -86.286926 -111.349998
-2.114080 -85.534050 -111.349998
0.019657 -84.185318 -111.349998
73.882065 -9.214876 -111.349998
75.813904 -8.451406 -111.624001
75.781105 -8.418581 -111.349998
76.488190 -7.777658 -111.483002
77.938011 -5.183225 -111.349998
-14.664559 -98.594337 -111.750000
-14.307712 -97.603043 -111.750000
74.230957 -9.564042 -111.750000
75.139694 -9.125082 -112.044998
75.096077 -9.081434 -111.750000
77.095039 -7.036569 -111.750000
77.605118 -6.198639 -111.750000
-27.246269 -111.429543 -112.150002
-15.102680 -99.295616 -112.150002
-14.738989 -98.519852 -112.150002
-14.482792 -97.427826 -112.150002
-7.422887 -91.008698 -112.150002
-1.681260 -85.884880 -112.150002
0.239936 -83.965218 -112.150002
73.117592 -9.798216 -112.150002
77.080620 -7.022140 -112.150002
77.534866 -6.128325 -112.150002
-27.206163 -111.389465 -112.550003
-15.327464 -99.279335 -112.550003
-8.754363 -92.952354 -112.550003
-1.444850 -85.648659 -112.550003
0.521406 -83.683968 -112.550003
73.497162 -10.178085 -112.550003
74.419464 -9.752704 -112.550003
76.390495 -7.875274 -112.550003
76.996788 -6.938242 -112.550003
-15.458861 -99.147835 -112.949997
-14.532806 -98.726196 -113.239998
-15.146120 -98.112396 -112.949997
-9.772995 -92.702126 -112.949997
0.692524 -83.512985 -112.949997
73.694786 -10.375870 -112.949997
76.447899 -7.737335 -112.949997
-15.632439 -99.824959 -113.349998
-14.736886 -98.930115 -113.349998
-15.380334 -99.226425 -113.349998
-13.426665 -97.620941 -113.349998
-8.610340 -92.808449 -113.349998
-6.739651 -90.939247 -113.349998
-7.484948 -90.946587 -113.349998
-1.102079 -85.198441 -113.349998
0.746002 -83.459549 -113.349998
72.781876 -10.810661 -113.349998
73.841423 -10.422316 -113.349998
76.200211 -8.065408 -113.349998
76.804741 -6.746046 -113.349998
-15.245219 -99.438042 -113.750000
-15.176602 -99.369484 -113.750000
-0.866349 -85.070618 -113.750000
0.903820 -83.301857 -113.750000
72.981064 -11.010003 -113.750000
76.343285 -7.632643 -113.750000
-12.995794 -97.190407 -114.150002
-8.366150 -92.564453 -114.150002
1.077768 -83.128052 -114.150002
72.095505 -11.472311 -114.150002
75.769341 -8.495934 -114.150002
-12.973014 -97.167648 -114.550003
-13.473048 -97.089806 -114.550003
-6.639910 -90.839584 -114.550003
-7.757358 -90.673958 -114.550003
-0.642883 -84.847328 -114.550003
1.164281 -83.041603 -114.550003
72.300842 -11.677808 -114.550003
75.637054 -8.628112 -114.550003
76.040764 -7.329879 -114.550003
-8.222338 -92.420753 -114.949997
1.365604 -82.840446 -114.949997
72.481964 -11.780694 -114.949997
75.680809 -8.318203 -114.949997
-12.775442 -96.970230 -115.349998
-0.241936 -84.446701 -115.349998
1.487628 -82.718513 -115.349998
71.609100 -12.333939 -115.349998
75.502975 -8.140225 -115.349998
-12.927248 -97.121918 -115.750000
-8.069685 -92.268219 -115.750000
-6.435901 -90.635735 -115.750000
-0.185203 -84.390015 -115.750000
1.544572 -82.661621 -115.750000
71.771675 -12.490417 -115.750000
75.104774 -9.090137 -115.750000
75.226746 -7.863778 -115.750000
-26.668974 -110.852707 -116.525002
-17.539703 -101.730705 -116.150002
-18.036963 -101.961517 -116.150002
-7.954093 -92.152725 -116.150002
-6.301139 -90.501083 -116.150002
-0.077469 -84.282372 -116.150002
1.643042 -82.563225 -116.150002
70.835793 -12.908436 -116.150002
75.011894 -8.997185 -116.150002
-17.285254 -101.476456 -116.550003
-18.226320 -101.772003 -116.550003
-12.949036 -97.143692 -116.550003
-6.165255 -90.365311 -116.550003
1.887515 -82.318947 -116.550003
71.116776 -13.144794 -116.550003
74.693687 -9.570733 -116.550003
74.465477 -9.798756 -116.902000
74.837944 -8.823095 -116.550003
-26.656378 -110.840118 -116.949997
-18.608282 -102.798431 -116.949997
-17.201925 -101.393188 -116.949997
-13.319032 -97.243950 -116.949997
-7.689745 -91.888588 -116.949997
-6.123094 -90.323181 -116.949997
0.197635 -84.007484 -116.949997
0.300206 -83.904991 -117.121002
70.744476 -13.516798 -116.949997
-26.617687 -110.801460 -117.349998
-18.710749 -102.635612 -117.349998
-17.172215 -101.363503 -117.349998
-14.517283 -97.393311 -117.349998
2.055306 -82.151291 -117.349998
70.331360 -13.752171 -117.349998
74.360512 -9.693707 -117.349998
-18.985394 -103.175240 -117.750000
-13.165070 -97.359550 -117.750000
-7.506460 -91.705444 -117.750000
-5.943559 -90.143791 -117.750000
0.487240 -83.718109 -117.750000
2.178251 -82.028442 -117.750000
70.099480 -14.161282 -117.750000
69.171700 -13.940011 -117.750000
74.101036 -10.162913 -117.750000
-19.341772 -103.352654 -118.150002
-16.983273 -101.174713 -118.150002
-17.089802 -100.212578 -118.150002
-14.388712 -97.521980 -118.150002
69.869156 -14.391423 -118.150002
-19.411520 -103.601028 -118.550003
-16.805941 -100.496666 -118.550003
-16.534975 -99.419426 -118.550003
-14.227275 -97.683548 -118.550003
-7.311576 -91.510719 -118.550003
-7.116266 -91.315559 -118.892998
0.608698 -83.596748 -118.550003
2.273113 -81.933655 -118.550003
69.570847 -14.689491 -118.550003
-26.429873 -110.613792 -118.949997
-19.660875 -103.850182 -118.949997
-19.789688 -102.904381 -118.949997
-16.395449 -99.559067 -118.949997
-15.796088 -98.810341 -118.949997
-5.559658 -89.760193 -118.949997
2.499758 -81.707191 -118.949997
69.245384 -15.014700 -118.949997
73.520836 -10.742650 -118.949997
-20.052698 -104.241699 -119.349998
-20.151203 -103.890999 -119.349998
-16.300383 -99.654213 -119.349998
-15.753608 -98.852852 -119.349998
-15.042357 -98.216240 -119.349998
-13.545576 -97.739754 -119.349998
-14.099620 -97.811302 -119.349998
-5.434589 -89.635223 -119.349998
0.861308 -83.344337 -119.349998
-26.331833 -110.515831 -119.750000
-20.129595 -104.318535 -119.750000
-15.955096 -99.999771 -119.750000
-15.587787 -99.018806 -119.750000
-14.864522 -98.394218 -119.750000
-6.931497 -91.130943 -119.750000
-5.368806 -89.569496 -119.750000
2.637558 -81.569504 -119.750000
68.652519 -15.607091 -119.750000
73.092018 -11.171128 -119.750000
-26.152649 -110.336792 -120.150002
-26.525446 -109.647781 -120.150002
-20.310257 -104.499046 -120.150002
-15.486932 -99.679565 -120.150002
-15.368106 -99.238663 -120.150002
-14.158242 -98.351936 -120.150002
-14.704638 -98.554230 -120.150002
-5.245647 -89.446434 -120.150002
1.084347 -83.121475 -120.150002
0.650764 -82.907265 -120.150002
2.746495 -81.460655 -120.150002
68.442780 -15.816665 -120.150002
72.910072 -11.352922 -120.150002
-26.018244 -110.202492 -120.550003
-20.690126 -104.878616 -120.550003
-14.532806 -98.726196 -120.820999
-14.688239 -98.570641 -120.550003
-6.698694 -90.898323 -120.550003
68.084274 -16.174885 -120.550003
72.647774 -11.615013 -120.550003
-20.892015 -105.080345 -120.949997
-6.561671 -90.761406 -120.949997
-4.961558 -89.162567 -120.949997
1.193212 -83.012695 -120.949997
0.327391 -82.583633 -120.949997
2.831808 -81.375404 -120.949997
-21.213808 -105.401878 -121.349998
-6.371386 -90.571274 -121.349998
67.576080 -16.682669 -121.349998
72.289909 -11.972597 -121.349998
-25.822512 -110.006920 -121.750000
-21.346087 -105.534058 -121.750000
-21.949347 -106.136833 -122.133003
-4.659718 -88.860970 -121.750000
67.270210 -16.988298 -121.750000
-25.615458 -109.800026 -122.150002
-6.202888 -90.402908 -122.150002
-4.587140 -88.788452 -122.150002
3.023580 -81.183784 -122.150002
67.048935 -17.209394 -122.250999
71.879128 -12.383050 -122.150002
-22.501604 -106.688652 -122.550003
-22.623560 -106.810509 -122.685997
1.460463 -82.745659 -122.550003
66.691002 -17.567045 -122.550003
-25.062704 -109.247711 -122.949997
-24.646265 -108.831604 -123.154999
-23.971981 -108.157860 -123.320999
-22.908777 -107.095505 -122.949997
-23.297773 -107.484192 -123.295998
-23.892212 -106.889275 -122.949997
-5.767840 -89.968208 -123.221001
-4.241012 -88.442596 -122.949997
3.273218 -80.934349 -122.949997
2.524822 -80.737404 -122.949997
66.491020 -17.766869 -122.949997
71.493172 -12.768695 -122.949997
-4.120973 -88.322655 -123.349998
3.294863 -80.912720 -123.349998
2.520015 -80.732590 -123.349998
66.194908 -18.062744 -123.349998
71.284851 -12.976853 -123.349998
71.094353 -13.167200 -123.555000
65.899155 -18.358267 -123.750000
71.026512 -13.234986 -123.750000
1.729838 -82.476501 -124.150002
3.430329 -80.777359 -124.150002
65.700516 -18.556742 -124.265999
70.863106 -13.398262 -124.150002
-5.342771 -89.543480 -124.550003
-5.093632 -89.294540 -124.942001
-3.706158 -87.908173 -124.550003
1.716397 -82.489929 -124.550003
3.442143 -80.765556 -124.550003
65.381340 -18.875664 -124.550003
70.617149 -13.644027 -124.550003
-3.438341 -87.640564 -124.949997
1.755304 -82.451057 -124.949997
65.179520 -19.077322 -124.949997
70.184692 -13.605387 -124.949997
-4.935598 -89.136627 -125.349998
-3.271894 -87.474251 -125.349998
1.810762 -82.395638 -125.349998
65.041725 -19.215010 -125.349998
70.228149 -14.032710 -125.349998
-4.854461 -89.055557 -125.750000
-3.156021 -87.358467 -125.750000
1.791026 -82.415359 -125.750000
64.615875 -19.640520 -125.750000
69.985237 -14.275433 -125.750000
-4.676410 -88.877647 -126.150002
-2.872360 -87.075035 -126.150002
64.352020 -19.904165 -126.487999
69.723854 -14.536604 -126.150002
-4.359998 -88.561485 -126.550003
-2.643095 -86.845955 -126.550003
1.887939 -82.318527 -126.550003
69.601410 -14.658956 -126.550003
-4.271855 -88.473419 -126.949997
-2.540947 -86.743889 -126.949997
-2.672516 -86.323601 -126.949997
1.421527 -82.330215 -126.949997
63.918392 -20.337448 -126.949997
69.345901 -14.914262 -126.949997
69.071648 -15.188297 -127.323997
-4.121043 -88.322723 -127.349998
-2.270231 -86.473381 -127.349998
63.677811 -20.577839 -127.691002
-3.833699 -88.035606 -127.750000
-2.008709 -86.212074 -127.750000
-2.116272 -85.531860 -127.750000
1.894234 -82.312233 -127.750000
1.418062 -82.326752 -127.750000
3.770228 -80.437737 -127.750000
68.929459 -15.330370 -127.750000
-1.880885 -86.084351 -128.149994
-1.722428 -85.926018 -128.432007
0.306680 -82.562904 -128.149994
3.754950 -80.453003 -128.149994
63.233284 -21.022009 -128.149994
68.674309 -15.585320 -128.149994
68.397430 -15.861972 -128.544006
-3.537941 -87.740082 -128.550003
-1.545681 -84.754486 -128.550003
0.484942 -82.741310 -128.550003
1.498995 -82.407745 -128.550003
63.118122 -21.137079 -128.550003
63.003597 -21.251514 -128.919998
-3.279179 -87.481529 -128.949997
-1.303231 -85.507156 -128.949997
-1.286206 -85.014168 -128.949997
-0.940739 -84.011490 -128.949997
-0.344913 -83.259361 -128.949997
3.807367 -80.400627 -128.949997
68.270035 -15.989273 -128.949997
-1.157211 -85.143265 -129.350006
-0.815562 -84.136765 -129.350006
-0.212173 -83.392204 -129.350006
0.629910 -82.886391 -129.350006
1.595122 -82.503952 -129.350006
3.761669 -80.446289 -129.350006
62.579872 -21.674902 -129.350006
68.041687 -16.217436 -129.350006
67.723221 -16.535648 -129.671005
-2.921524 -87.124161 -129.750000
-0.599767 -84.352730 -129.750000
-0.011788 -83.592751 -129.750000
1.530707 -82.675468 -129.750000
0.751062 -83.007637 -129.750000
3.738184 -80.469749 -129.750000
-2.703153 -86.905960 -130.149994
-0.406335 -84.610970 -130.149994
0.113605 -83.718246 -130.149994
62.348484 -21.906105 -130.149994
67.569572 -16.689171 -130.149994
-2.496806 -86.699776 -130.550003
0.186335 -83.791031 -130.550003
0.895253 -83.151947 -130.550003
3.698924 -80.508980 -130.550003
61.964302 -22.289982 -130.550003
61.903454 -21.498919 -130.550003
67.351913 -16.906660 -130.550003
67.048935 -17.209394 -130.792999
66.402542 -16.562487 -130.550003
-2.299728 -86.502861 -130.949997
-2.367831 -85.280098 -130.949997
2.504889 -80.717453 -130.949997
61.841995 -22.412191 -130.949997
-2.007225 -86.210587 -131.350006
61.655102 -22.598936 -131.501999
66.855400 -17.402781 -131.350006
-1.722428 -85.926018 -131.750000
-1.665773 -84.634300 -131.750000
2.546803 -80.759399 -131.750000
61.404053 -22.849789 -131.750000
66.617645 -17.640345 -131.750000
66.374725 -17.883068 -131.932999
-1.555131 -85.758850 -132.149994
-1.509634 -84.790558 -132.149994
1.725289 -81.285805 -132.149994
2.690574 -80.903290 -132.149994
61.236046 -23.017658 -132.149994
-1.161823 -85.365860 -132.550003
-0.888929 -84.063339 -132.550003
66.144539 -18.113070 -132.550003
-0.695401 -84.257019 -132.949997
0.324988 -82.581230 -132.949997
1.057582 -81.965981 -132.949997
1.880509 -81.441147 -132.949997
2.862473 -81.075325 -132.949997
60.996059 -21.939367 -132.949997
65.757248 -18.500055 -132.949997
-0.519967 -84.432594 -133.350006
-0.110813 -83.493645 -133.350006
2.795659 -81.411530 -133.350006
2.066121 -81.626907 -133.350006
60.756153 -23.497169 -133.350006
65.534134 -18.722990 -133.350006
64.380760 -18.584501 -133.350006
0.177712 -83.782402 -133.750000
0.686388 -82.942917 -133.750000
60.570324 -23.682852 -133.750000
60.579624 -22.871023 -133.750000
65.357643 -18.899343 -133.750000
64.627510 -18.831450 -133.750000
0.974490 -83.231247 -134.255005
1.648700 -82.557571 -134.320007
1.532214 -82.440994 -134.149994
60.433655 -23.819410 -134.149994
60.464199 -22.755508 -134.149994
64.969078 -19.287600 -134.149994
63.713047 -19.264683 -134.149994
60.365181 -23.887831 -134.550003
64.758629 -19.497881 -134.550003
63.892723 -19.444502 -134.550003
60.241814 -24.011101 -134.949997
63.034103 -19.933620 -134.949997
64.247833 -19.799896 -134.949997
60.032001 -24.220745 -135.350006
60.040417 -23.679811 -135.350006
60.397617 -22.688871 -135.350006
62.336849 -20.584234 -135.350006
64.157631 -20.098400 -135.350006
63.223743 -20.123411 -135.350006
59.949730 -24.302950 -135.750000
61.671684 -21.266966 -135.750000
63.796013 -20.459728 -135.750000
63.560970 -20.460907 -135.750000
59.945068 -23.584385 -136.149994
60.418964 -22.710236 -136.149994
61.729008 -21.324335 -136.149994
63.508461 -20.747055 -136.149994
62.554478 -20.802038 -136.149994
59.897568 -23.536850 -136.550003
60.431335 -22.722616 -136.550003
61.085896 -22.029274 -136.550003
61.821529 -21.416929 -136.550003
62.893402 -21.141232 -136.550003
59.768005 -24.484533 -136.949997
61.157780 -22.101215 -136.949997
61.976681 -21.572203 -136.949997
59.959839 -23.599171 -137.350006
60.521809 -22.813160 -137.350006
61.248535 -22.192043 -137.350006
62.288177 -21.883949 -137.350006
59.807476 -24.445093 -137.750000
60.003307 -23.642673 -137.750000
60.607758 -22.899179 -137.750000
61.655102 -22.598936 -137.955002
61.461147 -22.404827 -137.750000
60.306679 -23.946285 -138.434998
60.129902 -23.769365 -138.149994
60.980892 -23.272610 -138.397003
60.804111 -23.095690 -138.149994
41.428238 -42.809700 -237.673004
42.102467 -42.136009 -237.445007
43.450928 -40.788624 -237.436005
44.125160 -40.114925 -237.697998
41.290264 -42.671616 -237.750000
41.468441 -41.501476 -237.750000
40.839680 -43.397789 -238.149994
40.843410 -42.224407 -238.149994
40.456715 -43.780449 -238.550003
45.303238 -38.937786 -238.550003
40.241936 -43.995056 -238.949997
40.213779 -42.942734 -239.350006
45.873455 -38.368023 -239.750000
45.708481 -37.654137 -239.750000
42.788700 -40.125870 -240.149994
45.894394 -38.347099 -240.149994
45.774780 -37.720490 -240.149994
40.164795 -42.893711 -240.550003
40.340874 -43.896202 -240.949997
45.804596 -38.436825 -240.949997
52.890137 -31.356924 -241.350006
53.564350 -30.683249 -241.003006
54.912846 -29.335829 -241.041000
45.504971 -38.736214 -241.350006
52.913502 -30.031883 -241.350006
55.402287 -28.846775 -241.350006
40.876846 -43.360653 -241.750000
40.783257 -42.164207 -241.750000
45.359341 -38.881729 -241.750000
52.393833 -31.852833 -241.750000
55.963387 -28.286121 -241.750000
41.310986 -42.926861 -242.149994
42.102467 -42.136009 -242.490997
45.184212 -39.056717 -242.149994
44.905960 -38.199444 -242.149994
52.105572 -32.140865 -242.149994
56.444481 -27.805410 -242.149994
42.321594 -41.917053 -242.550003
42.183601 -40.868744 -242.550003
45.061867 -39.178963 -242.550003
51.790573 -32.455612 -242.550003
56.806309 -27.443869 -242.550003
56.935551 -27.314732 -242.847000
42.637455 -41.601444 -242.949997
42.663460 -41.348991 -242.949997
43.001808 -40.339146 -242.949997
43.663250 -39.652649 -242.949997
44.840252 -39.400402 -242.949997
48.170528 -36.072777 -243.063004
48.844761 -35.399078 -243.018005
49.519009 -34.725368 -242.998993
50.193222 -34.051693 -243.113007
51.541714 -32.704273 -243.024994
42.666935 -41.571991 -243.350006
44.710224 -39.530323 -243.350006
43.771461 -39.760948 -243.350006
47.732571 -36.510387 -243.350006
47.882919 -35.784939 -243.350006
48.386383 -34.940338 -243.350006
48.883640 -34.089497 -243.350006
50.635693 -33.609577 -243.350006
49.744102 -33.602219 -243.350006
51.093937 -33.151695 -243.350006
51.013714 -32.175854 -243.350006
57.284786 -26.965773 -243.350006
42.624584 -41.310081 -243.750000
43.110870 -40.448296 -243.750000
47.448143 -36.794586 -243.750000
47.624081 -35.525894 -243.750000
50.692776 -33.203224 -243.750000
57.440060 -26.810625 -243.750000
43.101753 -40.439171 -244.149994
44.433701 -39.806629 -244.149994
43.907314 -39.896908 -244.149994
47.157421 -37.085079 -244.149994
47.128822 -36.378693 -244.149994
50.339714 -32.849884 -244.149994
42.025917 -42.059395 -244.550003
42.395931 -41.081245 -244.550003
43.017639 -40.354992 -244.550003
43.851971 -39.841518 -244.550003
46.977886 -37.264469 -244.550003
46.930771 -36.180481 -244.550003
50.222523 -32.732597 -244.550003
41.428238 -42.809700 -245.343994
42.814075 -40.151264 -244.949997
43.553196 -39.542507 -244.949997
44.474525 -39.116119 -244.949997
46.836868 -37.405376 -244.949997
57.489460 -26.520658 -244.949997
41.577366 -41.610489 -245.350006
46.072990 -38.018940 -245.350006
46.315563 -36.913239 -245.350006
57.466839 -26.498022 -245.350006
41.108540 -42.489746 -245.750000
41.434872 -41.467880 -245.750000
40.879372 -43.358131 -246.149994
40.980957 -42.362064 -246.149994
57.586700 -26.664099 -246.149994
40.828922 -43.408539 -246.550003
40.951485 -42.332569 -246.550003
40.935822 -43.301723 -246.949997
41.035522 -42.416672 -246.949997
41.210960 -42.592251 -247.350006
57.414028 -26.836636 -247.350006
41.638649 -41.671818 -247.750000
57.287548 -26.963015 -247.750000
41.615772 -42.622318 -248.149994
41.749409 -41.782665 -248.149994
56.935551 -27.314732 -248.294998
42.102467 -42.136009 -248.598999
42.292873 -40.978107 -248.550003
42.336575 -41.902084 -248.949997
42.450283 -41.135643 -248.949997
42.803543 -40.140724 -248.949997
56.770023 -27.480129 -248.949997
42.525955 -41.712856 -249.350006
42.574615 -41.260071 -249.350006
42.985798 -41.253380 -249.750000
43.087406 -40.424812 -249.750000
56.822510 -27.427683 -249.750000
56.425999 -26.804775 -249.750000
43.279167 -40.616726 -250.149994
43.634548 -39.623924 -250.550003
56.925789 -27.324486 -250.550003
43.845749 -39.835293 -250.949997
57.195656 -27.054832 -250.949997
44.035652 -40.204361 -251.350006
44.258522 -38.899940 -251.350006
57.385803 -26.864838 -251.350006
44.213406 -40.026749 -251.750000
44.355640 -38.997139 -251.750000
57.474087 -26.776625 -251.750000
44.570656 -39.212326 -252.149994
57.580265 -26.670532 -252.149994
44.759727 -39.480862 -252.550003
44.959888 -38.253414 -252.550003
57.985668 -26.265450 -252.550003
44.929184 -39.311543 -252.949997
45.051495 -38.345093 -252.949997
45.230461 -38.524204 -253.350006
45.433559 -38.807568 -253.750000
45.642605 -37.588207 -253.750000
58.610363 -25.641253 -253.750000
45.611355 -38.629913 -254.149994
45.734138 -37.679817 -254.149994
46.285809 -36.883457 -254.949997
58.898174 -25.233648 -254.949997
46.223518 -38.018234 -255.350006
59.213058 -25.039038 -255.350006
46.351311 -37.890549 -255.750000
46.462372 -37.060165 -255.750000
59.313084 -24.939093 -255.750000
58.590069 -24.925297 -255.750000
46.618298 -37.216217 -256.149994
46.784622 -37.457581 -256.549988
46.965050 -36.214790 -256.549988
46.884560 -37.357719 -256.950012
47.018063 -36.267845 -256.950012
59.751450 -24.501074 -256.950012
47.079651 -37.162785 -257.350006
59.944851 -24.307827 -257.350006
47.255981 -36.505955 -257.750000
47.522579 -35.424313 -257.750000
60.076851 -24.175934 -257.750000
58.988338 -23.975458 -257.750000
47.302631 -36.552639 -258.149994
60.118374 -24.134441 -258.149994
47.549461 -36.693348 -258.549988
47.645782 -35.547611 -258.549988
60.215637 -24.037254 -258.549988
47.641006 -36.601879 -259.350006
47.714344 -35.616226 -259.350006
60.408825 -23.844221 -259.350006
47.856838 -35.758835 -259.750000
60.579235 -23.673946 -259.750000
60.689445 -23.563824 -260.149994
47.937206 -35.839268 -260.549988
60.722198 -23.531096 -260.549988
48.106319 -36.136936 -260.950012
60.816280 -23.437090 -261.350006
48.266365 -34.820221 -261.750000
48.335209 -34.889122 -262.149994
60.848751 -23.404646 -262.149994
60.881786 -23.371637 -262.549988
48.375782 -34.929726 -262.950012
60.861485 -23.391924 -262.950012
