# This PCD file was generated using the MATLAB® pcwrite function
# from Computer Vision Toolbox®.
# .PCD v.7 - Point Cloud Data file format
VERSION .7
FIELDS x y z
SIZE 4 4 4
TYPE F F F
COUNT 1 1 1
WIDTH 1420
HEIGHT 1
VIEWPOINT 0 0 0 1 0 0 0
POINTS 1420
DATA ascii
13.323383 -83.453880 -144.149994
14.827706 -82.862984 -144.149994
14.253394 -83.036209 -144.149994
17.249804 -80.442818 -144.149994
61.902962 -34.983089 -144.149994
62.556393 -34.288620 -144.149994
67.643562 -29.940592 -144.149994
69.114944 -27.367735 -144.149994
70.605797 -26.162922 -144.149994
71.477638 -25.687035 -144.149994
128.905579 31.458557 -144.149994
-19.198952 -115.631683 -144.550003
-18.072014 -115.411095 -144.550003
-17.343800 -114.791321 -144.550003
-16.728683 -114.058510 -144.550003
-16.422087 -113.016922 -144.550003
-1.608652 -98.175980 -144.550003
8.244044 -89.441406 -144.550003
10.216949 -87.470078 -144.550003
10.245518 -87.115822 -144.550003
10.593031 -86.115189 -144.550003
12.476144 -83.954391 -144.550003
13.403960 -83.534523 -144.550003
14.280039 -83.062881 -144.550003
17.322241 -80.370438 -144.550003
61.300354 -35.728424 -144.550003
62.110695 -35.190990 -144.550003
62.739956 -34.472324 -144.550003
67.540085 -29.837030 -144.550003
67.941887 -28.890728 -144.550003
68.482651 -28.083361 -144.550003
69.845779 -26.750721 -144.550003
70.649475 -26.206638 -144.550003
71.597374 -25.806862 -144.550003
-19.119291 -115.711411 -144.949997
-18.098379 -115.384705 -144.949997
-16.776112 -114.011047 -144.949997
-4.928728 -102.603691 -144.949997
-1.632612 -98.152000 -144.949997
8.541289 -89.144402 -144.949997
10.800982 -86.323311 -144.949997
11.267667 -85.441940 -144.949997
13.421351 -83.551926 -144.949997
60.463287 -36.239258 -144.949997
62.161663 -35.241997 -144.949997
63.114967 -33.499073 -144.949997
67.905983 -28.854795 -144.949997
128.348785 30.667528 -144.949997
128.914566 31.449570 -144.949997
-19.049240 -115.781517 -145.350006
-18.112513 -115.370560 -145.350006
-17.403458 -114.731613 -145.350006
-4.779330 -102.454414 -145.350006
-4.811770 -101.712715 -145.350006
-0.489853 -97.947258 -145.350006
8.714102 -88.971725 -145.350006
10.852609 -86.834923 -145.350006
10.932876 -86.455307 -145.350006
11.400764 -85.575142 -145.350006
11.976232 -84.802643 -145.350006
12.686706 -84.165115 -145.350006
13.459165 -83.589767 -145.350006
14.896183 -82.794563 -145.350006
14.269933 -83.052765 -145.350006
16.786472 -80.177467 -145.350006
60.801006 -36.577248 -145.350006
61.649807 -36.078156 -145.608002
61.564491 -35.992771 -145.350006
62.809155 -34.541580 -145.350006
63.083797 -33.467876 -145.350006
67.411583 -29.708426 -145.350006
68.435364 -28.036034 -145.350006
69.077698 -27.330458 -145.350006
69.827896 -26.732824 -145.350006
70.658249 -26.215412 -145.350006
71.622612 -25.832121 -145.350006
129.470367 31.688425 -145.350006
128.954498 31.409607 -145.350006
-18.850979 -115.979935 -145.750000
-18.052929 -115.430191 -145.750000
-17.396667 -114.738411 -145.750000
-16.932245 -113.854790 -145.750000
-4.700313 -102.375465 -145.750000
-1.624135 -98.160484 -145.750000
-0.485399 -97.951714 -145.750000
8.830468 -88.855453 -145.750000
10.955534 -86.732079 -145.750000
11.456604 -85.631027 -145.750000
16.763781 -80.154762 -145.750000
60.026287 -37.150333 -145.750000
60.975525 -36.751904 -145.824005
62.309879 -35.390331 -145.750000
63.020744 -33.404778 -145.750000
67.850075 -28.798840 -145.750000
70.706802 -26.264008 -145.750000
71.809387 -25.926662 -145.750000
128.368271 30.587193 -145.750000
128.930679 31.433445 -145.750000
-17.426851 -114.708206 -146.149994
-17.051702 -113.735237 -146.149994
-0.558059 -97.878990 -146.149994
9.124318 -88.561836 -146.149994
11.614932 -85.789482 -146.149994
12.171386 -84.997955 -146.149994
12.817045 -84.295563 -146.149994
13.542783 -83.673454 -146.149994
14.323585 -83.106461 -146.149994
58.977459 -37.449093 -146.149994
60.233952 -37.358166 -146.149994
62.861530 -34.593998 -146.149994
67.302246 -29.598997 -146.149994
128.756622 30.975237 -146.149994
-18.881939 -115.948952 -146.550003
-18.097036 -115.386055 -146.550003
-17.185360 -113.601471 -146.550003
-4.265838 -101.941330 -146.550003
-4.265497 -100.911003 -146.550003
9.334414 -88.351906 -146.550003
11.721353 -85.966866 -146.550003
59.501850 -37.973904 -146.550003
62.567005 -35.161686 -146.550003
62.849659 -34.582115 -146.550003
66.926949 -30.571825 -146.550003
70.718468 -26.275681 -146.550003
-19.836123 -116.342438 -146.949997
-18.797684 -116.033272 -146.949997
-18.072439 -115.410667 -146.949997
-17.507994 -114.626999 -146.949997
-4.197361 -101.872910 -146.949997
-4.197075 -100.979485 -146.949997
-1.614946 -98.169685 -146.949997
-0.603864 -97.833153 -146.949997
9.445826 -88.240585 -146.949997
12.300735 -85.127403 -146.949997
12.903489 -84.382072 -146.949997
13.599470 -83.730186 -146.949997
14.776209 -82.914444 -146.949997
14.356167 -83.139069 -146.949997
16.628565 -80.019440 -146.949997
67.216858 -29.513542 -146.949997
67.741859 -28.690538 -146.949997
69.860764 -26.765720 -146.949997
129.366394 31.584520 -146.949997
128.972305 31.391781 -146.949997
-4.001981 -101.677689 -147.350006
-4.021151 -101.155548 -147.350006
-3.684302 -100.144096 -147.350006
-2.383800 -98.748779 -147.350006
-1.573309 -98.211349 -147.350006
-0.141903 -97.820679 -147.350006
12.603537 -85.085388 -147.350006
16.609058 -79.999916 -147.350006
17.747515 -79.790855 -147.350006
58.988823 -38.737022 -147.350006
62.659039 -35.069729 -147.350006
66.759567 -30.404316 -147.350006
-19.742964 -116.435669 -147.750000
-18.811111 -116.019836 -147.750000
-18.133862 -115.349197 -147.750000
-17.652048 -114.482826 -147.750000
-3.582241 -100.246239 -147.750000
-3.042461 -99.438026 -147.750000
9.979267 -87.707565 -147.750000
9.940100 -86.810158 -147.750000
13.083307 -84.562035 -147.750000
13.730938 -83.861763 -147.750000
17.627777 -79.671021 -147.750000
58.470734 -39.254700 -147.750000
58.278675 -39.446602 -148.084000
62.689419 -34.421749 -147.750000
66.662239 -30.306906 -147.750000
67.138115 -29.434742 -147.750000
-19.583082 -116.595673 -148.149994
-18.774712 -116.056267 -148.149994
-18.152660 -115.330383 -148.149994
-17.825287 -114.309448 -148.149994
-3.632862 -101.308861 -148.149994
-3.540604 -100.287910 -148.149994
-2.338777 -98.793839 -148.149994
-1.564762 -98.219902 -148.149994
-0.097972 -97.776787 -148.149994
-0.603864 -97.833153 -148.149994
10.101433 -87.585495 -148.149994
69.882881 -26.787857 -148.149994
70.823288 -26.380587 -148.149994
-18.764179 -116.066803 -148.550003
-18.156975 -115.326065 -148.550003
-17.901695 -114.232979 -148.550003
-3.407982 -101.084160 -148.550003
-3.385668 -100.442970 -148.550003
-2.940470 -99.540092 -148.550003
-1.509557 -98.275154 -148.550003
-0.571773 -97.865273 -148.550003
10.376253 -87.310898 -148.550003
10.441702 -85.963745 -148.550003
17.464287 -79.507401 -148.550003
57.774662 -39.950214 -148.550003
66.603996 -30.248619 -148.550003
69.908684 -26.813677 -148.550003
70.905701 -26.463068 -148.550003
-19.570923 -116.607841 -148.949997
-18.221012 -115.261978 -148.949997
-3.116402 -100.792809 -148.949997
-2.840592 -99.640053 -148.949997
-2.220381 -98.912331 -148.949997
10.628792 -87.058556 -148.949997
62.282848 -35.445621 -148.949997
66.272316 -31.265238 -148.949997
67.055344 -29.351904 -148.949997
-20.556561 -116.969986 -149.350006
-18.319899 -115.163010 -149.350006
-2.799171 -99.681503 -149.350006
-2.214940 -98.917778 -149.350006
-1.498033 -98.286690 -149.350006
-0.105970 -97.784775 -149.350006
-0.585556 -97.851479 -149.350006
10.780807 -86.906662 -149.350006
10.760763 -86.283058 -149.350006
57.136669 -40.587704 -149.350006
66.525185 -30.169748 -149.350006
69.906136 -26.811129 -149.350006
70.946205 -26.503599 -149.350006
-19.487940 -116.690895 -149.750000
-18.809698 -116.021248 -149.750000
-18.317072 -115.165840 -149.750000
-2.668340 -99.812439 -149.750000
-0.464901 -97.972229 -149.750000
11.075719 -86.611984 -149.750000
11.216281 -85.390518 -149.750000
17.333597 -79.376602 -149.750000
18.420170 -79.115479 -149.750000
56.930183 -40.794025 -149.826004
62.150143 -35.578220 -149.750000
61.886070 -34.966187 -149.750000
66.138512 -31.131329 -149.750000
66.512390 -30.156940 -149.750000
69.971451 -26.876497 -149.750000
71.111977 -26.623522 -149.750000
-20.399084 -117.127586 -150.149994
-19.488155 -116.690674 -150.149994
-18.424509 -115.058319 -150.149994
-2.013001 -99.119873 -150.149994
-1.332921 -98.451935 -150.149994
-0.443978 -97.993164 -150.149994
11.366454 -86.321480 -150.149994
11.406275 -85.580658 -150.149994
56.579388 -41.144539 -150.149994
62.007462 -35.720787 -150.149994
61.649807 -36.078156 -150.537003
-18.902647 -115.928230 -150.550003
-1.953979 -99.178947 -150.550003
-1.331648 -98.453201 -150.550003
-0.265698 -97.944374 -150.550003
-0.459530 -97.977600 -150.550003
11.515645 -86.172409 -150.550003
11.540433 -85.714928 -150.550003
18.197594 -78.892723 -150.550003
56.362503 -41.361252 -150.550003
56.255970 -41.467701 -150.903000
66.016090 -31.008806 -150.550003
66.421776 -30.066256 -150.550003
70.007500 -26.912571 -150.550003
-20.232485 -117.294327 -150.949997
-19.472178 -116.706665 -150.949997
-18.866673 -115.964226 -150.949997
-1.727795 -99.405312 -151.009003
11.981889 -84.808304 -150.949997
61.498543 -35.926773 -150.949997
65.990356 -30.983059 -150.949997
66.424957 -30.069441 -150.949997
70.082283 -26.987415 -150.949997
-20.222023 -117.304794 -151.350006
-19.477409 -116.701431 -151.350006
-18.922297 -115.908562 -151.350006
12.082685 -85.605820 -151.350006
12.140924 -84.967468 -151.350006
55.850071 -41.873276 -151.350006
61.492767 -36.235073 -151.350006
60.998535 -35.426369 -151.350006
65.695145 -32.036037 -151.729004
-21.266043 -117.608360 -151.750000
-20.229870 -117.296944 -151.750000
-19.536711 -116.642082 -151.750000
-19.094765 -115.735954 -151.750000
12.570364 -84.048683 -151.750000
18.042091 -78.737099 -151.750000
55.678036 -42.045174 -151.750000
55.581722 -42.141411 -152.143005
61.215187 -36.512428 -151.750000
60.975525 -36.751904 -151.970993
69.172699 -27.425529 -151.750000
70.103836 -27.008987 -151.750000
-21.062901 -117.811661 -152.149994
-20.155796 -117.371071 -152.149994
-19.488577 -116.690254 -152.149994
-19.090096 -115.740631 -152.149994
12.661047 -84.139442 -152.149994
18.030924 -78.725922 -152.149994
19.072750 -78.420151 -152.149994
65.874367 -30.866976 -152.149994
69.245995 -27.498886 -152.149994
70.202019 -27.107243 -152.149994
-20.160034 -117.366829 -152.550003
-19.527243 -116.651558 -152.550003
12.814640 -84.293152 -152.550003
18.954571 -78.301880 -152.550003
55.207542 -42.515293 -152.550003
55.151546 -41.710892 -152.550003
60.808228 -36.919067 -152.550003
-20.977163 -117.897469 -152.949997
-20.190924 -117.335915 -152.949997
-19.626198 -116.552528 -152.949997
12.940952 -84.419571 -152.949997
55.045635 -42.677071 -152.949997
60.501785 -37.225266 -152.949997
60.301311 -37.425579 -153.085007
65.377251 -32.353683 -152.949997
65.425636 -31.766308 -152.949997
65.797752 -30.790295 -152.949997
69.269318 -27.522226 -152.949997
70.259270 -27.164543 -152.949997
-20.872271 -118.002441 -153.350006
-20.140244 -117.386635 -153.350006
-19.574530 -116.604233 -153.350006
13.361762 -83.492294 -153.350006
18.858656 -78.205887 -153.350006
54.963970 -42.758675 -153.350006
69.303032 -27.555969 -153.350006
70.366211 -27.271570 -153.350006
-20.876865 -117.997849 -153.750000
-20.174168 -117.352684 -153.750000
13.529635 -83.660301 -153.750000
18.780340 -78.127510 -153.750000
54.756554 -42.965919 -153.750000
60.059387 -37.667313 -153.750000
59.627102 -38.099255 -154.136002
65.336075 -31.676680 -153.750000
-21.916367 -118.305946 -154.149994
-20.907825 -117.966858 -154.149994
-20.217148 -117.309669 -154.149994
-19.787848 -116.390747 -154.149994
13.679271 -83.810051 -154.149994
13.999362 -82.781975 -154.149994
19.736149 -77.735657 -154.149994
54.517319 -43.204967 -154.149994
54.496685 -42.403973 -154.149994
69.319504 -27.572451 -154.149994
70.422905 -27.312040 -154.149994
-21.678728 -118.543770 -154.550003
-20.825760 -118.048988 -154.550003
-20.177280 -117.349571 -154.550003
-19.842485 -116.336067 -154.550003
14.056967 -82.839630 -154.550003
18.722168 -78.069290 -154.550003
19.679106 -77.678574 -154.550003
59.406467 -38.319714 -154.550003
-20.242023 -117.284775 -154.949997
14.219959 -83.002747 -154.949997
14.624238 -82.058784 -154.949997
19.563896 -77.563271 -154.949997
54.397514 -42.304722 -154.949997
59.169136 -38.556850 -154.949997
58.952888 -38.772930 -155.169006
65.188072 -31.528555 -154.949997
-21.645084 -118.577438 -155.350006
-20.869726 -118.004990 -155.350006
14.379490 -83.162407 -155.350006
14.694213 -82.128815 -155.350006
54.361252 -42.268433 -155.350006
58.871117 -38.854637 -155.350006
64.910812 -32.599499 -155.350006
68.456070 -28.056759 -155.350006
69.409836 -27.662855 -155.350006
-21.539555 -118.683052 -155.750000
-20.817703 -118.057053 -155.750000
-20.294474 -117.232285 -155.750000
14.446707 -83.243683 -155.750000
14.718173 -82.152794 -155.750000
19.465858 -77.465157 -155.750000
54.200214 -43.521816 -155.750000
58.671913 -39.053680 -155.750000
57.747284 -38.914787 -155.750000
64.807899 -32.496506 -155.750000
65.075195 -31.415586 -155.750000
69.461014 -27.714071 -155.750000
-22.568102 -119.001976 -156.149994
-20.830004 -118.044746 -156.149994
14.891276 -82.326035 -156.149994
15.323257 -81.409935 -156.149994
18.567583 -77.914581 -156.149994
19.412703 -77.411957 -156.149994
20.422026 -77.073517 -156.149994
54.119183 -43.374622 -156.149994
54.396526 -42.303734 -156.149994
58.238358 -39.486893 -156.149994
56.958076 -39.473515 -156.149994
64.740028 -32.990391 -156.149994
65.055824 -31.396202 -156.149994
-22.464834 -119.105324 -156.550003
-21.552982 -118.669617 -156.550003
-20.462976 -117.063644 -156.550003
15.377259 -81.463982 -156.550003
20.304478 -76.955872 -156.550003
54.021854 -43.700035 -156.550003
54.045818 -43.301197 -156.550003
54.420345 -42.327572 -156.550003
54.976894 -41.536098 -156.550003
58.107700 -39.617443 -156.550003
57.179310 -39.694923 -156.550003
64.650421 -32.338898 -156.550003
68.502296 -28.103022 -156.550003
69.499321 -27.752413 -156.550003
-22.273357 -119.296951 -156.949997
-21.496931 -118.725716 -156.949997
-20.885979 -117.988724 -156.949997
15.120847 -82.570076 -156.949997
15.409492 -81.496239 -156.949997
15.903108 -80.641823 -156.949997
19.358070 -77.357277 -156.949997
54.097183 -43.624767 -156.949997
55.691998 -40.903275 -156.949997
56.401196 -40.264618 -156.949997
58.196903 -39.528313 -156.949997
57.249142 -39.764816 -156.949997
64.552505 -33.177773 -156.949997
69.560883 -27.814024 -156.949997
15.549587 -81.636444 -157.350006
16.008713 -80.747513 -157.350006
20.170324 -76.821617 -157.350006
54.566589 -42.473934 -157.350006
55.127796 -41.687122 -157.350006
55.808548 -41.019920 -157.350006
57.452164 -40.272457 -157.350006
56.669361 -40.532997 -157.350006
64.582634 -32.271057 -157.350006
-22.260063 -119.310257 -157.750000
-21.501245 -118.721397 -157.750000
-20.912769 -117.961914 -157.750000
15.672642 -81.759598 -157.750000
16.051470 -80.790306 -157.750000
20.122471 -76.773720 -157.750000
21.117088 -76.420708 -157.750000
54.576984 -43.145348 -157.750000
54.907490 -42.815105 -157.917007
54.750080 -42.657570 -157.750000
55.581722 -42.141411 -157.988998
55.346561 -41.906059 -157.750000
56.255970 -41.467701 -157.750000
68.583588 -28.184374 -157.750000
69.600395 -27.853567 -157.750000
-23.110697 -119.807220 -158.149994
15.756897 -81.843918 -158.149994
16.079884 -80.818741 -158.149994
16.585451 -79.976288 -158.149994
17.154415 -79.197281 -158.149994
19.259396 -77.258530 -158.149994
64.306686 -33.423393 -158.149994
-22.163445 -119.406952 -158.550003
-21.478979 -118.743675 -158.550003
-21.020489 -117.854111 -158.550003
16.205210 -80.944168 -158.550003
16.663908 -80.054810 -158.550003
17.230398 -79.273323 -158.550003
19.254801 -77.253929 -158.550003
20.048607 -76.699799 -158.550003
64.228828 -33.265392 -158.550003
64.424026 -32.112324 -158.550003
68.628403 -28.229223 -158.550003
-22.166906 -119.403488 -158.949997
-21.153584 -117.720909 -158.949997
21.753248 -75.942955 -158.949997
20.855776 -76.159187 -158.949997
64.067734 -33.662159 -158.949997
-22.916605 -120.001472 -159.350006
-21.547682 -118.674919 -159.350006
16.343676 -81.082741 -159.350006
16.722504 -80.113449 -159.350006
17.258600 -79.301552 -159.350006
17.845804 -78.540649 -159.350006
19.203695 -77.202782 -159.350006
20.793648 -76.097008 -159.350006
21.810453 -75.766197 -159.350006
63.991474 -33.027851 -159.350006
-22.866491 -120.051620 -159.750000
-22.131638 -119.438789 -159.750000
-21.541323 -118.681282 -159.750000
16.826761 -80.217789 -159.750000
17.327660 -79.370659 -159.750000
17.905462 -78.600357 -159.750000
18.527014 -77.873985 -159.750000
19.966547 -76.617676 -159.750000
21.708385 -75.664055 -159.750000
63.942169 -33.787621 -159.750000
63.972038 -33.008400 -159.750000
69.611671 -28.122627 -159.750000
68.652359 -28.253202 -159.750000
-23.902313 -120.363258 -160.149994
-22.135380 -119.435043 -160.149994
-21.593487 -118.629082 -160.149994
20.720772 -76.024071 -160.149994
-23.717125 -120.548599 -160.550003
-22.838358 -120.079781 -160.550003
-22.168388 -119.402008 -160.550003
-21.732304 -118.490150 -160.550003
16.946142 -80.337265 -160.550003
17.361444 -79.404472 -160.550003
17.906876 -78.601776 -160.550003
18.505098 -77.852051 -160.550003
19.184259 -77.183334 -160.550003
22.391739 -75.304977 -160.550003
21.536770 -75.492302 -160.550003
63.792061 -33.937607 -160.550003
68.667915 -28.268766 -160.550003
-23.617254 -120.648552 -160.949997
-22.784496 -120.133682 -160.949997
-22.140827 -119.429588 -160.949997
-21.696400 -118.526085 -160.949997
17.118513 -80.574005 -160.949997
17.436440 -79.479530 -160.949997
17.971125 -78.666069 -160.949997
18.562569 -77.909569 -160.949997
19.217197 -77.216293 -160.949997
19.920321 -76.571411 -160.949997
20.670446 -75.973709 -160.949997
21.496979 -75.452477 -160.949997
63.823746 -32.859989 -160.949997
68.719719 -28.320614 -160.949997
-21.850981 -118.371384 -161.350006
17.502808 -79.545952 -161.350006
21.447781 -75.403236 -161.350006
22.415464 -75.023270 -161.350006
63.773487 -32.809692 -161.350006
-23.568413 -120.697433 -161.750000
-22.818848 -120.099304 -161.750000
-22.222958 -119.347397 -161.750000
17.545080 -79.588257 -161.750000
18.573877 -77.920883 -161.750000
19.197050 -77.196129 -161.750000
19.879816 -76.530876 -161.750000
63.547588 -34.181885 -161.750000
68.709686 -28.310572 -161.750000
-24.490789 -121.124016 -162.149994
-23.482674 -120.783234 -162.149994
-22.767040 -120.151154 -162.149994
-22.187122 -119.383255 -162.149994
17.665169 -79.708443 -162.149994
18.069799 -78.764824 -162.149994
18.629076 -77.976128 -162.149994
19.238682 -77.237801 -162.149994
19.897133 -76.548203 -162.149994
20.615599 -75.918816 -162.149994
23.048761 -74.648476 -162.149994
22.229855 -74.837517 -162.149994
68.790543 -28.391499 -162.149994
-23.481829 -120.784081 -162.550003
-22.781460 -120.136719 -162.550003
18.122242 -78.817314 -162.550003
21.342392 -75.297768 -162.550003
22.155777 -74.763374 -162.550003
23.180647 -74.440636 -162.550003
-24.353315 -121.261604 -162.949997
-23.486982 -120.778923 -162.949997
-22.817434 -120.100716 -162.949997
-22.359655 -119.210587 -162.949997
19.245115 -77.244232 -162.949997
23.036102 -74.295975 -162.949997
63.331470 -33.715748 -162.949997
68.781708 -28.382652 -162.949997
-24.226368 -121.388649 -163.350006
-23.425211 -120.840744 -163.350006
-22.775944 -120.142242 -163.350006
-22.377398 -119.192833 -163.350006
18.213211 -78.908348 -163.350006
18.700323 -78.047432 -163.350006
19.910425 -76.561508 -163.350006
20.579262 -75.882454 -163.350006
63.237892 -34.491333 -163.350006
68.897911 -28.498945 -163.350006
-24.201490 -121.413551 -163.750000
-22.554033 -119.016052 -163.750000
18.371538 -79.066803 -163.750000
18.762598 -78.109756 -163.750000
19.303713 -77.302879 -163.750000
22.047281 -74.654800 -163.750000
23.757069 -73.940735 -163.750000
22.891342 -74.151100 -163.750000
-25.254272 -121.708206 -164.149994
-24.203821 -121.411217 -164.149994
-23.470373 -120.795547 -164.149994
-22.873486 -120.044624 -164.149994
18.800766 -78.147957 -164.149994
20.545547 -75.848709 -164.149994
21.253828 -75.209137 -164.149994
63.151157 -33.535290 -164.149994
67.816139 -28.764881 -164.149994
68.939682 -28.540756 -164.149994
-25.023846 -121.938812 -164.550003
-24.118790 -121.496315 -164.550003
-23.425350 -120.840607 -164.550003
-22.877094 -120.041016 -164.550003
18.846922 -78.194145 -164.550003
19.905972 -76.557053 -164.550003
22.797268 -74.056953 -164.550003
23.759157 -73.671043 -164.550003
63.048737 -34.680340 -164.550003
67.884071 -28.832863 -164.550003
69.016441 -28.617577 -164.550003
18.963619 -78.310936 -164.949997
19.393764 -77.393005 -164.949997
21.243366 -75.198662 -164.949997
21.967901 -74.575356 -164.949997
63.087753 -33.471840 -164.949997
-24.979319 -121.983376 -165.350006
-24.137447 -121.477638 -165.350006
-23.470304 -120.795616 -165.350006
24.397326 -73.300987 -165.350006
23.562870 -73.474594 -165.350006
62.894032 -34.834923 -165.350006
67.887672 -28.836473 -165.350006
-24.832794 -122.130020 -165.750000
-24.081396 -121.533737 -165.750000
-23.449947 -120.815987 -165.750000
-23.050337 -119.867630 -165.750000
19.108660 -78.456093 -165.750000
19.445074 -77.444351 -165.750000
19.986267 -76.637413 -165.750000
21.235241 -75.190529 -165.750000
24.511427 -73.186974 -165.750000
23.526043 -73.437744 -165.750000
68.946236 -28.787539 -165.750000
67.935310 -28.884150 -165.750000
-25.897032 -122.413216 -166.149994
-23.195728 -119.722122 -166.149994
19.544882 -77.544243 -166.149994
20.033270 -76.684448 -166.149994
20.618214 -75.921432 -166.149994
22.669046 -73.928627 -166.149994
23.464201 -73.375847 -166.149994
62.778587 -34.950275 -166.149994
62.775368 -34.507767 -166.149994
-25.809950 -122.500366 -166.550003
-24.820774 -122.142044 -166.550003
-23.500416 -120.765480 -166.550003
21.928745 -74.536163 -166.550003
24.347980 -72.911911 -166.550003
67.953194 -28.902046 -166.550003
-25.628014 -122.682449 -166.949997
-24.766281 -122.196579 -166.949997
-24.070864 -121.544281 -166.949997
-23.521830 -120.744049 -166.949997
19.634367 -77.633797 -166.949997
20.063593 -76.714798 -166.949997
20.624712 -75.927933 -166.949997
21.249590 -75.204895 -166.949997
25.031782 -72.667030 -166.949997
62.638035 -34.370323 -166.949997
68.824562 -28.909111 -166.949997
20.164032 -76.815315 -167.350006
20.690168 -75.993446 -167.350006
21.291788 -75.247124 -167.350006
22.633709 -73.893265 -167.350006
23.398745 -73.310341 -167.350006
25.155081 -72.543831 -167.350006
24.236374 -72.800217 -167.350006
62.604568 -35.124153 -167.350006
68.034409 -28.983324 -167.350006
-25.565388 -122.745125 -167.750000
-24.765505 -122.197357 -167.750000
-24.082104 -121.533028 -167.750000
-23.594210 -120.671608 -167.750000
62.544025 -34.276237 -167.750000
68.773560 -28.960075 -167.750000
-26.574776 -123.083206 -168.149994
-25.490042 -122.820534 -168.149994
-24.107201 -121.507912 -168.149994
-23.729992 -120.535721 -168.149994
20.238531 -76.889877 -168.149994
20.722115 -76.025414 -168.149994
21.305712 -75.261055 -168.149994
21.938360 -74.545792 -168.149994
23.342413 -73.253967 -168.149994
24.134872 -72.698639 -168.149994
25.068632 -72.284714 -168.149994
68.084602 -29.033552 -168.149994
-26.505432 -123.152611 -168.550003
-24.097725 -121.517395 -168.550003
-23.778763 -120.486908 -168.550003
20.435595 -77.087097 -168.550003
20.800781 -76.104149 -168.550003
21.357658 -75.313049 -168.550003
22.628899 -73.888451 -168.550003
62.450428 -35.278172 -168.550003
62.468887 -34.201042 -168.550003
-26.392839 -123.265289 -168.949997
-25.460070 -122.850525 -168.949997
-24.728182 -122.234711 -168.949997
-23.969254 -120.296272 -168.949997
20.847643 -76.151047 -168.949997
24.092396 -72.656120 -168.949997
25.781967 -71.917442 -168.949997
24.932283 -72.148262 -168.949997
68.596573 -29.136921 -168.949997
-26.239176 -123.419075 -169.350006
-25.427488 -122.883133 -169.350006
-24.190884 -121.424164 -169.350006
20.877119 -76.180542 -169.350006
21.382967 -75.338371 -169.350006
21.969881 -74.577332 -169.350006
23.319796 -73.231331 -169.350006
62.275845 -35.452618 -169.350006
64.991318 -32.680073 -169.350006
65.626518 -31.967348 -169.350006
68.513527 -29.219904 -169.350006
-25.391228 -122.919426 -169.750000
-24.706839 -122.256073 -169.750000
-24.168196 -121.446869 -169.750000
20.933105 -76.762451 -169.750000
21.010992 -76.314522 -169.750000
21.458172 -75.413643 -169.750000
22.027842 -74.635338 -169.750000
22.648197 -73.907768 -169.750000
24.861393 -72.077309 -169.750000
25.786667 -71.654755 -169.750000
62.215645 -35.512768 -169.750000
64.977745 -32.666489 -169.750000
65.649132 -31.989985 -169.750000
67.098747 -29.395338 -169.750000
68.405998 -29.327341 -169.750000
-26.182699 -123.475601 -170.149994
-24.721399 -122.241501 -170.149994
-24.227003 -121.388016 -170.149994
21.133205 -76.436836 -170.149994
21.499523 -75.455025 -170.149994
24.046591 -72.610283 -170.149994
24.808027 -72.023903 -170.149994
62.074310 -35.653992 -170.149994
-27.189827 -123.815956 -170.550003
-24.760624 -122.202248 -170.550003
-24.361513 -121.253395 -170.550003
21.521294 -75.476814 -170.550003
22.059576 -74.667099 -170.550003
22.665157 -73.924736 -170.550003
23.329195 -73.240738 -170.550003
25.626358 -71.494324 -170.550003
64.892578 -32.581249 -170.550003
-27.060410 -123.945480 -170.949997
-26.105795 -123.552567 -170.949997
-25.362108 -122.948570 -170.949997
-24.732422 -122.230469 -170.949997
-24.359463 -121.255447 -170.949997
21.490101 -76.205894 -170.949997
21.636858 -75.592468 -170.949997
22.121780 -74.729355 -170.949997
22.721355 -73.980980 -170.949997
23.365736 -73.277306 -170.949997
24.058962 -72.622665 -170.949997
24.797350 -72.013222 -170.949997
25.604729 -71.472672 -170.949997
61.939339 -35.788853 -170.949997
61.914486 -34.994621 -170.949997
65.627434 -31.968267 -170.949997
68.196617 -29.536562 -170.949997
67.256157 -29.552876 -170.949997
-24.519064 -121.095718 -171.350006
21.745850 -75.701546 -171.350006
23.340929 -73.252480 -171.350006
24.020931 -72.584602 -171.350006
61.830402 -35.897705 -171.350006
-25.384514 -122.926147 -171.750000
-24.830250 -122.132561 -171.750000
22.190058 -74.797684 -171.750000
22.736551 -73.996185 -171.750000
26.394861 -70.915009 -171.750000
64.246140 -33.282722 -171.750000
64.829384 -32.518005 -171.750000
65.585800 -31.926601 -171.750000
68.154381 -29.578758 -171.750000
67.265343 -29.562071 -171.750000
-26.834862 -124.171204 -172.149994
-26.022181 -123.636246 -172.149994
-25.342316 -122.968376 -172.149994
-24.800493 -122.162346 -172.149994
22.791750 -74.051430 -172.149994
23.396345 -73.307938 -172.149994
24.740807 -71.956635 -172.149994
25.493759 -71.361618 -172.149994
61.649807 -36.078156 -172.483002
61.710072 -34.790047 -172.149994
67.357094 -29.653891 -172.149994
-26.805882 -124.200211 -172.550003
22.353971 -74.961731 -172.550003
23.383694 -73.295280 -172.550003
24.013653 -72.577316 -172.550003
24.694933 -71.910721 -172.550003
26.265793 -70.785843 -172.550003
63.993172 -33.736656 -172.550003
68.025215 -29.707825 -172.550003
-27.841352 -124.512199 -172.949997
-26.041050 -123.617363 -172.949997
-25.399500 -122.911148 -172.949997
27.137138 -70.309456 -172.949997
61.481236 -36.246593 -172.949997
64.174400 -33.210926 -172.949997
64.826630 -32.515247 -172.949997
65.627785 -31.968622 -172.949997
67.960770 -29.772217 -172.949997
-27.664858 -124.688835 -173.350006
-26.726221 -124.279930 -173.350006
-25.370165 -122.940506 -173.350006
-24.961927 -122.000778 -173.350006
22.510790 -75.186020 -173.350006
22.885691 -74.145447 -173.350006
24.057903 -72.621605 -173.350006
24.714933 -71.930733 -173.350006
25.430853 -71.298660 -173.350006
26.199141 -70.719131 -173.350006
65.723228 -32.007977 -173.350006
67.828278 -29.904606 -173.350006
-26.714275 -124.291885 -173.750000
-25.403599 -122.907043 -173.750000
-25.068874 -121.893753 -173.750000
22.955029 -74.214844 -173.750000
23.466034 -73.377686 -173.750000
26.987579 -70.159775 -173.750000
63.652069 -34.077488 -173.750000
67.843559 -29.889338 -173.750000
-27.563993 -124.789780 -174.149994
-26.726360 -124.279793 -174.149994
-26.017797 -123.640633 -174.149994
24.063486 -72.627190 -174.149994
25.380453 -71.248222 -174.149994
26.123228 -70.643158 -174.149994
61.230892 -36.496738 -174.149994
64.153336 -33.189846 -174.149994
64.842110 -32.530743 -174.149994
67.796799 -29.936058 -174.149994
-27.474367 -124.879478 -174.550003
-26.000126 -123.658318 -174.893005
-25.428055 -122.882568 -174.550003
23.069536 -74.329437 -174.550003
23.522230 -73.433929 -174.550003
24.708149 -71.923950 -174.550003
26.901836 -70.073967 -174.550003
27.847120 -69.671577 -174.550003
63.587906 -33.972389 -174.550003
65.487740 -32.243279 -174.550003
67.658997 -30.073748 -174.550003
-57.688995 -155.321960 -175.074005
-57.014862 -154.648361 -175.011002
-56.340721 -153.974762 -174.973999
-55.665863 -153.300446 -175.016006
-54.991734 -152.626846 -175.162994
-54.317589 -151.953247 -175.113998
-53.643448 -151.279633 -175.089005
-52.969303 -150.606033 -175.166000
-28.628229 -125.072968 -174.949997
23.584290 -73.496033 -174.949997
24.106178 -72.669922 -174.949997
26.082304 -70.602203 -174.949997
61.101299 -36.626228 -174.949997
-58.309376 -155.941849 -175.350006
-59.036816 -155.321350 -175.350006
-56.243343 -152.722504 -175.350006
-55.288528 -152.329819 -175.350006
-54.980804 -151.289505 -175.350006
-52.295158 -149.932419 -175.468002
-28.497820 -125.203484 -175.350006
-26.758450 -124.416039 -175.350006
-27.444185 -124.909683 -175.350006
-26.011503 -123.646935 -175.350006
-25.525526 -122.785019 -175.350006
28.458654 -69.242889 -175.350006
27.651896 -69.476196 -175.350006
65.421814 -32.309155 -175.350006
64.882401 -32.571064 -175.350006
-58.610729 -156.242966 -175.750000
-55.575851 -152.042267 -175.750000
-28.313337 -125.388115 -175.750000
-27.374916 -124.979004 -175.750000
-25.592180 -122.718315 -175.750000
23.643593 -73.555382 -175.750000
24.139328 -72.703094 -175.750000
24.729849 -71.945663 -175.750000
25.364761 -71.232513 -175.750000
26.807621 -69.979675 -175.750000
27.621077 -69.445358 -175.750000
60.874084 -36.853260 -175.750000
63.535530 -33.919968 -175.750000
64.145706 -33.182205 -175.750000
67.483780 -30.248829 -175.750000
66.581375 -30.225985 -175.750000
-58.854778 -156.486816 -176.149994
-55.637913 -151.980148 -176.149994
-51.262379 -148.900467 -176.149994
-27.358732 -124.995201 -176.149994
23.787996 -73.699905 -176.149994
24.206408 -72.770226 -176.149994
26.036715 -70.556580 -176.149994
27.558949 -69.383179 -176.149994
60.785805 -36.941475 -176.149994
63.323486 -34.405807 -176.149994
-59.037281 -156.669174 -176.634995
-51.097557 -148.735779 -176.550003
-28.215445 -125.486084 -176.550003
-27.348412 -125.005531 -176.610001
-26.030449 -123.627975 -176.550003
-25.669434 -122.640999 -176.550003
24.249876 -72.813728 -176.550003
28.385195 -68.861656 -176.550003
60.646660 -37.080505 -176.550003
64.158073 -33.194584 -176.550003
64.931740 -32.620441 -176.550003
67.461639 -30.270952 -176.550003
66.608521 -30.253147 -176.550003
-59.344292 -156.975937 -176.949997
-27.625000 -125.281898 -176.949997
-28.122917 -125.578682 -176.949997
-26.215172 -123.873192 -176.949997
-26.045435 -123.612976 -176.949997
-25.831295 -122.479012 -176.949997
24.274403 -72.838280 -176.949997
24.784557 -72.000420 -176.949997
25.379251 -71.247017 -176.949997
27.480911 -69.305077 -176.949997
63.518780 -33.903206 -176.949997
67.376045 -30.356478 -176.949997
-28.127657 -125.573944 -177.350006
24.839197 -72.055099 -177.350006
25.411133 -71.278923 -177.350006
26.042511 -70.562378 -177.350006
26.729799 -69.901794 -177.350006
28.257401 -68.733757 -177.350006
29.248127 -68.376717 -177.350006
60.521523 -37.205544 -177.350006
60.482231 -36.258217 -177.350006
63.525284 -33.909714 -177.350006
64.952393 -32.778202 -177.350006
64.207268 -33.243816 -177.350006
-59.289814 -156.921509 -177.750000
-27.638437 -125.295326 -177.750000
-26.081198 -123.577179 -177.750000
24.459375 -73.023399 -177.750000
29.116024 -68.244507 -177.750000
67.313301 -30.419172 -177.750000
-59.330841 -156.962509 -178.149994
-51.006306 -148.644592 -178.149994
-29.054348 -125.994797 -178.149994
-28.043333 -125.658333 -178.149994
24.515783 -73.079849 -178.149994
24.876940 -72.092873 -178.149994
25.414385 -71.282181 -178.149994
26.019327 -70.539177 -178.149994
26.680813 -69.852768 -178.149994
28.165304 -68.641594 -178.149994
60.308422 -36.084267 -178.149994
62.924934 -34.657452 -178.149994
63.516659 -33.901085 -178.149994
64.772499 -32.957947 -178.149994
-29.004089 -126.045097 -178.550003
-26.395559 -124.053436 -178.550003
-26.158173 -123.500145 -178.550003
24.759792 -72.938805 -178.550003
24.964235 -72.180237 -178.550003
25.474178 -71.342018 -178.550003
28.953241 -68.081589 -178.550003
64.613480 -33.116844 -178.550003
64.256531 -33.293121 -178.550003
67.148621 -30.583723 -178.550003
-59.235348 -156.867081 -178.949997
-55.642365 -151.975693 -178.949997
-50.963863 -148.602188 -178.949997
28.889063 -68.017365 -178.949997
29.822329 -67.602943 -178.949997
60.118805 -37.607941 -178.949997
64.592545 -33.137764 -178.949997
67.111626 -30.620689 -178.949997
-59.350651 -156.982300 -179.350006
-28.316822 -125.973175 -179.350006
-28.822437 -126.226891 -179.350006
-26.590086 -124.247810 -179.350006
-26.312893 -123.345299 -179.350006
25.052162 -72.268234 -179.350006
25.489660 -71.357513 -179.350006
26.059687 -70.579567 -179.350006
26.680178 -69.852127 -179.350006
27.347815 -69.171875 -179.350006
28.057510 -68.533714 -179.350006
60.020054 -37.706612 -179.350006
62.578751 -35.149956 -179.350006
63.502308 -33.886723 -179.350006
64.260353 -33.296944 -179.350006
-51.016914 -148.655197 -179.750000
-26.301731 -123.356476 -179.750000
25.207285 -72.491669 -179.750000
25.568048 -71.435966 -179.750000
26.100681 -70.620598 -179.750000
27.356018 -69.180084 -179.750000
28.802971 -67.931198 -179.750000
29.646608 -67.427086 -179.750000
59.980442 -37.746193 -179.750000
62.527111 -35.201553 -179.750000
62.324017 -35.404484 -180.119995
62.865276 -34.597744 -179.750000
64.300072 -33.336697 -179.750000
-59.395931 -157.027542 -180.149994
-50.988613 -148.626923 -180.149994
-28.467501 -126.123726 -180.149994
-28.777199 -126.272171 -180.149994
-26.366259 -123.291893 -180.149994
29.578186 -67.358612 -180.149994
66.905136 -30.827011 -180.149994
65.816055 -30.808619 -180.149994
-28.731895 -126.317505 -180.550003
-26.696249 -124.309929 -180.550003
25.629044 -71.497009 -180.550003
26.115171 -70.635101 -180.550003
26.682722 -69.854675 -180.550003
30.428257 -66.860931 -180.550003
59.831112 -37.895405 -180.550003
62.270721 -35.351143 -180.550003
62.805054 -34.537479 -180.550003
64.298233 -33.334858 -180.550003
-59.379654 -157.011276 -180.949997
-50.996395 -148.634689 -180.949997
-29.779306 -126.617538 -180.949997
-26.690540 -124.348183 -180.949997
-26.595840 -123.062126 -180.949997
25.663691 -72.035629 -180.949997
25.753237 -71.621300 -180.949997
26.187481 -70.707466 -180.949997
26.735662 -69.907661 -180.949997
27.337709 -69.161758 -180.949997
28.005629 -68.481789 -180.949997
28.729464 -67.857635 -180.949997
29.486511 -67.266861 -180.949997
62.810074 -34.542503 -180.949997
63.497078 -33.881489 -180.949997
64.362289 -33.367836 -180.949997
66.760406 -30.971628 -180.949997
65.951485 -30.944151 -180.949997
-59.428463 -157.060043 -181.350006
-26.733572 -124.272575 -181.350006
31.248663 -66.455101 -181.350006
30.273958 -66.706512 -181.350006
59.627102 -38.099255 -181.733994
59.635132 -36.758865 -181.350006
-59.270008 -156.901718 -181.750000
-51.040264 -148.678528 -181.750000
-28.955595 -126.611435 -181.750000
-26.925394 -124.582848 -181.750000
-26.674269 -124.331924 -182.018005
-26.797895 -124.208199 -181.750000
26.219637 -70.739647 -181.750000
26.747467 -69.919472 -181.750000
27.321381 -69.145416 -181.750000
27.962513 -68.438637 -181.750000
29.407488 -67.187775 -181.750000
30.208082 -66.640587 -181.750000
31.179935 -66.264648 -181.750000
61.909630 -35.818539 -181.750000
64.387543 -33.342602 -181.750000
66.680611 -31.051357 -181.750000
66.030151 -31.022882 -181.750000
-50.785603 -148.424072 -182.149994
-29.488304 -126.908775 -182.149994
-26.519348 -124.177132 -182.149994
-26.628920 -123.029022 -182.149994
26.456142 -70.976341 -182.149994
26.854834 -70.026924 -182.149994
27.411146 -69.235260 -182.149994
28.019272 -68.495445 -182.149994
28.682175 -67.810310 -182.149994
30.178045 -66.610519 -182.149994
31.044085 -66.128685 -182.149994
62.133884 -35.214195 -182.149994
62.732746 -34.465111 -182.149994
63.442085 -33.826450 -182.149994
64.291656 -33.328278 -182.149994
66.706497 -31.025488 -182.149994
-59.294067 -156.925766 -182.550003
-50.809650 -148.448090 -182.550003
-29.435293 -126.961823 -182.550003
59.474163 -38.252068 -182.550003
66.664978 -31.066978 -182.550003
66.049942 -31.042688 -182.550003
-59.303967 -156.935654 -182.949997
-26.713882 -124.371506 -182.949997
26.892508 -70.064629 -182.949997
27.416733 -69.240845 -182.949997
28.003298 -68.479454 -182.949997
28.651781 -67.779892 -182.949997
30.893957 -65.978439 -182.949997
59.378666 -38.347488 -182.949997
61.610405 -36.117527 -182.949997
62.087093 -35.167366 -182.949997
62.707722 -34.440067 -182.949997
63.425266 -33.809616 -182.949997
64.279007 -33.315617 -182.949997
-59.236061 -156.867798 -183.350006
-26.698317 -124.355957 -183.350006
26.873043 -70.827240 -183.350006
27.003551 -70.175766 -183.350006
27.486212 -69.310379 -183.350006
28.052845 -68.529045 -183.350006
28.679911 -67.808044 -183.350006
29.359003 -67.139252 -183.350006
30.080217 -66.512619 -183.350006
30.862362 -65.946823 -183.350006
32.208447 -65.496078 -183.350006
31.808844 -65.545631 -183.350006
62.721508 -34.453861 -183.350006
64.375519 -33.354618 -183.350006
66.468887 -31.262911 -183.350006
-59.214840 -156.846588 -183.750000
28.038425 -68.514610 -183.750000
29.303516 -67.083725 -183.750000
59.233791 -38.492249 -183.750000
-59.312462 -156.944138 -184.149994
-50.847137 -148.485550 -184.149994
-29.742916 -127.398132 -184.149994
27.109081 -70.281372 -184.149994
27.513144 -69.337334 -184.149994
28.642733 -67.770836 -184.149994
29.986988 -66.419312 -184.149994
30.757540 -65.841911 -184.149994
31.607327 -65.343956 -184.149994
61.522579 -35.950829 -184.149994
62.048141 -35.128384 -184.149994
62.684261 -34.416588 -184.149994
63.443008 -33.827374 -184.149994
-59.325901 -156.957565 -184.550003
-50.886753 -148.525131 -184.550003
-29.815073 -127.470230 -184.550003
-26.827066 -124.484604 -184.550003
27.332209 -70.368439 -184.550003
27.593719 -69.417976 -184.550003
28.099358 -68.575592 -184.550003
29.292986 -67.073181 -184.550003
29.983877 -66.416199 -184.550003
30.739231 -65.823593 -184.550003
31.570429 -65.307030 -184.550003
61.365578 -36.362160 -184.550003
64.140877 -33.589073 -184.550003
63.479198 -33.863590 -184.550003
66.256248 -31.475382 -184.550003
-59.268593 -156.900299 -184.949997
-50.866241 -148.504639 -184.949997
-51.436142 -148.094147 -184.949997
31.505259 -65.241806 -184.949997
32.508854 -64.897774 -184.949997
59.072720 -38.653191 -184.949997
62.709919 -34.442265 -184.949997
-26.919025 -124.576485 -185.350006
-26.981384 -124.024567 -185.350006
27.691122 -69.515457 -185.350006
28.122541 -68.598793 -185.350006
32.376038 -64.764854 -185.350006
61.130089 -36.597462 -185.350006
61.424191 -35.852360 -185.350006
61.997181 -35.077385 -185.350006
64.080887 -33.649010 -185.350006
-59.293354 -156.925049 -185.750000
27.831211 -69.655655 -185.750000
28.168060 -68.644348 -185.750000
28.685566 -67.813705 -185.750000
31.435780 -65.172272 -185.750000
58.918087 -38.807705 -185.750000
62.693447 -34.425781 -185.750000
63.982277 -33.747543 -185.750000
63.508106 -33.892525 -185.750000
66.067802 -31.663681 -185.750000
-59.268593 -156.900299 -186.149994
-30.012434 -127.667435 -186.149994
28.194208 -68.670517 -186.149994
32.245842 -64.634552 -186.149994
58.782833 -38.942848 -186.149994
60.961094 -36.766323 -186.149994
66.058182 -31.673294 -186.149994
-59.297596 -156.929291 -186.550003
-50.829456 -148.467880 -186.550003
-27.023008 -124.680389 -186.550003
33.166668 -64.207687 -186.550003
61.365307 -35.793430 -186.550003
61.952087 -35.032253 -186.550003
62.659657 -34.391964 -186.550003
63.500610 -33.885025 -186.550003
65.988075 -31.743340 -186.550003
-59.252327 -156.884048 -186.949997
-50.961025 -148.599350 -186.949997
-30.273458 -127.928253 -186.949997
28.282421 -68.758804 -186.949997
32.135719 -64.524345 -186.949997
58.629826 -39.095734 -186.949997
63.541607 -33.926052 -186.949997
65.853813 -31.877495 -186.949997
-51.091187 -148.729416 -187.350006
28.425699 -68.902191 -187.350006
28.769821 -67.898026 -187.350006
60.829071 -36.605331 -187.350006
63.530865 -33.915298 -187.350006
65.845612 -31.885695 -187.350006
-52.295158 -149.932419 -188.119995
-51.404568 -149.042542 -187.750000
-51.621029 -149.258820 -187.876007
-31.361834 -127.731735 -187.750000
-27.110725 -124.768036 -187.750000
28.799648 -67.927879 -187.750000
31.990749 -64.379257 -187.750000
32.872982 -63.913769 -187.750000
58.484528 -39.240917 -187.750000
62.672028 -34.404346 -187.750000
65.767372 -31.963869 -187.750000
-58.256321 -155.888840 -188.149994
-30.485676 -128.140305 -188.149994
-31.117908 -127.975861 -188.149994
28.612511 -69.089157 -188.149994
32.814171 -63.854912 -188.149994
33.856640 -63.549789 -188.149994
60.757469 -36.533672 -188.149994
61.298939 -35.727009 -188.149994
61.936890 -35.017048 -188.149994
63.627911 -34.012424 -188.149994
65.581963 -32.149128 -188.149994
64.401543 -32.089825 -188.149994
-58.150219 -155.782822 -188.550003
28.894434 -68.022736 -188.550003
33.707500 -63.400532 -188.550003
58.378845 -39.346516 -188.550003
58.317520 -38.137054 -188.550003
63.715027 -34.014580 -188.550003
-58.146679 -155.779282 -188.949997
-30.529531 -128.184128 -188.949997
-27.233812 -124.891022 -188.949997
-27.348412 -125.005531 -189.328003
34.680630 -63.025867 -189.350006
61.945297 -35.025459 -188.949997
62.728718 -34.461079 -188.949997
65.495735 -32.235291 -188.949997
-52.365192 -150.002396 -189.350006
-30.608759 -128.263290 -189.350006
28.945465 -68.073807 -189.350006
33.528252 -63.221134 -189.350006
58.190464 -39.534744 -189.350006
60.682899 -36.459042 -189.350006
61.265366 -35.693409 -189.350006
63.494251 -34.235180 -189.350006
65.398682 -32.332268 -189.350006
29.071638 -68.200081 -189.750000
29.369604 -67.149864 -189.750000
34.502083 -62.847179 -189.750000
60.240032 -37.364246 -189.750000
-58.187706 -155.820282 -190.149994
-52.356705 -149.993927 -190.149994
-30.663939 -128.318420 -190.149994
29.162039 -68.290558 -190.149994
34.337181 -62.682148 -190.149994
57.968487 -39.756546 -190.149994
63.348881 -34.380436 -190.149994
62.802509 -34.534931 -190.149994
65.287621 -32.443237 -190.149994
-58.218124 -155.850677 -190.550003
-52.387123 -150.024307 -190.550003
-27.413488 -125.070557 -190.550003
29.217308 -68.345871 -190.550003
29.426718 -67.207024 -190.550003
35.354839 -62.352192 -190.917999
60.137115 -37.261253 -190.550003
60.649181 -36.425301 -190.550003
61.272503 -35.700554 -190.550003
61.987144 -35.067341 -190.550003
65.162910 -32.567852 -190.550003
-27.402170 -125.059250 -190.949997
29.514645 -67.295021 -190.949997
34.148033 -62.492847 -190.949997
57.873272 -39.851685 -190.949997
-52.351051 -149.988266 -191.350006
-30.922132 -128.576416 -191.350006
35.077129 -62.074261 -191.350006
57.775723 -39.949158 -191.350006
57.724102 -38.891586 -191.350006
62.938152 -34.670681 -191.350006
65.020935 -32.709713 -191.350006
-58.229446 -155.861984 -191.750000
-52.386421 -150.023605 -191.750000
-31.039560 -128.693741 -191.750000
-27.487059 -125.144066 -191.750000
-27.649164 -124.704536 -191.750000
29.538410 -68.163994 -191.750000
29.586248 -67.366676 -191.750000
35.826317 -61.881092 -191.750000
34.944035 -61.941059 -191.750000
59.854031 -37.872505 -191.750000
60.074562 -37.198647 -191.750000
60.617588 -36.393681 -191.750000
61.289253 -35.717319 -191.750000
64.898842 -32.831711 -191.750000
63.799358 -32.835587 -191.750000
-27.617926 -124.735802 -192.149994
29.719269 -67.499802 -192.149994
35.935181 -61.772312 -192.149994
34.854122 -61.851074 -192.149994
57.673367 -40.051434 -192.149994
57.633553 -38.800968 -192.149994
62.827679 -34.901222 -192.149994
62.102997 -35.183285 -192.149994
-58.212467 -155.845016 -192.550003
-31.120207 -128.774323 -192.550003
29.961004 -67.741737 -192.845993
30.042048 -66.474419 -192.550003
34.727745 -61.724598 -192.550003
35.867115 -61.516453 -192.550003
63.915771 -32.952091 -192.550003
-61.059700 -158.689987 -193.134003
-60.385567 -158.016388 -193.001007
-59.711426 -157.342789 -193.003998
-59.037281 -156.669174 -193.035004
-58.283211 -155.915710 -192.949997
-58.363140 -155.995575 -193.026001
-52.305069 -149.942322 -192.949997
-31.185989 -128.840057 -192.949997
-31.949242 -128.492142 -192.949997
-27.533743 -125.190712 -192.949997
-27.860083 -124.493454 -192.949997
30.091810 -66.524223 -192.949997
35.678185 -61.327370 -192.949997
57.443890 -40.280727 -192.949997
60.053074 -37.177139 -192.949997
60.628330 -36.404430 -192.949997
61.337040 -35.765141 -192.949997
62.140244 -35.220558 -192.949997
64.676651 -33.053722 -192.949997
-61.733845 -159.363586 -193.449997
-51.862240 -149.499847 -193.350006
-27.515354 -125.172340 -193.350006
36.521324 -61.186638 -193.350006
35.588558 -61.237675 -193.350006
36.703335 -61.004772 -193.716995
62.218281 -35.298660 -193.350006
64.549530 -33.180740 -193.350006
-62.334415 -159.963684 -193.750000
-51.472469 -149.110382 -193.750000
-28.001375 -124.352051 -193.750000
30.232571 -67.470383 -193.750000
35.467617 -61.116634 -193.750000
61.397186 -35.825336 -193.750000
64.500511 -33.229721 -193.750000
-62.368374 -159.997620 -194.149994
-51.276531 -148.914597 -194.149994
-31.266630 -128.920639 -194.149994
-27.581846 -125.238777 -194.149994
36.942997 -60.765301 -194.149994
36.465557 -60.766804 -194.149994
57.212360 -40.512070 -194.149994
57.167503 -39.683109 -194.149994
59.559105 -38.031204 -194.149994
60.049751 -37.173817 -194.149994
60.677456 -36.453598 -194.149994
62.343117 -35.385399 -194.149994
-63.082832 -160.711502 -194.638000
-50.946171 -148.584503 -194.634003
-44.878193 -142.521362 -194.796997
-44.204060 -141.847763 -194.643005
-43.529919 -141.174164 -194.621994
-42.855774 -140.500549 -194.639008
-42.181633 -139.826950 -194.623001
-41.507496 -139.153351 -194.591003
-42.157135 -138.503189 -194.550003
-40.389488 -137.574249 -194.550003
-39.484364 -137.131821 -194.556000
-38.810219 -136.458221 -194.585999
-31.574696 -128.866989 -194.550003
-27.565578 -125.222527 -194.550003
30.392229 -67.310852 -194.550003
30.423027 -66.855698 -194.550003
60.076752 -37.200840 -194.550003
60.720291 -36.496464 -194.550003
62.118450 -35.609886 -194.550003
61.472813 -35.901024 -194.550003
64.223213 -33.506798 -194.550003
63.093624 -33.477711 -194.550003
-63.657940 -161.286163 -194.949997
-50.635632 -148.274216 -194.949997
-45.227646 -142.870529 -194.949997
-38.214603 -135.863068 -194.949997
30.635218 -67.068062 -194.949997
30.711029 -65.795364 -194.949997
36.237183 -60.538250 -194.949997
57.088425 -40.635906 -194.949997
-64.101471 -161.729340 -195.350006
-64.431114 -162.058716 -195.634003
-50.567719 -148.206360 -195.350006
-45.198643 -142.841553 -195.350006
-38.145279 -135.793808 -195.350006
-37.461941 -135.111008 -195.574005
-36.113659 -133.763809 -195.608994
-34.090527 -131.742279 -195.679993
-31.325344 -128.979294 -195.350006
-27.673101 -125.329964 -195.350006
59.381920 -38.344238 -195.350006
59.507580 -37.979637 -195.350006
64.127930 -33.602009 -195.350006
-50.364704 -148.003510 -195.750000
-50.272030 -147.910904 -195.789993
-49.597897 -147.237305 -195.867996
-47.575466 -145.216492 -195.893005
-46.227192 -143.869278 -195.972000
-45.410862 -143.053604 -195.750000
-45.553047 -143.195679 -195.914993
-37.726646 -134.846085 -195.750000
-37.010944 -134.214081 -195.750000
-35.619194 -132.910370 -195.750000
-33.416386 -131.068680 -195.774994
-32.742249 -130.395081 -195.917999
-31.393961 -129.047867 -195.929993
-27.691496 -125.348343 -195.750000
30.786953 -66.916443 -195.750000
30.829353 -65.913788 -195.750000
37.537205 -60.171566 -195.750000
60.786022 -36.562248 -195.750000
61.610363 -36.038685 -195.750000
