# This PCD file was generated using the MATLAB® pcwrite function
# from Computer Vision Toolbox®.
# .PCD v.7 - Point Cloud Data file format
VERSION .7
FIELDS x y z
SIZE 4 4 4
TYPE F F F
COUNT 1 1 1
WIDTH 1457
HEIGHT 1
VIEWPOINT 0 0 0 1 0 0 0
POINTS 1457
DATA ascii
99.585556 100.890640 -67.204041
-60.924011 106.626480 -73.719978
82.477486 107.119240 -72.729759
76.786903 100.623711 -76.377335
86.949417 100.627510 -70.420792
-57.485527 107.401131 -70.692139
48.451599 108.414207 -68.274208
46.366043 116.637329 -69.790993
39.815575 113.367256 -71.703400
36.151741 110.345520 -71.283356
-91.562981 111.858215 -65.750504
35.843208 127.353233 -68.458359
-84.252068 116.267303 -71.204315
40.350601 138.388214 -71.966057
32.907051 130.413254 -71.784119
34.903595 131.371368 -61.541286
45.592987 126.900185 -67.930023
42.566956 138.643677 -73.988014
-50.147034 144.810287 -63.556587
38.632957 143.821426 -75.914909
36.157700 154.662430 -70.296936
-56.054897 154.645172 -68.682281
-43.580688 149.862076 -71.107773
35.727074 152.225220 -68.426132
110.841179 150.393677 -64.491890
112.650826 157.605591 -65.830788
27.123333 150.805679 -72.316551
-39.120762 159.718445 -74.056625
118.598991 162.191132 -78.679520
-35.839764 162.137817 -68.193138
-67.111336 173.102402 -69.394165
111.258774 164.497986 -75.653740
23.278650 177.008179 -71.877625
1.807763 172.579437 -71.286919
111.460938 161.749390 -70.351883
-63.549255 176.497131 -70.160080
-38.471741 176.505142 -72.308922
111.690735 175.074326 -71.478569
27.818386 168.469193 -64.149078
-60.693237 173.727173 -62.993950
113.766907 175.667404 -70.557533
-64.959923 178.801834 -72.205231
-47.615192 193.090179 -74.043091
106.777733 181.179382 -69.651955
-58.842911 182.756607 -68.883461
113.554779 188.762711 -68.894196
-61.017288 186.699554 -69.333427
-15.712729 187.323303 -67.380241
-8.606789 193.087585 -76.754417
108.331635 175.447998 -72.510773
22.344944 181.004425 -72.054794
31.862526 178.658188 -64.367516
-57.812183 187.451431 -69.480423
17.630152 191.549576 -67.994308
-56.780056 184.042084 -71.593102
-52.090282 205.367233 -68.692772
10.651670 195.140076 -67.578064
-54.777840 188.831589 -64.590202
106.536240 199.343399 -66.944107
27.179054 192.127106 -73.915329
-35.200310 197.987381 -67.551964
-42.607616 199.057312 -73.641098
11.939791 200.819763 -73.269913
-19.535666 197.090607 -71.786278
-46.251923 205.787338 -72.180336
102.131065 192.147003 -75.120636
8.937166 199.987823 -74.764404
-131.283005 210.395798 -78.307228
-49.491333 205.888458 -73.066109
94.599922 208.678223 -69.023903
-149.462494 212.463364 -77.260902
18.954782 211.522110 -70.984009
-43.176373 216.099564 -66.765015
-29.085670 217.673630 -74.191917
-36.651646 210.421066 -72.015060
-45.584644 208.109238 -78.371689
101.561607 215.275772 -69.865822
-20.879307 209.443573 -75.504028
-149.660583 209.884567 -70.965584
16.344646 210.528122 -73.630981
-76.852493 214.779694 -75.618134
-141.959900 224.480148 -68.184746
93.901909 224.533020 -73.366997
-32.514000 216.804459 -68.851898
-28.273237 220.087448 -71.429230
11.000896 219.526031 -71.013161
-71.308426 216.444077 -75.805481
-26.016567 214.694443 -80.182976
-8.396821 227.391037 -72.510315
-68.625702 223.746445 -71.713188
-13.296302 227.450165 -71.241814
8.152343 220.723816 -60.724197
12.306339 231.551102 -73.985329
-151.758865 227.981659 -73.403809
-8.863595 223.915833 -70.592667
-102.616661 229.767044 -66.914848
-21.464424 229.130783 -70.320190
88.581993 222.167740 -77.171692
10.467202 233.905579 -68.178101
22.965631 226.136444 -70.381477
80.187492 222.388382 -72.361740
2.020671 240.488602 -76.036613
85.691490 226.491013 -70.935593
-21.446400 234.932617 -65.507034
17.394642 227.856232 -66.444221
-148.633987 227.639709 -72.740318
-26.820488 236.501617 -72.366379
2.647506 241.589478 -67.120453
-156.129807 234.615738 -77.470909
-137.167511 237.605026 -75.114670
2.739070 232.655945 -70.222847
-3.042860 233.454285 -66.263603
-136.902344 238.520355 -66.863747
-147.023682 253.309586 -71.454689
-148.781555 245.409714 -72.087906
-30.735767 246.218964 -72.363098
-140.648758 253.415817 -75.365616
14.921426 251.144928 -72.563667
6.578154 255.045837 -70.172310
-150.372726 248.567368 -64.616325
-149.220276 255.163193 -70.564796
-44.481712 256.572937 -73.296494
-31.006886 257.526550 -71.541306
4.469238 251.628525 -70.197121
-34.889904 255.245132 -73.275757
22.373091 256.083130 -70.816193
-5.527617 263.479919 -73.269630
-142.478836 262.954712 -72.617668
-9.825519 263.286621 -76.792061
-148.126358 255.691772 -68.493385
-64.070930 260.280090 -73.486359
-145.533493 268.692657 -78.976349
-127.197479 267.826447 -71.444519
-153.116669 266.182373 -71.643036
-9.255798 277.618591 -67.967216
-144.806595 283.795074 -78.679466
-148.264847 280.054901 -71.818336
-11.523007 280.918213 -71.004585
-142.963364 279.653992 -71.595345
-6.297594 285.783264 -69.031265
-44.716835 293.090118 -70.071907
-134.399475 298.258026 -68.130058
-135.469086 295.626831 -70.839653
-121.699860 290.483154 -67.202316
-50.681477 296.023438 -70.040962
-110.416031 292.574524 -69.927185
17.479214 303.031921 -69.864494
-55.373466 298.307495 -68.542603
-139.748337 303.831085 -71.177307
-62.748562 300.434631 -69.512108
-144.346054 304.044556 -77.497337
-115.374023 301.059814 -68.080292
-44.669262 300.119629 -74.222816
-32.156807 301.593445 -70.762558
-137.995895 307.263733 -65.831459
-14.047622 290.324158 -64.023048
6.607208 296.274353 -70.040710
7.711020 299.896088 -68.507286
16.311701 305.838379 -71.729362
-148.834106 308.532776 -76.757797
-143.271057 301.527771 -68.455833
-64.847656 72.600861 -67.953140
90.195564 81.717339 -72.027962
79.705696 87.520370 -71.332367
-27.414091 86.171211 -73.204834
84.258331 83.890312 -68.035347
-37.768322 89.546181 -73.397842
82.339981 92.599144 -64.970947
97.812805 89.154449 -64.980377
-63.576900 106.451172 -63.822746
72.910866 104.247818 -70.636383
80.613861 107.634651 -67.215233
98.680405 105.231003 -73.291451
56.199917 106.472389 -72.246895
-64.098160 111.150063 -66.573288
-72.916183 110.776779 -66.462814
51.897518 112.821129 -72.381294
-86.076485 111.364578 -71.687798
48.661686 128.082809 -66.078461
111.561272 130.033936 -68.938293
114.070137 139.690109 -72.265686
20.088163 146.418488 -67.461594
111.167603 136.574265 -71.980545
30.050554 142.828964 -66.592232
113.493553 142.754303 -62.710102
37.598709 144.405823 -66.879288
-56.671642 149.567352 -69.161430
37.467468 155.910324 -74.837517
109.468086 143.655045 -67.424377
-44.108547 153.439178 -67.826668
32.886166 160.512329 -68.026382
-56.039558 151.533386 -63.399113
-59.703373 153.693970 -69.477692
-52.234169 159.979385 -73.763329
-63.362270 165.447723 -73.380775
112.111137 156.499603 -74.750946
-48.759655 165.093491 -77.787117
24.333965 166.595428 -75.778992
108.164429 173.126663 -70.586273
-64.141342 164.073761 -70.175606
-41.676186 167.409302 -71.340973
10.106635 164.018814 -67.283600
-67.721458 163.684174 -70.813484
-63.784737 167.684875 -73.362190
1.621698 172.180771 -70.046585
-43.655872 177.825851 -65.390266
29.398836 177.895248 -67.312569
-62.640961 178.681274 -65.175354
-54.760838 175.962509 -72.558014
14.685316 169.369598 -73.793854
-29.103754 178.008514 -68.536163
-27.314964 176.134964 -72.994797
15.514822 184.417053 -71.602425
-43.372700 182.757767 -73.502831
-9.261430 181.916290 -71.799744
-65.989182 181.080780 -66.257965
-7.066041 184.436340 -67.194603
-20.444433 189.609467 -70.074661
22.918903 194.414368 -66.414207
-37.904896 182.173218 -72.297340
22.461185 184.890198 -65.149994
-21.886692 195.940323 -65.883247
-31.108370 186.761154 -73.066109
-147.589386 203.402832 -66.953133
-16.121264 193.125931 -75.301331
-138.990082 199.754044 -68.555946
-153.765228 197.144669 -71.101570
-49.262295 198.852173 -68.076797
99.313049 204.602707 -68.964081
-144.098312 199.901077 -71.986885
-143.892151 205.501251 -67.881622
23.848772 205.706985 -67.706566
-138.184158 205.593719 -71.183357
13.425374 209.060211 -65.356270
-136.732437 209.822845 -74.159966
14.125715 207.675705 -65.275833
-131.646667 204.708862 -66.500305
5.581666 211.199203 -65.685844
-151.482971 211.652298 -70.591133
96.641823 216.659454 -69.692726
-16.303883 219.206512 -72.938164
-29.608004 218.954285 -68.775589
-11.624960 214.912048 -63.913658
-143.739517 220.294373 -75.915497
-34.585983 212.469620 -70.036560
-83.638489 212.009003 -72.520180
-25.919775 217.795715 -71.700256
14.797686 224.190125 -70.588928
-145.207779 225.448624 -67.651901
-87.774475 229.629761 -73.157928
-28.175934 230.472504 -68.690407
-26.704821 230.849030 -70.126411
-6.323278 218.172791 -71.980003
-26.369066 216.821548 -69.108192
-83.722847 232.447922 -70.699287
-89.558243 229.822418 -76.632881
-21.702915 231.910904 -69.117287
-0.887091 235.357346 -79.907822
-156.474045 227.146622 -73.236702
-1.465775 231.837387 -71.705719
89.364319 237.931061 -74.910385
-137.781174 232.573624 -73.345634
-1.905478 230.454346 -70.541153
-137.906433 235.362915 -72.343391
-146.139343 234.541702 -79.276863
-4.557189 237.652298 -68.894203
23.707012 222.640625 -71.248566
-137.533264 239.132080 -68.250793
-17.348682 237.181427 -72.146919
71.890579 234.587219 -70.980232
75.459930 244.100189 -70.280983
12.028997 239.391586 -72.485374
-34.371002 245.158691 -71.421524
-23.783388 252.421585 -79.216980
3.129910 252.916672 -68.179001
-45.481007 253.647614 -64.862083
-19.394121 252.638626 -67.559906
11.758057 247.591873 -66.183739
-62.028111 255.323257 -70.870926
-36.164223 253.662979 -76.099037
-36.541744 255.249435 -68.869408
-146.397141 255.618988 -67.742851
-43.359215 258.456146 -73.733231
-51.309280 256.806793 -61.143002
-64.393814 258.222687 -69.916603
-9.323267 254.548721 -75.383385
-77.371651 265.437042 -72.160057
-155.798859 262.556519 -77.534592
-139.072113 262.688721 -68.729668
-119.468803 267.715302 -72.567551
-158.439880 266.919159 -66.872147
19.771328 276.833984 -77.856209
-13.855841 278.685608 -72.852768
-154.634399 284.560303 -73.778099
-151.973877 288.554535 -78.283813
-145.033661 295.618042 -72.889366
-57.704174 288.364349 -64.818283
-37.649261 294.984589 -63.868649
-15.931663 299.694733 -67.457428
-7.368131 286.977631 -65.227684
-65.106247 294.356598 -74.083527
-80.167343 295.495941 -75.714706
-0.438568 291.129242 -71.171425
3.246520 302.613739 -71.877846
-139.418427 294.937744 -68.842094
-79.953560 295.108643 -66.292252
-145.708572 296.962585 -69.132568
-93.436058 294.410400 -81.027359
-77.588791 294.580170 -69.625542
-85.236900 306.383759 -67.113678
-62.469704 301.722961 -69.756088
-30.251251 305.597290 -62.459141
-8.184971 299.803741 -69.513863
-149.264145 309.946899 -62.465763
-146.872009 310.732269 -67.720993
-142.163971 315.710052 -68.646248
-157.159088 314.056183 -69.975777
-55.460255 66.126236 -64.823105
-48.156609 62.537365 -68.602798
-38.973335 62.975208 -71.156166
-76.866180 72.917068 -72.546463
-28.668343 75.028870 -67.338776
-34.694908 89.601212 -68.129166
74.968208 93.177711 -73.597633
75.887695 88.531410 -68.853477
72.781029 92.841621 -65.602249
101.878639 99.997993 -64.532555
68.206490 98.540848 -71.591682
47.761589 97.599434 -72.550728
53.673954 111.384438 -75.457016
-65.365547 112.407829 -67.121765
-73.754234 112.443459 -64.407440
45.734680 112.623413 -70.432594
-81.083702 120.216576 -75.448341
-91.820061 119.834404 -67.165367
52.216839 118.705757 -68.927757
108.255432 126.461067 -67.558441
34.242508 136.389984 -71.178253
42.931816 128.159897 -70.849396
40.448833 132.001068 -66.950706
31.094370 131.096863 -70.909363
110.291130 131.105972 -68.878204
40.121185 141.790604 -72.526520
36.562653 142.457108 -64.144485
-42.938370 151.242722 -67.557251
-68.719589 152.429123 -73.243233
-51.622684 159.756241 -68.176445
-74.537041 155.639618 -74.944031
-36.846661 157.749405 -69.101509
106.503860 167.328629 -69.980591
-70.711594 166.470200 -72.088181
24.271646 155.314697 -75.359680
28.507908 158.529648 -72.189201
111.427284 172.954819 -72.870796
10.892749 168.941986 -73.316093
34.570866 165.095245 -66.046524
-61.513496 169.276184 -72.565605
-38.638306 184.520752 -71.965424
23.076380 172.854477 -69.430481
-64.629539 164.940369 -68.337555
-69.627434 175.563614 -69.390022
116.423599 175.674881 -71.545998
-7.540891 174.043930 -71.264229
-65.474510 180.674469 -67.439224
-35.263138 175.870346 -71.846748
-53.113571 181.003021 -68.114189
32.066105 186.039383 -68.178543
112.649696 182.259979 -65.707069
103.038696 192.872101 -67.011093
105.216560 198.787781 -68.311157
107.348366 185.180481 -65.810280
-49.821648 202.803391 -67.753136
-46.013554 193.137695 -65.428604
28.714273 193.476624 -68.762825
-46.563931 194.722275 -68.059113
-20.022198 193.271255 -69.534752
-50.197880 201.099396 -73.193008
-151.502045 202.269196 -68.507355
101.847984 201.694397 -71.838211
-43.278595 204.962418 -66.050575
-10.574697 209.233810 -71.168678
-138.355988 201.811371 -68.787659
-39.788830 209.046219 -66.510696
101.560966 205.675095 -67.146111
108.975922 194.028717 -66.376244
-41.509998 204.815765 -69.038231
-21.110121 209.540192 -78.232025
-145.871353 210.225052 -72.726715
-24.221962 204.469940 -68.704002
-159.951965 206.185104 -70.180626
-151.758713 215.587097 -78.474113
-144.515839 211.646576 -72.284302
-37.707329 211.063492 -70.424728
102.957588 213.379089 -70.525925
-41.785652 209.634552 -67.098778
-141.082260 214.613358 -74.027359
-36.294430 214.867752 -64.601593
-21.878408 219.518585 -76.012962
99.053391 215.434906 -72.627991
90.702957 224.885254 -71.213860
-37.393208 226.876129 -67.113213
-87.742592 219.364868 -71.551239
-74.877472 221.369354 -71.187256
-18.717241 217.887390 -69.483780
-149.189926 209.972305 -72.982147
93.109901 223.652695 -68.058525
89.172569 227.267242 -64.606415
90.571899 230.530502 -69.871231
-102.112099 227.543579 -71.428383
-154.468887 230.294983 -72.691261
-19.587454 234.070023 -66.944237
81.934708 237.493530 -64.566422
-149.696442 230.576706 -74.802101
-28.840530 226.051025 -71.347343
-133.758667 243.445206 -67.786057
-10.070313 241.968170 -72.682251
17.885902 239.911926 -67.738426
21.249331 243.297379 -70.306595
-154.965942 245.750153 -73.255760
-126.039612 242.421936 -65.237801
-7.497529 245.431549 -69.122551
1.031970 247.599655 -68.207283
69.893784 239.887802 -68.765617
69.430977 249.289001 -64.798195
0.594387 249.880753 -66.258408
16.619799 249.872345 -64.084892
-31.174562 251.547546 -59.542477
-30.999319 252.332535 -80.688713
-48.896740 244.419708 -69.754890
-40.338974 249.068283 -66.890831
-15.110199 252.793396 -70.857109
-50.867752 254.240402 -67.208229
2.453718 255.059433 -70.176056
-67.733231 251.847870 -72.949257
22.711130 256.933624 -70.993027
-140.708527 253.171066 -73.069130
-72.437309 264.285309 -72.944313
17.793669 260.086823 -70.080582
-160.248489 258.997559 -68.850449
12.947085 263.924255 -74.446785
-79.898293 260.665039 -62.061577
-75.339218 259.941467 -70.150055
18.728468 263.443237 -71.749023
-88.919830 259.991821 -69.099121
-125.150574 263.920013 -65.373520
-131.006348 270.694489 -75.235077
-136.006973 261.105438 -74.007408
-145.966919 271.676086 -73.089127
-146.283447 260.669891 -65.887650
-133.113739 271.433167 -68.182587
-161.070770 269.854340 -65.704735
-127.861244 277.555908 -70.492195
-136.268158 272.868164 -63.087181
-161.004410 281.243286 -66.299477
-154.276672 274.508759 -66.931923
-146.670486 275.559082 -67.933922
-148.466141 275.416412 -71.260437
18.332167 288.962006 -71.931786
-165.880798 274.771393 -70.510445
-150.465179 283.124634 -72.552422
-3.876161 282.086639 -78.688004
-153.107437 286.202179 -67.070801
12.647113 293.869507 -73.096870
-152.223190 290.930878 -69.572823
-166.036179 298.792969 -72.077667
-154.947708 286.394745 -74.066895
-163.471588 299.559601 -67.177689
0.879243 296.607178 -74.042900
8.071793 290.432098 -75.701241
-106.203903 303.416687 -67.342964
-156.550720 297.461334 -78.510376
-147.137863 294.302460 -67.078590
-104.449142 302.321442 -68.561760
-153.009949 303.364990 -74.502411
-147.427200 297.959473 -75.864838
-75.801895 303.621490 -74.441963
-168.313080 298.232147 -73.354637
-121.470222 301.263092 -65.378983
-41.872021 294.326080 -75.444733
-149.464127 296.893372 -69.783890
-129.719971 303.550781 -64.024872
-20.060507 305.107941 -66.594856
-128.929672 302.563232 -64.863441
7.309181 305.228455 -70.937607
15.857057 302.137024 -66.067719
-132.399231 300.067841 -64.470856
-144.552170 309.098145 -72.720367
-155.525085 325.839752 -74.997093
-70.663414 62.821842 -63.032455
-20.613741 76.971550 -60.961979
-18.131704 74.888916 -72.246758
71.303329 89.386772 -65.122826
90.861954 85.832275 -66.862564
-34.931892 90.346703 -68.622955
77.461578 91.477303 -66.633636
91.466721 93.205681 -72.299614
66.264915 94.614174 -68.557899
74.507057 101.672432 -66.134216
-49.355728 94.250092 -68.796844
-90.861343 100.049988 -72.029991
60.627293 103.971092 -71.963173
51.473915 110.708511 -71.246895
93.227829 112.624519 -62.902000
-89.160194 111.524727 -62.011261
80.029655 110.999100 -61.324570
71.929367 112.075790 -69.044090
91.980576 107.943810 -71.404526
84.919334 105.647949 -68.563271
80.269356 109.316322 -71.410942
-89.182838 112.676346 -70.735146
45.870060 113.840736 -64.296532
105.463135 120.852142 -69.736702
107.075073 120.692612 -69.057045
51.649914 131.272614 -72.542610
115.156830 128.782272 -72.510056
118.695107 145.275208 -72.679276
-49.379742 138.214523 -64.967033
28.813971 145.108826 -67.813782
42.212185 143.867218 -73.054260
25.065668 151.600845 -65.228699
113.528877 146.273239 -73.326424
112.112900 139.360291 -70.310997
-72.767532 158.306671 -68.165718
-42.571083 149.145035 -66.981308
-70.648285 163.333969 -66.129234
18.743149 157.179077 -65.576096
112.564095 157.373611 -64.259003
-53.611561 162.834808 -70.834358
-72.194946 163.007172 -67.384293
-38.669563 160.771637 -72.030685
32.051685 164.349274 -61.536293
108.784096 160.011734 -63.064651
118.441925 172.720123 -66.727928
-67.554649 166.661652 -64.667488
-75.468307 169.662933 -71.792480
22.819172 173.603928 -74.131821
-59.716576 177.268799 -65.397072
-31.532888 174.086014 -65.226982
9.751869 174.454849 -70.623901
107.263794 171.464478 -64.271049
12.016898 179.185898 -73.323502
-31.434690 176.048615 -68.657074
-3.597718 174.189194 -61.152882
106.838989 176.162491 -62.906788
-41.251976 172.527359 -65.617577
31.749289 184.237518 -65.286247
116.132545 182.387497 -74.009598
-56.355186 185.382294 -64.306229
-26.892359 186.246506 -72.660118
101.643646 184.678650 -69.149261
30.237514 176.783051 -65.003052
103.540779 186.322571 -69.942276
-36.117184 189.958893 -62.812489
111.308739 190.920425 -73.127220
-63.401241 187.590576 -63.981663
-25.157772 187.149597 -73.681816
-147.375900 195.068634 -60.539024
-53.188908 188.009995 -67.104668
-146.836075 195.650894 -69.195084
-34.811157 192.557907 -65.406021
31.211346 186.984161 -75.062119
106.135139 193.743530 -69.599876
-37.082531 190.836533 -66.988564
10.934355 201.029190 -68.736961
16.217218 216.653580 -67.657570
-149.199097 196.968399 -69.183182
108.227737 206.179352 -72.357742
-23.847048 202.666870 -65.934517
100.919708 196.453079 -70.089142
12.105324 201.052872 -64.503281
-141.124084 216.871979 -68.470482
-136.279541 209.048279 -67.169464
104.279404 211.724792 -73.193108
-10.943769 209.579590 -73.582832
-17.093159 215.105347 -68.648186
12.685276 217.525375 -71.252129
-149.124619 216.302216 -67.997726
-145.873169 220.279846 -69.839989
102.450676 216.281815 -60.505440
-85.330498 216.995209 -68.100166
-33.984539 209.783508 -70.102768
21.712589 226.146988 -72.801025
-23.405287 220.602890 -69.076515
-73.267296 214.389999 -65.909515
91.818459 218.564209 -68.338356
-77.670486 221.946625 -64.834427
-147.595856 229.445465 -67.955360
-79.745148 221.986542 -65.912437
-9.979894 216.148209 -60.783089
-19.564262 230.740265 -64.689842
19.113148 225.355194 -69.248802
-4.147917 233.400711 -70.188545
-87.685951 229.303787 -75.948380
94.096992 223.873413 -66.888969
-100.276840 225.127121 -66.136986
-153.992828 235.895416 -65.641945
-30.350176 234.989731 -67.428520
20.464621 225.438400 -69.913551
-101.484955 229.900650 -69.527748
8.096142 226.631638 -61.995754
-27.229561 223.966354 -67.974831
82.964462 235.152145 -65.163437
-143.242371 226.184113 -66.022430
17.184469 235.797043 -67.528923
-8.604245 239.028915 -72.616127
18.675951 234.038193 -58.646255
84.960472 232.926804 -69.856438
-14.088410 239.513565 -72.978989
-129.548981 237.139923 -71.152634
-14.790287 233.922119 -67.624542
17.521254 238.122986 -67.421364
-127.499130 236.840179 -72.151237
-153.624054 241.840775 -64.316422
-142.687561 239.176056 -66.985092
-126.292488 235.425552 -65.514046
-9.679072 233.480545 -64.156898
72.804085 236.466614 -67.709984
-144.288986 251.064285 -62.689816
68.258080 237.802811 -68.949562
-20.741581 242.006241 -73.027122
-141.878098 237.372787 -71.305740
76.990082 239.357117 -77.916702
11.341442 241.083771 -74.343361
-138.395752 246.541779 -72.150253
-148.481262 242.622070 -67.374046
19.009212 240.093994 -62.795120
-1.447623 249.839508 -72.944160
-29.828310 246.464142 -66.795082
-0.596164 245.420471 -62.418499
-159.559479 247.902359 -72.669456
5.499036 252.116989 -64.885834
-164.027969 251.960281 -70.262123
-10.564092 247.210114 -69.364433
58.172691 249.012344 -69.172073
-12.950924 245.571075 -66.063034
-24.220209 258.757996 -67.976471
-23.167318 251.587967 -67.606453
-8.851010 249.346497 -73.359207
-145.588181 236.654282 -69.559410
8.577778 250.826508 -66.388023
64.910851 255.224960 -67.659752
17.034573 255.114944 -64.235344
-169.666794 253.418259 -66.022522
-51.336185 247.593964 -66.866280
6.588053 259.217285 -75.790581
18.343342 252.549454 -68.671074
-52.714561 257.460968 -67.949570
-0.641216 261.008301 -61.426113
21.374743 259.103607 -76.945892
-172.540695 259.269257 -65.125488
-63.260406 259.524567 -73.376350
-51.984203 257.794922 -65.518074
-82.705719 263.665649 -65.682137
-161.606720 256.030518 -70.539093
-149.806671 256.994263 -56.893459
-59.999344 259.855927 -70.750572
-67.738228 258.211792 -67.487648
-152.838638 261.813110 -65.027657
-151.304001 262.021667 -70.160637
-73.254631 265.259033 -61.899998
-92.739876 267.363495 -63.802162
-161.826324 264.337952 -59.740665
-156.845901 272.107330 -68.941902
-134.902985 271.276520 -70.953972
-82.569305 258.977203 -67.180542
-160.676682 264.056152 -63.020298
-140.714035 267.478882 -64.598732
-83.729897 257.230164 -66.735390
-97.046959 272.588043 -65.998886
-141.257782 264.816498 -69.782806
-91.068680 265.548920 -67.839905
-154.829803 265.044556 -65.332909
-103.786934 264.131897 -67.506508
-171.539932 268.571259 -66.617340
-161.703430 277.835266 -71.012093
-127.907982 265.863678 -73.746506
-152.120636 269.718231 -68.976105
-107.928726 273.368103 -63.057114
-12.887815 272.117096 -64.982346
-139.528931 270.413788 -67.632996
-126.667526 270.145477 -66.765198
-152.088120 273.808319 -65.227310
26.223137 283.009247 -69.195290
-149.302734 289.884583 -71.420540
-168.644318 293.434296 -68.637390
-8.459710 289.922302 -65.962494
-143.702774 288.950012 -66.887344
-10.505239 293.882996 -65.451035
13.738990 297.122406 -69.585503
-136.505386 295.909576 -64.506706
-64.092361 297.790466 -71.362976
-32.383354 300.040405 -72.119202
-111.214172 291.793610 -68.436874
-97.090164 299.916168 -74.490562
-87.084152 301.762512 -68.926170
-50.624992 303.109192 -70.035248
-115.101036 296.477112 -75.652199
-115.722008 300.379364 -70.186249
-33.189350 297.247803 -63.847172
-116.403725 304.459961 -70.203583
-128.273376 298.387115 -61.424847
-144.237244 305.114044 -71.838310
7.823355 300.472229 -68.658295
19.968437 302.649323 -70.470207
-161.663284 301.995239 -67.560173
-160.872025 310.955536 -73.351791
-148.425751 319.748840 -70.160088
-152.723587 320.052429 -67.498055
-151.901337 325.120422 -68.187347
28.768124 23.243896 -72.806099
37.590508 30.211973 -63.510780
22.100878 36.166069 -67.395744
30.497372 49.250278 -63.206764
-58.365742 60.696461 -66.464355
-63.608498 61.076481 -67.281448
-38.398727 58.241844 -72.917351
-86.896378 77.567261 -58.911076
80.809532 86.266319 -71.378242
-10.677583 81.740509 -61.982368
90.457436 71.543236 -67.984245
102.350227 85.079430 -67.255470
-90.761917 84.176132 -63.802746
65.950775 90.785011 -67.518173
-38.229252 97.505211 -71.484215
102.961830 90.310104 -67.695854
-57.415749 98.224686 -63.380650
50.205608 101.022255 -68.358566
70.528374 99.747147 -76.719261
54.112171 105.532738 -65.614632
53.589725 109.245186 -69.236504
76.949219 106.625954 -72.233215
48.536175 120.320786 -66.398941
97.637993 113.017273 -68.487251
105.793678 118.608086 -74.451317
77.346954 114.356293 -65.350533
95.881416 116.012733 -69.312881
100.694901 102.799210 -68.261887
111.247910 114.870155 -69.750397
40.855572 117.031815 -66.193214
115.060753 127.573685 -64.617851
115.833969 130.126602 -69.912148
30.314301 135.377808 -64.702194
45.373062 128.013290 -69.681961
116.322693 143.638748 -69.282051
33.738319 137.108749 -66.617737
118.615273 136.854492 -75.188141
108.272774 133.033737 -70.142548
28.428499 143.146011 -70.789543
-45.427826 143.065109 -68.278473
-51.109123 144.578705 -65.157562
112.564568 146.057602 -67.932892
-65.871178 149.022568 -74.062119
-69.766266 150.640854 -68.038208
-59.701672 148.425674 -67.889084
31.021851 155.996368 -69.255997
121.705429 158.020447 -72.089478
-69.716164 158.400131 -62.524673
-49.090389 150.731552 -68.520248
33.342888 163.816803 -68.273048
-67.508072 157.838043 -69.302834
115.361107 149.110519 -66.626846
111.961586 168.310867 -65.409279
117.361053 165.399490 -69.856071
-37.722218 162.221649 -72.128395
-62.479256 176.282959 -67.110336
-64.928169 168.276611 -61.303089
29.185127 153.103378 -69.398811
-1.081385 171.933121 -70.573082
111.459030 173.533676 -66.367149
113.388092 162.220795 -65.436562
113.859756 170.391174 -73.619347
-61.339756 167.209076 -64.721619
-43.636013 179.065323 -70.657562
-3.310809 175.359268 -67.498756
-31.020823 185.325623 -69.242699
106.451736 178.587006 -66.574265
-30.735191 169.857300 -73.455421
109.455254 177.191833 -65.860977
-40.797138 184.898926 -68.141487
108.631447 180.949478 -64.729874
-153.219986 188.427856 -69.183365
-23.980381 188.107910 -61.943916
-17.971201 194.555771 -68.777817
25.613272 186.928284 -73.284401
14.921544 194.626587 -66.218513
30.327662 192.886612 -68.987419
102.743141 195.416336 -76.320335
-151.509613 192.975067 -62.474674
-17.804062 190.950333 -70.902779
101.730255 188.821960 -71.102295
103.878159 199.027344 -62.690891
110.876572 186.013626 -71.087257
101.987587 203.027740 -70.684853
-149.540848 209.123657 -65.473999
100.498978 217.235321 -69.240997
-27.053553 209.903534 -65.465240
96.834259 204.079208 -68.384277
-116.987015 212.609619 -73.881981
-29.261988 197.592026 -73.994286
-141.865845 208.480270 -60.624283
97.473671 207.408737 -68.395409
9.246905 210.243973 -68.108849
26.055225 201.182663 -65.129036
-148.211426 215.267731 -70.480492
-135.779831 213.057312 -67.164024
-8.095259 219.956696 -67.640228
-123.202019 216.664490 -66.974571
-143.700623 205.680176 -68.960800
1.029441 208.323135 -68.932350
-25.747211 209.802780 -70.784943
22.428362 210.925461 -73.232407
5.968264 223.963303 -70.656487
82.305557 219.608215 -62.755032
-16.433519 222.279388 -64.473282
91.296371 219.397736 -64.707253
99.855293 217.216095 -72.552498
-146.597046 223.411682 -70.153961
96.008072 221.832214 -72.076302
4.761284 215.522888 -65.417709
2.895445 224.645538 -70.781380
-30.318895 215.252380 -67.489685
-88.356102 222.836655 -67.185532
-23.166330 219.503174 -71.374771
86.872856 228.771255 -66.339897
92.467766 224.960327 -67.098083
-30.017569 221.326294 -66.458939
-82.299347 230.539673 -62.799969
1.572067 230.060074 -70.494781
77.760849 221.080597 -61.970364
-151.887497 231.237244 -75.725365
-165.641525 224.556671 -65.302872
-163.304794 231.662216 -73.320267
-20.733055 237.186874 -70.751846
-154.218445 232.314301 -74.286911
-2.627527 233.669632 -68.435844
6.514722 228.715134 -70.901909
-169.422211 236.912277 -67.922905
-154.971878 239.046417 -68.101585
79.534714 242.725723 -73.721344
-1.323484 235.590591 -67.803688
-159.381805 236.943207 -59.366943
-141.941360 232.654358 -71.609695
-17.441231 233.736237 -65.542183
-1.981384 229.716034 -73.172699
80.695671 237.744171 -63.891819
-159.851257 238.150162 -64.901497
-139.733795 244.172333 -63.699448
-125.232864 242.492188 -65.074509
78.604416 235.896515 -72.106270
-114.972343 239.843597 -68.409363
-141.669235 239.891296 -67.733170
-150.588242 242.691757 -65.878273
-149.428543 242.696991 -69.122040
-154.732956 239.525894 -69.335098
-163.772995 238.479141 -68.945732
-131.120224 248.316055 -69.651917
-132.190781 244.141068 -69.286942
-150.334244 244.372025 -75.594894
-144.626633 248.962646 -62.764500
-149.602524 246.291168 -69.246315
77.026527 244.161667 -72.600807
68.075966 244.245804 -59.832874
-153.358414 245.735504 -65.293839
74.499756 243.173416 -60.939835
-19.962301 246.527359 -64.810760
14.212128 249.097702 -70.908051
9.327368 246.019302 -69.043625
-155.504333 250.909134 -68.175690
17.643314 251.666153 -67.377190
59.286289 249.097214 -65.831398
14.127090 248.703720 -64.102493
5.302095 251.397095 -68.074554
-5.701274 249.434387 -63.585373
-21.180408 253.247635 -65.616386
-1.856162 250.219055 -68.436165
6.358589 257.105865 -72.485535
58.496601 250.664932 -70.391106
-53.260063 255.123657 -75.150284
21.897017 258.745300 -66.865417
-56.430470 249.558609 -68.810204
-9.992270 258.557129 -68.743080
-66.361145 261.167603 -62.779102
-84.540977 265.120300 -63.838615
-81.133995 265.213654 -70.466446
-6.157614 267.726379 -67.328476
-122.192833 273.381653 -68.431053
-12.881993 260.969025 -68.951744
-115.846901 264.631439 -67.725800
-117.440712 269.541321 -65.663666
-102.900986 264.165344 -68.030815
-141.800949 269.966614 -66.048126
-143.277863 279.393585 -67.809135
-168.349609 273.478119 -68.206665
23.424850 291.015717 -73.739410
-60.515915 295.294464 -64.910828
-67.699806 291.825653 -66.812111
-41.153088 292.068542 -70.631676
-25.052202 298.138031 -68.817108
-94.333763 302.102875 -72.122147
-31.163265 294.399536 -65.434250
-2.259374 295.508362 -67.555222
-166.187500 300.573578 -68.641602
-19.107744 295.263336 -71.710503
5.997228 298.037415 -69.906174
14.997256 288.616608 -75.608810
-56.026741 294.719055 -73.099792
-35.260036 302.686829 -70.244438
15.497271 304.551300 -65.678757
-71.058014 305.105225 -65.483208
-42.513313 297.766083 -63.800026
-17.182156 299.363098 -65.485321
14.917138 302.151947 -71.857574
-11.449741 306.824982 -71.749802
5.834814 305.805023 -67.228638
15.627927 297.883850 -72.622147
-133.908890 304.733185 -67.199669
-144.195969 307.774872 -71.303452
-153.778000 324.154541 -67.266624
46.688705 24.457375 -66.340736
30.520800 21.605776 -67.047211
41.588848 24.746431 -67.538185
24.371916 27.713392 -61.314022
46.971527 33.780354 -63.312229
27.575720 35.708122 -62.985371
24.452692 36.050488 -67.183647
28.594234 52.360584 -68.208572
37.137398 41.009743 -71.719124
26.757984 48.162342 -73.575485
45.274685 50.787693 -64.807419
33.302475 52.061195 -67.889893
42.520374 45.080318 -69.678314
31.558847 50.200565 -64.982109
46.986549 52.612041 -67.308334
32.816212 46.773365 -66.039574
-42.114223 57.139336 -66.288834
-28.078722 60.004990 -60.431557
-89.784004 63.100456 -68.170158
-89.707039 76.688179 -67.610756
77.629051 73.180016 -70.865089
85.521118 82.951241 -65.198753
-20.483942 85.913116 -64.488724
-86.868027 82.575829 -64.406815
-23.888771 86.816246 -65.008064
-48.324646 94.620918 -68.783051
67.136513 96.579727 -63.149796
52.773842 104.307144 -64.919037
100.560951 101.655563 -64.092834
69.786713 107.167633 -70.434151
-69.907974 98.263809 -66.655754
-57.367611 109.505615 -61.834839
45.568542 107.618179 -66.135872
78.513519 107.090164 -64.234856
56.686626 115.532837 -78.104530
103.181244 104.843193 -66.644798
-93.290070 117.768570 -70.715218
43.484028 118.902855 -65.956650
108.881828 120.096100 -68.887291
50.830700 121.716934 -67.277481
101.035881 121.674469 -69.163551
-83.211433 128.450623 -65.497993
36.495266 123.380013 -71.541733
108.908829 126.726128 -64.326553
105.877769 126.513702 -63.153130
104.190468 125.189690 -67.678688
112.649254 123.609009 -64.886002
42.968273 117.039894 -71.332047
33.725220 124.783241 -60.771385
39.365280 121.546082 -66.340462
105.323112 130.436142 -69.738091
42.852371 130.528732 -64.148941
111.324928 142.906036 -65.192238
110.578728 141.148544 -65.059418
34.769806 127.376762 -62.959568
-77.625687 131.786453 -67.819443
112.824722 143.253815 -62.080303
-51.199780 148.537445 -66.955666
35.576923 143.699112 -67.976685
-72.672905 142.647598 -67.076851
25.871199 138.804352 -71.311752
-80.544876 154.355301 -68.079758
-44.382092 151.826431 -70.644142
-75.205208 148.792328 -70.102188
109.695267 145.461304 -65.744080
122.459442 150.899963 -63.785789
120.749702 158.234558 -71.421082
-81.206490 152.938416 -67.172890
7.003969 160.488388 -61.503407
-48.863232 156.766708 -67.384941
-51.473587 164.420914 -68.508575
106.529282 174.044876 -68.065895
-39.336868 157.458115 -70.289330
15.868453 168.545761 -62.940617
23.624395 166.810089 -70.011047
115.348511 175.251785 -64.432312
31.647135 177.855713 -65.370613
0.298940 173.729233 -69.051567
33.047951 169.717636 -67.708939
-66.536331 165.069214 -65.296021
-65.969032 168.799240 -67.173882
-69.180031 176.422638 -63.732918
115.377975 171.723740 -61.561829
-43.830925 172.792496 -67.657921
16.396610 174.475357 -66.824036
-62.849102 179.795090 -64.581352
-64.571632 181.439499 -63.330956
-43.075787 170.852188 -69.212311
-34.405724 176.839813 -71.508385
117.286011 181.319839 -70.641144
-36.570728 192.735092 -58.352257
12.539053 181.566772 -68.190636
111.433411 196.767822 -71.009079
-145.983276 185.749695 -69.245247
-145.669678 180.726349 -65.709007
-144.990784 192.160522 -63.782654
-140.956726 194.671417 -70.225365
-32.348942 194.110611 -64.563431
-22.508036 194.863861 -67.878151
24.780104 202.757202 -60.170631
-139.341873 196.118195 -65.760216
-147.333054 198.629684 -67.481537
-21.544767 194.425323 -64.453346
9.615595 192.313019 -66.245865
-149.795578 205.857376 -66.429939
-30.692938 199.720352 -66.465111
100.565620 197.877396 -67.569656
105.624763 199.415268 -64.190628
26.324940 203.042465 -59.753433
-7.736557 198.049149 -66.567665
-28.237587 202.033752 -69.397194
-155.966461 212.085190 -69.684624
-132.127945 206.341034 -68.117134
-125.092743 204.056870 -62.364197
-126.081490 206.944611 -65.056854
-20.647152 204.050278 -61.118259
15.986033 201.477234 -70.586288
91.792633 210.928589 -74.565041
-151.194656 203.242676 -60.655251
-142.913834 208.628571 -62.599743
-151.395187 211.257156 -66.972046
-153.869858 205.388275 -63.267532
-22.584448 209.356308 -65.121170
-6.122767 204.194260 -61.551117
-143.210846 213.008789 -59.700680
-20.201414 212.730896 -65.732277
-159.336456 212.259720 -65.982536
-133.871918 208.638397 -66.134987
15.490294 216.438995 -71.516624
-157.724060 214.145432 -60.954571
-145.631409 216.483246 -69.635849
6.902677 214.960068 -63.638912
-153.660889 211.740891 -62.512707
-25.020689 213.031265 -65.141388
93.103828 208.404938 -68.739990
-159.956955 219.152451 -68.829315
-163.344193 215.154648 -72.638519
-74.185776 215.262390 -63.514709
91.520409 217.205963 -66.156593
-3.002003 230.364700 -65.994659
-156.865936 222.382004 -64.944511
-86.036331 221.852432 -67.980911
-9.352171 220.364914 -71.586220
17.260567 226.776550 -66.113968
-142.738602 231.168243 -67.438751
-3.327769 230.481598 -74.198433
-15.513649 225.052689 -70.261124
-13.622392 231.712952 -62.878258
93.195274 232.082413 -67.310997
-18.592678 225.273788 -65.012123
-33.730820 228.198380 -65.965446
-107.022659 235.892075 -58.735130
-15.866576 233.974091 -64.423157
95.844208 228.587921 -64.579849
74.647705 232.034790 -68.917747
10.163980 227.889084 -68.599327
-10.814174 235.392944 -61.990208
80.316185 231.163483 -67.041420
-119.958176 235.200119 -73.127815
-15.690331 233.671906 -63.984802
-93.657181 232.922226 -66.354744
-98.801102 231.808960 -66.939857
-127.366539 239.503876 -69.640938
81.911354 232.678589 -68.165619
-121.497391 237.286392 -68.161392
4.798927 239.410522 -65.475616
83.296211 234.643829 -65.126045
-16.041628 245.246841 -68.871513
-14.002328 233.892944 -68.127785
2.144888 239.862640 -75.906319
13.299320 237.788910 -70.723679
92.829613 238.166153 -69.338211
9.798049 240.657654 -64.754341
8.702477 239.801514 -65.286903
-8.132199 242.237778 -67.796593
-5.739729 236.681610 -69.161469
21.833677 243.753387 -65.491936
-11.678061 242.489609 -62.404995
71.696877 251.413895 -67.938828
-9.232530 249.876785 -65.545479
20.489639 245.542221 -68.003639
-158.382248 248.977829 -63.496185
-5.318171 244.972153 -63.268780
-5.824432 248.384079 -70.049614
-166.416962 259.744263 -68.616714
-10.287714 253.546478 -63.740322
15.255754 254.464157 -62.806084
-147.765701 261.429169 -68.893105
-76.723808 262.775848 -67.372620
-61.662121 257.278839 -69.228874
51.593422 256.851624 -62.708447
-71.144730 255.437424 -66.081596
16.343966 259.904572 -67.423775
-71.716423 260.192902 -69.075142
-15.319249 250.856491 -63.352444
-144.301544 262.247864 -71.382820
45.333118 261.468903 -60.931595
-80.695351 267.437347 -72.340523
-102.662613 265.271759 -61.959003
-100.173019 263.930634 -68.773918
-121.475075 260.364807 -62.023083
-105.512146 267.202332 -61.240723
-103.827209 266.744873 -65.407982
21.509680 266.696838 -60.719528
-130.441956 275.029633 -62.969093
-15.652713 284.579254 -68.081482
-148.927643 294.571350 -62.153618
-168.156158 297.224213 -69.786789
-124.492638 291.943726 -68.417259
-113.590408 296.535004 -62.228191
-75.219475 291.705292 -61.145191
-57.621761 296.582825 -69.577156
-40.260197 295.391083 -65.197388
-15.198936 301.887451 -73.351913
-13.195381 304.409485 -63.562935
-38.634430 301.365356 -71.660721
-34.183304 298.653412 -67.434189
-19.124802 298.410217 -62.041805
-73.914063 304.978424 -65.755798
-56.599365 301.467224 -66.102913
-19.419619 302.084412 -61.461510
-13.602629 298.416290 -70.218437
-3.144174 304.193024 -66.641518
3.048759 303.379822 -61.310101
-94.404015 303.902130 -66.927147
-136.922714 306.992065 -71.185287
-114.613930 302.662415 -68.216507
-153.013290 302.582214 -62.929482
-149.245819 309.206787 -68.405769
-147.503448 310.235565 -62.709389
43.834194 33.489525 -60.894688
21.391539 33.193798 -70.767517
51.469082 33.169727 -59.856541
48.298897 45.966644 -66.829788
89.775513 82.636192 -65.052887
97.355621 84.851601 -68.209862
102.718613 85.567230 -66.272110
99.356262 94.691460 -64.964149
56.070534 100.514946 -66.797302
43.613247 98.435402 -73.845367
64.555351 100.808617 -64.372231
-64.760056 104.412567 -63.820808
73.642838 96.855080 -63.026825
100.426781 110.063271 -54.592190
75.436714 112.436684 -65.273689
93.705338 113.957420 -63.711056
-87.265099 116.046593 -66.450317
47.390717 104.453354 -63.105865
-87.923416 108.584152 -67.566376
53.057533 119.882401 -66.552284
36.851021 112.572380 -75.406509
99.016541 113.265358 -64.036827
37.247437 113.443604 -65.974930
47.118053 132.284210 -68.796661
43.154251 122.976303 -66.598907
113.487709 120.728218 -63.746170
-79.130646 132.130173 -73.807190
114.374191 131.651077 -72.572388
43.695370 135.643448 -59.430923
40.541222 129.609100 -65.850021
34.869606 129.116302 -66.947701
-53.582970 139.128174 -73.059685
30.316475 132.969864 -64.072449
-77.468285 148.858185 -60.694733
-53.873825 142.161270 -71.921944
-78.647293 144.848022 -62.327599
38.525238 142.755600 -62.867249
-59.349602 143.139938 -68.756706
36.303162 142.593063 -65.017517
-69.898209 149.579620 -62.926132
-58.484673 153.365234 -59.493870
23.256222 155.702057 -67.703796
113.492249 152.742935 -69.421394
115.548248 147.980392 -59.355042
31.004831 153.626541 -66.738609
-50.122761 149.224777 -69.541306
104.753326 163.061874 -62.345631
-76.298309 151.853271 -65.649445
-57.649910 151.855591 -65.550293
32.633701 155.087479 -57.770847
-78.028854 155.630844 -68.266663
-69.332069 159.336777 -64.860222
114.045387 159.161438 -72.653755
-63.623795 165.941635 -63.215508
-38.938236 161.123962 -60.552181
24.477560 153.547333 -64.070160
-70.547379 152.536392 -66.803741
13.228812 158.119156 -63.923298
32.669518 169.375519 -65.470299
32.355442 162.904205 -62.041443
19.414877 163.207443 -71.903206
-50.564754 162.648895 -69.339615
22.657299 163.089249 -69.922050
-46.841324 161.653488 -64.640335
3.214931 164.323700 -65.952301
19.356970 159.966125 -64.553154
-65.358444 169.102966 -64.106995
-47.115337 164.079102 -61.791733
-68.166237 160.602814 -66.047035
22.305601 168.768112 -64.054916
23.917610 160.097260 -64.682442
3.111931 177.833679 -66.063438
22.984316 161.047913 -63.944759
31.222694 179.888016 -64.257561
-46.512814 174.634018 -66.714432
-39.057568 175.184692 -77.228157
-41.598606 171.270340 -67.870331
28.320648 166.772873 -66.930885
-44.256714 175.848038 -61.989952
-38.387863 180.388397 -63.685032
22.708693 175.050430 -63.251785
-38.980934 187.202667 -66.666771
27.521976 180.107803 -59.172367
110.085564 172.548538 -60.187763
-34.262478 182.280792 -66.162888
98.979637 183.772369 -61.993958
-34.090717 188.209457 -65.465828
-37.855755 192.549286 -70.739967
24.477684 189.192490 -69.779022
107.547249 192.075943 -67.169991
-33.693840 191.092529 -63.261173
-36.152214 190.992783 -65.676651
-21.963654 197.879349 -73.097809
-148.811615 199.821838 -66.062843
10.481818 193.436035 -65.064087
103.919518 203.235840 -63.871441
-161.761230 201.620163 -65.505753
-19.034445 197.181091 -59.882645
-115.256538 208.221558 -69.000778
-127.186768 203.737640 -68.435608
-105.289970 210.315796 -67.708046
-115.247238 210.050720 -64.159370
-9.895186 206.303406 -67.599998
20.080246 205.820923 -62.445900
-15.522264 212.231644 -60.249748
-129.044937 216.528748 -65.808128
-19.647295 209.899658 -59.745659
-126.618599 212.778915 -62.514881
-17.051886 207.589081 -65.250877
-147.477264 210.381165 -64.030235
92.201942 215.799164 -58.947689
-163.508514 210.766510 -56.546028
-0.921445 232.101135 -66.481941
13.244203 220.648117 -68.316399
10.602509 227.459274 -70.703224
82.569183 225.644409 -65.975441
10.654647 223.635117 -67.411140
10.979669 225.309067 -64.259453
-15.302341 224.973007 -69.611244
-89.839493 221.514511 -67.538261
-98.435112 226.731613 -65.801582
4.452441 227.401611 -64.806259
-166.199387 230.532211 -69.354164
17.540298 227.008469 -61.915424
-144.380585 229.159637 -64.944527
14.653544 234.903503 -66.594437
-135.281708 234.945221 -68.520279
-114.521156 239.131531 -67.168060
18.220581 229.743195 -64.966621
80.857590 228.239273 -65.903381
6.350669 233.841843 -66.998085
-107.587997 241.758148 -63.998772
68.325119 237.268646 -67.614975
87.246429 239.416351 -67.797264
-126.646927 248.006592 -65.242157
-119.565086 239.540070 -65.284355
-8.242023 234.814911 -59.725883
72.617943 244.098282 -66.340652
65.081329 241.622879 -66.314392
71.907242 237.751480 -65.035706
-136.818649 243.512741 -60.090862
68.985626 239.430054 -67.613266
65.961533 244.793762 -61.680412
-165.311890 242.070480 -62.627464
3.088058 253.103561 -75.882294
22.183060 248.747696 -67.968781
-5.645409 252.206589 -61.300556
18.460251 249.301483 -57.004543
68.432419 247.464737 -66.978554
7.013068 255.693863 -62.216225
-11.509304 249.829010 -57.529972
-2.105607 244.157928 -60.928741
65.345047 251.893204 -66.144539
0.884884 252.334778 -65.273979
-4.835625 253.141098 -66.714157
15.503275 251.202621 -70.298874
-167.097656 250.992889 -69.591446
53.609238 257.065521 -67.739227
48.373318 264.338196 -55.957188
61.303211 253.363281 -66.434341
-11.777548 257.955261 -62.063564
57.487724 254.434601 -64.368950
-74.487335 261.643402 -65.438072
50.404987 257.725922 -66.188980
-86.166084 263.193695 -64.365959
-120.363861 269.052734 -66.585869
-131.102844 261.715057 -66.171555
48.792473 261.143188 -68.351471
-128.836319 260.621674 -69.787216
-107.391525 263.228241 -61.563652
-118.005402 268.131775 -62.743839
-84.346916 264.222900 -65.818642
-109.722977 267.411865 -60.945942
-123.786171 272.821106 -70.722748
-147.374359 279.184662 -62.192303
-14.712787 279.253662 -62.990040
-174.402328 275.075104 -69.860855
-14.635377 285.739563 -63.740417
-157.872513 277.050323 -60.450470
-152.284622 281.576141 -67.194725
-171.161179 287.733185 -65.426689
-15.393394 293.746368 -66.762108
-126.227875 292.468445 -69.216690
-155.864700 296.370361 -65.318390
-142.101791 290.119232 -63.990841
-134.428955 286.241455 -68.548294
-7.785229 293.947906 -55.957844
-125.929672 292.423584 -69.576202
-140.110947 296.002289 -60.829525
-114.590637 295.348572 -71.282471
-81.947586 299.744720 -61.496040
-58.581791 296.763245 -67.790070
-8.184249 297.620087 -67.356827
-54.644497 292.158691 -63.620583
-56.077396 298.645691 -61.899529
-71.532745 300.243256 -63.105312
-89.224442 306.230042 -63.071365
-91.578430 297.077179 -63.342545
-158.196152 301.606720 -65.297424
-159.284866 305.244110 -66.343941
-123.319923 302.998260 -69.830254
-143.782104 303.909149 -64.822800
-150.165024 316.473969 -68.599014
-153.298660 321.075317 -70.120888
49.535877 21.776154 -63.131298
14.546387 42.678009 -67.456711
43.605053 45.584358 -58.502384
-13.219547 75.857948 -68.973251
82.225365 74.966293 -61.995087
92.446846 76.069984 -58.710300
80.020782 74.841820 -71.639954
72.396317 80.306252 -67.641891
91.573074 86.863907 -66.659447
-97.835014 80.216354 -60.383698
65.751068 84.975410 -64.930969
-35.475998 87.970901 -69.010353
98.467819 95.142830 -63.928642
63.908756 100.653580 -59.663708
108.829643 101.397118 -71.884720
98.933075 109.245697 -71.526237
74.851295 112.112030 -65.088959
-82.348114 113.735863 -60.531528
55.195148 117.000969 -63.114006
109.620392 117.372864 -59.565727
45.883579 125.179428 -63.855934
80.059410 116.934341 -62.869709
41.860699 118.560966 -64.095894
102.217285 113.146790 -64.554283
47.922474 118.025871 -64.595520
105.807701 118.810806 -73.518539
111.822220 119.163589 -70.421997
-80.058388 124.460243 -61.447403
-83.052292 131.336700 -61.618298
44.122578 129.466766 -68.872696
114.043266 134.246628 -66.888680
113.617737 133.547333 -64.947685
-89.698853 136.564377 -63.462505
104.989868 138.202072 -68.093056
-59.431839 142.124847 -71.880455
-85.825943 138.439255 -65.805954
-69.197266 136.459457 -66.325447
-60.406055 136.944000 -60.265026
32.703941 141.452225 -64.767776
45.752045 146.776016 -59.845779
-70.027519 146.050018 -64.525162
29.271980 139.273621 -60.701759
113.921921 156.231979 -64.307076
-36.626354 160.447388 -65.404572
35.572830 160.069229 -68.162933
112.996910 160.046982 -61.920292
36.807201 152.232605 -65.880783
109.832237 149.044678 -62.908783
-50.957024 159.981079 -64.005669
-74.459892 162.041367 -60.314762
-58.626553 160.117661 -65.388443
-42.599678 175.160126 -71.180580
3.198124 165.722870 -68.290627
108.592316 162.833038 -65.575500
108.435211 171.724716 -64.128540
11.922873 166.505905 -64.792442
1.549906 170.075684 -63.266888
22.885218 163.563904 -61.703384
26.651522 165.729126 -62.586102
106.779556 175.321732 -64.281654
112.135696 177.571304 -69.219650
24.465334 187.275742 -60.780460
24.112762 176.001114 -69.057259
111.450905 172.365295 -61.155453
-30.040541 190.074448 -62.727470
111.203163 177.286102 -65.217003
18.445358 173.470932 -64.850014
21.559969 180.139053 -64.733002
108.010773 182.431915 -65.227119
28.276609 179.835114 -63.253891
114.946205 196.000504 -62.093090
-38.489418 190.681671 -64.236458
23.697010 178.447906 -64.730728
108.423752 195.364563 -64.346039
22.645031 186.187546 -66.065811
-150.647980 195.769485 -62.466663
-27.436710 200.476929 -60.278542
24.232237 195.506607 -60.653461
-116.156776 202.568100 -67.852852
-112.176834 203.586838 -60.621185
26.010880 197.432648 -65.564392
10.567565 194.533264 -60.174294
-26.825373 200.770065 -59.505020
-28.192276 199.449463 -71.232681
-29.149965 198.966888 -65.415596
12.126759 190.279495 -60.919060
-150.401367 206.482712 -64.759468
-146.609573 201.864471 -63.861061
-147.431030 210.060867 -70.275726
-23.752804 201.584335 -63.218086
15.205813 209.936508 -60.311703
98.516571 202.219513 -62.195324
-113.124161 208.482971 -62.420494
21.518471 207.545059 -70.445778
-12.431225 204.461990 -62.642258
-16.616838 208.461990 -64.554039
102.238220 210.714218 -62.019756
6.943488 207.649002 -68.261459
-21.991102 206.981674 -62.266811
-119.799309 215.064774 -69.198616
-134.318390 213.118835 -65.565201
-114.130577 216.709717 -56.789989
-141.905121 213.020004 -69.792847
16.679640 208.086182 -64.032829
92.317230 208.877563 -67.024864
