-53.448371887207 -69.884140014648 -189.601364135742 5.796863555908
3.527450561523 -71.377525329590 -234.008544921875 2.116543054581
64.511291503906 -82.157440185547 -280.893707275391 34.074481964111
-0.369308471680 -73.837989807129 -240.857330322266 1.996575355530
55.326019287109 -81.139221191406 -287.722778320313 35.133815765381
-65.120361328125 -70.445167541504 -181.175689697266 7.453876972198
-82.590438842773 -72.719734191895 -165.055053710938 12.531171798706
-71.050247192383 -68.612449645996 -176.460830688477 9.476745605469
-48.967277526855 -63.561317443848 -174.586410522461 10.935239791870
-18.619667053223 -69.268852233887 -209.818481445313 1.559873580933
62.868118286133 -78.211051940918 -276.176788330078 28.076883316040
68.119705200195 -79.521377563477 -268.973754882813 24.466714859009
-11.373840332031 -73.262214660645 -214.348663330078 3.372424364090
-17.455375671387 -74.125518798828 -205.132446289063 1.976909279823
-4.617904663086 -77.030914306641 -223.210098266602 1.852513790131
-0.283195495605 -76.340675354004 -223.831542968750 1.193733096123
69.013015747070 -79.220809936523 -265.124755859375 21.520036697388
74.810592651367 -74.574905395508 -266.838317871094 24.380735397339
11.079254150391 -77.712249755859 -205.356979370117 1.602334499359
4.228378295898 -69.588050842285 -214.456970214844 2.336491107941
70.783203125000 -82.657211303711 -270.163879394531 27.800310134888
-30.245979309082 -72.527526855469 -170.031967163086 1.313127875328
73.746932983398 -78.519470214844 -266.308044433594 24.493192672729
-1.959014892578 -73.490180969238 -212.810272216797 1.665853142738
4.572570800781 -73.696388244629 -209.422927856445 1.567077875137
74.365356445313 -78.249633789063 -260.290100097656 20.760427474976
9.642944335938 -75.571640014648 -213.685317993164 1.974290370941
88.018890380859 -81.594970703125 -253.625396728516 23.001476287842
-36.500007629395 -70.516433715820 -164.475723266602 1.800520062447
5.229751586914 -73.847923278809 -212.063400268555 1.184096097946
82.557418823242 -78.971893310547 -250.261718750000 17.137210845947
9.175582885742 -72.344871520996 -205.357986450195 2.938279628754
-122.165496826172 -65.622749328613 -92.046249389648 22.385749816895
-21.926055908203 -74.978981018066 -163.267517089844 8.696300506592
15.917236328125 -77.709838867188 -198.692810058594 1.461299180984
-90.529678344727 -62.177207946777 -107.926330566406 6.424903869629
-87.034263610840 -69.615188598633 -109.204376220703 2.165452003479
18.686752319336 -72.885322570801 -198.482086181641 2.226400136948
4.497222900391 -77.399040222168 -191.117401123047 7.199510097504
-21.292877197266 -75.782897949219 -163.371475219727 9.211863517761
-22.735336303711 -64.014862060547 -164.135314941406 10.460194587708
-24.008346557617 -69.771842956543 -163.660720825195 7.789806365967
3.160583496094 -76.806915283203 -195.469757080078 7.363926887512
-115.340095520020 -63.198287963867 -83.822723388672 15.584441184998
-115.195968627930 -64.382614135742 -89.746353149414 15.612997055054
-110.596038818359 -57.816383361816 -83.058410644531 10.683898925781
-18.224502563477 -72.245681762695 -164.772857666016 10.081271171570
17.578643798828 -77.318222045898 -181.754638671875 1.817101240158
78.827026367188 -80.440490722656 -238.699050903320 7.785299301147
-84.724792480469 -67.694816589355 -104.835678100586 0.207142934203
21.495376586914 -67.607040405273 -187.969177246094 2.680752038956
-7.534584045410 -73.445175170898 -169.363845825195 2.144115447998
-8.329315185547 -71.234863281250 -163.737365722656 5.883344173431
86.952102661133 -80.715171813965 -234.232666015625 9.102450370789
9.948654174805 -68.929687500000 -178.906311035156 6.039611339569
-13.570762634277 -73.222976684570 -161.528274536133 8.735713958740
-85.726860046387 -60.444564819336 -95.877426147461 9.838806152344
-98.536392211914 -63.245719909668 -88.403381347656 2.968395948410
-80.709838867188 -73.140487670898 -97.445159912109 3.484052658081
-104.436592102051 -58.581481933594 -84.058975219727 5.468995571136
17.755432128906 -73.716430664063 -184.292068481445 3.529879570007
78.173858642578 -75.162147521973 -229.878723144531 1.292401075363
-125.363342285156 -69.592124938965 -72.537506103516 27.155769348145
85.996978759766 -79.696342468262 -232.891357421875 7.562609672546
-9.963729858398 -63.934608459473 -154.461227416992 16.014415740967
86.038879394531 -82.899574279785 -223.503265380859 5.942458152771
81.204376220703 -74.400482177734 -220.139312744141 2.822101116180
14.894531250000 -69.293838500977 -177.580307006836 1.472909688950
31.158477783203 -75.234779357910 -174.989227294922 3.978321075439
21.973190307617 -78.128997802734 -174.079574584961 1.982443094254
12.395507812500 -71.297378540039 -146.831161499023 1.297874927521
-55.185272216797 -62.070755004883 -99.989303588867 8.901013374329
2.220825195313 -67.787315368652 -156.533996582031 3.199653863907
86.248855590820 -76.384216308594 -211.561767578125 2.683324337006
-59.168914794922 -62.176124572754 -102.756362915039 5.516316890717
-58.775222778320 -70.876304626465 -94.406280517578 4.089524745941
-59.436798095703 -67.383087158203 -98.743469238281 6.169233798981
91.203353881836 -73.858970642090 -209.542312622070 1.590045094490
-86.165489196777 -62.386657714844 -70.064819335938 9.905791282654
-79.435729980469 -55.317176818848 -71.434783935547 13.043041229248
-70.917251586914 -64.398277282715 -82.514541625977 8.435605049133
-71.391181945801 -68.747116088867 -87.359863281250 9.039897918701
-81.447738647461 -67.213439941406 -69.666259765625 8.470969200134
-66.292221069336 -53.916511535645 -81.154739379883 8.349123001099
-64.071395874023 -66.477302551270 -82.726577758789 4.735923767090
15.000015258789 -65.585945129395 -150.173171997070 2.004659414291
8.795440673828 -66.688728332520 -145.749923706055 5.319104194641
23.378921508789 -75.755294799805 -148.886154174805 2.293155908585
14.468673706055 -76.234443664551 -145.413879394531 5.034982681274
39.791793823242 -71.353775024414 -155.348937988281 5.622013092041
7.338485717773 -73.672859191895 -136.296234130859 12.895917892456
-113.931892395020 -63.883712768555 -55.584899902344 17.673082351685
22.116287231445 -70.133682250977 -142.197708129883 3.211785554886
90.262817382813 -82.019073486328 -195.980026245117 9.592887878418
36.409790039063 -69.554199218750 -154.533782958984 2.954012393951
23.940902709961 -72.329437255859 -141.402481079102 1.742584109306
-96.762481689453 -65.311401367188 -48.898834228516 8.124457359314
-91.102157592773 -65.581947326660 -63.486450195313 3.253695011139
76.213088989258 -76.720710754395 -180.028381347656 25.839836120605
21.723358154297 -70.499008178711 -143.705322265625 2.950362205505
33.116806030273 -69.368202209473 -158.030258178711 1.403264641762
77.061203002930 -71.787025451660 -195.139450073242 17.465478897095
88.160583496094 -77.151947021484 -191.995178222656 10.912960052490
89.517425537109 -74.335479736328 -182.671218872070 12.983016014099
25.520339965820 -66.594627380371 -144.756393432617 1.185865044594
74.561447143555 -78.685928344727 -180.083770751953 27.639915466309
15.592575073242 -66.040260314941 -129.153533935547 9.796854019165
19.103454589844 -75.594116210938 -133.029693603516 8.246868133545
35.278213500977 -72.473617553711 -147.392364501953 2.321397781372
78.559646606445 -70.049354553223 -183.343933105469 22.266981124878
86.000167846680 -78.567657470703 -181.327484130859 17.368804931641
71.999008178711 -73.765014648438 -166.201019287109 34.158184051514
80.448974609375 -70.244506835938 -176.496917724609 23.976711273193
24.140365600586 -62.394302368164 -125.606155395508 7.061907291412
-25.110107421875 -71.220962524414 -75.451293945313 1.373138308525
-21.867355346680 -70.028060913086 -83.041854858398 5.454220294952
69.440414428711 -69.565536499023 -163.026916503906 35.961246490479
-85.125556945801 -59.559532165527 -40.545837402344 6.057483196259
68.825210571289 -74.317153930664 -148.508178710938 30.837894439697
-35.134933471680 -58.927474975586 -75.827758789063 1.428879737854
-86.268630981445 -68.300346374512 -34.117584228516 14.244743347168
-73.450180053711 -74.681228637695 -46.803070068359 5.162923336029
72.682861328125 -75.194107055664 -155.400451660156 35.751392364502
-57.751464843750 -68.878211975098 -49.400329589844 0.741663455963
-54.258827209473 -62.380981445313 -58.176574707031 11.406401634216
-31.884117126465 -72.145225524902 -72.479003906250 5.467906951904
24.169952392578 -77.190155029297 -128.107498168945 3.833235740662
65.644256591797 -74.249221801758 -148.341171264648 27.754163742065
61.532608032227 -77.287452697754 -141.515884399414 22.526865005493
-84.041038513184 -69.835212707520 -26.055175781250 21.399211883545
-46.042823791504 -60.929061889648 -53.790954589844 8.142009735107
33.692932128906 -70.663307189941 -115.564392089844 2.688639879227
-57.614944458008 -64.111434936523 -40.642303466797 3.181864500046
37.180709838867 -72.157325744629 -108.224624633789 2.000912189484
-79.817436218262 -62.089141845703 -18.022460937500 26.216295242310
49.416152954102 -69.811370849609 -108.208969116211 1.493521571159
-66.687713623047 -60.041946411133 -6.719085693359 36.080623626709
-76.921157836914 -56.423782348633 -10.500457763672 32.460491180420
-54.509040832520 -61.635986328125 -19.238342285156 23.789426803589
-78.920578002930 -57.153343200684 -1.240661621094 41.904945373535
72.377151489258 -67.619651794434 -111.411331176758 4.817521572113
-22.813949584961 -63.091049194336 -41.953338623047 8.017402648926
-11.941474914551 -73.708816528320 -51.637023925781 8.233542442322
-76.968719482422 -65.419075012207 -3.495269775391 40.450733184814
-18.321624755859 -56.814559936523 -53.029876708984 3.213564872742
-63.671760559082 -60.226768493652 -6.650512695313 36.116142272949
4.559020996094 -63.606086730957 -47.373321533203 16.473741531372
2.364036560059 -67.716934204102 -58.116851806641 12.503653526306
-3.919723510742 -63.189323425293 -49.000518798828 9.068868637085
56.697463989258 -72.875953674316 -101.524810791016 1.587809920311
-13.792991638184 -65.674140930176 -48.807434082031 5.467893123627
-17.518531799316 -61.865692138672 -41.300903320313 8.592602729797
-31.900184631348 -63.595916748047 -26.482116699219 20.094520568848
-29.817504882813 -69.041778564453 -27.923980712891 20.368501663208
-44.822425842285 -61.879180908203 -19.585052490234 24.019416809082
-45.063697814941 -63.090942382813 -6.815307617188 36.814689636230
-40.004814147949 -60.468429565430 3.925292968750 47.864139556885
-88.358596801758 -81.567962646484 -335.070678710938 43.996238708496
-79.768814086914 -78.396141052246 -339.837219238281 48.823333740234
-81.261268615723 -74.101737976074 -335.985595703125 44.347057342529
-68.840270996094 -82.838775634766 -343.782928466797 52.343013763428
-78.254486083984 -77.743148803711 -320.494415283203 29.801870346069
-146.827865600586 -71.865036010742 -249.464233398438 2.894412279129
-4.407714843750 -86.857543945313 -332.581268310547 41.742115020752
-91.324768066406 -78.462982177734 -266.441436767578 10.212430953979
12.500564575195 -81.172348022461 -336.923217773438 42.909164428711
4.162017822266 -75.115501403809 -328.540985107422 35.150764465332
-13.641174316406 -78.030891418457 -310.419342041016 18.098831176758
-7.952285766602 -73.659515380859 -311.544555664063 19.249723434448
-100.864723205566 -67.625389099121 -240.346420288086 11.789133071899
-18.634712219238 -71.426269531250 -304.955352783203 12.688360214233
-134.893341064453 -68.551910400391 -204.359085083008 2.318989276886
-101.796806335449 -75.008934020996 -236.622390747070 9.358857154846
-109.306877136230 -63.988639831543 -231.255798339844 3.030149698257
26.770034790039 -71.969856262207 -316.427459716797 25.967069625854
-13.085899353027 -73.835365295410 -297.797485351563 5.115897178650
-6.600051879883 -79.425094604492 -301.214721679688 10.284591674805
-131.105529785156 -77.242584228516 -196.966064453125 1.829225540161
24.839553833008 -78.389709472656 -326.281585693359 34.097812652588
-22.319107055664 -78.971939086914 -278.184387207031 8.503586769104
25.509613037109 -81.089912414551 -316.211181640625 25.351469039917
34.205383300781 -84.675056457520 -312.429107666016 28.039030075073
25.936187744141 -79.869453430176 -310.603271484375 20.583124160767
3.203628540039 -74.067245483398 -299.447113037109 6.077036857605
19.242477416992 -76.532409667969 -298.613464355469 6.655602455139
-8.041954040527 -79.398162841797 -274.409423828125 2.052880525589
33.460952758789 -86.531539916992 -318.269897460938 32.249752044678
-14.082618713379 -71.666969299316 -279.267822265625 3.194920778275
-23.823638916016 -78.409957885742 -273.456726074219 10.973772048950
41.805603027344 -79.827552795410 -313.454010009766 33.357532501221
-111.659568786621 -74.994430541992 -198.169815063477 3.696941137314
-11.239242553711 -78.701797485352 -270.010070800781 0.645086050034
-18.883453369141 -72.047409057617 -259.371276855469 4.869883060455
35.871383666992 -83.850875854492 -308.426300048828 26.554483413696
-18.987098693848 -79.798706054688 -265.393554687500 6.781482696533
-117.253799438477 -69.358383178711 -191.727874755859 3.170743227005
-121.605903625488 -74.049560546875 -183.486770629883 10.862461090088
37.920242309570 -73.194580078125 -298.305206298828 22.207040786743
-118.429527282715 -68.169235229492 -179.915191650391 6.796567916870
-10.501457214355 -71.520782470703 -260.612701416016 4.275389671326
-11.626487731934 -75.779602050781 -256.109619140625 1.312193393707
-108.303092956543 -69.085212707520 -181.749969482422 1.731397151947
-7.640785217285 -78.386878967285 -246.373748779297 3.236104249954
53.806915283203 -79.099105834961 -296.438659667969 37.315425872803
-73.023002624512 -70.795272827148 -188.700988769531 16.768337249756
-103.733871459961 -71.097740173340 -172.363647460938 2.440573692322
-5.939529418945 -70.368240356445 -252.741394042969 4.738929271698
-100.432357788086 -75.216209411621 -171.009002685547 6.853163242340
-98.851417541504 -64.588874816895 -166.710205078125 3.914597749710
-72.811950683594 -71.137329101563 -193.474624633789 14.738645553589
-87.813705444336 -73.241012573242 -178.654907226563 15.900568008423
-75.502838134766 -71.791351318359 -196.482955932617 12.870633125305
60.638977050781 -85.059288024902 -295.508972167969 44.969532012939
-90.727508544922 -67.059585571289 -182.969924926758 13.851021766663
-6.185806274414 -74.611404418945 -251.932647705078 2.968852281570
-91.721069335938 -72.258728027344 -171.899383544922 11.513836860657
-90.299400329590 -69.371887207031 -181.249664306641 13.504573822021
-104.073425292969 -71.221107482910 -160.578384399414 3.319351911545
-71.869338989258 -75.637847900391 -182.885482788086 12.725035667419
-1.928428649902 -82.247650146484 -234.994247436523 4.565355300903
-3.604278564453 -77.148696899414 -230.509918212891 1.546550273895
-11.444992065430 -82.868980407715 -229.620895385742 5.127937316895
62.230773925781 -81.277999877930 -284.327758789063 35.839488983154
-95.013282775879 -70.869110107422 -157.263473510742 3.588091850281
-14.840194702148 -72.758506774902 -217.347900390625 1.765847802162
-77.521087646484 -70.496742248535 -164.992523193359 9.217533111572
-6.187210083008 -77.529022216797 -228.359024047852 1.532860636711
-60.272613525391 -72.702682495117 -178.590103149414 2.918476104736
-13.904556274414 -76.317436218262 -215.646530151367 1.928145408630
-4.428855895996 -70.866127014160 -216.398071289063 1.589495778084
-2.387443542480 -67.718879699707 -212.528091430664 4.097876071930
-56.698829650879 -67.439079284668 -170.623977661133 6.581845283508
-51.196838378906 -73.836425781250 -185.112213134766 0.809970796108
-54.399559020996 -69.427688598633 -173.783050537109 5.434152126312
-91.501235961914 -66.366790771484 -131.777420043945 1.132548570633
8.599975585938 -72.464927673340 -206.353683471680 2.112459897995
-32.835174560547 -71.277214050293 -169.738143920898 3.048499584198
5.556137084961 -67.959083557129 -200.271804809570 2.816009759903
-120.571380615234 -66.480606079102 -105.747726440430 22.316780090332
-35.568786621094 -76.686119079590 -176.063247680664 2.142915248871
-130.836456298828 -55.492347717285 -95.289123535156 29.634143829346
14.766937255859 -82.814720153809 -202.988342285156 3.545063972473
-39.520576477051 -69.108665466309 -176.275680541992 3.768444061279
-93.415466308594 -71.056617736816 -128.174682617188 4.942867755890
-87.426788330078 -59.614768981934 -120.849685668945 2.117117643356
-27.021469116211 -79.243423461914 -165.177322387695 3.805303096771
-24.229469299316 -65.401290893555 -173.354812622070 5.545780658722
8.723251342773 -75.630683898926 -189.160385131836 3.717955589294
18.175231933594 -78.611999511719 -182.812255859375 0.740180790424
9.008926391602 -73.312782287598 -190.976623535156 2.783496141434
-114.820060729980 -68.209747314453 -97.170455932617 16.861433029175
19.672790527344 -80.873367309570 -196.566879272461 1.812795281410
8.117111206055 -74.943161010742 -178.738021850586 7.080848693848
-104.308578491211 -68.109130859375 -97.171371459961 7.176013946533
-85.327537536621 -67.793663024902 -108.848831176758 1.661476016045
21.039016723633 -77.039337158203 -178.315536499023 2.646394014359
-90.395881652832 -69.012489318848 -102.758773803711 5.416726589203
-83.693145751953 -76.270896911621 -113.213653564453 2.731577157974
-124.693679809570 -61.818702697754 -69.520416259766 25.590349197388
-13.271247863770 -74.408927917480 -158.383865356445 10.640649795532
13.556289672852 -76.682266235352 -179.570785522461 2.663378953934
-106.564559936523 -63.840805053711 -81.053176879883 8.315135955811
-98.571060180664 -60.557815551758 -82.994735717773 2.009779453278
-6.691108703613 -74.959075927734 -152.876800537109 11.246129035950
-0.211608886719 -71.742614746094 -160.997360229492 2.797069311142
-0.680099487305 -70.730743408203 -160.594375610352 3.483121871948
-101.272789001465 -59.131675720215 -88.115295410156 2.902119636536
0.061203002930 -72.879196166992 -152.202484130859 7.269951820374
8.836853027344 -65.371940612793 -156.757598876953 3.167457580566
27.495223999023 -78.978759765625 -175.134384155273 2.543975830078
-0.497596740723 -65.378471374512 -153.086593627930 7.928145408630
19.684997558594 -72.152557373047 -172.662414550781 1.985001325607
6.379287719727 -70.497253417969 -154.442276000977 1.664125084877
-6.353401184082 -76.942047119141 -148.988632202148 13.671540260315
28.020996093750 -65.176567077637 -164.157440185547 2.253777742386
15.769912719727 -65.175994873047 -156.883605957031 3.268596649170
27.061889648438 -79.692878723145 -163.766616821289 1.406894207001
18.772338867188 -68.473670959473 -146.264083862305 1.003472566605
-104.496826171875 -61.534828186035 -53.380432128906 10.890785217285
81.805465698242 -73.917861938477 -206.997497558594 7.410648822784
-87.021759033203 -68.393379211426 -71.476013183594 5.222572803497
-87.819931030273 -61.576316833496 -74.089843750000 9.112911224365
15.385879516602 -71.550254821777 -148.634857177734 1.659955859184
32.766052246094 -73.988830566406 -148.039154052734 0.918597698212
-99.831237792969 -63.653282165527 -50.855346679688 8.519587516785
89.774475097656 -80.910415649414 -212.080505371094 4.086220264435
21.489776611328 -74.979522705078 -151.063720703125 1.216548562050
19.415084838867 -72.573394775391 -157.407897949219 1.503746628761
84.251480102539 -72.914497375488 -193.281021118164 12.395967483521
28.708969116211 -76.930641174316 -143.680847167969 2.000712633133
10.322769165039 -70.668258666992 -146.210235595703 3.483722686768
-74.704162597656 -70.085395812988 -68.287750244141 7.459665298462
25.118392944336 -73.094314575195 -139.116668701172 0.862225651741
26.099502563477 -76.480575561523 -151.271835327148 2.548890113831
81.558853149414 -80.937896728516 -183.226516723633 20.958290100098
-96.060096740723 -59.969902038574 -47.803527832031 6.797399044037
23.282485961914 -74.621055603027 -128.257019042969 5.131984233856
-104.746635437012 -58.513870239258 -38.077270507813 18.834627151489
39.651535034180 -80.048126220703 -146.874954223633 6.078438282013
-98.996978759766 -60.564666748047 -43.111541748047 11.591138839722
-90.882751464844 -60.233230590820 -38.140106201172 10.572115898132
79.820114135742 -75.295272827148 -173.455657958984 25.268051147461
79.648712158203 -73.294128417969 -176.928222656250 24.209394454956
78.205413818359 -74.611358642578 -170.117645263672 27.545417785645
76.955856323242 -75.709396362305 -165.080093383789 29.511398315430
-87.945755004883 -61.298278808594 -46.869232177734 3.592797517776
-89.392005920410 -68.405715942383 -41.244384765625 10.168542861938
26.947021484375 -65.720352172852 -126.788970947266 6.490958690643
-83.610610961914 -64.563911437988 -43.450744628906 4.022712707520
51.018844604492 -73.685791015625 -143.311462402344 12.282567024231
-97.856300354004 -54.063758850098 -27.717987060547 21.796028137207
-96.614257812500 -64.649909973145 -28.946777343750 22.156669616699
-30.336227416992 -64.750213623047 -86.279342651367 8.422043800354
-94.311988830566 -63.613708496094 -23.187469482422 25.865859985352
-25.145393371582 -67.669189453125 -74.575653076172 1.003441095352
73.039337158203 -76.711639404297 -156.672119140625 35.309627532959
58.453018188477 -69.992584228516 -140.718307495117 19.447021484375
-79.347816467285 -61.035255432129 -26.313323974609 18.142864227295
-37.588539123535 -75.657569885254 -63.006591796875 2.615977764130
70.940231323242 -75.669250488281 -154.513916015625 34.989604949951
-43.441932678223 -55.026977539063 -61.733245849609 10.849937438965
-74.571273803711 -66.883506774902 -26.657165527344 17.965806961060
-41.407333374023 -67.268745422363 -65.558624267578 10.352340698242
-91.833892822266 -57.965217590332 -22.460845947266 24.764663696289
-44.066329956055 -64.633651733398 -53.050933837891 5.245604515076
-74.625091552734 -59.971817016602 -26.590423583984 16.608316421509
-82.208549499512 -66.828796386719 -25.826782226563 20.339056015015
-85.708168029785 -63.604347229004 -21.316528320313 24.505420684814
-87.052276611328 -64.567550659180 -22.286834716797 24.046873092651
-85.868392944336 -62.197128295898 -21.156005859375 24.504276275635
-92.342193603516 -60.978034973145 -22.815704345703 24.962009429932
67.745620727539 -72.510559082031 -137.497802734375 26.621404647827
-72.023056030273 -56.962852478027 -34.156433105469 8.694165229797
-61.917694091797 -62.817451477051 -12.097320556641 31.309520721436
75.314086914063 -74.583427429199 -131.346343994141 24.664358139038
41.841201782227 -67.570304870605 -106.253479003906 0.937913656235
-40.882896423340 -68.118682861328 -29.152404785156 16.734300613403
-48.782966613770 -63.853012084961 -21.015625000000 22.878767013550
-44.222335815430 -64.540435791016 -20.374847412109 23.585767745972
-43.196739196777 -64.199577331543 -26.419982910156 17.770875930786
-25.957153320313 -66.923774719238 -30.728881835938 18.086812973022
-24.962753295898 -71.640670776367 -43.423614501953 8.490293502808
70.543579101563 -67.570274353027 -101.372512817383 1.497700691223
-4.546463012695 -65.296356201172 -49.554962158203 9.392188072205
-58.896530151367 -62.433639526367 -14.436492919922 28.917606353760
-19.305809020996 -64.417129516602 -38.020141601563 12.321383476257
-43.190292358398 -66.960350036621 -17.547943115234 26.942722320557
67.529312133789 -70.391769409180 -110.276535034180 8.118374824524
-28.824752807617 -74.595336914063 -36.692199707031 13.935924530029
67.694351196289 -71.900016784668 -101.388244628906 4.483334064484
-54.783493041992 -63.766311645508 -17.655273437500 25.657232284546
-56.195343017578 -62.811889648438 -5.011718750000 38.079105377197
-48.501258850098 -63.735061645508 18.210296630859 61.613258361816
-49.850654602051 -65.263610839844 10.341949462891 53.826660156250
-63.993545532227 -75.099205017090 -339.937896728516 47.896602630615
-72.408920288086 -78.557113647461 -317.158081054688 25.561811447144
-71.237335205078 -76.896347045898 -319.953765869141 27.887987136841
-119.302978515625 -69.734832763672 -269.498687744141 5.737626552582
-85.094497680664 -78.576850891113 -275.084442138672 10.978766441345
0.888900756836 -80.890075683594 -336.003326416016 43.116363525391
-20.325096130371 -87.175323486328 -318.523193359375 28.541475296021
-91.001968383789 -75.821304321289 -257.035552978516 3.154840707779
-141.264862060547 -64.119377136230 -199.368606567383 1.743476390839
-96.849327087402 -73.700096130371 -236.792053222656 11.839697837830
-22.230354309082 -79.263908386230 -303.091857910156 11.525286674500
-12.023910522461 -75.254577636719 -305.244445800781 12.706026077271
-22.199111938477 -82.024345397949 -292.744995117188 4.057077407837
-107.442184448242 -73.015296936035 -223.016906738281 2.556003332138
-7.970542907715 -85.841247558594 -301.916687011719 13.640673637390
-21.596115112305 -72.714210510254 -279.325286865234 7.862852096558
-2.429290771484 -76.084388732910 -298.664276123047 7.131028175354
-103.891296386719 -74.092689514160 -218.370849609375 2.567353010178
-19.160392761230 -76.311737060547 -291.106811523438 0.742139816284
-18.486015319824 -74.615119934082 -282.876647949219 5.011675357819
28.842056274414 -86.383995056152 -312.157470703125 24.887128829956
-106.950584411621 -71.762512207031 -214.623397827148 6.160032272339
33.578384399414 -82.841323852539 -320.977661132813 33.719497680664
-115.887733459473 -65.985244750977 -202.861587524414 1.035379290581
-7.823921203613 -74.918243408203 -279.039367675781 1.243119239807
-15.703887939453 -80.180801391602 -280.404327392578 6.467577934265
19.351165771484 -86.373138427734 -303.624603271484 13.900435447693
14.217208862305 -79.178314208984 -298.171478271484 4.760982513428
-6.045127868652 -77.112648010254 -283.109283447266 3.123006582260
-108.031608581543 -69.635574340820 -194.982376098633 0.848732590675
-106.369346618652 -70.886718750000 -189.856216430664 2.507803678513
-108.488632202148 -69.238807678223 -188.783309936523 1.549382805824
-118.747001647949 -61.898628234863 -181.624298095703 7.868348121643
36.668151855469 -89.604766845703 -299.702392578125 25.685209274292
-115.955543518066 -65.489898681641 -182.439834594727 3.676331281662
-100.633789062500 -76.714698791504 -189.239852905273 10.240612983704
41.610305786133 -82.599075317383 -304.874023437500 29.205631256104
-91.665496826172 -82.592872619629 -202.482757568359 12.132391929626
54.326293945313 -75.230827331543 -296.375305175781 37.455711364746
50.522964477539 -78.588111877441 -295.624420166016 33.899162292480
45.493209838867 -78.239440917969 -293.146026611328 28.551513671875
-106.881683349609 -68.301765441895 -166.241409301758 1.754462599754
-64.674537658691 -72.041694641113 -191.730484008789 12.010201454163
-93.764060974121 -74.165702819824 -167.898773193359 9.628607749939
-80.354797363281 -70.884521484375 -171.944458007813 14.831196784973
-77.917488098145 -71.847549438477 -170.987594604492 12.170313835144
-71.521331787109 -72.210273742676 -184.020050048828 13.690141677856
-64.013481140137 -65.313102722168 -190.565460205078 13.907775878906
-15.827003479004 -75.187202453613 -221.744964599609 2.231423139572
-104.515487670898 -75.186073303223 -163.079833984375 6.249565124512
-63.936019897461 -74.243789672852 -187.333099365234 7.619170665741
-67.088218688965 -82.766365051270 -184.394439697266 10.551903724670
-55.873306274414 -75.285209655762 -183.485137939453 2.122465610504
2.774139404297 -72.425361633301 -221.214477539063 2.191053390503
-63.723892211914 -69.455932617188 -179.825836181641 6.772499084473
-107.770675659180 -76.208129882813 -151.211746215820 10.464938163757
-60.553398132324 -76.702239990234 -179.681289672852 1.837654590607
-7.637847900391 -71.680938720703 -232.348159790039 1.801839828491
-90.324432373047 -59.450500488281 -144.270935058594 4.418103218079
-0.809555053711 -72.077888488770 -220.435989379883 0.452142775059
-99.363662719727 -73.241416931152 -132.008041381836 9.977296829224
-96.314468383789 -67.714675903320 -139.422454833984 2.540007352829
3.413665771484 -75.054771423340 -212.524291992188 2.715267181396
7.191421508789 -78.339843750000 -215.165557861328 1.806348681450
-98.941558837891 -63.673355102539 -126.593627929688 4.373435974121
-123.644500732422 -70.351112365723 -107.664154052734 25.818868637085
-12.881286621094 -72.239547729492 -169.340789794922 4.833410263062
-28.259963989258 -73.774108886719 -172.191223144531 1.035032391548
-95.269035339355 -64.600715637207 -111.992218017578 3.608534097672
-116.659667968750 -70.899375915527 -96.892913818359 19.335325241089
-85.281127929688 -72.938606262207 -126.689132690430 2.722870349884
-128.331024169922 -64.267127990723 -85.024826049805 27.994497299194
-99.956970214844 -59.367835998535 -97.151473999023 1.445398807526
-100.995071411133 -62.435173034668 -95.298675537109 2.564152717590
-17.435096740723 -75.246429443359 -172.238647460938 4.130756855011
-87.334320068359 -65.859207153320 -101.277862548828 4.941405296326
-88.005279541016 -72.406364440918 -99.260620117188 5.336648941040
-21.988182067871 -68.209663391113 -161.656784057617 10.421202659607
-119.681015014648 -68.560562133789 -83.544097900391 21.146162033081
-95.985336303711 -64.744338989258 -88.190170288086 3.935181140900
-90.893692016602 -70.240684509277 -94.248367309570 3.777538299561
22.292373657227 -70.281692504883 -183.408233642578 1.023667335510
-122.012763977051 -63.265823364258 -73.139160156250 23.005281448364
28.033416748047 -77.316673278809 -167.540664672852 2.324888467789
27.463790893555 -72.173332214355 -169.626617431641 1.421559572220
1.171104431152 -78.813201904297 -155.129852294922 4.841121196747
12.653091430664 -73.532958984375 -156.632659912109 1.061357617378
-124.620338439941 -67.763465881348 -58.339202880859 28.155040740967
-113.052078247070 -70.621086120605 -66.262817382813 17.458967208862
-57.309753417969 -69.114280700684 -99.933349609375 8.713550567627
-56.886528015137 -64.784126281738 -98.613250732422 7.381660938263
-104.244102478027 -61.877723693848 -53.324157714844 10.916126251221
-69.828971862793 -70.956634521484 -90.995391845703 6.238231658936
3.278930664063 -75.614883422852 -157.751144409180 1.938353300095
-83.054977416992 -63.356811523438 -78.510742187500 12.492846488953
-93.906776428223 -64.944915771484 -67.921112060547 2.640411615372
16.729736328125 -69.918067932129 -154.458496093750 1.721180081367
-85.691268920898 -68.514068603516 -72.495239257813 6.163707733154
-78.403892517090 -59.951232910156 -81.287399291992 15.412412643433
-70.009735107422 -62.227165222168 -85.422729492188 7.176266193390
21.913711547852 -82.387939453125 -147.422241210938 5.488224983215
-59.511268615723 -70.643447875977 -81.528427124023 7.524585247040
-109.081359863281 -72.885833740234 -56.143615722656 18.408609390259
-93.054489135742 -65.747451782227 -64.156921386719 4.301091194153
-108.190437316895 -64.405487060547 -52.056121826172 15.154482841492
14.416061401367 -76.099456787109 -148.139190673828 4.434253215790
20.771148681641 -72.153274536133 -141.155090332031 3.760198831558
83.486022949219 -73.886299133301 -201.367477416992 9.951678276062
22.070388793945 -69.565704345703 -149.332916259766 2.677409410477
-83.541671752930 -64.996810913086 -54.689392089844 2.170767068863
12.361114501953 -76.082427978516 -140.402160644531 8.392055511475
81.260772705078 -77.251075744629 -196.400894165039 14.179614067078
84.820526123047 -77.141174316406 -191.612136840820 13.420171737671
-81.007141113281 -68.168182373047 -66.140686035156 6.901384830475
-99.472633361816 -58.513351440430 -56.053833007813 5.244690895081
-63.912178039551 -69.850669860840 -77.744873046875 9.793949127197
-71.035598754883 -72.930313110352 -66.766815185547 6.028683185577
-100.734024047852 -65.665962219238 -46.261383056641 12.747145652771
-100.042137145996 -62.704879760742 -46.938476562500 10.966217994690
-92.337409973145 -72.348640441895 -56.776763916016 6.469435691833
13.861099243164 -76.273246765137 -136.129928588867 11.061491966248
27.248336791992 -74.961929321289 -135.085067749023 1.698848605156
-94.075141906738 -65.404754638672 -40.944396972656 11.253967285156
32.900390625000 -73.286483764648 -147.698944091797 0.294801026583
29.703125000000 -71.360046386719 -142.098205566406 1.800715804100
-97.178207397461 -64.502807617188 -47.427124023438 9.041854858398
45.803207397461 -68.388870239258 -153.533584594727 11.331015586853
75.043746948242 -72.771026611328 -167.280471801758 31.031614303589
70.889053344727 -71.409881591797 -168.401672363281 35.121143341064
20.868408203125 -71.147079467773 -124.689849853516 9.589698791504
73.754669189453 -77.211990356445 -161.763168334961 33.544342041016
-90.692306518555 -69.886283874512 -37.590698242188 13.953097343445
-88.930076599121 -63.243301391602 -41.626220703125 8.194416999817
-91.588272094727 -56.841377258301 -36.095733642578 11.634841918945
79.267639160156 -77.822036743164 -170.165130615234 26.669900894165
-36.808273315430 -69.659774780273 -73.470306396484 2.457783699036
-58.720809936523 -68.228775024414 -53.952972412109 4.914399147034
-46.259208679199 -60.147209167480 -67.162078857422 10.273423194885
60.441772460938 -68.232398986816 -142.071334838867 21.938684463501
68.268798828125 -79.104270935059 -155.450637817383 33.084239959717
-40.448081970215 -71.219337463379 -68.545776367188 6.812055110931
-38.467224121094 -74.523025512695 -78.040069580078 1.246428012848
76.721221923828 -68.869987487793 -156.686370849609 31.848598480225
72.795089721680 -78.356109619141 -151.847442626953 35.970951080322
-80.754760742188 -56.536682128906 -34.363372802734 10.097093582153
64.907196044922 -74.570945739746 -141.867660522461 25.498973846436
-68.042037963867 -61.360992431641 -33.664398193359 9.996976852417
-44.590011596680 -66.499351501465 -54.714233398438 5.760309696198
-66.456909179688 -68.881271362305 -39.337280273438 4.976493835449
71.030700683594 -76.543006896973 -143.442245483398 31.897979736328
-56.093498229980 -67.210388183594 -46.570373535156 2.778620004654
30.591613769531 -74.699440002441 -121.577514648438 1.990193128586
64.987304687500 -69.787231445313 -128.498046875000 20.412187576294
42.552703857422 -64.384941101074 -120.995147705078 3.290883779526
70.043701171875 -70.620948791504 -120.428665161133 14.358288764954
-66.576530456543 -59.572769165039 -13.339508056641 29.460973739624
45.539398193359 -75.171401977539 -101.162689208984 1.252415657043
-65.081665039063 -59.411758422852 -16.185119628906 26.554094314575
-38.515541076660 -61.102043151855 -31.794342041016 13.857576370239
-72.121841430664 -54.195251464844 -4.676452636719 38.152526855469
-32.577514648438 -66.455116271973 -33.971130371094 13.463293075562
-20.527297973633 -65.444732666016 -38.399200439453 12.452832221985
51.402603149414 -74.570930480957 -101.914291381836 2.533212184906
-25.551673889160 -63.359100341797 -38.125823974609 10.686913490295
-37.098731994629 -68.747039794922 -36.345306396484 10.747829437256
-36.551559448242 -69.994728088379 -24.169647216797 22.880174636841
-50.372528076172 -63.574447631836 -15.899230957031 27.733274459839
-40.293052673340 -70.621246337891 -23.094665527344 23.297067642212
-65.588333129883 -55.997787475586 -5.811889648438 36.672191619873
-55.944519042969 -68.661682128906 -11.128387451172 32.649223327637
-58.904380798340 -67.175262451172 7.542144775391 51.176254272461
-49.432518005371 -65.449462890625 9.082916259766 52.645805358887
-60.630592346191 -66.619140625000 5.942749023438 49.589653015137
-36.758262634277 -62.751052856445 -1.718933105469 42.941520690918
-41.355499267578 -59.138374328613 8.602722167969 52.376205444336
-84.406188964844 -78.993942260742 -348.445129394531 56.796661376953
-65.624320983887 -73.622474670410 -348.334533691406 56.055603027344
-84.721488952637 -79.678359985352 -329.255004882813 38.123977661133
-59.906898498535 -79.261886596680 -343.185638427734 52.080169677734
-73.538024902344 -75.631546020508 -321.768127441406 29.749359130859
-71.686500549316 -77.882186889648 -325.084930419922 33.127151489258
-131.447128295898 -78.814910888672 -257.518707275391 2.808761596680
-20.531906127930 -87.014930725098 -331.150909423828 40.580894470215
-8.169273376465 -79.485321044922 -328.777191162109 36.824554443359
-147.721557617188 -68.140716552734 -227.195709228516 1.461822271347
-90.618476867676 -79.092575073242 -276.988189697266 10.877470016479
-144.732208251953 -68.911277770996 -217.924118041992 1.091454744339
1.323730468750 -78.325012207031 -338.330993652344 45.117950439453
-84.086425781250 -79.087036132813 -271.854003906250 14.007808685303
-11.841949462891 -75.795753479004 -307.661560058594 15.164726257324
-101.514785766602 -68.423019409180 -239.456695556641 11.445406913757
-91.463989257813 -71.778778076172 -258.235321044922 1.027945160866
-19.341987609863 -86.213714599609 -296.402832031250 9.875184059143
-98.385253906250 -62.559013366699 -240.420181274414 11.721138000488
-11.398689270020 -91.998214721680 -301.332641601563 17.506591796875
-18.433250427246 -72.339225769043 -290.838684082031 1.177759885788
-13.547492980957 -80.836944580078 -290.760009765625 3.734629392624
-15.106033325195 -70.258720397949 -295.496917724609 3.757498502731
-13.752082824707 -85.729583740234 -289.663269042969 7.904448986053
21.923934936523 -86.739051818848 -313.276580810547 22.768405914307
30.174606323242 -89.337768554688 -317.487396240234 30.720397949219
-5.617935180664 -76.021171569824 -288.980346679688 1.104688763618
31.128768920898 -87.917297363281 -317.200073242188 30.509872436523
-117.876991271973 -72.114997863770 -205.962448120117 5.238731384277
-111.007141113281 -70.642990112305 -204.593978881836 2.512050867081
23.092864990234 -86.633682250977 -314.707519531250 24.365936279297
-12.059822082520 -77.535903930664 -284.177917480469 2.801504373550
-1.428176879883 -77.445655822754 -298.163513183594 6.784394264221
-104.945953369141 -71.075782775879 -201.765853881836 6.222591876984
-117.874763488770 -72.257698059082 -193.211502075195 2.155642032623
14.563674926758 -75.575920104980 -302.975402832031 8.690853118896
-23.427360534668 -74.909637451172 -274.443481445313 10.427382469177
34.310699462891 -87.226799011230 -310.667510986328 27.695777893066
-7.624130249023 -74.345069885254 -271.708740234375 4.649253368378
33.991378784180 -81.292434692383 -319.347259521484 32.462036132813
-108.265342712402 -70.466880798340 -195.276214599609 1.622326016426
31.063537597656 -88.084793090820 -307.405578613281 23.762353897095
-107.055603027344 -74.044456481934 -184.559555053711 5.257963180542
-83.924217224121 -68.811218261719 -195.221694946289 16.114706039429
-86.264419555664 -72.281150817871 -198.852584838867 12.773838996887
-91.884140014648 -68.060493469238 -185.136123657227 13.994900703430
-75.473533630371 -70.659553527832 -197.125411987305 12.928571701050
-99.895217895508 -68.223449707031 -173.959289550781 2.441045761108
-97.580429077148 -76.137725830078 -180.298690795898 11.181006431580
-96.457847595215 -69.315719604492 -177.983093261719 6.798802375793
-77.485427856445 -65.106208801270 -181.268264770508 18.193527221680
-84.860748291016 -70.196022033691 -176.542327880859 17.331874847412
-83.220886230469 -64.262878417969 -190.443099975586 21.898532867432
-73.093757629395 -72.267723083496 -183.754516601563 14.785744667053
-18.371070861816 -81.524414062500 -222.099273681641 3.081497430801
-102.897789001465 -68.264526367188 -165.205230712891 2.028015851974
-62.809955596924 -65.001960754395 -183.407516479492 9.864040374756
-98.684730529785 -71.151092529297 -155.583190917969 3.018111467361
-107.608581542969 -72.972267150879 -153.001571655273 8.442522048950
-4.699172973633 -72.901397705078 -221.418975830078 2.755824804306
-6.661697387695 -74.264930725098 -214.750686645508 1.860921740532
-92.535041809082 -65.458702087402 -146.397247314453 2.008098602295
-106.921195983887 -67.581832885742 -149.009521484375 7.254550457001
-92.613784790039 -70.618255615234 -138.591964721680 2.998916864395
4.914901733398 -76.613143920898 -209.303070068359 2.613884210587
-99.296569824219 -68.043846130371 -125.177749633789 6.220024585724
4.465148925781 -76.837890625000 -217.472717285156 3.152689695358
-125.239555358887 -65.066848754883 -101.201553344727 25.917747497559
5.630523681641 -76.651176452637 -203.386932373047 3.299033403397
17.620544433594 -74.596138000488 -199.712219238281 1.483375430107
-122.720886230469 -67.458358764648 -92.163543701172 23.401473999023
6.736312866211 -73.385604858398 -206.533096313477 1.855313062668
9.551635742188 -85.436134338379 -198.848999023438 7.017635345459
-120.641548156738 -60.513206481934 -98.930175781250 20.082902908325
-120.803955078125 -69.970542907715 -88.634185791016 22.660421371460
13.794677734375 -74.602264404297 -195.317581176758 1.022432923317
15.061965942383 -71.148498535156 -192.372695922852 3.181512355804
-109.044357299805 -62.572387695313 -91.550079345703 8.990607261658
-82.528511047363 -67.178680419922 -108.182220458984 3.398088693619
27.439514160156 -75.553436279297 -189.851272583008 2.285243272781
-96.866996765137 -65.561477661133 -100.834564208984 1.258650898933
14.077850341797 -70.688507080078 -177.474105834961 2.410042762756
-99.579315185547 -75.220695495605 -99.739410400391 7.645934581757
-131.544616699219 -67.625000000000 -83.438674926758 32.247528076172
-123.031784057617 -66.964004516602 -78.773406982422 24.214845657349
-122.070381164551 -61.872581481934 -84.894149780273 21.422927856445
-6.140052795410 -71.727279663086 -152.817993164063 11.436381340027
-129.008407592773 -60.813568115234 -71.014617919922 29.949014663696
-21.277069091797 -78.346214294434 -160.892913818359 10.153098106384
-11.347839355469 -71.544944763184 -169.563644409180 4.197402477264
7.186309814453 -82.502365112305 -178.782012939453 11.055879592896
-112.960700988770 -63.436241149902 -71.728668212891 14.480216026306
-76.127227783203 -70.081298828125 -106.144393920898 2.227089881897
-8.249717712402 -78.104095458984 -164.283248901367 3.009409904480
-122.314689636230 -72.873802185059 -73.523742675781 25.163885116577
21.659774780273 -74.059989929199 -181.765670776367 3.115454196930
-126.685226440430 -66.689025878906 -62.733154296875 28.832960128784
-87.107330322266 -64.206192016602 -99.006698608398 7.214167594910
-80.356529235840 -70.710876464844 -94.241134643555 5.670405864716
-89.184310913086 -66.843009948730 -95.777099609375 6.880207061768
-6.168632507324 -74.989265441895 -161.344741821289 4.226750373840
-8.334831237793 -71.706535339355 -158.515777587891 8.320516586304
-116.580940246582 -64.707237243652 -63.571929931641 18.626560211182
-113.924133300781 -67.857536315918 -66.996368408203 16.657531738281
-112.764900207520 -63.067237854004 -57.478454589844 15.778810501099
-95.429656982422 -62.211051940918 -78.411773681641 3.976984977722
-93.991119384766 -66.491607666016 -64.139007568359 3.911193609238
16.799636840820 -76.445205688477 -158.314529418945 3.705904483795
9.800369262695 -66.172149658203 -154.707077026367 1.696115016937
-62.405422210693 -71.377799987793 -95.085693359375 2.371897459030
21.683029174805 -75.984283447266 -138.759231567383 3.386390686035
-109.707641601563 -68.039115905762 -44.332275390625 21.141561508179
-55.199768066406 -70.381629943848 -81.963272094727 6.012718200684
24.134948730469 -73.438346862793 -153.812438964844 0.299107283354
24.692382812500 -74.607254028320 -150.883239746094 1.629885077477
-61.989662170410 -67.537979125977 -77.669799804688 7.808686733246
20.582000732422 -71.993881225586 -151.298324584961 2.476393222809
-68.153060913086 -71.461807250977 -73.461029052734 9.610395431519
17.629943847656 -78.271636962891 -143.382446289063 6.083619594574
25.869430541992 -75.386070251465 -144.369598388672 1.215013623238
27.409149169922 -75.235153198242 -139.622161865234 1.193639039993
85.692153930664 -83.594764709473 -188.045791625977 17.261648178101
21.894393920898 -69.493858337402 -138.015167236328 3.138146877289
36.461608886719 -73.690315246582 -152.335723876953 2.833192586899
37.229034423828 -75.647979736328 -150.643112182617 2.947069406509
33.253021240234 -72.130355834961 -145.563919067383 2.246982336044
35.552108764648 -71.535125732422 -143.063369750977 2.330156803131
79.417541503906 -84.979888916016 -178.884429931641 25.471008300781
84.832458496094 -84.387451171875 -182.164093017578 19.928308486938
40.331375122070 -75.374259948730 -137.006866455078 3.303351402283
71.814743041992 -74.317337036133 -169.960128784180 33.937263488770
73.962387084961 -71.224647521973 -175.064895629883 30.001422882080
74.327514648438 -82.524925231934 -160.009170532227 34.380279541016
71.130462646484 -81.422508239746 -157.894699096680 36.795391082764
74.569503784180 -77.959167480469 -150.163742065430 35.014011383057
-59.504646301270 -73.908004760742 -45.710601806641 3.798647880554
27.544799804688 -74.928756713867 -131.443359375000 1.754229426384
65.554275512695 -78.985809326172 -146.897796630859 27.767951965332
66.406677246094 -78.781227111816 -164.062973022461 33.113208770752
61.798995971680 -71.762565612793 -150.667877197266 24.945528030396
-40.449897766113 -63.903511047363 -61.708435058594 10.674450874329
62.982849121094 -73.869888305664 -146.739746093750 24.726789474487
-70.026306152344 -62.546325683594 -35.967498779297 8.443660736084
-52.781166076660 -62.911270141602 -58.181121826172 11.451650619507
-47.137870788574 -66.854965209961 -58.089874267578 7.840188503265
41.080886840820 -69.374542236328 -126.374267578125 3.500875234604
-80.624862670898 -63.092842102051 -34.795288085938 10.713146209717
74.690612792969 -75.335845947266 -145.790634155273 34.355937957764
-45.426445007324 -69.235099792480 -64.210113525391 7.811885356903
61.679595947266 -68.770301818848 -142.626266479492 23.080873489380
-60.440055847168 -60.979309082031 -39.156280517578 4.522844314575
-45.506118774414 -67.211555480957 -48.161804199219 1.537288665771
-44.416610717773 -67.429550170898 -54.660858154297 4.957571029663
-46.514427185059 -57.495513916016 -56.313659667969 9.537389755249
-74.566268920898 -62.541244506836 -43.904571533203 1.989032864571
65.021759033203 -74.841842651367 -145.366104125977 26.378730773926
-48.923141479492 -69.473564147949 -52.668792724609 4.660774707794
-70.278717041016 -63.296234130859 -34.458496093750 9.847653388977
44.516799926758 -76.864532470703 -114.169692993164 1.431724429131
-63.947116851807 -61.571464538574 -19.300994873047 23.914848327637
53.665802001953 -71.530281066895 -95.589904785156 2.432611465454
49.954544067383 -76.250221252441 -105.887619018555 2.031329631805
-45.647872924805 -66.295257568359 -19.494812011719 24.718324661255
-40.709091186523 -65.014060974121 -19.700988769531 24.883947372437
-43.282897949219 -66.570114135742 -14.662506103516 29.641994476318
-40.790992736816 -69.906875610352 -25.201965332031 21.025682449341
-60.853424072266 -64.637351989746 -3.059173583984 40.470245361328
-59.386535644531 -62.875701904297 2.663818359375 45.925178527832
-49.747322082520 -59.294960021973 -1.825775146484 41.395553588867
-47.755668640137 -61.357635498047 1.226013183594 44.755592346191
-49.764396667480 -65.512344360352 -7.671142578125 36.164661407471
-49.007415771484 -64.604835510254 4.145324707031 47.724441528320
-37.822570800781 -68.267646789551 8.707489013672 53.480400085449
-85.657035827637 -75.529373168945 -323.892456054688 31.988670349121
-52.925582885742 -76.652923583984 -334.081665039063 42.903095245361
-75.189468383789 -70.844268798828 -318.431152343750 26.675361633301
-63.886806488037 -79.480316162109 -315.835083007813 25.010425567627
-119.203590393066 -83.608337402344 -267.437194824219 10.665303230286
-144.150299072266 -77.935577392578 -247.058288574219 1.203616380692
-15.497100830078 -81.795478820801 -332.016723632813 39.947174072266
-20.825309753418 -80.091667175293 -327.955291748047 36.127971649170
-19.193946838379 -77.737220764160 -325.910003662109 33.505161285400
-153.314239501953 -70.816184997559 -213.592987060547 3.134629726410
7.545455932617 -76.698806762695 -332.202758789063 38.219844818115
-84.251144409180 -71.784584045410 -246.943801879883 2.683347463608
-22.957756042480 -83.250389099121 -309.778350830078 18.843286514282
-97.763122558594 -79.077415466309 -239.287948608398 14.633747100830
-112.157089233398 -75.663452148438 -232.982772827148 4.913047790527
-19.914649963379 -79.668518066406 -291.761718750000 2.779948949814
20.065505981445 -85.626998901367 -322.178802490234 30.115201950073
