# This PCD file was generated using the MATLAB® pcwrite function
# from Computer Vision Toolbox®.
# .PCD v.7 - Point Cloud Data file format
VERSION .7
FIELDS x y z
SIZE 8 8 8
TYPE F F F
COUNT 1 1 1
WIDTH 808
HEIGHT 1
VIEWPOINT 0 0 0 1 0 0 0
POINTS 808
DATA ascii
63.399949494133054 -8.625424732874398 -54.750000000000000
63.624517486193241 73.961141182471223 -54.750000000000000
63.491046500945174 91.452654687347263 -54.750000000000000
62.673749620628222 -8.624846440334437 -55.150001525878906
63.489285205438158 -95.858903849934705 -55.549999237060547
63.623783913225452 73.039945490666426 -55.549999237060547
63.640064490582368 93.484534345250154 -55.549999237060547
63.489171806405139 -96.001306453709134 -55.950000762939453
63.623524228528517 72.713842383614150 -55.950000762939453
63.640819169804679 94.432234545252783 -55.950000762939453
63.558490687335322 -8.953040940243241 -56.349998474121094
63.641369275105760 95.123037854052995 -56.349998474121094
63.304120641796501 -96.312858104881229 -56.750000000000000
63.558317756847714 -9.170201096303197 -56.750000000000000
63.557992473559338 -9.578680657339049 -56.981800079345703
63.622148257481150 70.985945287432529 -56.750000000000000
63.642030306715171 95.953138604037989 -56.750000000000000
63.488746169681043 -96.535806406306477 -57.150001525878906
63.557897917660576 -9.697420701477458 -57.150001525878906
63.642524663314028 96.573934610816551 -57.150001525878906
63.621302956240271 69.924445074684144 -57.549999237060547
63.642795970424579 96.914632744979485 -57.549999237060547
63.488481630667074 -96.868005397656404 -57.950000762939453
63.557414221269504 -10.304829986121137 -57.950000762939453
63.620989363714777 69.530646371420218 -58.028198242187500
63.488367994689924 -97.010705547723219 -58.349998474121094
62.612784738018632 -21.015481180481856 -58.349998474121094
62.964259031428419 -18.156360366781421 -58.349998474121094
63.551920521880682 -17.203628648645555 -58.680400848388672
63.000418468961279 -17.203189472690543 -58.349998474121094
62.935377755840335 -16.250037172351377 -58.349998474121094
62.793837128010239 -15.296823953067443 -58.349998474121094
62.606653516504487 -13.390473880379322 -58.349998474121094
62.614614720790620 -12.437280531274999 -58.349998474121094
63.556869772250216 -10.988530330864892 -58.349998474121094
62.912473672879138 -11.484417217724182 -58.349998474121094
63.620595817732308 69.036444867959588 -58.349998474121094
63.643322739766070 97.576131558676707 -58.349998474121094
62.972182512248594 -21.015767378619998 -58.750000000000000
63.460001817460061 -19.109855646794362 -58.750000000000000
63.553227612812222 -15.562228831862114 -58.750000000000000
63.554956438483977 -13.391229039565397 -58.884700775146484
63.205556982617068 -13.390950803357754 -58.750000000000000
63.377813331343624 -12.437888286906876 -58.750000000000000
63.620230383045083 68.577544561802156 -59.056198120117188
63.643630445141120 97.962537380983903 -58.750000000000000
63.084962603541250 -97.265885179601369 -59.150001525878906
62.927665300002523 -22.921932941694767 -59.150001525878906
63.548125468163811 -21.969326524190674 -59.339996337890625
63.212825128920272 -21.969059515489757 -59.150001525878906
63.620116510123793 68.434546865442968 -59.150001525878906
62.849048519710919 -24.828071350364063 -59.550003051757813
63.547166213501391 -23.173925522743723 -59.550003051757813
63.200606948181246 -23.875250799154202 -59.550003051757813
63.619783087196815 68.015845826324778 -59.550003051757813
63.644287734248280 98.787938425427768 -59.550003051757813
63.545848530711346 -24.828626231000797 -60.056701660156250
63.356845599915516 -24.828475722870877 -59.949996948242188
63.644886328040258 99.539631912675560 -59.949996948242188
63.487864160325650 -97.643403406196839 -60.349998474121094
62.883930312195261 -26.734399323167501 -60.349998474121094
62.756777317502852 100.031245055196308 -60.349998474121094
63.487705055376452 -97.843201926831441 -60.750000000000000
62.890968571783120 -27.687505434588989 -60.750000000000000
63.544413789924029 -26.630324344431884 -60.750000000000000
63.619068621647124 67.118644572712881 -60.750000000000000
63.645269284442520 100.020535385684610 -60.750000000000000
63.312271233611568 -27.687840929258279 -61.150001525878906
63.618945349941797 66.963844206756107 -61.150001525878906
63.645643558968644 100.490536457365309 -61.150001525878906
63.487638322187131 -97.927003169791973 -61.550003051757813
63.053512837116756 -28.640834561796151 -61.550003051757813
63.618712427781183 66.671348571958120 -61.813201904296875
62.856750959907153 -29.593778381673594 -61.949996948242188
63.645798842434218 100.685536090361325 -61.949996948242188
62.695604356407593 -98.218669907748705 -62.349998474121094
63.618420494379862 66.304748651574229 -62.349998474121094
63.646036145023594 100.983532516872216 -62.463500976562500
63.541884336853592 -29.806724475601865 -62.750000000000000
62.869892733184777 -30.546889353487604 -62.750000000000000
63.618209863194451 66.040245256435966 -62.750000000000000
63.306694505089190 -30.547237190516153 -63.150001525878906
63.618071542498782 65.866546886217236 -63.150001525878906
63.646584816508877 101.672535289133961 -63.150001525878906
62.862435147759435 -31.499983921476851 -63.550003051757813
63.617953368130109 65.718147580242601 -63.831497192382813
63.646756023835451 101.887531558856082 -63.550003051757813
63.540786759976626 -31.185023751721669 -63.949996948242188
63.646877861724988 102.040531388274388 -63.949996948242188
63.487124451112301 -98.572304784034969 -64.349998474121094
62.729176515795828 -32.452978310700736 -64.349998474121094
63.617647497553236 65.334045834353290 -64.349998474121094
63.647032349301284 102.234531570903712 -64.750000000000000
63.487061545482085 -98.651299509964815 -65.150001525878906
63.539789279845898 -32.437624978096729 -65.150001525878906
63.617520884328052 65.175049302734791 -65.150001525878906
63.647143038665469 102.373531465796091 -65.150001525878906
62.712018077799556 -33.406166243149102 -65.550003051757813
63.617458367529238 65.096542857900133 -65.550003051757813
63.486943687038931 -98.799302087549606 -65.949996948242188
63.647292750906118 102.561534946225223 -65.949996948242188
63.486931584661555 -98.814499836637140 -66.349998474121094
63.437817408218493 -33.406744216725805 -66.349998474121094
63.617473817501967 65.115944402041492 -66.349998474121094
63.647554744289501 102.890537222280130 -66.529296875000000
62.598557719886010 -34.359174490923209 -66.750000000000000
63.617396816733446 65.019249486411326 -66.750000000000000
63.647735508362871 103.117534525794767 -66.750000000000000
63.486846612849291 -98.921204514718525 -67.150001525878906
63.538695047526538 -33.811724273858758 -67.150001525878906
62.930256986052591 -34.359438631992539 -67.150001525878906
63.647963254205450 103.403529918513144 -67.150001525878906
63.617198609926419 64.770348198142514 -67.550003051757813
63.616898711556857 64.393746144699520 -67.949996948242188
63.616772730182696 64.235543069860697 -68.349998474121094
63.648313639902327 103.843532220408633 -68.471199035644531
63.648541391820395 104.129535242519111 -68.750000000000000
62.616799743309521 -35.312287616854690 -69.150001525878906
63.648686322649901 104.311534391355934 -69.150001525878906
62.609747136118280 -99.171703951344043 -69.550003051757813
63.537938937526178 -34.761221195703804 -69.550003051757813
62.842397053371570 -35.312467266075522 -69.550003051757813
63.616592525054465 64.009247670420379 -69.550003051757813
63.648742065276629 104.381534063985470 -69.550003051757813
62.735143824874598 -99.171803808108393 -69.949996948242188
63.648833641147228 104.496531891292847 -69.949996948242188
62.606844152419583 -99.171701639619855 -70.349998474121094
63.537882714935684 -34.831823590310215 -70.349998474121094
63.616576279192465 63.988846675912313 -70.349998474121094
63.078146035455418 -99.172076950017129 -70.750000000000000
63.537710310737452 -35.048322850278453 -70.750000000000000
63.228997425177631 -35.312775126375584 -70.750000000000000
63.616509148058505 63.904545707768435 -71.150001525878906
63.648843197894024 104.508532925085348 -71.150001525878906
63.068643627579661 -99.172069382993527 -71.550003051757813
63.648789047045845 104.440532153189210 -71.550003051757813
63.648792230602943 104.444529954656005 -71.949996948242188
63.525355542288345 -50.563015959626064 -72.667396545410156
62.609511722167049 -49.609188049181640 -72.349998474121094
63.524596482637271 -51.516216951341590 -72.943000793457031
63.525608534832330 -50.245316627985396 -72.750000000000000
63.119513696692074 -49.609594177505251 -72.750000000000000
63.537226145774163 -35.656320551788781 -72.750000000000000
62.775239394167919 -36.265615382795907 -72.750000000000000
63.486492806651178 -99.365502164373183 -73.150001525878906
63.524249362516620 -51.952118454976763 -73.150001525878906
63.523837501967577 -52.469318760959659 -73.358901977539063
63.525872754883039 -49.913518179721358 -73.150001525878906
63.526114519920299 -49.609917964704053 -73.321403503417969
63.616290794924474 63.630345355255542 -73.150001525878906
63.523078524335624 -53.422416755881670 -73.630699157714844
63.616351874869743 63.707047448855661 -73.550003051757813
63.265216661914245 -54.375310012844203 -73.949996948242188
63.526474538307603 -49.157819261614655 -73.949996948242188
63.536127451006919 -37.036023636057237 -73.949996948242188
63.486437938895101 -99.434403204538569 -74.349998474121094
63.521351769646742 -55.590815879142134 -74.349998474121094
62.626419104446917 -54.374801321125148 -74.349998474121094
63.526549713391184 -49.063416978314201 -74.349998474121094
63.526873497552245 -48.656819969782042 -74.613899230957031
63.534463529042355 -39.125519586093205 -74.707000732421875
63.535598451960361 -37.700322436659633 -74.349998474121094
63.535222506674309 -38.172421591171194 -74.494201660156250
63.649453979120246 105.275530972910232 -74.349998474121094
63.486447811567409 -99.422005442356223 -74.750000000000000
63.520611744507882 -56.520113985370102 -74.750000000000000
63.533704548372661 -40.078621395711274 -74.908401489257813
63.616027051799783 63.299145814272308 -74.750000000000000
63.519860011898537 -57.464113930198302 -75.150001525878906
63.527583582673174 -47.765119507883050 -75.150001525878906
62.746390290459466 -46.749894439769861 -75.150001525878906
63.529909493136920 -44.844321178604417 -75.504302978515625
63.530668473806614 -43.891219368986349 -75.387901306152344
63.531758723641850 -42.522121139753878 -75.150001525878906
63.486345409172472 -99.550598846407553 -75.550003051757813
63.519283551119003 -58.188013541981306 -75.638900756835938
63.529150515504966 -45.797419173526436 -75.595596313476563
63.649461148199215 105.284533655602644 -75.550003051757813
63.519075149638660 -58.449716950214395 -75.949996948242188
63.615828687029996 63.050046161808595 -75.949996948242188
63.649375143553549 105.176531980862180 -75.949996948242188
63.518604760850423 -59.040415005110283 -76.349998474121094
63.649352846502858 105.148532111810354 -76.349998474121094
63.486335931407055 -99.562500698102610 -76.750000000000000
63.518289655527759 -59.436113427010156 -76.750000000000000
63.097023465444558 -59.140878881064786 -76.750000000000000
63.614917369507694 61.905644974368926 -76.896499633789063
63.615771589568851 62.978345134738028 -76.750000000000000
63.615676350177388 62.858746783986994 -76.989997863769531
63.649256489221116 105.027529952910683 -76.750000000000000
63.518104350025133 -59.668813701128670 -77.150001525878906
63.614415126921969 61.274946016628704 -77.150001525878906
63.614158391875741 60.952546979446915 -77.234397888183594
63.649218268309426 104.979533447132752 -77.150001525878906
63.517721077697352 -60.150113902527558 -77.550003051757813
63.613734507930701 60.420248106473949 -77.550003051757813
63.486319205581289 -99.583504414587523 -77.949996948242188
63.517547716609343 -60.367814791753467 -77.949996948242188
63.649404609683209 105.213534532606403 -77.949996948242188
63.486258687618907 -99.659500789417265 -78.349998474121094
63.517463543724105 -60.473516204772110 -78.349998474121094
63.613064557501019 59.578947408868231 -78.349998474121094
63.649414166430006 105.225535566398918 -78.349998474121094
63.517224886300312 -60.773213985724013 -78.750000000000000
63.612720863957094 59.147348882384350 -78.750000000000000
63.615411252218280 62.525845888562742 -78.750000000000000
63.615843976002218 63.069245527058975 -78.750000000000000
63.022876397754580 62.859218846572908 -78.750000000000000
63.649478663838764 105.306529193062147 -78.750000000000000
63.486283609281557 -99.628205022972978 -79.150001525878906
63.516947922907967 -61.121015083943419 -79.150001525878906
63.612357497974436 58.691046384241126 -79.150001525878906
63.240440539379840 59.046643567718291 -79.150001525878906
63.516315105849465 61.905723494010111 -79.150001525878906
63.615954507403650 63.208047057756445 -79.150001525878906
63.649468317278185 105.293536338295056 -79.150001525878906
63.486224604116344 -99.702301679166780 -79.550003051757813
63.310806952549534 -61.047250135951060 -79.550003051757813
63.612137474080477 58.414747948897372 -79.550003051757813
63.614656733996469 61.578347867451093 -79.550003051757813
63.167915100349255 61.906000934328475 -79.550003051757813
63.616013354606110 63.281945349755333 -79.550003051757813
63.516731562534865 -61.392712995843510 -79.949996948242188
63.614387097645846 61.239747816119014 -79.949996948242188
63.616141960592230 63.443444321986632 -79.949996948242188
63.649480261692808 105.308535723187660 -79.949996948242188
63.486232885010104 -99.691902817717832 -80.349998474121094
63.516505882359112 -61.676114395243729 -80.349998474121094
63.516247555534335 -62.000512333158923 -80.675399780273438
63.611593104042569 57.731146786251074 -80.349998474121094
63.614058213110383 60.826745932908651 -80.349998474121094
63.616097606472721 63.387745944871426 -80.349998474121094
63.486180647941481 -99.757500331098626 -80.750000000000000
63.613884296114982 60.608346954304473 -80.750000000000000
63.616039555159546 63.314847103239245 -80.750000000000000
63.649427702623179 105.242533852024920 -80.750000000000000
62.913746831040847 -62.000032545586649 -81.150001525878906
63.611219947406724 57.262549522719020 -81.150001525878906
62.694080761608156 58.093877052565759 -81.150001525878906
63.616107880127416 63.400647246933175 -81.150001525878906
63.649465923534869 105.290530357802851 -81.150001525878906
63.486201189175375 -99.731705356367243 -81.550003051757813
63.486146163456539 -99.800804760727544 -81.949996948242188
63.610782366268005 56.713050185229072 -81.949996948242188
63.512599885657245 59.999529253907397 -81.949996948242188
63.616182414246737 63.494244629365795 -81.949996948242188
63.649346479388655 105.140536508876764 -81.949996948242188
62.615288970152648 -62.952897289559480 -82.349998474121094
63.613205824809661 59.756346034261384 -82.349998474121094
63.616209729652702 63.528546376302295 -82.349998474121094
63.486176984420617 -99.762100854542297 -82.750000000000000
63.339797969011705 59.999666860732916 -82.750000000000000
63.378135161899579 63.812137540615289 -82.750000000000000
63.649248530328357 105.017535449243681 -82.750000000000000
63.486143295824952 -99.804405833804509 -83.150001525878906
63.514812573246267 -63.802513714926469 -83.150001525878906
62.797222660456363 57.140696318574292 -83.150001525878906
63.612972103722022 59.462847134400647 -83.150001525878906
63.303398139244344 59.999695846898817 -83.150001525878906
62.921558361233089 60.953098515526044 -83.150001525878906
63.616561868128635 63.970749757822148 -83.150001525878906
63.101035640384048 63.812358202435767 -83.150001525878906
63.610313329276444 56.124049670078151 -83.550003051757813
63.036655370637924 60.953006860674066 -83.550003051757813
62.751914866038788 61.906332206531765 -83.550003051757813
63.616654239888511 64.086747035496217 -83.550003051757813
63.104232355679059 63.812355656805181 -83.550003051757813
63.649066964290228 104.789531065970223 -83.550003051757813
63.514424522545092 -64.289814433221608 -83.949996948242188
62.674221600823287 57.140794267634583 -83.949996948242188
63.612971465795503 59.462046048228864 -83.949996948242188
63.377399428036739 59.999636917677236 -83.949996948242188
63.147758393272007 60.952918386341452 -83.949996948242188
62.993316461861284 61.906139971932049 -83.949996948242188
62.959674513497021 62.859269175937463 -83.949996948242188
63.616819639046021 64.294449606359080 -83.949996948242188
63.187533873456246 63.812289321560499 -83.949996948242188
63.486131831374088 -99.818802496720252 -84.349998474121094
63.513970537581613 -64.859913129414522 -84.430000305175781
63.310062915730349 56.187189330734832 -84.349998474121094
63.454597432124160 59.999575442825076 -84.349998474121094
63.302356580337815 60.952795275636625 -84.349998474121094
63.616907946302646 64.405342820710075 -84.349998474121094
63.361735783554380 63.812150599882443 -84.349998474121094
63.649004058660019 104.710536340040392 -84.349998474121094
63.513877922802116 -64.976215582773094 -84.750000000000000
63.614158391875741 60.952546979446915 -84.946403503417969
63.614917369507694 61.905644974368926 -84.922203063964844
63.615676350177388 62.858746783986994 -84.831802368164063
63.513675894511465 -65.229915758680463 -85.150001525878906
63.610053963542761 55.798347106111770 -85.150001525878906
62.698620396798141 57.140774838215478 -85.150001525878906
63.301262411928910 56.187196338813294 -85.550003051757813
63.363564027917235 56.187146726356630 -85.949996948242188
63.648875847580790 104.549533278296380 -85.949996948242188
63.486129285743509 -99.821999212015271 -86.349998474121094
63.610242294639740 56.034846817502171 -86.349998474121094
62.995819551833293 57.140538170514880 -86.349998474121094
62.685379439904182 58.093883981662842 -86.349998474121094
63.648871868134414 104.544536026462879 -86.349998474121094
63.183319492383013 57.140388859256618 -86.750000000000000
62.914379458848273 58.093701622773182 -86.750000000000000
62.790840462207193 59.047001596382408 -86.750000000000000
62.809597178869595 60.000089073918026 -86.750000000000000
62.906856522632857 60.953110222996528 -86.750000000000000
63.086116572818177 61.906066072701499 -86.750000000000000
63.616435409828462 63.811947775702521 -86.897903442382813
63.617194387460415 64.765045770624525 -87.000900268554688
63.611078358097082 57.084746539543929 -87.150001525878906
63.261379470895896 58.093425297307348 -87.150001525878906
63.166240886392522 59.046702654902624 -87.150001525878906
63.434356507967244 60.952690160535106 -87.150001525878906
63.617254431534526 64.840447052869521 -87.150001525878906
63.648750030244877 104.391536197044587 -87.150001525878906
63.486101174448258 -99.857300409318484 -87.550003051757813
63.528278495157402 58.093212758417870 -87.550003051757813
63.444439040372217 59.046481118211489 -87.550003051757813
63.613399414243794 59.999448984524903 -87.550003051757813
63.617357234911850 64.969543996800255 -87.550003051757813
63.648738085830253 104.376536812151969 -87.550003051757813
63.486127135019821 -99.824700016823002 -87.949996948242188
63.648664821488481 104.284533972670815 -87.949996948242188
63.617358109782501 64.970642629264418 -88.349998474121094
63.486106988692818 -99.849999081067097 -88.750000000000000
63.617402788940758 65.026749178857628 -88.750000000000000
63.648751622023426 104.393535097777985 -88.750000000000000
63.511329995683482 -68.175814788008282 -89.150001525878906
63.617472067760659 65.113747137113180 -89.550003051757813
63.648731712640561 104.368533579826263 -89.550003051757813
63.510764130559643 -68.886408739947584 -89.949996948242188
63.617594142594328 65.267044512823844 -89.949996948242188
63.648692689764104 104.319529994289525 -89.949996948242188
63.486145130623129 -99.802101757386623 -90.349998474121094
63.510677008023698 -68.995814222836700 -90.349998474121094
63.617776024557976 65.495445624487132 -90.349998474121094
63.648574041507160 104.170535595730144 -90.349998474121094
63.486118611106434 -99.835404053956424 -90.750000000000000
63.510517824093128 -69.195711925568759 -90.750000000000000
63.648331161617371 103.865535387260252 -90.750000000000000
63.510738091006715 -68.919108314540523 -91.150001525878906
62.954175981757693 -69.625070972753463 -91.150001525878906
63.486161850373399 -99.781105670293812 -91.550003051757813
63.240076007074670 -69.625298642652410 -91.550003051757813
63.237031735776426 -68.672193804402255 -91.550003051757813
63.391690814133661 -67.719214549581608 -91.550003051757813
63.648229233110698 103.737537075793668 -91.550003051757813
63.486134462061543 -99.815498969935675 -91.949996948242188
63.510175561327245 -69.625513730210216 -92.052902221679688
63.174234209300806 -68.672143797038700 -91.949996948242188
63.416390971096945 -67.719234218982606 -91.949996948242188
63.617987287594417 65.760742476405085 -91.949996948242188
63.648233212557081 103.742534327627169 -91.949996948242188
63.509857272447483 -70.025209953576891 -92.349998474121094
63.509416586733039 -70.578607910436176 -92.607101440429688
63.617960215208072 65.726745905153066 -92.349998474121094
63.486188849853860 -99.747200651747150 -92.750000000000000
63.486193546208135 -99.741303131644401 -93.550003051757813
63.509025027436017 -71.070314602676120 -93.550003051757813
63.648192597902067 103.691531841357033 -93.550003051757813
63.486235831623070 -99.688202562543410 -93.949996948242188
63.508748622988804 -71.417413796821194 -93.949996948242188
63.618330267268192 66.191444549315776 -93.949996948242188
63.486226353857653 -99.700104414238467 -94.349998474121094
63.508508215823703 -71.719308842701423 -94.349998474121094
63.618562235576775 66.482742369552142 -94.349998474121094
63.508427946441209 -71.820108371287958 -94.750000000000000
63.618778359005738 66.754142735159846 -94.750000000000000
63.647972810952247 103.415530952305659 -94.750000000000000
63.486321836268743 -99.580200887802945 -95.150001525878906
63.508262310339568 -72.028108488443195 -95.150001525878906
63.618940574606142 66.957847504555900 -95.150001525878906
63.647788067432501 103.183536396957521 -95.150001525878906
63.647554744289501 102.890537222280130 -95.349998474121094
63.486338878020021 -99.558800442928188 -95.550003051757813
63.507956518744074 -72.412111052235048 -95.550003051757813
63.619236487453840 67.329444676773292 -95.550003051757813
63.619580420979645 67.761344564245618 -95.949996948242188
63.647310266545666 102.583530483684726 -95.949996948242188
63.486454263738480 -99.413903027933060 -96.349998474121094
63.239027806158418 68.577848123692576 -96.349998474121094
63.647032349301284 102.234531570903712 -96.349998474121094
63.646795046711908 101.936535144392820 -96.565002441406250
63.507581369347299 -72.883210756379896 -96.750000000000000
63.620571133013790 69.005446647807673 -96.750000000000000
62.679488044803328 69.531396114306375 -96.750000000000000
63.486502843361734 -99.352898408603807 -97.150001525878906
63.507398691494373 -73.112611318409890 -97.150001525878906
63.507139565742577 -73.438012521387833 -97.511001586914063
63.620803502304753 69.297248007923429 -97.150001525878906
63.269087467235060 69.530926600388796 -97.150001525878906
63.621145522051009 69.726744636880397 -97.550003051757813
63.646504389163631 101.571537396352497 -97.550003051757813
63.176343941331695 -99.172155147657307 -97.949996948242188
63.621451629572014 70.111143929062081 -97.949996948242188
63.200746552002606 -99.172174580114159 -98.349998474121094
63.506893581277062 -73.746911349227076 -98.349998474121094
62.798080820185774 58.093794234514931 -98.349998474121094
62.772640547323512 59.047016089465359 -98.349998474121094
62.692445931918606 -99.171769806624965 -98.750000000000000
63.506746420742488 -73.931710484969074 -98.750000000000000
62.743919912464399 57.140738764989734 -98.750000000000000
62.796982187721618 58.093795109385589 -98.750000000000000
63.506530060369393 -74.203408396869150 -99.150001525878906
62.827461902976331 56.187573638933763 -99.150001525878906
62.955921645782482 57.140569942293240 -99.150001525878906
62.846481683745644 58.093755691602240 -99.150001525878906
63.622507397960057 71.436941543361698 -99.264999389648438
63.645471549677303 100.274533107884366 -99.150001525878906
63.645277249410768 100.030537518743714 -99.292999267578125
63.506296974170532 -74.496110025254168 -99.550003051757813
62.844303850928128 55.234358631061305 -99.550003051757813
63.117062183467723 56.187343022421850 -99.550003051757813
63.094620179686437 57.140459492910935 -99.550003051757813
62.793678660937026 58.093797740073043 -99.550003051757813
62.772038836934072 80.015723626068592 -99.550003051757813
63.512452497260846 -66.766215930748118 -100.232002258300781
63.513211556911919 -65.813014939032598 -99.998001098632813
63.420468522550401 -64.859838671238833 -99.949996948242188
63.192528842226686 -63.906558557409049 -99.949996948242188
62.580888041118683 -62.952869895172128 -99.949996948242188
62.965004648839376 55.234262513761443 -99.949996948242188
63.088562589232559 56.187365717417180 -99.949996948242188
63.622873792574808 71.897047293472866 -99.949996948242188
63.623266378629751 72.390043352979774 -100.171997070312500
62.847478409985094 79.062561137487634 -99.949996948242188
63.644908704072328 99.567730963824829 -99.949996948242188
63.644518347722446 99.077534891223110 -100.239997863769531
63.506048523055810 -74.808106386290959 -100.349998474121094
63.403927853567907 -63.906726900141784 -100.349998474121094
62.904988432741497 -62.953127985052767 -100.349998474121094
63.013142442216846 54.281121766323785 -100.349998474121094
63.139404923132432 55.234123634120628 -100.349998474121094
63.138062085256593 56.187326299633831 -100.349998474121094
62.992519839744766 57.140540798164587 -100.349998474121094
63.623546604560588 72.741941434763433 -100.349998474121094
62.745924288840477 73.343844418156678 -100.349998474121094
62.861520371031709 78.109348359320236 -100.349998474121094
62.841897221964068 80.968770409967831 -100.349998474121094
63.505801979645149 -75.117707118204521 -100.750000000000000
63.511726810279917 -67.677508671591269 -100.750000000000000
63.033085926305539 -62.953229992540813 -100.750000000000000
62.943284060224592 53.328078797120611 -100.750000000000000
63.218643933455333 54.280958119945332 -100.750000000000000
63.240704176902319 55.234042966793503 -100.750000000000000
63.128662674174343 56.187333784638312 -100.750000000000000
62.736622398909063 57.140744576196546 -100.750000000000000
63.624085956243214 73.419240719525035 -100.750000000000000
63.031136807760845 80.015517299368298 -100.750000000000000
63.644165495376363 98.634435056130073 -100.750000000000000
63.643759367052752 98.124433081605034 -101.124000549316406
63.505557106994424 -75.425209767287214 -101.150001525878906
63.511185781761874 -68.356913668575856 -101.150001525878906
63.510934541996946 -68.672411920592154 -101.413002014160156
63.045285218068813 53.327997570848339 -101.150001525878906
63.206845078553798 54.280967515691621 -101.150001525878906
63.213303215131312 55.234064786918175 -101.150001525878906
63.044960613311268 56.187400438846261 -101.150001525878906
63.624291891074350 73.677846594560577 -101.150001525878906
63.624784418950526 74.296346154313369 -101.473999023437500
62.901483714448332 74.296922138166877 -101.150001525878906
62.697603175267268 76.203281692370240 -101.150001525878906
62.910161710364072 77.156214840292307 -101.150001525878906
63.126821037645705 78.109137093246048 -101.150001525878906
63.244977368423442 79.062244598349182 -101.150001525878906
63.184537180265032 80.015395142515501 -101.150001525878906
62.979897666489755 80.968660516492918 -101.150001525878906
62.685654836033990 81.922096426167727 -101.150001525878906
63.505394976450887 -75.628807725193695 -101.550003051757813
63.216832920159341 -68.672177719540755 -101.550003051757813
62.878247269542726 -62.000004276328646 -101.550003051757813
63.062726155320540 52.374885082843377 -101.550003051757813
63.256085322129223 53.327829705041623 -101.550003051757813
63.274945032547400 54.280913285862063 -101.550003051757813
63.206703790954251 55.234070042217589 -101.550003051757813
62.871563604080976 56.187538519560050 -101.550003051757813
63.104543650289948 75.249855220682704 -101.550003051757813
63.042901832873866 76.203006721738817 -101.550003051757813
63.627061354884120 77.155643953775453 -101.782997131347656
63.281861879374979 77.155918845425489 -101.550003051757813
63.627820329478325 78.108738134001413 -101.556999206542969
63.629338369799093 80.015040935335008 -101.566001892089844
63.205395794454347 80.968480946253464 -101.550003051757813
62.810353435412040 81.921997125310767 -101.550003051757813
63.643476352471716 97.769033108841867 -101.550003051757813
63.643000392458546 97.171338901379087 -101.902000427246094
63.505178774040544 -75.900307272898871 -101.949996948242188
63.510327345310202 -69.434908627070826 -101.949996948242188
62.691934557535220 -68.671759728821655 -101.949996948242188
63.046547844842067 -62.000138298614679 -101.949996948242188
62.983166998219865 51.421846023930506 -101.949996948242188
63.290726723897940 52.374703519842988 -101.949996948242188
63.349785701355358 53.327755088903182 -101.949996948242188
63.296944384702961 54.280895767184774 -101.949996948242188
63.130402240440020 55.234130803199598 -101.949996948242188
63.629893487379967 80.712138492627815 -101.949996948242188
62.927853703332211 81.921903556679240 -101.949996948242188
63.104574188465726 -69.625190738900685 -102.349998474121094
62.643632876072807 -68.671721264890337 -102.349998474121094
62.700593773737111 -67.718664210374143 -102.349998474121094
62.777551302052032 -66.765630709111065 -102.349998474121094
62.713410937700580 -65.812378036234321 -102.349998474121094
63.125966330384138 51.421732308971976 -102.349998474121094
63.306225833973897 52.374691177483733 -102.349998474121094
62.907002195306291 55.234308702679130 -102.349998474121094
63.630360455666967 81.298541199764529 -102.349998474121094
63.630856410119868 81.921343736668604 -102.574996948242188
63.194355999203886 81.921691333715273 -102.349998474121094
63.631615384714067 82.874437916894564 -102.679000854492188
63.642721278342506 96.820836998351950 -102.349998474121094
63.487018780103391 -98.705002801042667 -102.750000000000000
63.504673979748745 -76.534210575326213 -102.750000000000000
63.509416586733039 -70.578607910436176 -102.857002258300781
62.631975308770819 -69.624814395670001 -102.750000000000000
62.617433543559471 -68.671700401655428 -102.750000000000000
62.806592733048127 -67.718748620203513 -102.750000000000000
62.926950058393366 -66.765749679369009 -102.750000000000000
62.907910845513250 -65.812532921755249 -102.750000000000000
62.748769211599154 -64.859303778966350 -102.750000000000000
63.516394874031661 -61.815514833222011 -102.750000000000000
63.063508376721607 50.468580449749354 -102.750000000000000
63.323868947078857 51.421574713782206 -102.750000000000000
63.380524669058673 52.374632011318013 -102.750000000000000
63.347885982719419 53.327756601700358 -102.750000000000000
63.199845111290841 54.280973089954301 -102.750000000000000
63.631875069411009 83.200541023946826 -102.750000000000000
63.632374365383768 83.827539726512626 -102.902999877929688
63.642177546231117 96.138036921877443 -102.750000000000000
63.641482352137778 95.265036100045492 -103.122001647949219
63.487009545357601 -98.716599477053236 -103.150001525878906
63.504384677034885 -76.897506968925526 -103.150001525878906
63.509031242662950 -71.062509734545330 -103.150001525878906
62.794615025043854 -70.578038694679250 -103.150001525878906
62.699232071090556 -68.671765540028460 -103.150001525878906
62.888791803665100 -67.718814077539804 -103.150001525878906
63.004750784457649 -66.765811634184942 -103.150001525878906
62.999211780920092 -65.812605627151882 -103.150001525878906
62.835168262573902 -64.859372580860239 -103.150001525878906
63.516525232796837 -61.651814781366333 -103.150001525878906
62.725850702198599 49.515750736343549 -103.150001525878906
63.335809010598560 50.468363609412492 -103.150001525878906
63.425866290227020 51.421493490547682 -103.150001525878906
63.401524570847535 52.374615288529995 -103.150001525878906
63.318684484409921 53.327779855640827 -103.150001525878906
63.068344908844757 54.281077807111174 -103.150001525878906
63.632801277960894 84.363641851453536 -103.150001525878906
63.508690176768731 -71.490808548940677 -103.550003051757813
62.565275348229804 -69.624761280692965 -103.550003051757813
63.360551300306703 -66.766094967729245 -103.550003051757813
63.385609973835173 -65.812913326451451 -103.550003051757813
62.751229543672132 -63.906207138878763 -103.550003051757813
63.046647567036828 49.515495277150364 -103.550003051757813
63.361409435831085 50.468343223103609 -103.550003051757813
62.685845335299014 54.281382401835010 -103.550003051757813
63.633300093969893 84.990037832042461 -103.550003051757813
63.633892320647668 85.733735716356648 -103.852996826171875
63.641025900525094 94.691839870655016 -103.550003051757813
63.640723371468084 94.311934290427416 -103.766998291015625
63.487143005660748 -98.549004620524272 -103.949996948242188
63.299502347188664 -77.250348383094888 -103.949996948242188
63.508272104030496 -72.015809908358307 -103.949996948242188
63.327893837291342 -67.719163746328789 -103.949996948242188
63.513970537581613 -64.859913129414522 -104.023002624511719
63.000626742428224 -63.906405740592682 -103.949996948242188
62.814088583555602 48.562581870823081 -103.949996948242188
63.323449542259993 49.515274852274018 -103.949996948242188
63.438008532637696 50.468282225177461 -103.949996948242188
63.374627148955931 52.374636707672288 -103.949996948242188
63.152283627746527 53.327912365129691 -103.949996948242188
63.635410360968436 87.640038517690243 -104.180000305175781
62.705608714861064 87.640778943811483 -103.949996948242188
63.636169341638130 88.593140327308319 -104.225997924804688
63.636928401289204 89.546341319023838 -104.208000183105469
63.637687375883409 90.499435499249799 -104.161003112792969
63.638446356553104 91.452537308867875 -104.175003051757813
63.639205337222805 92.405639118485936 -104.169998168945313
63.639964311817010 93.358733298711897 -104.014999389648438
63.487152562407545 -98.537003586731757 -104.349998474121094
62.963801464859230 -77.250081055430712 -104.349998474121094
63.508052396062055 -72.291711615312224 -104.349998474121094
63.045034268576558 -68.672040911642256 -104.349998474121094
63.511730552782161 -67.672808966050155 -104.349998474121094
63.119729182691962 -63.906500585077254 -104.349998474121094
63.517171212378152 -60.840615850339354 -104.349998474121094
63.265390015169274 48.562222487324547 -104.349998474121094
63.460549718516440 49.515165675707003 -104.349998474121094
63.483006687315516 50.468246391933597 -104.349998474121094
63.444768109185020 51.421478438519593 -104.349998474121094
63.327527096751190 52.374674214713828 -104.349998474121094
62.918885264249738 53.328098226539716 -104.349998474121094
63.507958110522623 -72.410112151501650 -104.750000000000000
63.295331735601891 -68.672240230264080 -104.750000000000000
63.517405732392810 -60.546113685415861 -104.750000000000000
62.683629857996927 47.609484162448638 -104.750000000000000
63.505009854167135 50.468228870218560 -104.750000000000000
63.430466813670684 51.421489827026818 -104.750000000000000
63.228524290007073 52.374753053318273 -104.750000000000000
63.487405557989277 -98.219300440395031 -105.516998291015625
63.244242810040873 -78.203399163053376 -105.150001525878906
63.415296799650299 -72.484836970501988 -105.150001525878906
62.907674836833763 -69.625033942637941 -105.150001525878906
63.511018875882684 -68.566508328682531 -105.150001525878906
63.515048047112955 -63.506813735441362 -105.150001525878906
63.072987647052408 -62.953261767356928 -105.150001525878906
63.517607599682954 -60.292615688399451 -105.150001525878906
63.222329790952038 47.609055181166944 -105.150001525878906
63.460790191251185 48.562066884895714 -105.150001525878906
63.521848069442001 49.515116862177358 -105.150001525878906
63.029824401836628 52.374911283396813 -105.150001525878906
63.502514981239685 -79.245406615106049 -105.550003051757813
62.986644014764153 -78.203194030187007 -105.550003051757813
62.580736813821197 -73.437274801897672 -105.550003051757813
63.510934541996946 -68.672411920592154 -105.550003051757813
63.515488574864641 -62.953614142776992 -105.801002502441406
63.517722669475901 -60.148115001794160 -105.550003051757813
62.899270955198013 46.656210027613717 -105.550003051757813
63.446031197074205 47.608877041705533 -105.550003051757813
63.536790380776985 48.562006363895584 -105.550003051757813
63.312867363653048 51.421583474639732 -105.550003051757813
62.806342405672304 -78.203050451154169 -105.949996948242188
63.041975026185028 -69.625140889499889 -105.949996948242188
62.570145713179222 -61.999758926751902 -105.949996948242188
63.517921830134966 -59.898015898963742 -105.949996948242188
63.192071765680474 46.655976862433477 -105.949996948242188
63.500230398639360 47.608833881419947 -105.949996948242188
63.595891466774233 48.561959300107247 -105.949996948242188
63.570847840282681 49.515077842338648 -105.949996948242188
63.451508741980248 50.468271474596754 -105.949996948242188
63.206166500267706 51.421668443414241 -105.949996948242188
63.501739675726611 -80.219008601329634 -106.349998474121094
63.124182945931139 -79.156505152321586 -106.349998474121094
63.265898043308965 -72.484718000244044 -106.349998474121094
63.515840950284705 -62.511113214964759 -106.349998474121094
62.962147694600723 -62.000071088499347 -106.349998474121094
63.518208669237367 -59.537813223865939 -106.349998474121094
62.776613365093191 45.703209103843598 -106.349998474121094
63.603532367838703 47.608751619276518 -106.624000549316406
63.557130405012231 47.608788570410660 -106.349998474121094
63.604291427489777 48.561952610992044 -106.483001708984375
62.796067600756039 51.421995016225509 -106.349998474121094
63.315425247157371 -80.109759857737401 -106.750000000000000
62.867183057935229 -79.156300496381235 -106.750000000000000
63.270212146576966 45.702816037824888 -106.750000000000000
63.602773387169009 46.655649809658449 -107.044998168945313
63.541070678461494 46.655698945189094 -106.750000000000000
63.509747853552035 49.515126497905534 -106.750000000000000
63.278306282248820 50.468409400385539 -106.750000000000000
63.487514655574913 -98.082299446236050 -107.150001525878906
63.501185032034009 -80.915511066037681 -107.150001525878906
63.210124377224624 -80.109676003815423 -107.150001525878906
62.619483398924103 -79.156103246463985 -107.150001525878906
63.076375955218992 -69.625168283887234 -107.150001525878906
63.516293899377025 -61.942315330126966 -107.150001525878906
63.518456643426077 -59.226415770109959 -107.150001525878906
62.648153622287040 44.750212800484114 -107.150001525878906
63.489350673740034 49.515142740729793 -107.150001525878906
63.178906747114866 50.468488554915496 -107.150001525878906
63.487559802545945 -98.025605433450195 -107.550003051757813
63.330665101746980 -81.062874407659365 -107.550003051757813
63.508331510178095 -71.941209712285101 -107.550003051757813
63.516560033207291 -61.608113623347585 -107.550003051757813
63.518773501527789 -58.828516268585716 -107.550003051757813
63.185156015497185 44.749785170999083 -107.550003051757813
63.536912806643556 45.702603656898170 -107.550003051757813
63.604181451995743 48.423849169672842 -107.550003051757813
63.370747958659649 49.515237187269719 -107.550003051757813
63.144767333540827 -81.062726372254147 -107.949996948242188
63.501826555242928 -80.109908294125006 -108.239997863769531
62.634124346232909 -80.109217319459930 -107.949996948242188
62.610895656995297 -72.484196404182839 -107.949996948242188
63.518966134072144 -58.586614947579868 -107.949996948242188
63.464754162929474 44.749562519455417 -107.949996948242188
63.547288424323391 48.561998004020452 -107.949996948242188
63.500588667947106 -81.664404566380284 -108.349998474121094
63.501596816639420 -80.398406127456184 -108.349998474121094
63.255866541478859 -81.062814843549020 -108.349998474121094
63.503071769580487 -78.546210974982401 -108.349998474121094
63.508493640721632 -71.737611754378619 -108.349998474121094
63.510599527291411 -69.093111860443742 -108.349998474121094
62.988573096095600 -69.625098364103067 -108.349998474121094
63.440804164749515 -61.047353656236282 -108.349998474121094
63.519026336109015 -58.511015301139963 -108.349998474121094
63.126295399196941 43.796729629280080 -108.349998474121094
63.601311891439735 44.820353760713211 -108.349998474121094
63.603967242346336 48.154852062580474 -108.349998474121094
63.099050046759558 49.515453547642821 -108.349998474121094
63.501024572250401 -81.117010941113307 -108.750000000000000
63.501101816038549 -81.020010849798652 -108.750000000000000
63.517211268088019 -60.790315268143537 -108.750000000000000
63.519203995606659 -58.287916616994664 -108.750000000000000
63.408094626253600 43.796505224957357 -108.750000000000000
63.399289661434651 48.562115859425859 -108.750000000000000
63.503556812452175 -77.937110826311851 -109.150001525878906
63.508768532371668 -71.392412278869472 -109.150001525878906
63.519399814745867 -58.042013679825963 -109.150001525878906
63.108435057126343 42.843542255776846 -109.150001525878906
63.603482199474648 47.545751913909925 -109.150001525878906
63.503582457098219 -77.904907162206200 -109.550003051757813
63.094844053699539 -78.203280192795432 -109.550003051757813
63.510711808434152 -68.952113064817951 -109.550003051757813
62.603174353547217 -69.624791460692791 -109.550003051757813
63.517462829853955 -60.474412658345294 -109.550003051757813
63.519497204861018 -57.919714524267206 -109.550003051757813
63.398935605886976 42.843310922357034 -109.550003051757813
63.603333286161025 47.358751698543557 -109.550003051757813
62.971288393331676 48.562456688375946 -109.550003051757813
63.508930425971073 -71.189111867255363 -109.949996948242188
63.519723838888808 -57.635115310305366 -109.949996948242188
63.599781508759712 42.898551849303651 -109.949996948242188
63.415231341117206 47.608901568461299 -109.949996948242188
63.503804868660005 -77.625610375762349 -110.349998474121094
63.517914187167726 -59.907613674240906 -110.349998474121094
63.519861205732447 -57.462614754648257 -110.349998474121094
63.373377289194288 41.890232675817394 -110.349998474121094
63.163633062736736 47.609101922954274 -110.349998474121094
63.503633977258943 -77.840209917094654 -110.750000000000000
63.509102271224165 -70.973314511361451 -110.750000000000000
63.510941468056288 -68.663714413584231 -110.750000000000000
63.517978052725454 -59.827413504357331 -110.750000000000000
63.519925308234313 -57.382117038472309 -110.750000000000000
63.598981916472752 41.894451368111504 -110.750000000000000
63.553373073242440 46.655689148460418 -110.750000000000000
62.772832710572906 47.609413127811941 -110.750000000000000
63.488164532583482 -97.266206260169085 -111.525001525878906
63.498441607777174 -84.360608850659631 -111.150001525878906
63.309829734364520 -84.875359024717298 -111.150001525878906
63.509232396082950 -70.809908191102096 -111.150001525878906
63.511093173057866 -68.473208492542298 -111.150001525878906
63.518099331669852 -59.675115579013358 -111.150001525878906
63.520036158599005 -57.242914964688943 -111.150001525878906
63.232416787412269 40.937246327149346 -111.150001525878906
63.421972052893814 46.655793786635918 -111.150001525878906
63.498728048934943 -84.000905900745181 -111.550003051757813
63.041931259736316 -84.875145689938549 -111.550003051757813
63.503609450503184 -77.871009773051654 -111.550003051757813
63.511246141761504 -68.281115657941029 -111.550003051757813
63.520311369212301 -56.897314946093914 -111.550003051757813
63.598244679984099 40.968655152863043 -111.550003051757813
63.602271305583784 46.025153030809200 -111.550003051757813
63.602014409537063 45.702551814736438 -111.902000427246094
63.175870751530198 46.655989763737878 -111.550003051757813
63.488178712778662 -97.248399258979177 -111.949996948242188
63.497238678854558 -85.871205600701245 -111.949996948242188
63.498821854510609 -83.883108086532630 -111.949996948242188
63.312743307120371 -78.203453711846194 -111.949996948242188
63.509529979690569 -70.436212936053849 -111.949996948242188
63.511293603494472 -68.221514846760428 -111.949996948242188
63.518409023730342 -59.286214945485476 -111.949996948242188
63.518524491467929 -59.141214533696832 -112.121002197265625
63.597825571374706 40.442352982090277 -111.949996948242188
63.488222267971146 -97.193704146926734 -112.349998474121094
63.309669667051125 -85.828453681869263 -112.349998474121094
63.498855300086646 -83.841108282954892 -112.349998474121094
62.570685806974396 -79.156064387625776 -112.349998474121094
63.520500256216671 -56.660117145325245 -112.349998474121094
63.471960691119534 39.983853975704754 -112.349998474121094
63.453512106768912 45.702670071124231 -112.349998474121094
63.496814153945252 -86.404309374542052 -112.750000000000000
63.503366254687876 -78.176406709911376 -112.750000000000000
63.509736309428604 -70.177111150531019 -112.750000000000000
63.511495710766503 -67.967715488755587 -112.750000000000000
63.518735040634219 -58.876814135352070 -112.750000000000000
63.520638658931468 -56.486315778313006 -112.750000000000000
63.597099480373657 39.530552886671664 -112.750000000000000
62.784400017812473 39.031299084792920 -112.750000000000000
63.601604140766568 45.187350409486932 -112.750000000000000
63.370113590924213 -86.781703411170810 -113.150001525878906
63.499067996938884 -83.574010894498471 -113.150001525878906
62.743648443330287 -82.968703331259491 -113.150001525878906
62.752585773713754 -79.156209239473895 -113.150001525878906
63.596840196659102 39.204953319498799 -113.150001525878906
63.496334451429846 -87.006703287545960 -113.550003051757813
63.145248200028952 -82.969023135974183 -113.550003051757813
62.575507935344341 -82.015474651821478 -113.550003051757813
62.980983070680985 -79.156391118399796 -113.550003051757813
63.509955695396044 -69.901613801359048 -113.550003051757813
63.510175561327245 -69.625513730210216 -113.892997741699219
63.518871769551339 -58.705114665866745 -113.550003051757813
63.520745447830656 -56.352213953156657 -113.550003051757813
63.596504386064296 38.783253929280512 -113.550003051757813
63.488433695045835 -96.928201301421751 -113.949996948242188
63.496053745535256 -87.359204091306481 -113.949996948242188
62.736412467387844 -86.781198777879510 -113.949996948242188
62.772907012159656 -82.015631846028867 -113.949996948242188
62.667667112499714 -81.062346444483978 -113.949996948242188
63.511927878643050 -67.425013939637623 -113.949996948242188
63.521000588060588 -56.031817631404323 -113.949996948242188
63.596137997525041 38.323155808561467 -113.949996948242188
63.600950995144032 44.367152610463599 -113.949996948242188
63.495612658838432 -87.913105588045184 -114.349998474121094
63.178051417736860 -87.734652880898508 -114.349998474121094
62.907405565705837 -82.015738950853560 -114.349998474121094
62.727767648863662 -81.062394304161586 -114.349998474121094
62.780925294560028 -80.109334221013299 -114.349998474121094
63.502937908294953 -78.714309371390769 -114.349998474121094
63.161586040761264 -79.156534937414506 -114.349998474121094
63.512068672063414 -67.248210406829216 -114.349998474121094
63.519156138966800 -58.348013338662554 -114.349998474121094
63.488544062409019 -96.789605764311318 -114.750000000000000
63.495526095247627 -88.021809166859967 -114.750000000000000
63.395907913258654 -82.016127958444528 -114.750000000000000
62.962367641618123 -81.062581122461381 -114.750000000000000
63.032523572940498 -80.109534575506274 -114.750000000000000
63.510383561825208 -69.364313861856530 -114.750000000000000
63.512142726218975 -67.155215746373472 -114.750000000000000
63.521155713563402 -55.837016362603215 -114.750000000000000
63.595470595763686 37.485055640946818 -114.750000000000000
63.600468260958792 43.760951630795688 -114.750000000000000
63.488745774774152 -96.536302316793765 -115.150001525878906
