-6.076394081116 -67.314636230469 -264.241699218750 1.759653806686
-99.399917602539 -74.541633605957 -202.529754638672 11.728717803955
-9.262122154236 -68.897239685059 -265.802429199219 2.229818105698
-94.439071655273 -75.204269409180 -208.489288330078 6.488567829132
-92.931137084961 -74.496261596680 -210.749130249023 3.797529935837
-84.332687377930 -73.645286560059 -218.185531616211 2.206226110458
-121.216186523438 -76.990463256836 -198.250991821289 4.449544429779
-122.731109619141 -76.179199218750 -198.895736694336 2.930524349213
-140.076736450195 -78.323211669922 -185.106521606445 5.000689983368
1.750480055809 -67.900802612305 -303.400970458984 10.779767990112
-59.838516235352 -70.988929748535 -267.763763427734 18.016490936279
-69.058479309082 -71.543945312500 -261.425964355469 9.599515914917
-49.667972564697 -71.558227539063 -275.028778076172 11.292369842529
-39.262439727783 -71.049133300781 -281.230468750000 5.816096305847
-95.279304504395 -74.085510253906 -243.996749877930 8.823238372803
-40.294277191162 -68.772964477539 -283.336761474609 5.415528297424
-19.969232559204 -68.892288208008 -297.231933593750 7.437901496887
-153.765625000000 -78.580581665039 -205.220932006836 3.273625850677
-25.245204925537 -69.222831726074 -293.125823974609 4.354655742645
-10.185053825378 -68.012527465820 -305.287017822266 14.530166625977
-5.207909107208 -68.161125183105 -309.625671386719 17.997991561890
-64.644660949707 -71.379867553711 -270.495880126953 15.522303581238
-42.733806610107 -68.777832031250 -285.560272216797 3.649143218994
-7.437467098236 -65.898818969727 -311.866058349609 20.747388839722
-75.323303222656 -72.583320617676 -263.338592529297 9.715167045593
-48.445438385010 -69.815681457520 -281.905670166016 5.576858997345
-32.618549346924 -67.889587402344 -293.078125000000 5.555868148804
-4.450168132782 -67.633590698242 -311.766479492188 19.774076461792
-27.487838745117 -68.452667236328 -297.797943115234 8.141198158264
-16.454179763794 -66.473495483398 -305.806488037109 15.652273178101
-8.379169464111 -66.584991455078 -313.219055175781 22.293163299561
-130.489227294922 -76.017189025879 -228.696624755859 2.413928270340
-142.115402221680 -79.328720092773 -228.455917358398 2.158274650574
-150.902084350586 -80.103553771973 -236.658828735352 2.661438703537
174.252380371094 -56.343460083008 -99.049903869629 64.575210571289
166.928039550781 -57.093906402588 -92.772270202637 59.047386169434
170.528442382813 -56.789749145508 -100.227722167969 60.672550201416
154.179946899414 -57.789165496826 -93.280715942383 46.897258758545
172.569747924805 -56.521724700928 -107.653007507324 61.122451782227
156.023056030273 -58.619464874268 -97.583908081055 47.156345367432
151.811798095703 -58.770702362061 -102.798225402832 41.945358276367
147.123886108398 -59.190258026123 -105.907905578613 36.877864837646
166.247711181641 -56.575634002686 -114.921714782715 53.889732360840
150.901290893555 -58.731891632080 -108.884246826172 39.769454956055
163.079681396484 -57.085769653320 -117.557624816895 50.320060729980
153.310867309570 -58.351406097412 -113.395042419434 41.386028289795
157.074035644531 -57.864704132080 -116.034934997559 44.657798767090
151.567184448242 -58.594280242920 -115.759475708008 39.318668365479
159.575195312500 -57.260925292969 -121.416381835938 46.518077850342
154.174072265625 -57.992996215820 -119.437194824219 41.344142913818
88.441398620605 -60.473335266113 -83.431617736816 5.239745140076
93.577507019043 -59.553630828857 -89.439643859863 4.783563613892
44.084751129150 -62.412261962891 -60.988708496094 21.083992004395
40.366989135742 -67.885803222656 -67.891052246094 23.161750793457
173.309738159180 -56.855945587158 -167.888290405273 59.923927307129
176.266403198242 -56.929489135742 -172.248580932617 63.327407836914
93.159255981445 -61.002021789551 -113.248672485352 4.568834304810
35.796657562256 -69.817916870117 -72.493270874023 22.931520462036
83.923408508301 -63.635566711426 -113.350784301758 5.478421688080
58.910564422607 -65.156143188477 -106.304573059082 6.586848258972
152.932678222656 -53.689609527588 -172.915359497070 42.836650848389
139.760910034180 -58.283004760742 -171.173873901367 28.844820022583
177.717071533203 -54.421897888184 -196.554000854492 70.622352600098
151.015151977539 -56.723499298096 -183.685226440430 42.184883117676
41.533527374268 -69.195960998535 -104.423088073730 0.597652256489
39.609718322754 -67.700126647949 -106.129493713379 2.480321407318
130.008712768555 -60.613521575928 -170.375762939453 19.182527542114
153.131866455078 -56.765949249268 -193.235870361328 46.557662963867
132.682785034180 -61.292613983154 -180.982330322266 23.543706893921
174.422729492188 -54.711959838867 -202.897583007813 69.221153259277
8.880707740784 -67.954261779785 -97.389015197754 31.316486358643
114.865432739258 -61.350749969482 -178.312515258789 10.175716400146
174.103424072266 -54.729305267334 -213.511337280273 72.408454895020
123.797714233398 -58.546367645264 -182.594909667969 18.169473648071
171.183532714844 -54.903881072998 -211.983551025391 69.213195800781
13.625905990601 -69.590614318848 -107.253059387207 22.684267044067
115.224678039551 -61.536499023438 -175.958801269531 9.821335792542
167.992050170898 -55.717887878418 -220.784454345703 69.492858886719
168.246780395508 -53.971492767334 -218.840942382813 69.342323303223
171.085250854492 -55.040840148926 -220.693954467773 72.305900573730
172.057571411133 -55.060420989990 -221.984878540039 73.697692871094
114.738639831543 -58.758029937744 -179.283874511719 12.609036445618
105.838935852051 -61.848937988281 -180.974639892578 8.034592628479
117.429336547852 -59.369739532471 -185.318008422852 14.061246871948
167.593505859375 -54.962829589844 -228.088729858398 72.340148925781
107.946777343750 -59.732772827148 -189.929702758789 10.711734771729
161.667648315430 -55.607555389404 -234.045608520508 69.823860168457
165.552474975586 -54.584053039551 -236.228927612305 74.387199401855
105.047760009766 -60.067543029785 -185.361312866211 9.896767616272
11.458143234253 -66.780662536621 -126.209762573242 15.975341796875
166.066040039063 -55.032855987549 -241.797714233398 77.245079040527
24.203542709351 -67.029945373535 -144.002548217773 0.864316940308
100.739646911621 -61.044353485107 -196.796600341797 9.043070793152
9.891098022461 -68.510848999023 -136.157211303711 10.622956275940
95.296249389648 -60.862682342529 -191.478668212891 10.997046470642
4.193505764008 -68.316703796387 -135.896957397461 14.943422317505
30.409090042114 -68.353393554688 -155.067214965820 2.696162223816
11.013714790344 -66.141906738281 -136.200073242188 9.754592895508
160.524765014648 -54.954505920410 -242.059219360352 72.756713867188
159.414855957031 -55.038806915283 -245.736251831055 73.693069458008
161.155059814453 -56.854549407959 -249.597167968750 76.630691528320
6.503531932831 -66.088142395020 -141.340301513672 9.443985939026
69.981719970703 -60.724994659424 -194.054473876953 27.316165924072
17.262496948242 -67.937042236328 -158.012207031250 3.318526029587
18.952909469604 -67.206268310547 -164.298614501953 3.531376123428
145.807662963867 -55.861564636230 -256.931213378906 68.643882751465
27.292583465576 -66.534957885742 -163.871856689453 2.064523458481
69.387344360352 -62.672309875488 -200.520660400391 23.599697113037
75.835220336914 -62.360099792480 -206.878326416016 15.818400382996
148.769638061523 -57.193813323975 -264.724304199219 75.226280212402
78.496932983398 -62.447063446045 -215.118484497070 9.864315986633
54.173812866211 -64.465789794922 -197.620040893555 31.391157150269
81.712104797363 -62.487049102783 -215.236877441406 8.208987236023
1.000357985497 -66.792419433594 -156.816284179688 5.410840988159
4.345080852509 -67.189949035645 -158.093170166016 3.343076229095
-1.095541954041 -69.032363891602 -160.844512939453 4.457547187805
150.201568603516 -54.646877288818 -262.324462890625 75.454887390137
18.827859878540 -66.460289001465 -172.758682250977 1.794580459595
69.588798522949 -63.065746307373 -212.436462402344 16.140785217285
-0.866447985172 -68.690605163574 -166.604446411133 4.256839752197
0.890555024147 -68.349464416504 -170.131378173828 6.350059509277
25.563331604004 -65.765579223633 -173.164382934570 3.477202415466
25.011068344116 -65.811706542969 -185.850067138672 3.264658927917
143.426422119141 -56.700031280518 -269.798431396484 74.386314392090
17.360412597656 -66.316703796387 -188.394653320313 1.132173180580
61.534065246582 -63.872108459473 -216.707199096680 17.443912506104
135.220596313477 -57.977806091309 -276.908935546875 72.745414733887
-73.466041564941 -75.233787536621 -123.889053344727 6.860899925232
-70.980857849121 -74.708908081055 -125.691780090332 6.887431144714
-76.852088928223 -74.073150634766 -123.224983215332 4.896539688110
-71.777763366699 -73.302032470703 -130.585922241211 3.483207702637
16.670932769775 -66.370437622070 -200.118179321289 1.694280624390
23.087162017822 -65.314132690430 -204.238220214844 6.262632846832
58.620109558105 -62.861057281494 -232.628158569336 8.075104713440
-75.167671203613 -73.589225769043 -136.110488891602 2.454191923141
-78.802253723145 -74.361656188965 -134.941024780273 2.741150379181
24.011905670166 -63.397407531738 -207.299682617188 8.057192802429
55.073097229004 -64.811927795410 -221.970108032227 17.050996780396
-82.543754577637 -74.904922485352 -137.402191162109 5.701926708221
16.340171813965 -68.453018188477 -198.960052490234 0.695878624916
122.659461975098 -57.234706878662 -276.737335205078 64.029731750488
127.859642028809 -58.162940979004 -282.060394287109 71.136039733887
56.223583221436 -61.813438415527 -236.398956298828 7.094773292542
25.485612869263 -66.593887329102 -208.738265991211 7.881397247314
15.721438407898 -67.800689697266 -208.879699707031 1.066065549850
-89.371452331543 -74.239669799805 -136.957565307617 4.667738437653
-72.325859069824 -74.149162292480 -150.335906982422 1.767174720764
-65.258407592773 -72.316932678223 -153.734268188477 2.450274705887
-65.003715515137 -71.533340454102 -156.712585449219 2.039041996002
15.778738021851 -64.116065979004 -213.464248657227 4.586118221283
46.279102325439 -64.226226806641 -228.815338134766 16.364454269409
110.368919372559 -57.899158477783 -283.578918457031 60.738494873047
-85.514358520508 -73.651779174805 -141.486221313477 6.916446208954
-84.789505004883 -73.956306457520 -143.471618652344 8.123245239258
-87.536392211914 -73.422637939453 -141.779556274414 5.693267345428
-92.377456665039 -74.207611083984 -138.997268676758 5.391698837280
12.918745040894 -67.414558410645 -213.353836059570 1.693842291832
24.416685104370 -68.177589416504 -217.359161376953 7.991789817810
-88.070068359375 -74.246894836426 -144.145828247070 6.483720779419
21.332878112793 -65.535690307617 -218.998947143555 6.907626628876
-98.190383911133 -74.941574096680 -134.292221069336 9.398593902588
-75.368980407715 -73.900817871094 -151.669723510742 3.046629667282
43.384361267090 -62.875827789307 -244.274703979492 5.413375377655
-102.199615478516 -75.283309936523 -137.634246826172 11.532561302185
-88.628555297852 -74.527755737305 -150.085937500000 8.164754867554
42.153903961182 -63.732353210449 -234.996505737305 12.928451538086
-93.539115905762 -74.315307617188 -143.139175415039 5.819471836090
14.731184959412 -66.986801147461 -215.615844726563 1.646257638931
117.617591857910 -57.460239410400 -287.417907714844 68.247238159180
-102.459297180176 -75.249641418457 -151.787094116211 8.012428283691
-106.298202514648 -75.982475280762 -142.205917358398 13.718967437744
-36.771137237549 -69.647926330566 -192.611953735352 7.343231201172
99.564338684082 -58.721473693848 -287.788513183594 57.167869567871
21.396476745605 -64.065940856934 -239.760086059570 3.500912666321
-97.227340698242 -74.630691528320 -152.566940307617 5.867380619049
-46.800128936768 -69.981300354004 -190.127487182617 5.219777584076
20.164361953735 -66.064956665039 -233.679962158203 6.267287254333
32.855945587158 -64.823524475098 -255.842208862305 1.764205336571
-96.202865600586 -75.566665649414 -160.063796997070 7.470213413239
19.364635467529 -65.891136169434 -244.215301513672 1.388216495514
3.331474065781 -65.415832519531 -233.165695190430 1.392480969429
10.747729301453 -64.190582275391 -235.725860595703 3.162412166595
96.688369750977 -59.079204559326 -292.317962646484 59.097640991211
5.402740955353 -66.106773376465 -230.908370971680 0.955193638802
1.153298020363 -66.928390502930 -225.100540161133 1.810225963593
-67.224197387695 -72.176811218262 -186.320755004883 11.189094543457
8.315670967102 -65.741165161133 -238.020599365234 0.865121245384
96.089065551758 -57.861377716064 -295.981994628906 61.844562530518
89.375366210938 -59.548015594482 -290.646514892578 53.494022369385
26.245595932007 -65.683815002441 -248.494735717773 5.209036827087
10.665681838989 -66.921592712402 -243.265167236328 1.141441702843
84.389053344727 -61.322097778320 -292.012084960938 51.821060180664
-81.664077758789 -73.479164123535 -177.974151611328 18.657691955566
1.617467045784 -66.141960144043 -233.690704345703 1.053836226463
-61.546031951904 -71.116035461426 -191.193542480469 10.590670585632
-67.310707092285 -72.380508422852 -189.810913085938 13.216158866882
-92.135124206543 -75.327102661133 -173.925781250000 13.080008506775
86.323722839355 -59.067150115967 -295.574768066406 56.135456085205
-83.007530212402 -73.360862731934 -179.705841064453 20.728752136230
22.273178100586 -65.459373474121 -254.827880859375 2.839604616165
85.248176574707 -59.300857543945 -294.412841796875 54.553443908691
7.191991806030 -66.526222229004 -241.424682617188 1.811206817627
6.157628059387 -66.643920898438 -246.961273193359 4.537719249725
12.676701545715 -66.722198486328 -250.274154663086 6.406415939331
24.997663497925 -64.816360473633 -255.447570800781 1.124818921089
89.704978942871 -59.908378601074 -298.220825195313 60.013683319092
24.321947097778 -64.246139526367 -261.301086425781 2.372824430466
19.914276123047 -66.437080383301 -254.375549316406 3.909848213196
9.143986701965 -66.432563781738 -248.253829956055 4.111576557159
8.927210807800 -65.578002929688 -252.190078735352 7.583936214447
29.058376312256 -63.667350769043 -264.140136718750 0.697073578835
4.225666046143 -66.271339416504 -249.400726318359 7.028244018555
70.120025634766 -61.318363189697 -300.811859130859 49.930259704590
5.398611068726 -64.859756469727 -254.910751342773 4.327422618866
28.306413650513 -65.545150756836 -268.707641601563 3.041148424149
-125.986206054688 -77.516662597656 -167.270126342773 19.478166580200
7.251458168030 -65.730606079102 -257.939758300781 5.225406646729
1.861719012260 -65.029220581055 -257.614654541016 1.823339581490
-133.054779052734 -76.475860595703 -174.441360473633 10.984737396240
-0.761942982674 -66.869964599609 -259.732879638672 2.663209676743
20.693471908569 -64.134490966797 -276.436370849609 2.269088029861
-115.647613525391 -77.472732543945 -187.066177368164 9.120923042297
-50.160175323486 -68.940116882324 -228.308456420898 15.229905128479
-42.631938934326 -69.379440307617 -232.018524169922 11.445119857788
50.949832916260 -62.628467559814 -297.998046875000 32.497997283936
-56.972854614258 -71.149185180664 -223.654479980469 17.122655868530
20.550203323364 -65.820640563965 -279.429229736328 0.632229745388
-56.439758300781 -69.589126586914 -229.218658447266 14.948297500610
-7.346897125244 -67.528091430664 -262.115936279297 1.153441071510
-115.666458129883 -76.487258911133 -188.327804565430 8.391116142273
45.648975372314 -62.642387390137 -296.436676025391 27.567995071411
-61.370750427246 -70.203598022461 -227.641204833984 17.289266586304
-80.937866210938 -72.200050354004 -214.798858642578 1.853932619095
-77.526527404785 -73.883689880371 -217.680755615234 3.538539648056
-93.927505493164 -75.054901123047 -206.655624389648 7.973743915558
-84.865921020508 -74.123489379883 -214.792358398438 2.099231958389
-87.630760192871 -74.276496887207 -215.788589477539 2.735278367996
17.495435714722 -66.457214355469 -291.063079833984 4.288463115692
-107.671920776367 -74.236236572266 -208.588012695313 9.195078849792
-19.410831451416 -68.300270080566 -284.810729980469 6.241307258606
-132.267807006836 -76.572166442871 -211.918273925781 9.340286254883
-151.925109863281 -78.434242248535 -200.190048217773 1.919996261597
-117.597045898438 -75.726638793945 -227.428802490234 4.349528312683
-109.597946166992 -73.417091369629 -234.239929199219 5.054233074188
-78.109252929688 -69.768531799316 -256.698089599609 3.190958023071
-62.661155700684 -69.469146728516 -266.900024414063 16.769580841064
-51.291305541992 -69.614990234375 -274.856689453125 11.750748634338
-29.013975143433 -67.639686584473 -291.745605468750 5.010626792908
-29.021770477295 -66.867485046387 -293.460449218750 6.303556442261
-48.314857482910 -68.576522827148 -279.725616455078 7.975409030914
-45.364467620850 -68.506622314453 -281.701019287109 6.788715362549
-32.702690124512 -67.366874694824 -290.927032470703 4.916668891907
-75.272315979004 -70.984992980957 -263.196563720703 9.604042053223
-62.643157958984 -70.229942321777 -271.664855957031 14.702386856079
-31.368276596069 -66.971138000488 -294.088378906250 6.694185733795
-29.713109970093 -67.853828430176 -295.314300537109 6.894156932831
-21.747688293457 -66.166580200195 -300.456268310547 11.836263656616
-16.958112716675 -66.270423889160 -304.410614013672 14.457436561584
-92.286720275879 -73.285911560059 -252.338638305664 1.244168639183
-135.934478759766 -75.591468811035 -222.769607543945 4.449314117432
-115.530799865723 -75.543037414551 -236.650772094727 6.667388439178
-147.580535888672 -79.179206848145 -219.686004638672 3.577207565308
-149.677200317383 -77.475929260254 -221.379882812500 1.912771105766
-142.495925903320 -78.143539428711 -226.444305419922 0.906805515289
175.616943359375 -56.095310211182 -106.871368408203 64.266487121582
151.087936401367 -57.851829528809 -95.399131774902 43.470722198486
173.023345947266 -56.163570404053 -114.792602539063 60.485359191895
167.504013061523 -56.593616485596 -119.713493347168 54.451332092285
180.393051147461 -54.674251556396 -169.813766479492 67.492790222168
184.220581054688 -54.685672760010 -178.900299072266 72.648963928223
184.470367431641 -52.392852783203 -188.571624755859 75.451835632324
181.759918212891 -55.778251647949 -188.489990234375 72.070838928223
145.629623413086 -57.656288146973 -170.478195190430 34.242965698242
134.470504760742 -59.603668212891 -169.446014404297 23.335256576538
147.963485717773 -55.815727233887 -175.198669433594 37.898735046387
42.822750091553 -62.222499847412 -102.827789306641 5.760173320770
154.068267822266 -57.734527587891 -177.041076660156 43.013080596924
175.843734741211 -53.221927642822 -203.472259521484 71.109405517578
152.361511230469 -58.009582519531 -189.279037475586 44.342163085938
168.765563964844 -54.670993804932 -202.594543457031 64.023803710938
24.687793731689 -67.548805236816 -100.959358215332 16.070051193237
126.001907348633 -58.830413818359 -173.293624877930 17.982152938843
19.135597229004 -67.608650207520 -103.290748596191 19.847600936890
126.082389831543 -59.927463531494 -184.345001220703 19.482128143311
120.894882202148 -58.887233734131 -173.193908691406 14.646506309509
175.991088867188 -53.939590454102 -210.308837890625 73.357345581055
117.323539733887 -58.041412353516 -175.430221557617 13.829823493958
114.384803771973 -57.915462493896 -181.141571044922 13.572897911072
118.819862365723 -57.258708953857 -182.210922241211 16.060588836670
170.877243041992 -53.729988098145 -219.906784057617 72.135139465332
11.639878273010 -66.842170715332 -116.380424499512 21.643531799316
166.549728393555 -53.778007507324 -231.892761230469 73.398666381836
107.745307922363 -58.790393829346 -187.577575683594 11.288382530212
112.833854675293 -57.343070983887 -187.497039794922 14.087743759155
107.455871582031 -58.858844757080 -185.866287231445 11.273052215576
27.340957641602 -66.459663391113 -138.489334106445 1.313532948494
102.545211791992 -59.594314575195 -184.033233642578 10.981184959412
7.584478855133 -69.014511108398 -132.904281616211 14.629162788391
26.379707336426 -65.933959960938 -141.586654663086 1.198187470436
5.993907928467 -66.774185180664 -129.596343994141 17.598381042480
101.784164428711 -58.906631469727 -189.390930175781 11.435338973999
23.165500640869 -65.093399047852 -140.646331787109 1.749981403351
99.763084411621 -59.014266967773 -194.602325439453 11.565148353577
8.350882530212 -66.367355346680 -137.092636108398 10.886245727539
20.837228775024 -67.760795593262 -143.948791503906 0.941340446472
91.823944091797 -59.754489898682 -195.642395019531 12.620771408081
155.142364501953 -56.390037536621 -244.932434082031 69.374168395996
164.521118164063 -53.136894226074 -242.884735107422 76.926246643066
93.765670776367 -59.161396026611 -196.824508666992 12.179683685303
30.088432312012 -64.077026367188 -154.274429321289 4.637210845947
150.825347900391 -54.546562194824 -251.682540893555 69.947692871094
5.037439823151 -67.072608947754 -140.415466308594 11.166335105896
18.366903305054 -66.473030090332 -147.915893554688 2.822134256363
87.908096313477 -60.767948150635 -205.443939208984 10.906561851501
1.814152956009 -67.494049072266 -141.091140747070 13.025443077087
3.447598934174 -68.009346008301 -147.707901000977 7.551289558411
157.313980102539 -54.799125671387 -254.499069213867 76.569801330566
6.778953075409 -68.221321105957 -153.839691162109 2.354099273682
28.382053375244 -65.202667236328 -167.956359863281 3.539450645447
85.576454162598 -59.223861694336 -202.179153442383 14.346902847290
1.112748980522 -67.220237731934 -144.112945556641 11.744500160217
71.441337585449 -62.609077453613 -195.846771240234 24.472742080688
85.403594970703 -59.605777740479 -209.503753662109 11.424532890320
88.256584167480 -59.632781982422 -203.040008544922 12.472538948059
68.980361938477 -63.987079620361 -198.546691894531 24.353300094604
20.265657424927 -65.046066284180 -162.869110107422 4.457819938660
82.678863525391 -59.065120697021 -206.064208984375 14.315442085266
26.226657867432 -64.798202514648 -160.789550781250 2.850707769394
65.616119384766 -62.269054412842 -194.701980590820 29.562292098999
80.283370971680 -60.563953399658 -200.374694824219 16.927747726440
0.280158013105 -67.773323059082 -151.086685180664 8.112681388855
22.464530944824 -64.047752380371 -164.845169067383 4.154390811920
2.925623893738 -65.841445922852 -154.474578857422 5.482149600983
69.276359558105 -61.070552825928 -202.707244873047 22.908927917480
82.569923400879 -60.138553619385 -202.163604736328 14.987480163574
57.716274261475 -62.265441894531 -198.250961303711 33.184574127197
75.272033691406 -62.603118896484 -204.323043823242 17.477008819580
79.032180786133 -61.606975555420 -217.187438964844 9.274100303650
16.628128051758 -67.501640319824 -169.996902465820 3.352894783020
27.951063156128 -65.419227600098 -177.305511474609 4.987137317657
23.822717666626 -64.692459106445 -173.403945922852 3.063076972961
78.740272521973 -60.178989410400 -212.330184936523 12.571482658386
16.213840484619 -66.334197998047 -176.997634887695 2.205055713654
21.738403320313 -64.669914245605 -174.384765625000 2.858186006546
69.357994079590 -61.351249694824 -212.899368286133 16.824441909790
15.911660194397 -65.839042663574 -183.463943481445 3.811779975891
74.016525268555 -60.783794403076 -220.623519897461 10.489653587341
144.933944702148 -54.598545074463 -267.150177001953 74.442611694336
23.175088882446 -64.529121398926 -186.821945190430 3.135095834732
136.239532470703 -54.919326782227 -267.696014404297 68.175308227539
18.506893157959 -64.930137634277 -189.481643676758 1.707641243935
14.927827835083 -66.311286926270 -191.370025634766 1.738321304321
62.817749023438 -63.139938354492 -218.441802978516 15.768019676208
128.924804687500 -55.339778900146 -273.801116943359 66.687789916992
18.531124114990 -64.679878234863 -199.396316528320 2.978485822678
20.641605377197 -64.273048400879 -187.807144165039 3.119892597198
21.879182815552 -64.280021667480 -203.026992797852 5.414899349213
-81.113769531250 -74.416702270508 -133.119262695313 4.464675426483
55.846710205078 -62.300125122070 -223.920852661133 15.924165725708
126.416717529297 -55.276153564453 -280.666717529297 69.747940063477
-90.575508117676 -73.717254638672 -134.447921752930 4.330037593842
16.354713439941 -65.245635986328 -206.613769531250 3.044838666916
-58.935363769531 -71.480140686035 -159.138061523438 4.965142726898
-74.478614807129 -72.872451782227 -149.348999023438 1.588983893394
-56.109619140625 -70.275039672852 -164.611145019531 5.368621826172
-57.978954315186 -71.384674072266 -164.638168334961 3.611210584641
23.652780532837 -64.248596191406 -217.304916381836 9.437595367432
52.196632385254 -63.116271972656 -237.379440307617 7.745848655701
19.503160476685 -63.117637634277 -220.705627441406 8.009759902954
-70.449790954590 -72.321617126465 -160.967803955078 1.409982681274
12.058283805847 -64.141349792480 -221.050079345703 5.033556938171
-75.793380737305 -73.821479797363 -155.335189819336 4.164752483368
20.787252426147 -65.344078063965 -223.220718383789 7.170003890991
-87.407157897949 -73.167518615723 -149.855285644531 8.129149436951
104.069778442383 -56.924678802490 -287.133087158203 59.734081268311
-102.661743164063 -74.954391479492 -135.394866943359 12.165844917297
22.277124404907 -66.743995666504 -237.279846191406 6.468435287476
36.308387756348 -62.822143554688 -241.778625488281 10.103631019592
32.300216674805 -62.510814666748 -248.070388793945 7.383662223816
90.928886413574 -57.974418640137 -290.845397949219 54.779750823975
31.729721069336 -63.707130432129 -242.652267456055 10.684744834900
37.132514953613 -62.664611816406 -248.587844848633 4.279058456421
10.857725143433 -67.608047485352 -233.171890258789 2.457817792892
-50.673664093018 -69.226776123047 -190.638381958008 5.250877380371
-55.321418762207 -70.854377746582 -186.170089721680 4.171247005463
17.997592926025 -63.255348205566 -243.294860839844 1.570491194725
-115.729980468750 -75.691055297852 -152.112548828125 16.825691223145
31.293441772461 -63.060905456543 -254.313507080078 1.780202031136
-97.921005249023 -73.651031494141 -164.628448486328 6.145991802216
28.523681640625 -63.170593261719 -255.727020263672 2.950941562653
-89.833702087402 -73.326812744141 -172.057144165039 13.221816062927
-76.456848144531 -72.775833129883 -182.040176391602 16.229087829590
33.486534118652 -62.295799255371 -255.614318847656 1.731110453606
81.576477050781 -58.773578643799 -292.479949951172 51.068904876709
26.171258926392 -62.352825164795 -251.787933349609 2.971242189407
-75.027313232422 -72.413932800293 -188.950332641602 18.746976852417
79.759124755859 -58.918430328369 -295.891845703125 53.077178955078
82.637901306152 -58.773437500000 -299.414764404297 57.515037536621
-85.710678100586 -73.013267517090 -184.004791259766 20.443759918213
-77.662681579590 -72.751556396484 -188.675872802734 20.783340454102
6.326683998108 -64.918540954590 -247.246520996094 4.005179405212
75.500160217285 -60.157081604004 -293.311828613281 48.578868865967
66.171279907227 -60.616710662842 -294.196411132813 43.776981353760
76.656600952148 -58.911979675293 -297.287200927734 52.764808654785
-95.337104797363 -72.817222595215 -180.345153808594 10.896061897278
71.684837341309 -59.832927703857 -298.713317871094 50.249691009521
67.233581542969 -59.674060821533 -296.329711914063 45.285541534424
-119.120353698730 -76.153518676758 -156.613891601563 18.315624237061
11.443429946899 -67.041748046875 -260.494812011719 8.210549354553
24.103063583374 -63.696582794189 -271.284484863281 2.423861742020
5.919488906860 -64.403869628906 -257.215270996094 3.919444084167
21.690137863159 -62.764698028564 -268.508483886719 4.184494018555
63.678760528564 -60.811183929443 -297.415405273438 42.716773986816
18.906408309937 -63.878547668457 -268.699798583984 6.838363647461
0.965619981289 -61.847137451172 -257.040954589844 2.272132635117
10.991897583008 -63.161888122559 -262.803771972656 4.926937580109
61.719554901123 -61.112789154053 -301.144561767578 42.569847106934
13.469584465027 -65.827079772949 -266.922943115234 8.501293182373
1.470625042915 -65.833290100098 -258.923004150391 2.180347442627
18.733055114746 -63.973369598389 -272.859466552734 5.321435928345
-126.964004516602 -75.532356262207 -166.115570068359 18.551975250244
54.000518798828 -59.441989898682 -301.249145507813 35.606868743896
48.393337249756 -60.136318206787 -297.210601806641 29.190221786499
54.391860961914 -61.611248016357 -295.122161865234 33.890392303467
-4.058053016663 -65.997688293457 -260.839355468750 1.901913404465
53.181587219238 -61.886131286621 -299.990142822266 34.995887756348
-53.792114257813 -69.195182800293 -226.062469482422 17.882278442383
46.929576873779 -61.690818786621 -298.839447021484 29.374084472656
-70.519134521484 -72.150596618652 -218.750930786133 7.975204467773
-100.252662658691 -74.911621093750 -200.812728881836 10.720340728760
-106.533386230469 -73.601638793945 -196.284210205078 4.801166534424
38.925819396973 -62.417022705078 -296.864105224609 22.154264450073
-109.453308105469 -75.243278503418 -196.113037109375 5.154215812683
-89.565093994141 -73.285652160645 -211.639770507813 2.124789237976
-92.179450988770 -71.397193908691 -209.641799926758 4.897626399994
-65.793083190918 -71.391235351563 -226.156265258789 15.658135414124
-92.804138183594 -74.207885742188 -214.121673583984 1.093172192574
-103.316665649414 -75.061378479004 -208.090957641602 10.699440002441
-123.197059631348 -73.809150695801 -199.091613769531 1.331665277481
-14.970843315125 -66.309455871582 -270.420806884766 3.630853652954
-140.286468505859 -76.505668640137 -184.305114746094 5.087128162384
-19.473167419434 -67.237762451172 -279.243743896484 8.776505470276
-135.848495483398 -75.137550354004 -191.969360351563 5.317615985870
-134.583633422852 -74.908416748047 -202.347686767578 2.036213397980
-148.394302368164 -77.223747253418 -195.055297851563 2.312332868576
-20.217086791992 -65.399696350098 -282.577026367188 9.332777023315
-123.932838439941 -75.905563354492 -220.264114379883 6.075769424438
-146.565872192383 -76.509254455566 -207.067123413086 1.772771120071
-132.377136230469 -75.397499084473 -211.855728149414 8.664086341858
-125.308944702148 -77.616226196289 -220.351440429688 7.081690311432
-22.451404571533 -64.732872009277 -293.340789794922 7.959628582001
-117.335189819336 -77.206825256348 -225.543472290039 5.321927070618
-131.134933471680 -76.238853454590 -216.863235473633 9.420407295227
-111.232269287109 -73.780799865723 -231.996383666992 2.935972452164
-78.079292297363 -71.343528747559 -255.673202514648 1.677075505257
-67.973922729492 -69.168045043945 -264.078979492188 12.740376472473
-21.828170776367 -66.333557128906 -297.449401855469 9.719320297241
-61.192764282227 -69.095008850098 -271.188446044922 15.519179344177
-65.055686950684 -68.925605773926 -267.673217773438 17.093181610107
-75.004920959473 -69.631217956543 -262.840301513672 9.603397369385
-89.796157836914 -72.489646911621 -253.496368408203 1.769128680229
-99.212226867676 -70.381576538086 -246.421127319336 7.210804462433
-151.571273803711 -75.516326904297 -209.981933593750 2.387065887451
-152.234863281250 -78.106185913086 -210.476959228516 2.498316526413
-123.564903259277 -75.794158935547 -233.855133056641 2.647971630096
-140.307983398438 -77.072830200195 -223.630050659180 2.545718908310
-151.633087158203 -78.245086669922 -221.653549194336 1.945584416389
-151.997680664063 -76.625503540039 -236.374176025391 2.407903432846
176.460113525391 -54.484775543213 -106.340538024902 65.545013427734
148.881774902344 -58.483036041260 -98.277595520020 40.373737335205
162.234436035156 -56.166294097900 -116.147773742676 49.980457305908
96.029113769531 -63.405399322510 -109.866867065430 3.184324741364
177.520004272461 -53.599517822266 -165.545486450195 64.644256591797
179.977523803711 -52.384704589844 -168.033630371094 67.520263671875
172.519821166992 -53.973560333252 -162.999771118164 59.521972656250
169.139297485352 -54.543972015381 -163.107482910156 56.144630432129
181.034225463867 -56.603221893311 -177.355346679688 68.921226501465
31.282545089722 -65.153587341309 -68.468559265137 27.263238906860
162.226089477539 -56.445259094238 -167.568206787109 49.408020019531
73.832725524902 -60.858100891113 -106.427757263184 1.080283999443
180.004547119141 -54.129470825195 -193.326477050781 71.974601745605
145.022247314453 -56.334186553955 -172.990615844727 34.667716979980
179.634490966797 -54.773036956787 -204.405975341797 74.432136535645
177.534255981445 -53.371173858643 -205.015045166016 73.083740234375
148.499465942383 -55.094554901123 -186.520965576172 41.261329650879
28.153377532959 -68.273483276367 -101.619201660156 12.598887443542
134.052261352539 -58.405849456787 -179.054763793945 25.482389450073
173.710739135742 -53.319488525391 -211.054687500000 71.668899536133
125.104324340820 -59.626712799072 -182.679870605469 18.456529617310
153.887863159180 -54.725372314453 -196.088302612305 48.684680938721
121.247886657715 -57.734790802002 -176.015151977539 16.087059020996
175.823226928711 -52.523200988770 -210.873275756836 73.775917053223
125.189826965332 -56.433135986328 -180.311965942383 20.234937667847
173.450759887695 -53.613365173340 -218.550292968750 73.887649536133
171.768737792969 -53.044734954834 -220.443481445313 73.317138671875
18.875925064087 -66.038894653320 -112.964721679688 16.534330368042
13.534276962280 -66.619720458984 -113.484329223633 20.812469482422
115.003364562988 -59.586521148682 -189.028335571289 13.393393516541
173.136947631836 -53.629566192627 -227.325241088867 77.265464782715
170.122299194336 -51.972591400146 -231.708251953125 76.833984375000
6.172430992126 -66.783317565918 -120.511108398438 23.626310348511
164.823883056641 -53.449108123779 -227.580596923828 70.093658447266
24.753423690796 -66.620971679688 -138.570312500000 1.868515729904
5.476473808289 -66.886398315430 -118.501770019531 25.522245407104
13.107104301453 -65.324684143066 -125.984901428223 14.743802070618
28.273105621338 -62.311786651611 -135.219741821289 2.612674236298
99.273826599121 -58.160247802734 -188.102142333984 12.904148101807
104.167678833008 -60.107131958008 -196.069290161133 10.844324111938
7.492375850677 -66.311332702637 -133.411941528320 14.109886169434
95.279670715332 -59.363800048828 -189.803527832031 12.582160949707
157.475875854492 -53.694164276123 -242.263412475586 70.694534301758
28.850776672363 -63.992969512939 -159.434982299805 4.945949554443
84.067657470703 -57.777687072754 -200.312088012695 16.983980178833
158.467697143555 -52.646274566650 -250.024795532227 75.619781494141
94.133300781250 -58.783237457275 -202.003524780273 11.309307098389
156.908294677734 -52.673225402832 -245.532653808594 72.100799560547
19.307085037231 -66.546974182129 -155.915084838867 3.734933137894
6.820816040039 -65.866142272949 -148.507019042969 5.496661663055
17.419683456421 -65.649253845215 -162.161697387695 5.378503322601
19.985818862915 -65.077041625977 -175.936233520508 3.269209623337
63.857761383057 -60.118236541748 -196.228485107422 30.962184906006
150.389892578125 -53.001926422119 -255.099060058594 72.040084838867
147.245529174805 -53.956691741943 -256.926574707031 70.257606506348
64.060264587402 -59.746498107910 -199.293945312500 29.015907287598
59.343639373779 -62.886035919189 -200.951248168945 30.166584014893
71.121055603027 -61.982109069824 -202.427688598633 21.635128021240
79.160133361816 -59.278602600098 -206.505813598633 15.733119010925
143.325973510742 -53.294151306152 -264.462371826172 71.877365112305
139.358978271484 -55.532882690430 -263.970825195313 68.046569824219
68.927040100098 -58.930122375488 -218.769317626953 14.841940879822
76.696571350098 -59.469791412354 -212.146667480469 14.322353363037
147.698654174805 -53.186939239502 -262.257202148438 73.826347351074
25.366914749146 -63.692371368408 -191.390274047852 6.441710472107
140.833419799805 -53.750965118408 -265.504913330078 70.535675048828
63.445468902588 -61.494586944580 -215.103973388672 18.551334381104
71.184082031250 -59.878276824951 -212.743896484375 16.483362197876
137.810195922852 -53.787857055664 -269.540008544922 70.789932250977
70.826499938965 -59.758575439453 -219.358413696289 13.045641899109
133.687057495117 -55.310962677002 -276.546325683594 71.921218872070
17.026603698730 -63.853717803955 -186.053970336914 4.090765953064
70.246002197266 -59.160396575928 -222.432464599609 12.161176681519
130.563568115234 -54.359142303467 -275.520111083984 69.224548339844
63.806705474854 -60.908176422119 -226.628021240234 11.330372810364
-83.829048156738 -72.604400634766 -130.096954345703 2.756711244583
16.639965057373 -62.834152221680 -202.265853881836 4.486742973328
62.948276519775 -60.233860015869 -230.144271850586 9.834393501282
-52.093994140625 -69.905387878418 -157.352935791016 3.426522731781
-49.436283111572 -69.392738342285 -156.659286499023 2.159354925156
57.134204864502 -60.795803070068 -232.568740844727 10.283454895020
52.381553649902 -61.973247528076 -224.160888671875 17.845636367798
17.560064315796 -64.223091125488 -204.680526733398 4.261471748352
14.689944267273 -65.334861755371 -201.769714355469 1.831143498421
20.091106414795 -63.937812805176 -201.249588012695 4.398655414581
59.508029937744 -60.506935119629 -222.076782226563 16.516096115112
-86.081207275391 -72.972419738770 -136.432632446289 4.227122306824
-80.277793884277 -72.743354797363 -140.713821411133 3.174440145493
-79.611961364746 -72.578819274902 -144.552947998047 3.400861501694
20.629550933838 -63.351455688477 -208.726196289063 6.663533210754
43.891616821289 -61.520153045654 -234.944458007813 13.142433166504
117.641876220703 -55.887825012207 -281.230773925781 63.972301483154
-58.556915283203 -70.557662963867 -161.422454833984 4.460111141205
51.248924255371 -61.442062377930 -240.089263916016 6.537226200104
20.665706634521 -63.499691009521 -215.438339233398 7.481013298035
18.743183135986 -62.508842468262 -216.981063842773 7.358532905579
115.760681152344 -55.436511993408 -284.692260742188 65.468780517578
40.343330383301 -61.795543670654 -234.548278808594 14.778279304504
17.921577453613 -62.822380065918 -212.737213134766 6.279678344727
-67.111434936523 -72.434143066406 -158.906356811523 1.262077808380
-77.695724487305 -71.410644531250 -154.380142211914 5.337115287781
-61.261123657227 -69.764549255371 -165.627609252930 3.221776723862
-84.622848510742 -72.974411010742 -149.805770874023 9.427020072937
49.991611480713 -60.808731079102 -237.112060546875 9.537889480591
108.458267211914 -55.634185791016 -287.487213134766 62.911743164063
-104.814857482910 -72.770019531250 -135.583404541016 12.655706405640
112.788955688477 -56.219463348389 -288.491973876953 66.245414733887
13.752962112427 -64.300361633301 -223.498474121094 4.709522247314
103.114830017090 -57.119979858398 -293.080505371094 63.722377777100
96.360588073730 -56.334613800049 -290.958221435547 58.348342895508
39.242454528809 -61.463928222656 -245.252349853516 7.293885707855
42.152732849121 -62.140899658203 -247.482696533203 4.423243045807
38.927169799805 -61.372364044189 -241.134918212891 10.684008598328
12.761092185974 -64.385421752930 -238.888885498047 2.286667108536
-54.206912994385 -69.070678710938 -187.292190551758 6.048494338989
19.051254272461 -63.821674346924 -235.511703491211 5.424201488495
98.990219116211 -55.959892272949 -292.536865234375 61.231781005859
-53.136512756348 -69.453208923340 -191.428192138672 6.256166934967
-62.249263763428 -70.624046325684 -185.417861938477 7.891781330109
-52.940345764160 -71.866447448730 -192.357116699219 4.492176055908
91.742568969727 -56.510456085205 -295.598358154297 59.407543182373
-90.828971862793 -71.998146057129 -171.664672851563 11.693436622620
-90.893783569336 -71.457160949707 -171.636138916016 11.423570632935
-76.522232055664 -70.540138244629 -181.660278320313 16.693824768066
-73.653221130371 -69.432502746582 -184.843902587891 16.604715347290
-91.235397338867 -73.029693603516 -172.542984008789 12.032654762268
-70.794532775879 -72.731086730957 -187.228164672852 14.282838821411
-75.210052490234 -72.112480163574 -185.590835571289 17.381120681763
13.059000968933 -63.997215270996 -245.828079223633 3.368581295013
5.892370223999 -64.325607299805 -237.554290771484 1.980108499527
14.122843742371 -63.468406677246 -253.494415283203 7.531766891479
8.950550079346 -63.306522369385 -244.731994628906 0.631411314011
26.551355361938 -62.384162902832 -263.718780517578 1.618688225746
3.275589942932 -64.206459045410 -242.375686645508 3.706670761108
-117.162208557129 -73.601364135742 -152.811492919922 16.818185806274
12.499169349670 -62.182216644287 -254.161712646484 6.671378135681
81.725181579590 -57.469856262207 -298.879058837891 56.829502105713
21.084587097168 -63.234054565430 -261.901794433594 5.418393611908
8.221156120300 -63.321258544922 -252.244277954102 6.166518688202
-116.029792785645 -73.030593872070 -169.152130126953 10.028368949890
-100.743309020996 -72.745033264160 -174.907577514648 5.971142768860
66.174194335938 -57.764068603516 -294.378112792969 43.321342468262
8.042877197266 -64.713760375977 -254.314193725586 5.914494991302
19.426506042480 -63.712482452393 -259.403839111328 6.047062873840
69.530319213867 -58.589168548584 -296.894317626953 47.414886474609
76.692558288574 -59.587142944336 -300.520172119141 55.329006195068
67.482666015625 -59.255935668945 -301.245452880859 47.375869750977
10.973638534546 -64.017082214355 -258.368072509766 6.175649166107
56.797107696533 -59.718067169189 -294.103057861328 35.036186218262
-4.295495033264 -65.380241394043 -249.732223510742 2.941111564636
-4.260459899902 -64.963111877441 -252.691726684570 2.112978696823
16.996421813965 -63.069644927979 -266.959320068359 7.872308254242
64.128952026367 -59.695930480957 -299.127929687500 43.598033905029
61.184608459473 -59.097404479980 -296.488891601563 39.762508392334
47.888641357422 -59.881195068359 -296.182891845703 28.216039657593
58.586818695068 -60.414382934570 -299.002014160156 38.768264770508
-8.949863433838 -65.431037902832 -260.860107421875 2.491685152054
-63.486858367920 -69.391204833984 -221.742324829102 14.188642501831
-59.203948974609 -68.438301086426 -226.665802001953 18.284324645996
41.359638214111 -61.521633148193 -294.349853515625 22.791473388672
-114.734100341797 -73.441452026367 -187.728408813477 5.476919174194
31.901092529297 -62.165210723877 -294.815979003906 15.867032051086
-71.304496765137 -70.095451354980 -218.274032592773 8.376439094543
-125.076141357422 -73.781494140625 -185.082000732422 10.773535728455
-113.712013244629 -73.311676025391 -192.554183959961 3.771741390228
42.217346191406 -61.409790039063 -299.268585205078 25.635381698608
-100.834472656250 -70.138092041016 -203.545166015625 9.624429702759
-93.636924743652 -70.539932250977 -208.205673217773 6.867666721344
-76.444633483887 -68.931083679199 -221.923950195313 9.491766929626
-10.086309432983 -65.060562133789 -264.509185791016 4.252536296844
25.102767944336 -62.104652404785 -294.631317138672 11.443124771118
18.670328140259 -61.697399139404 -292.150665283203 6.411341190338
-128.996536254883 -74.472129821777 -186.575820922852 9.384857177734
-96.522140502930 -73.761215209961 -213.580001831055 3.067872762680
-14.283916473389 -64.568702697754 -270.468780517578 5.106514930725
-113.428970336914 -73.747856140137 -204.263031005859 4.143475055695
-18.391258239746 -64.584060668945 -278.332855224609 9.005209922791
-145.890716552734 -75.069900512695 -193.456481933594 0.903217673302
-21.174741744995 -66.034919738770 -289.579193115234 5.658075332642
-149.939651489258 -75.177848815918 -207.191955566406 1.656587958336
-143.800476074219 -74.511634826660 -198.517303466797 1.964743375778
-132.749740600586 -74.093971252441 -216.048339843750 9.206749916077
-152.435165405273 -76.550308227539 -201.467910766602 1.446202874184
-5.935362815857 -63.829143524170 -307.096557617188 15.918926239014
-100.984367370605 -72.055191040039 -240.123443603516 12.992328643799
-87.380699157715 -70.557624816895 -249.867294311523 1.780269503593
-151.749237060547 -75.215789794922 -202.675857543945 1.963711380959
-91.502082824707 -69.856101989746 -247.911087036133 3.928569793701
-139.892242431641 -74.675155639648 -213.614196777344 6.353727817535
-77.332489013672 -68.989608764648 -259.002777099609 5.642836570740
-73.584159851074 -69.200653076172 -261.770263671875 9.128001213074
-85.224349975586 -69.655654907227 -255.698211669922 1.405628085136
-22.531873703003 -61.994979858398 -300.065765380859 14.437045097351
-88.100982666016 -70.677673339844 -254.318847656250 2.143337726593
-100.209266662598 -71.230094909668 -246.831390380859 7.324111461639
-112.715690612793 -73.174942016602 -238.615264892578 7.026101589203
-115.095756530762 -72.739974975586 -237.235137939453 5.479582786560
-130.470138549805 -71.888603210449 -227.968536376953 3.065941333771
-142.048431396484 -76.237518310547 -228.547988891602 1.352329134941
-148.075820922852 -76.658973693848 -236.838851928711 2.057549476624
157.960159301758 -56.973663330078 -91.988487243652 50.946189880371
163.307098388672 -55.167816162109 -97.024299621582 54.944183349609
160.782913208008 -56.575511932373 -97.040260314941 52.229503631592
170.676712036133 -55.703704833984 -108.127433776855 59.441188812256
151.778625488281 -57.139415740967 -106.263298034668 41.669078826904
59.225791931152 -61.314701080322 -60.948848724365 9.576021194458
184.561218261719 -50.839401245117 -169.006332397461 72.424690246582
96.446220397949 -61.073776245117 -112.369789123535 4.404702186584
188.390869140625 -49.960716247559 -181.246322631836 78.230308532715
184.069015502930 -54.553485870361 -182.688934326172 73.173263549805
159.712982177734 -56.299121856689 -168.350234985352 47.186874389648
155.259841918945 -55.579135894775 -172.092346191406 44.016929626465
63.549674987793 -64.323699951172 -107.205802917480 7.470914363861
150.129806518555 -54.620903015137 -169.521301269531 39.265689849854
19.738203048706 -66.194602966309 -81.280746459961 30.303865432739
56.060268402100 -61.580204010010 -106.122741699219 2.818492889404
50.988552093506 -69.103752136230 -108.179260253906 1.271733760834
173.497055053711 -54.704631805420 -200.255798339844 67.603538513184
140.797363281250 -57.311874389648 -175.957122802734 31.173038482666
147.447631835938 -54.410877227783 -176.234878540039 38.280204772949
12.971090316772 -64.100807189941 -87.784736633301 32.852199554443
180.544769287109 -52.266677856445 -205.390548706055 76.240272521973
129.379348754883 -55.881690979004 -172.293075561523 22.001571655273
173.469512939453 -52.621063232422 -202.492645263672 68.841529846191
173.936874389648 -52.251075744629 -212.005249023438 72.456619262695
171.160949707031 -52.838275909424 -210.796096801758 69.400917053223
148.464508056641 -54.190662384033 -191.504959106445 42.884830474854
159.705062866211 -54.774574279785 -200.911331176758 55.376270294189
124.472473144531 -58.179492950439 -184.413009643555 19.377929687500
177.698059082031 -53.365131378174 -214.986114501953 76.508728027344
122.352630615234 -56.246677398682 -177.942184448242 18.120344161987
125.486083984375 -54.752422332764 -172.518203735352 20.434946060181
175.772171020508 -51.663627624512 -219.194076538086 76.713203430176
19.788326263428 -65.148345947266 -110.241043090820 17.443286895752
121.235298156738 -56.811527252197 -184.365661621094 18.296672821045
112.955207824707 -57.098258972168 -179.162612915039 13.652726173401
170.426208496094 -51.319427490234 -214.441055297852 70.364730834961
118.338233947754 -54.741569519043 -180.378448486328 17.732362747192
8.630634307861 -65.216445922852 -108.054138183594 27.507188796997
3.043826103210 -65.971145629883 -104.182502746582 33.860206604004
167.427581787109 -51.871376037598 -222.873336791992 71.000679016113
2.928466081619 -68.417037963867 -107.426879882813 32.204383850098
109.026412963867 -56.433403015137 -186.531738281250 13.909864425659
110.699234008789 -56.259426116943 -183.028839111328 13.881494522095
10.059027671814 -64.700920104980 -120.416404724121 20.563064575195
95.194183349609 -57.104843139648 -193.789505004883 14.115666389465
161.529418945313 -53.840869903564 -234.671539306641 70.411209106445
