-70.611007690430 -65.722427368164 -93.150436401367 4.152398109436
15.098510742188 -77.949798583984 -170.415679931641 2.882686614990
-161.293243408203 -62.911457061768 -262.870788574219 5.794947147369
-151.035140991211 -71.936988830566 -259.146057128906 1.788999676704
90.385696411133 -80.102714538574 -92.321594238281 3.419075727463
71.344848632813 -74.242080688477 -222.971191406250 5.806450843811
-15.671257972717 -77.779373168945 -262.511413574219 2.193137407303
-13.451782226563 -77.417053222656 -273.788818359375 2.671203374863
-4.580575942993 -65.513610839844 -258.722900390625 2.228401660919
-91.848396301270 -70.473213195801 -210.397323608398 4.921476840973
-79.836364746094 -63.299030303955 -51.760913848877 4.236911773682
88.714996337891 -89.259864807129 -75.206604003906 12.360445976257
85.353454589844 -79.266296386719 -81.001708984375 1.827994346619
14.023916244507 -78.387687683105 -282.934204101563 2.188424110413
73.189712524414 -73.222892761230 -73.204620361328 2.256063699722
-38.487541198730 -78.630805969238 -59.592876434326 2.208105087280
-70.743309020996 -82.140907287598 -68.147354125977 2.485875606537
-35.532550811768 -70.929618835449 -63.663146972656 6.171349048615
-79.950164794922 -80.499610900879 -68.294418334961 1.944381117821
79.255386352539 -77.583686828613 -226.293426513672 0.921806752682
-78.346870422363 -76.385269165039 -65.582450866699 1.237723350525
-29.116399765015 -83.267585754395 -66.617973327637 4.854744911194
-6.342646121979 -67.938056945801 -228.996246337891 1.263587236404
-29.763002395630 -78.244293212891 -72.539497375488 1.613367199898
-0.082783997059 -68.893585205078 -229.602783203125 1.978001832962
-82.060325622559 -72.975387573242 -210.298446655273 2.028252124786
-52.381782531738 -79.667739868164 -91.299835205078 1.354977726936
-62.524261474609 -75.686347961426 -91.342010498047 3.074841022491
54.874858856201 -78.152359008789 -104.760803222656 2.934502363205
103.678321838379 -74.651962280273 -173.300918579102 2.618411302567
-128.178070068359 -70.426895141602 -265.161956787109 2.060521841049
52.679145812988 -80.827911376953 -106.665519714355 2.601973056793
-107.412757873535 -68.133666992188 -254.255584716797 0.808926105499
-163.419052124023 -66.202568054199 -305.470428466797 9.100503921509
-40.053596496582 -73.107521057129 -51.324214935303 2.360560417175
51.645301818848 -81.056571960449 -108.715553283691 4.210195541382
-88.551185607910 -77.202278137207 -111.876594543457 0.878730714321
47.575061798096 -84.967895507813 -116.355880737305 5.610474586487
-35.577236175537 -71.616706848145 -75.862709045410 1.274567365646
-136.436065673828 -61.798473358154 -256.425598144531 4.175045013428
28.718399047852 -70.727851867676 -141.571701049805 1.518339157104
23.238136291504 -72.979568481445 -135.028915405273 3.898765087128
-169.143737792969 -66.523521423340 -212.913452148438 4.578571796417
-23.548776626587 -76.763404846191 -61.729347229004 1.016824483871
33.779357910156 -78.447227478027 -123.242164611816 1.766948103905
-23.886661529541 -69.891143798828 -67.566368103027 5.083929538727
8.831627845764 -73.733375549316 -231.307174682617 1.646047711372
26.986408233643 -79.414474487305 -125.592063903809 3.382490634918
-154.571029663086 -67.978065490723 -200.775131225586 0.816004335880
-28.784761428833 -68.391899108887 -74.303787231445 0.996288955212
-157.729019165039 -61.546871185303 -198.310638427734 3.054329395294
-80.561340332031 -69.579696655273 -130.632385253906 2.058584928513
37.889850616455 -75.226615905762 -130.804763793945 1.375547170639
-95.984214782715 -69.647857666016 -149.222640991211 1.598132133484
-13.524499893188 -69.220619201660 -51.016277313232 6.595978736877
-153.523971557617 -68.331733703613 -188.718017578125 1.344064116478
-49.403030395508 -74.203392028809 -285.256805419922 1.258209466934
-143.908721923828 -64.029006958008 -184.613632202148 3.343374252319
13.502722740173 -69.530700683594 -245.161071777344 1.197194457054
30.764385223389 -87.768730163574 -141.021240234375 7.362601757050
38.128036499023 -81.614463806152 -130.826477050781 3.879409551620
-24.563497543335 -76.669914245605 -75.655815124512 0.426409035921
-157.551895141602 -74.422508239746 -191.334930419922 4.576018333435
-158.197418212891 -58.015026092529 -195.639053344727 6.103766441345
34.374473571777 -82.242752075195 -146.018646240234 3.423043489456
-30.636169433594 -77.113090515137 -214.599975585938 1.597724080086
-49.809848785400 -78.086967468262 -142.890975952148 1.478270411491
33.277297973633 -79.016052246094 -150.969833374023 2.066415548325
-94.783187866211 -67.656669616699 -251.073104858398 2.617759466171
39.107521057129 -69.084747314453 -257.958709716797 1.801839828491
-57.489284515381 -77.653976440430 -149.760177612305 3.193083286285
-40.576553344727 -76.303779602051 -159.342514038086 1.335696458817
-46.931632995605 -83.078659057617 -150.917922973633 3.836894750595
-49.083103179932 -74.257339477539 -157.283859252930 2.144272327423
-14.937181472778 -78.352684020996 -196.232208251953 3.072441577911
33.203479766846 -78.261878967285 -154.463180541992 1.902426362038
-169.468978881836 -67.051834106445 -238.613586425781 3.260447025299
30.444234848022 -83.315002441406 -153.271545410156 3.111999988556
-38.379371643066 -82.678642272949 -150.030273437500 4.530620574951
-25.756357192993 -70.015724182129 -195.663604736328 1.107270479202
-46.123786926270 -68.345336914063 -41.940624237061 4.872982978821
19.019041061401 -58.546470642090 -250.548339843750 1.985702037811
-48.205730438232 -77.071990966797 -152.929260253906 1.974067926407
-28.671298980713 -76.927406311035 -208.603759765625 1.748916149139
-50.298362731934 -60.087871551514 -45.760593414307 1.264775395393
3.331394910812 -76.837844848633 -247.290786743164 2.767049312592
-3.044661045074 -76.693367004395 -222.978286743164 2.213736534119
-69.588981628418 -79.379974365234 -155.001663208008 2.203646898270
-13.605922698975 -74.356025695801 -211.096496582031 3.139630079269
15.058883666992 -78.174484252930 -243.838806152344 4.104567050934
-34.876071929932 -83.554237365723 -192.270462036133 1.612956166267
-55.895774841309 -74.815872192383 -150.675598144531 2.235379695892
-45.681457519531 -76.622093200684 -161.040405273438 2.306570291519
-23.550043106079 -79.887832641602 -190.295532226563 1.316191077232
-92.088775634766 -66.325805664063 -256.811553955078 0.988826572895
12.842578887939 -77.208473205566 -226.004074096680 2.145828485489
89.373191833496 -88.894340515137 -88.672935485840 10.204982757568
96.840423583984 -82.425590515137 -90.726509094238 6.151304244995
-4.767621040344 -81.905410766602 -167.734512329102 1.132623314857
-3.900036096573 -81.751518249512 -167.086059570313 1.915313482285
-45.979068756104 -78.235885620117 -164.601486206055 0.359811425209
-28.231094360352 -74.897628784180 -182.407867431641 3.233263969421
35.010925292969 -77.641349792480 -131.481292724609 1.167315721512
-54.265445709229 -78.747871398926 -185.879653930664 1.734693884850
-45.755287170410 -74.304931640625 -201.738998413086 2.161905765533
-29.701814651489 -77.545135498047 -169.856338500977 1.540436387062
-34.167358398438 -81.002906799316 -169.817718505859 2.550750970840
-26.267734527588 -76.541038513184 -181.345443725586 1.736879467964
25.373220443726 -87.627166748047 -183.283905029297 8.044465065002
19.184902191162 -80.820114135742 -175.878189086914 2.736757755280
-155.681686401367 -74.009346008301 -298.523376464844 2.950883626938
-158.177566528320 -71.050369262695 -292.582855224609 1.988872885704
-30.206426620483 -77.375480651855 -172.835891723633 2.732542276382
-47.476203918457 -77.599998474121 -193.792907714844 1.831208825111
-46.746212005615 -81.735137939453 -195.006271362305 0.502502202988
-68.607696533203 -76.234458923340 -208.778350830078 1.536997199059
34.817928314209 -80.672348022461 -113.424057006836 4.647261142731
-70.528404235840 -78.879684448242 -212.110137939453 1.184965372086
50.347522735596 -84.823326110840 -103.077835083008 6.506379604340
44.128620147705 -78.252136230469 -102.499786376953 1.825792670250
-41.077514648438 -78.096557617188 -179.101211547852 4.015174865723
-164.716751098633 -63.489955902100 -299.490539550781 10.742342948914
-157.797348022461 -61.717369079590 -288.475952148438 2.811217784882
-151.562149047852 -60.265464782715 -302.569763183594 5.418392658234
-163.014328002930 -57.513359069824 -287.221282958984 9.054048538208
-57.867107391357 -78.567680358887 -171.651992797852 1.002230644226
31.308212280273 -67.844146728516 -259.816040039063 1.486240863800
31.729534149170 -71.185897827148 -132.565780639648 1.343470215797
-9.699176788330 -72.269500732422 -174.326309204102 3.812710285187
-11.808650970459 -78.622406005859 -174.504959106445 1.939206480980
86.059524536133 -81.137786865234 -72.134231567383 6.703872203827
-167.124252319336 -65.061203002930 -290.783569335938 6.628878116608
-152.188735961914 -69.212837219238 -277.988037109375 1.990784049034
-154.554901123047 -76.431823730469 -299.668548583984 1.212793946266
-40.527645111084 -77.620445251465 -173.754745483398 0.927064776421
-35.398998260498 -80.438415527344 -180.152328491211 3.041696786880
-137.202453613281 -71.326942443848 -289.448730468750 2.995361804962
-156.569473266602 -73.485855102539 -286.038635253906 2.978030681610
-166.846572875977 -60.824478149414 -298.016021728516 12.229942321777
-133.784912109375 -65.270446777344 -255.284164428711 0.866398394108
-156.831695556641 -58.117527008057 -285.786560058594 5.399700164795
-47.129398345947 -76.397293090820 -173.452941894531 5.348067283630
-3.112688064575 -77.219230651855 -236.554397583008 1.861377120018
-51.645214080811 -76.470451354980 -186.209533691406 0.976096034050
24.683017730713 -77.286430358887 -177.197891235352 0.714448094368
-57.239303588867 -77.711196899414 -175.620574951172 0.588086545467
-4.742294788361 -80.209037780762 -237.197692871094 4.515055179596
-35.672035217285 -74.051383972168 -197.430206298828 3.556136608124
33.556446075439 -76.326835632324 -125.820152282715 0.694579482079
-75.431526184082 -81.671478271484 -144.091018676758 6.819061279297
-33.393074035645 -72.137947082520 -182.941772460938 2.413927078247
-42.258605957031 -78.550659179688 -176.565536499023 3.818162918091
-30.168954849243 -82.362174987793 -182.623840332031 2.488444328308
-40.382652282715 -74.227760314941 -167.273147583008 2.482043981552
-90.070320129395 -67.572006225586 -126.491516113281 2.626331567764
-48.505657196045 -77.205665588379 -53.641792297363 1.645753741264
-39.053886413574 -70.870170593262 -203.896362304688 2.460031747818
-62.355079650879 -77.542198181152 -181.379959106445 3.856080293655
-2.416496992111 -65.305709838867 -234.062179565430 2.292880535126
-92.864494323730 -64.468658447266 -139.864456176758 1.840400099754
-34.369514465332 -81.679374694824 -182.181350708008 3.053755283356
-39.361572265625 -80.167358398438 -178.840744018555 3.881548881531
-27.788055419922 -73.594810485840 -187.716217041016 2.072012186050
-33.143466949463 -78.367095947266 -184.036773681641 1.493103265762
-64.119323730469 -74.097053527832 -156.620895385742 1.369511723518
-11.381185531616 -74.255172729492 -211.853576660156 3.305835008621
-24.259374618530 -81.732040405273 -195.429168701172 2.316031455994
107.051391601563 -74.088394165039 -108.915321350098 1.096234560013
38.781799316406 -74.335945129395 -41.569690704346 2.567591905594
5.934360980988 -72.361885070801 -203.398071289063 2.540312290192
12.812382698059 -78.189727783203 -196.848724365234 1.000526905060
-88.478141784668 -63.788570404053 -121.627593994141 2.311522483826
-74.163574218750 -69.769706726074 -280.927185058594 5.059406757355
-129.087951660156 -73.683914184570 -228.314224243164 2.379668235779
-159.508346557617 -73.323547363281 -189.855072021484 5.452188968658
-159.984176635742 -62.472831726074 -191.930816650391 5.710834980011
-18.341361999512 -72.866584777832 -228.845245361328 1.013423323631
19.510639190674 -75.512275695801 -195.010070800781 2.624180316925
-36.887371063232 -80.840240478516 -242.557159423828 1.641504764557
-120.736145019531 -67.118827819824 -199.569671630859 2.910512685776
-73.415504455566 -77.059242248535 -290.257354736328 3.259052515030
-151.389541625977 -67.628837585449 -220.877197265625 2.183458566666
-50.485591888428 -75.953018188477 -135.340988159180 2.147795677185
10.361593246460 -79.023948669434 -209.782714843750 2.576717138290
16.845668792725 -77.500419616699 -202.107360839844 1.434470772743
-154.515625000000 -76.759719848633 -200.484375000000 2.087691307068
-159.128250122070 -61.845584869385 -202.430892944336 4.483889579773
12.722134590149 -72.321784973145 -231.262008666992 2.085214138031
-49.588981628418 -72.374633789063 -163.593658447266 2.301717042923
-27.824304580688 -75.704605102539 -201.271148681641 2.804744720459
-20.803079605103 -72.220222473145 -194.519302368164 2.893242120743
-30.504587173462 -64.929679870605 -188.821578979492 4.128319263458
-127.889472961426 -75.518318176270 -229.673873901367 1.263896107674
-128.699050903320 -63.496768951416 -230.821716308594 3.047096490860
-115.931228637695 -69.763999938965 -221.339340209961 4.062334537506
-73.650329589844 -66.720024108887 -129.899002075195 1.844225049019
-13.161799430847 -84.590713500977 -208.887435913086 3.649801731110
-69.541336059570 -75.623741149902 -151.484237670898 1.504032731056
-18.287725448608 -81.716880798340 -209.607482910156 4.000144481659
14.398665428162 -77.664230346680 -240.550109863281 2.368680000305
-126.320472717285 -71.037147521973 -198.430526733398 3.740016937256
-152.315704345703 -67.520019531250 -224.059097290039 1.661947369576
-149.469879150391 -60.700695037842 -223.035156250000 0.751641809940
14.564519882202 -73.564468383789 -209.174057006836 3.196349143982
-118.025001525879 -68.119308471680 -189.855987548828 4.175199985504
2.103033065796 -76.861968994141 -209.640960693359 4.540981769562
-30.045860290527 -78.676361083984 -238.184158325195 1.877220153809
-7.419466018677 -75.453308105469 -229.802780151367 1.819840788841
33.288272857666 -76.102416992188 -163.632781982422 1.846557855606
16.211654663086 -77.717643737793 -204.980255126953 1.810009837151
-36.891265869141 -73.283042907715 -214.133834838867 4.122268199921
-66.318687438965 -80.785346984863 -166.781082153320 2.975912570953
13.064433097839 -80.137245178223 -215.864288330078 1.132130026817
-162.657135009766 -68.367675781250 -222.675888061523 2.286614179611
-124.628982543945 -68.405364990234 -196.877990722656 2.338710546494
-6.353117942810 -78.507331848145 -219.300186157227 1.161201596260
-74.226547241211 -77.620468139648 -152.021850585938 3.556005239487
-152.540695190430 -73.211349487305 -234.193344116211 1.235653877258
-131.543487548828 -67.930313110352 -194.612167358398 1.506161093712
-127.704284667969 -68.998939514160 -193.071517944336 1.423315405846
-8.797268867493 -85.641838073730 -219.402801513672 5.234218597412
-157.508605957031 -70.047470092773 -225.697753906250 1.933097720146
-73.557960510254 -77.612770080566 -150.650466918945 2.851294040680
-162.625701904297 -67.714546203613 -222.590408325195 2.218579292297
-121.303596496582 -58.232414245605 -188.593872070313 9.174350738525
-32.990940093994 -75.111572265625 -213.884307861328 0.857241272926
-21.469085693359 -74.309509277344 -219.328903198242 1.104828596115
-72.958473205566 -71.324943542480 -153.148361206055 2.735008478165
-15.138904571533 -79.396125793457 -218.232025146484 2.650961875916
20.316509246826 -79.908012390137 -186.105926513672 2.202117681503
-17.133325576782 -76.698814392090 -216.779037475586 2.152968406677
-80.445045471191 -72.274513244629 -280.090362548828 6.482395172119
-140.057159423828 -71.123413085938 -222.548614501953 2.344347715378
-109.211776733398 -66.354133605957 -200.232971191406 1.886433243752
14.659635543823 -78.530738830566 -188.949844360352 1.563115358353
-18.056827545166 -73.938743591309 -218.195739746094 1.784313678741
-10.779125213623 -77.354804992676 -218.886215209961 2.233557701111
16.469074249268 -77.263313293457 -246.373443603516 2.373301267624
-31.378459930420 -81.888969421387 -61.964385986328 6.269588470459
-168.804565429688 -64.586875915527 -201.201629638672 2.909782409668
-0.682718992233 -85.406204223633 -224.645904541016 5.612315177917
-25.850591659546 -74.693962097168 -242.511535644531 1.774715065956
-7.445933818817 -76.072563171387 -230.670959472656 1.059421062469
37.931045532227 -71.016654968262 -13.129936218262 1.925827026367
-53.542667388916 -64.719978332520 -120.924652099609 1.741452217102
-2.271723985672 -71.901809692383 -239.801498413086 1.053689837456
-15.812270164490 -78.342689514160 -69.763763427734 4.578606128693
-45.940166473389 -74.992820739746 -290.998687744141 0.742246985435
-156.813735961914 -69.128456115723 -198.949493408203 3.195296764374
-28.508707046509 -78.886566162109 -80.301086425781 2.237724781036
-154.464050292969 -61.816322326660 -201.605041503906 1.897092938423
-147.539611816406 -56.387359619141 -204.977355957031 3.241108894348
20.534971237183 -77.656303405762 -231.002593994141 3.115407943726
-146.857757568359 -67.187835693359 -230.608963012695 1.491724133492
-91.592697143555 -66.458457946777 -285.232513427734 4.771625041962
-148.397445678711 -63.607730865479 -228.579849243164 0.803107976913
-154.200485229492 -61.786838531494 -229.494964599609 0.326876103878
-162.645767211914 -66.029594421387 -216.468856811523 1.662981629372
-11.361875534058 -76.033981323242 -231.832351684570 0.980712473392
-74.276298522949 -65.458862304688 -117.983474731445 1.274685621262
-136.796234130859 -63.673057556152 -220.255172729492 6.741221904755
-6.992823123932 -80.696540832520 -240.581573486328 6.877737998962
-145.795394897461 -70.671600341797 -240.339096069336 1.441991925240
7.003750801086 -78.030532836914 -207.296600341797 1.325884342194
-23.117738723755 -78.630828857422 -236.201293945313 2.749312877655
1.600684046745 -79.850013732910 -217.182434082031 4.521840572357
-54.114383697510 -77.864288330078 -247.252746582031 1.555559396744
-52.195133209229 -82.789550781250 -243.495513916016 2.899967193604
-156.787124633789 -75.473686218262 -246.927459716797 3.094172239304
-160.932006835938 -67.599990844727 -241.858581542969 0.783161103725
-112.759574890137 -65.281036376953 -188.706222534180 1.650047302246
-159.004898071289 -70.525588989258 -265.542541503906 1.870262861252
-163.764221191406 -61.202228546143 -263.132476806641 6.812455177307
-78.918312072754 -74.968322753906 -58.451847076416 2.760033130646
79.417694091797 -81.107116699219 -227.941589355469 4.287196159363
-62.372962951660 -72.220314025879 -91.657638549805 1.821672677994
17.778673171997 -77.040794372559 -154.678405761719 3.896436214447
-134.732116699219 -74.595558166504 -290.993194580078 1.041511774063
-158.925872802734 -69.336006164551 -263.710601806641 1.960289835930
-151.931427001953 -72.525344848633 -270.107696533203 2.335053682327
-161.380325317383 -63.101173400879 -267.062591552734 4.986741065979
-113.947822570801 -65.311950683594 -288.308746337891 2.847366094589
24.787073135376 -72.252395629883 -150.516983032227 1.843473076820
-154.715377807617 -59.429641723633 -252.737167358398 3.091046571732
72.915763854980 -68.828346252441 -235.334243774414 1.812770009041
22.712558746338 -68.483177185059 -24.870630264282 2.320109605789
-14.715819358826 -64.378456115723 -257.743194580078 4.083134651184
-14.528334617615 -78.552993774414 -277.150390625000 3.912827968597
-11.757494926453 -76.678497314453 -280.793792724609 4.860179901123
-0.946650028229 -81.783287048340 -283.679290771484 3.472979545593
-70.523498535156 -68.561538696289 -109.366302490234 2.465469598770
-170.493499755859 -67.566421508789 -284.334503173828 3.891372442245
-161.364120483398 -74.744529724121 -283.020416259766 3.379766225815
-149.774734497070 -72.043754577637 -302.107299804688 3.582181692123
-117.810699462891 -67.096557617188 -251.841201782227 4.552399635315
-118.994049072266 -70.299682617188 -257.788116455078 2.809566020966
97.994094848633 -77.585800170898 -202.279968261719 1.505375385284
-30.032064437866 -77.016166687012 -283.882568359375 3.102896928787
-27.658779144287 -74.102249145508 -288.502960205078 2.175280094147
5.986814022064 -66.299217224121 -271.435943603516 5.334906101227
-42.938556671143 -75.942657470703 -291.379943847656 1.018792390823
-37.145454406738 -77.976631164551 -289.832672119141 1.132717728615
114.776992797852 -74.344810485840 -160.699081420898 1.261434674263
-14.932501792908 -75.091674804688 -286.824920654297 2.078759908676
-23.628604888916 -72.839393615723 -288.625030517578 2.057764053345
9.248129844666 -75.096290588379 -295.029266357422 3.232062101364
-103.944496154785 -72.771690368652 -220.072723388672 0.601039171219
-48.258892059326 -79.511100769043 -60.991203308105 2.899035215378
11.321439743042 -74.552101135254 -279.652862548828 3.042536020279
-64.243576049805 -77.735351562500 -59.335884094238 1.538535833359
108.268707275391 -79.989562988281 -163.987380981445 3.668157100677
-7.703118801117 -72.085762023926 -281.128936767578 1.069721579552
-51.436161041260 -75.223564147949 -54.701248168945 2.153839826584
-10.810074806213 -74.995079040527 -286.414154052734 0.733121097088
18.818157196045 -62.668361663818 -267.946929931641 6.293145179749
-39.113132476807 -87.078544616699 -63.891326904297 7.937898635864
92.735916137695 -81.459304809570 -199.961227416992 6.408318042755
-79.643943786621 -72.137886047363 -99.682891845703 1.931940078735
-165.849792480469 -63.444934844971 -286.383026123047 5.999479770660
-153.372711181641 -70.384071350098 -297.702972412109 1.340534210205
72.612327575684 -79.671913146973 -235.518463134766 4.962758064270
-85.867332458496 -80.033790588379 -66.459930419922 5.802429676056
-19.427358627319 -64.945899963379 -252.699203491211 6.327394962311
66.628982543945 -72.604698181152 -105.080863952637 6.789049148560
-13.768107414246 -66.203506469727 -57.284484863281 2.407808542252
-21.436429977417 -74.264884948730 -58.403762817383 2.404265403748
-20.321447372437 -81.399642944336 -72.188415527344 5.056180953979
-22.511480331421 -79.768562316895 -75.826072692871 3.683530092239
15.312315940857 -78.395050048828 -250.487091064453 2.051074981689
108.911567687988 -70.742218017578 -194.139770507813 3.189732074738
34.132369995117 -73.344978332520 -43.276241302490 2.605455398560
104.394889831543 -77.151321411133 -111.723266601563 3.583092212677
-58.291404724121 -71.037605285645 -137.234985351563 0.954227626324
6.181597232819 -72.941665649414 -204.785202026367 1.355566978455
-36.010890960693 -79.216201782227 -81.306495666504 1.648914694786
-93.413360595703 -71.217384338379 -214.461608886719 1.026850700378
84.588623046875 -85.423995971680 -82.486442565918 7.371232986450
100.681640625000 -71.663337707520 -102.206275939941 1.883596777916
-10.221082687378 -66.419837951660 -273.602752685547 4.361195087433
-123.380104064941 -71.371017456055 -286.747802734375 1.584291219711
-146.013717651367 -71.291976928711 -260.586608886719 2.539740085602
-91.402351379395 -67.706138610840 -57.729747772217 2.954170465469
80.012626647949 -84.700057983398 -87.830139160156 6.374900341034
78.683280944824 -84.338508605957 -92.991241455078 5.728457927704
67.596290588379 -76.266181945801 -96.305725097656 3.910733699799
-42.993114471436 -78.733810424805 -84.068801879883 1.243648529053
76.233016967773 -82.020133972168 -89.895950317383 5.282369613647
-21.869375228882 -78.701950073242 -268.902374267578 8.605064392090
7.655282974243 -77.965400695801 -293.128173828125 2.212918996811
85.761291503906 -81.233451843262 -93.215255737305 3.938798189163
-59.357185363770 -64.543548583984 -86.061584472656 1.651705384254
78.650375366211 -85.115089416504 -88.409690856934 7.311828613281
73.569183349609 -82.432403564453 -87.118019104004 6.741170406342
-95.174003601074 -67.861991882324 -58.763191223145 4.584616661072
31.437297821045 -66.173141479492 -44.393131256104 2.553489446640
88.541206359863 -86.615890502930 -92.783309936523 8.379080772400
77.139762878418 -79.492523193359 -98.351882934570 4.210039615631
-10.298976898193 -73.275337219238 -274.998809814453 3.190556287766
-88.124313354492 -73.013549804688 -58.601116180420 2.835923433304
-64.275192260742 -78.836418151855 -93.748970031738 0.888266026974
46.186222076416 -82.525329589844 -108.860237121582 4.120215892792
87.759445190430 -82.453056335449 -74.444961547852 6.445595264435
-50.441844940186 -74.495429992676 -138.944976806641 1.286339879036
8.666530609131 -75.300392150879 -209.759460449219 2.181387424469
-48.960147857666 -77.347122192383 -149.547317504883 1.106657862663
-172.983856201172 -62.847541809082 -235.525207519531 8.029058456421
-139.062057495117 -62.591125488281 -200.487045288086 2.131941318512
-100.286132812500 -61.097557067871 -252.336105346680 5.458050727844
-165.715881347656 -65.389785766602 -194.126586914063 5.664319515228
-42.275581359863 -81.428169250488 -149.239227294922 2.966701745987
49.255378723145 -67.113746643066 -114.056915283203 3.799756288528
-62.893295288086 -70.818000793457 -162.751327514648 2.163706302643
-20.041366577148 -78.415664672852 -208.177947998047 3.230581998825
-122.793823242188 -71.348419189453 -226.923248291016 1.823437690735
-126.816520690918 -65.768890380859 -231.663177490234 1.365646004677
-68.717208862305 -73.541267395020 -153.879486083984 0.695366442204
18.197755813599 -77.702888488770 -154.106994628906 4.213584423065
-72.172859191895 -79.718574523926 -161.743667602539 4.100214958191
-20.384096145630 -74.271949768066 -210.936492919922 1.131517887115
-13.784544944763 -79.757949829102 -203.950057983398 2.246454238892
108.396865844727 -76.991859436035 -170.681488037109 0.665899634361
-56.492073059082 -75.600570678711 -168.994277954102 2.801714897156
-26.783693313599 -77.298271179199 -202.111114501953 3.318018198013
3.755111932755 -70.714202880859 -229.267089843750 1.337942600250
-82.975311279297 -64.630805969238 -130.815872192383 1.978899598122
107.173240661621 -81.286537170410 -179.326644897461 4.821877479553
-72.748847961426 -74.304191589355 -166.127441406250 5.449366092682
108.571998596191 -81.306144714355 -174.566558837891 4.492031574249
-19.236402511597 -75.665565490723 -175.538024902344 2.323965072632
-31.839439392090 -72.268753051758 -162.295318603516 1.405092597008
110.709617614746 -79.971527099609 -188.200622558594 3.684882640839
17.332925796509 -79.592468261719 -190.983489990234 1.614297747612
11.054515838623 -81.932998657227 -197.482376098633 4.250098228455
-52.098182678223 -73.672645568848 -289.815429687500 2.375410795212
-147.113403320313 -69.969604492188 -191.512939453125 2.769774436951
7.204498767853 -62.985385894775 -241.654617309570 1.900809645653
-26.376136779785 -70.126754760742 -76.144699096680 2.369351863861
-27.318981170654 -73.558296203613 -69.763877868652 2.975433826447
-71.509826660156 -72.842269897461 -116.503570556641 7.097205638885
103.726356506348 -76.687705993652 -197.522445678711 1.997500419617
-150.952072143555 -65.122390747070 -212.666412353516 2.168694019318
-139.735153198242 -72.972084045410 -197.923492431641 2.752219676971
-156.526641845703 -60.385272979736 -209.103912353516 6.077674865723
-125.829048156738 -57.821590423584 -223.677429199219 7.492253780365
-149.186706542969 -52.843940734863 -211.181777954102 7.778002738953
42.059169769287 -67.415367126465 -117.650825500488 2.616439104080
-111.495407104492 -64.390579223633 -261.647796630859 2.282882213593
-89.167396545410 -65.550621032715 -116.531173706055 0.878090023994
59.357566833496 -73.460334777832 -246.050476074219 2.564112901688
-53.378162384033 -80.529136657715 -197.886459350586 2.899389266968
5.940470218658 -74.370689392090 -202.022720336914 2.813807725906
-105.821807861328 -63.766471862793 -170.893920898438 1.295237183571
19.648015975952 -76.752021789551 -194.189010620117 2.983908176422
47.024269104004 -71.144691467285 -24.988063812256 1.525704026222
-102.886154174805 -61.033050537109 -161.205841064453 1.608644008636
-14.829649925232 -77.587409973145 -197.297988891602 2.187659025192
3.960721969604 -76.470771789551 -226.109771728516 2.710186958313
-22.258039474487 -81.027740478516 -202.681289672852 2.426620244980
-134.372406005859 -67.238296508789 -199.065444946289 2.923559665680
-125.537193298340 -66.265808105469 -203.241744995117 2.277402877808
14.577194213867 -79.223808288574 -204.539245605469 1.295889496803
92.648567199707 -80.314300537109 -206.029190063477 3.794836997986
100.727806091309 -83.821960449219 -212.449234008789 9.597714424133
-73.563751220703 -79.579208374023 -201.678176879883 5.819128513336
-60.931106567383 -74.865592956543 -157.238189697266 3.389422178268
-18.679828643799 -78.233642578125 -208.066970825195 2.065911769867
-154.988372802734 -68.506523132324 -228.493865966797 1.694115400314
-79.987968444824 -76.675613403320 -288.627197265625 1.606258153915
-146.724639892578 -72.078887939453 -210.772766113281 1.661328911781
48.488777160645 -67.022232055664 -45.811119079590 7.859738826752
-30.106782913208 -76.085334777832 -216.903945922852 1.694343090057
-75.803718566895 -74.266349792480 -141.976226806641 2.896522521973
-2.187376022339 -72.164382934570 -220.797988891602 1.120152235031
-8.878129959106 -63.444805145264 -235.557281494141 2.393626213074
7.055284976959 -76.437858581543 -224.905807495117 1.801388621330
-41.959663391113 -76.077590942383 -242.162536621094 2.022642850876
-25.935966491699 -77.677574157715 -224.134002685547 2.493901252747
15.784656524658 -64.534744262695 -203.751190185547 4.298301219940
-60.563449859619 -68.072364807129 -127.596710205078 2.531564950943
-152.909759521484 -77.380844116211 -226.812469482422 1.923895239830
-162.664398193359 -62.299720764160 -220.350814819336 4.960266113281
-145.352569580078 -73.175186157227 -228.026275634766 1.369360923767
-134.101119995117 -60.689685821533 -196.809341430664 2.673240184784
-9.473933219910 -73.376586914063 -235.444458007813 2.303364753723
-10.854936599731 -69.495086669922 -233.035018920898 0.731706857681
-151.603622436523 -73.972877502441 -232.158248901367 2.688889980316
-103.992385864258 -64.093933105469 -185.197311401367 3.415021657944
-161.328506469727 -62.798542022705 -235.522689819336 4.260245323181
-72.670318603516 -68.897323608398 -288.520080566406 2.540201187134
-57.837043762207 -75.317863464355 -244.156875610352 2.582202911377
-81.238571166992 -71.691604614258 -138.821151733398 3.279672384262
-4.306469917297 -82.335403442383 -246.149520874023 4.818434238434
105.150054931641 -78.325149536133 -158.150253295898 4.628593444824
16.373758316040 -75.986160278320 -255.961929321289 3.282620668411
106.692153930664 -73.004981994629 -153.666152954102 4.447549343109
-50.120841979980 -79.892730712891 -52.513175964355 4.923392772675
-91.658561706543 -77.767814636230 -94.150367736816 2.696079730988
16.066085815430 -75.606918334961 -269.723999023438 4.581995487213
10.797355651855 -72.348953247070 -271.821502685547 8.719988822937
-88.466125488281 -73.262611389160 -253.126480102539 1.553592920303
-46.610134124756 -74.941108703613 -284.592163085938 2.260911703110
-76.551467895508 -73.847190856934 -245.965713500977 1.404972195625
-119.049079895020 -61.660125732422 -225.408599853516 5.662557125092
-45.466594696045 -72.083343505859 -283.677368164063 4.817549228668
-45.889553070068 -79.227600097656 -291.502593994141 4.135022640228
-22.774894714355 -81.336257934570 -69.301307678223 4.200926780701
41.811805725098 -63.673362731934 -256.420166015625 0.449346601963
113.722068786621 -76.151725769043 -154.595230102539 1.594841361046
-13.589866638184 -77.077865600586 -288.815826416016 2.561249971390
118.049018859863 -77.441200256348 -160.082946777344 3.510891199112
-18.720943450928 -78.488456726074 -288.276397705078 0.198624461889
-37.347507476807 -71.811447143555 -290.790344238281 1.576795101166
-153.252700805664 -69.015419006348 -274.797210693359 2.951618909836
78.087829589844 -77.380844116211 -232.998092651367 1.721118688583
-82.714050292969 -79.446235656738 -58.400573730469 6.238696098328
-138.693435668945 -68.923065185547 -286.517028808594 2.439110517502
70.254516601563 -73.493530273438 -105.529403686523 5.704727172852
108.600479125977 -73.374855041504 -168.726684570313 1.785756587982
-15.749425888062 -80.068298339844 -283.306762695313 4.715058326721
-8.128101348877 -73.262237548828 -293.871673583984 1.981189846992
20.450626373291 -63.113487243652 -274.340820312500 3.166165828705
18.992713928223 -55.975738525391 -273.240020751953 2.913822174072
-67.077079772949 -69.913436889648 -51.235294342041 2.867806196213
97.210227966309 -73.947090148926 -213.935455322266 3.480413913727
-58.794692993164 -68.258697509766 -286.419647216797 2.827925205231
-145.956558227539 -68.678611755371 -201.897674560547 3.229180812836
-112.835166931152 -63.532371520996 -222.555526733398 4.364998817444
3.488287925720 -72.432250976563 -292.757720947266 0.659884870052
-86.621391296387 -80.740081787109 -76.727073669434 4.022736072540
-115.345664978027 -67.754447937012 -285.957427978516 2.626343250275
84.533302307129 -73.413017272949 -221.396362304688 1.278891444206
-135.015701293945 -66.608200073242 -284.572509765625 2.148209095001
-148.078094482422 -72.343719482422 -272.809539794922 4.154489994049
-135.696640014648 -71.166542053223 -288.071350097656 2.678728342056
-90.513534545898 -80.246337890625 -214.438537597656 3.184748411179
-144.688018798828 -58.300052642822 -254.226150512695 4.167297840118
-77.669967651367 -82.476882934570 -56.540679931641 7.136497497559
78.759323120117 -81.180374145508 -230.610076904297 4.848450660706
-51.896984100342 -64.828491210938 -89.056182861328 3.235390424728
13.239673614502 -74.912178039551 -292.066528320313 1.657178878784
-78.344734191895 -78.061080932617 -65.751640319824 1.834467411041
-86.928871154785 -73.940490722656 -83.327522277832 3.457309484482
25.881855010986 -71.058868408203 -257.973937988281 2.645585775375
50.125347137451 -76.129486083984 -108.924507141113 0.862382531166
57.214923858643 -72.752716064453 -96.634796142578 1.188171982765
84.563613891602 -79.856597900391 -215.872161865234 3.609036684036
16.108030319214 -64.677139282227 -259.304748535156 7.448904991150
-33.029346466064 -63.750095367432 -46.529689788818 2.674625158310
-70.730453491211 -68.908813476563 -50.668861389160 2.491461038589
11.200214385986 -60.886978149414 -285.807220458984 3.390846252441
80.353385925293 -78.350578308105 -94.396492004395 2.067515611649
15.811182022095 -73.761634826660 -275.513214111328 4.187461853027
-92.195991516113 -81.756675720215 -84.216087341309 6.276089191437
37.796970367432 -71.828254699707 -114.187850952148 1.326827526093
47.086162567139 -76.631774902344 -88.468299865723 6.196208477020
50.985614776611 -77.832733154297 -92.071533203125 3.882241010666
23.805490493774 -77.615859985352 -150.438385009766 2.354950189590
-146.444427490234 -69.007255554199 -251.396087646484 2.177302360535
-153.248519897461 -67.289970397949 -276.792877197266 2.920734167099
-153.246231079102 -72.395095825195 -265.323089599609 1.633428335190
71.997993469238 -87.568725585938 -96.329902648926 12.295236587524
-157.269454956055 -64.831176757813 -267.188995361328 4.817471981049
-151.648605346680 -63.181667327881 -252.891555786133 1.036616444588
-114.208343505859 -62.235839843750 -285.540191650391 6.666835308075
29.491930007935 -62.874118804932 -154.198471069336 5.584118366241
-118.550727844238 -62.011859893799 -283.524230957031 6.899417400360
-50.786346435547 -63.350471496582 -80.723403930664 1.101213812828
-153.113250732422 -57.993907928467 -248.215072631836 5.788385391235
68.291694641113 -71.616699218750 -235.329223632813 1.830058097839
-72.193954467773 -75.931495666504 -47.921287536621 4.567418575287
-80.403541564941 -69.921577453613 -94.760841369629 4.983551025391
-83.467361450195 -79.140548706055 -106.503036499023 2.656380414963
108.398956298828 -81.135231018066 -136.739791870117 6.112672328949
111.273834228516 -83.537193298340 -142.970489501953 7.124366283417
6.728209972382 -79.626991271973 -196.306167602539 5.818307876587
-52.575614929199 -79.120803833008 -133.326828002930 4.467953205109
-81.662513732910 -71.375183105469 -208.611282348633 2.582671880722
106.643615722656 -89.345222473145 -136.912078857422 13.548915863037
108.168258666992 -88.687667846680 -141.412994384766 12.568351745605
-52.588329315186 -71.953704833984 -142.233398437500 2.861099720001
115.196929931641 -81.160659790039 -154.660888671875 4.685914039612
116.930580139160 -84.479423522949 -147.370574951172 8.578202247620
-58.869804382324 -82.100265502930 -136.200897216797 6.388647079468
-65.733016967773 -71.839660644531 -253.627059936523 3.991075992584
-38.445251464844 -71.794372558594 -144.342483520508 4.867088317871
113.701652526855 -87.028411865234 -145.458297729492 9.819999694824
108.349891662598 -78.932418823242 -156.350891113281 3.404170751572
73.884445190430 -67.676841735840 -62.504138946533 2.253167390823
27.413381576538 -65.625930786133 -261.924530029297 1.651796698570
114.799491882324 -81.940002441406 -168.979782104492 4.106156349182
-2.694478034973 -76.346267700195 -171.721038818359 2.616925001144
-40.783695220947 -65.373649597168 -77.915100097656 1.219950199127
-103.933303833008 -71.457374572754 -224.045730590820 0.766380190849
113.191856384277 -83.635940551758 -170.659637451172 6.043163299561
42.246242523193 -68.360992431641 -94.777717590332 3.126696348190
46.070114135742 -72.802482604980 -104.208412170410 2.572749614716
-85.672782897949 -67.384590148926 -109.321647644043 2.296458005905
-53.485260009766 -61.798686981201 -73.067657470703 4.534810066223
99.463050842285 -81.347396850586 -182.677230834961 5.790645122528
100.857185363770 -81.826866149902 -186.011764526367 5.502489089966
103.590843200684 -74.989410400391 -188.882537841797 1.124895453453
101.581230163574 -83.783843994141 -187.860565185547 6.519320011139
105.356536865234 -80.791084289551 -191.880081176758 4.176424503326
-156.394226074219 -73.827468872070 -233.084747314453 2.465532064438
8.940286636353 -74.660163879395 -197.218109130859 2.411969661713
-146.289886474609 -55.154953002930 -234.746170043945 5.460571289063
-144.962280273438 -72.379890441895 -200.757125854492 2.083794116974
-68.194702148438 -73.992668151855 -283.260925292969 3.116143941879
-34.163196563721 -64.880805969238 -80.714103698730 3.644901275635
99.993972778320 -81.266258239746 -197.162811279297 4.023101806641
-158.336608886719 -65.379356384277 -201.175094604492 2.085732221603
-28.033451080322 -78.153564453125 -82.039543151855 3.134178161621
-155.598556518555 -75.268363952637 -198.323425292969 1.429787635803
-33.438701629639 -74.961929321289 -76.780067443848 3.172600984573
-78.493362426758 -69.898330688477 -123.680221557617 1.753310918808
-76.173110961914 -61.942356109619 -122.170364379883 1.682563543320
-66.016349792480 -73.314361572266 -289.541870117188 2.276089906693
-150.553039550781 -71.535583496094 -201.593887329102 2.516140222549
111.771247863770 -77.501319885254 -137.990890502930 1.966068506241
113.613563537598 -78.901832580566 -137.754974365234 2.757246017456
-76.823814392090 -73.912200927734 -210.873214721680 1.176954865456
95.262779235840 -79.115074157715 -217.953842163086 4.698739051819
15.570297241211 -67.195404052734 -151.266952514648 0.946073830128
-55.949817657471 -72.539390563965 -90.855789184570 1.988134264946
-80.627304077148 -72.250999450684 -211.277832031250 0.690484106541
-128.967514038086 -70.531646728516 -226.012054443359 2.149568080902
-76.868743896484 -81.574783325195 -289.956451416016 4.332748413086
-149.853576660156 -73.919898986816 -219.139984130859 2.342183589935
-154.353378295898 -64.039306640625 -191.427429199219 4.026763439178
-145.606597900391 -56.194934844971 -194.322677612305 3.248053789139
-152.354385375977 -55.203250885010 -189.654479980469 7.842625141144
-7.021378040314 -61.998146057129 -53.715499877930 3.752334356308
10.132879257202 -78.031700134277 -218.643722534180 2.031112432480
-77.892440795898 -71.835243225098 -54.464569091797 3.640474557877
84.335029602051 -76.659645080566 -220.472640991211 1.812028884888
-19.754417419434 -77.459823608398 -218.450408935547 1.438087821007
-18.330474853516 -74.264137268066 -231.592376708984 3.307482957840
51.657218933105 -76.177726745605 -33.240127563477 5.655548095703
12.505628585815 -81.957954406738 -230.767486572266 0.812718451023
-136.786117553711 -74.722167968750 -220.429458618164 5.648966789246
-10.558783531189 -73.199302673340 -231.472747802734 1.258790135384
-152.553192138672 -66.619636535645 -213.287612915039 1.393721461296
-10.896796226501 -69.616470336914 -236.629013061523 1.554439067841
-158.352600097656 -70.832794189453 -210.795715332031 2.351162195206
-92.768020629883 -71.234123229980 -286.784271240234 2.868042707443
-149.478744506836 -71.668357849121 -234.108093261719 2.880539178848
-100.690277099609 -70.802635192871 -285.485351562500 2.983848333359
-150.101974487305 -71.339958190918 -233.203796386719 2.926612138748
-66.387428283691 -69.583251953125 -248.055969238281 2.478199243546
-49.674564361572 -78.462257385254 -243.961425781250 1.977626800537
-48.063854217529 -75.738052368164 -80.489273071289 5.206514835358
-82.825988769531 -74.906845092773 -218.278976440430 2.238660335541
-55.624938964844 -73.560371398926 -247.527282714844 1.761271595955
-9.418127059937 -68.349227905273 -262.486724853516 2.099530458450
-15.448616981506 -72.591285705566 -253.589920043945 1.605986356735
-20.921485900879 -73.396705627441 -257.400451660156 6.632127285004
115.379196166992 -76.035087585449 -121.477500915527 3.461571455002
30.176475524902 -68.487197875977 -34.274971008301 1.407172083855
-149.888442993164 -64.393363952637 -265.710296630859 1.130061864853
-143.304870605469 -63.518917083740 -259.409606933594 1.797975659370
-85.438018798828 -67.341743469238 -49.113979339600 3.859863042831
-19.034034729004 -69.180145263672 -274.393676757813 5.136196136475
25.972852706909 -62.845489501953 -27.708778381348 1.785383224487
-138.115585327148 -69.282592773438 -285.624206542969 2.442445278168
-155.762893676758 -73.029106140137 -275.598815917969 2.800260782242
34.700675964355 -78.861145019531 -15.859374046326 5.872311115265
24.740743637085 -72.897354125977 -20.682025909424 1.461440920830
2.885338068008 -79.121566772461 -288.987609863281 2.346870422363
-114.840309143066 -67.851608276367 -229.843490600586 2.451226949692
-84.458671569824 -70.852455139160 -254.997604370117 1.493935942650
-142.442245483398 -75.082405090332 -203.461883544922 1.608164191246
-63.454898834229 -73.497146606445 -287.959838867188 0.577395915985
-126.326301574707 -71.498161315918 -227.846542358398 1.437484502792
-156.936141967773 -70.667602539063 -192.743988037109 0.829478621483
-72.184036254883 -70.160079956055 -286.439147949219 2.620832204819
-8.058697700500 -67.069915771484 -58.703628540039 3.831039190292
-125.912620544434 -69.735404968262 -248.903656005859 4.323553085327
-148.431442260742 -68.605560302734 -298.760467529297 0.562015891075
-155.753158569336 -70.158256530762 -296.877807617188 1.373611569405
-155.122879028320 -71.521850585938 -282.815612792969 2.865843534470
-134.310195922852 -62.065292358398 -257.231597900391 2.921799898148
-159.455856323242 -62.625686645508 -281.520050048828 5.616526603699
99.364761352539 -73.560142517090 -70.746315002441 3.171370983124
-4.701976776123 -75.862358093262 -297.115295410156 5.829219341278
72.516113281250 -77.079231262207 -106.160835266113 7.869590282440
75.657638549805 -72.857879638672 -111.124305725098 7.421345233917
-154.998306274414 -69.486427307129 -306.047485351563 0.863825976849
68.898384094238 -65.895278930664 -72.201026916504 2.883119344711
-2.152160882950 -76.277565002441 -171.910491943359 2.654671907425
-158.831604003906 -69.457862854004 -312.080963134766 2.346541404724
-161.190231323242 -65.049682617188 -307.032928466797 7.585748195648
87.139228820801 -75.576080322266 -212.213363647461 1.585093498230
-69.470352172852 -79.514060974121 -61.782028198242 2.288300037384
-3.276012897491 -68.557121276855 -242.097427368164 3.247967004776
-35.371547698975 -74.567398071289 -58.232723236084 2.266480922699
-86.185264587402 -82.076759338379 -75.951591491699 4.707299232483
70.587875366211 -80.595542907715 -95.538856506348 6.366829395294
-138.781890869141 -66.837715148926 -249.416000366211 6.276002407074
-30.923475265503 -71.964416503906 -80.627197265625 3.538759231567
25.427379608154 -79.040176391602 -21.241872787476 5.958619594574
30.872854232788 -75.814765930176 -13.540973663330 3.362083435059
75.011482238770 -78.148063659668 -88.238548278809 2.547842502594
66.289764404297 -68.663490295410 -75.175628662109 2.257028818130
-6.273212909698 -64.657325744629 -276.716491699219 3.613131523132
90.811759948730 -69.574195861816 -67.870712280273 1.663403749466
-83.464401245117 -78.436378479004 -98.309356689453 3.752703189850
15.252404212952 -73.570068359375 -142.332839965820 5.862102985382
-93.898109436035 -78.832191467285 -102.153923034668 5.770910263062
-84.700347900391 -79.094177246094 -104.690299987793 3.586827754974
105.700485229492 -71.291259765625 -174.752059936523 0.850785315037
-97.854339599609 -75.219985961914 -109.823478698730 3.663014650345
-95.588470458984 -69.757438659668 -119.087707519531 1.277383685112
8.229177474976 -71.438613891602 -192.275177001953 3.824867248535
110.789085388184 -81.936393737793 -117.074943542480 6.129885196686
111.725601196289 -82.281097412109 -128.082778930664 6.016142845154
-18.354877471924 -67.900703430176 -251.479660034180 3.472050666809
-97.130683898926 -60.362010955811 -63.529113769531 1.998252391815
110.324417114258 -82.224769592285 -136.319458007813 5.621819972992
8.668834686279 -76.028289794922 -202.191741943359 1.403360486031
-53.771221160889 -75.472396850586 -132.586288452148 1.955616593361
-46.949779510498 -71.709716796875 -140.810317993164 2.023520469666
108.695144653320 -80.577774047852 -149.809020996094 4.056895256042
-52.528076171875 -76.031257629395 -140.991394042969 1.952612638474
-0.971246004105 -58.430454254150 -285.759521484375 2.761533737183
-19.403593063354 -73.805656433105 -284.670562744141 5.154407501221
15.975504875183 -70.594497680664 -252.361389160156 4.126610755920
-96.968116760254 -59.502952575684 -108.570732116699 2.127756595612
-23.692409515381 -75.216140747070 -288.473968505859 2.860036849976
115.864120483398 -78.544380187988 -160.515975952148 1.524269819260
16.621826171875 -70.181869506836 -172.938430786133 1.650692224503
90.451957702637 -78.462928771973 -203.247085571289 3.371979713440
-126.175895690918 -69.881057739258 -253.254867553711 1.526588082314
-52.323291778564 -77.155387878418 -185.203811645508 1.509549260139
97.268936157227 -79.781829833984 -192.530181884766 5.576538085938
-49.314350128174 -70.614692687988 -156.903762817383 1.177995920181
-23.103586196899 -71.483123779297 -197.248367309570 1.099846720695
-46.150482177734 -70.315406799316 -150.646347045898 1.401129961014
2.125257015228 -54.170040130615 -243.425018310547 1.570880174637
92.061531066895 -80.038635253906 -202.657485961914 3.816348791122
-81.500251770020 -55.527027130127 -121.100448608398 2.447322845459
-77.178298950195 -74.835823059082 -290.527770996094 1.119284868240
-148.089340209961 -64.760360717773 -208.791412353516 2.710608482361
-150.857223510742 -74.039741516113 -195.305740356445 2.535033464432
-156.967971801758 -63.932872772217 -191.640075683594 4.208104610443
-151.508209228516 -55.236656188965 -208.876022338867 6.242849826813
-138.322555541992 -70.436111450195 -197.919387817383 2.464195728302
102.880241394043 -78.150665283203 -204.761322021484 3.264144420624
-14.710348129272 -72.572029113770 -218.894470214844 1.413669466972
-44.289325714111 -72.372154235840 -162.340393066406 0.809886574745
-54.003665924072 -73.226249694824 -156.563613891602 3.344851255417
-19.934293746948 -72.418571472168 -189.537475585938 0.710234522820
-84.631256103516 -72.409637451172 -119.919090270996 2.614217758179
-54.832733154297 -66.110473632813 -147.765167236328 2.438478469849
-72.777450561523 -72.606361389160 -128.865921020508 2.572360515594
-95.363632202148 -75.135841369629 -247.800155639648 4.997100830078
13.321591377258 -72.420898437500 -219.025756835938 2.255293130875
-8.420676231384 -75.258132934570 -220.910125732422 3.321280479431
-74.529411315918 -63.985420227051 -144.470687866211 3.388913631439
-8.170962333679 -68.554168701172 -220.357955932617 0.522673904896
