-46.117828369141 -66.594390869141 -150.584213256836 2.650203227997
-16.374731063843 -65.602905273438 -195.589553833008 2.565693140030
-32.414184570313 -87.987960815430 -194.330368041992 3.594092607498
-109.114601135254 -66.156761169434 -227.112792968750 1.698148608208
-47.196689605713 -82.640449523926 -197.298828125000 1.673219919205
11.213736534119 -79.493721008301 -262.852752685547 4.570494174957
27.222719192505 -73.912117004395 -266.451049804688 3.448102474213
4.656825065613 -85.318717956543 -256.776885986328 2.421900033951
17.777669906616 -65.931594848633 -256.817291259766 5.028519153595
-6.535171985626 -81.877632141113 -257.716949462891 0.420260787010
-44.282485961914 -79.210090637207 -202.320129394531 2.177418708801
-97.740600585938 -76.194122314453 -215.896163940430 3.778331995010
-47.253437042236 -87.915176391602 -69.501945495605 6.979351520538
107.907508850098 -88.114433288574 -149.895904541016 11.562576293945
-0.239613994956 -85.771224975586 -244.695938110352 6.517703533173
-56.633678436279 -83.828941345215 -203.092803955078 0.831486880779
-155.744857788086 -68.034461975098 -173.658874511719 5.529477119446
-57.591743469238 -76.397163391113 -73.486701965332 5.931437969208
-157.519500732422 -68.063072204590 -179.372726440430 4.207446575165
-151.152175903320 -62.111297607422 -174.345413208008 2.381892919540
-0.760519981384 -63.614227294922 -255.995025634766 2.115894317627
54.739917755127 -75.385017395020 -105.094528198242 1.543774247169
-61.488029479980 -85.319389343262 -202.828704833984 2.371795892715
-72.482460021973 -66.047111511230 -103.096015930176 1.568152308464
-79.024169921875 -69.545219421387 -105.832000732422 2.008540868759
27.154529571533 -80.811965942383 -153.418136596680 2.217141866684
-151.014083862305 -81.721008300781 -251.061676025391 2.601960420609
-155.275482177734 -78.894180297852 -253.390243530273 1.909927129745
-173.935272216797 -71.177803039551 -243.674560546875 7.832345008850
75.791542053223 -79.697143554688 -237.257156372070 6.990350246429
-152.933761596680 -64.466346740723 -274.008972167969 2.076692581177
-91.433013916016 -74.040695190430 -67.648345947266 3.336792707443
-146.973373413086 -84.043006896973 -255.601531982422 1.683463811874
-137.722518920898 -65.745811462402 -286.662170410156 2.949208021164
-158.085998535156 -55.003669738770 -275.973419189453 12.346374511719
-170.036087036133 -69.481239318848 -289.790588378906 4.290482521057
-153.729522705078 -78.319160461426 -298.857116699219 2.040679216385
-105.919677734375 -65.781005859375 -252.832305908203 3.520325660706
92.997322082520 -78.451004028320 -210.890609741211 1.957228302956
-134.429763793945 -71.710708618164 -256.550811767578 1.340612292290
-57.808441162109 -75.091369628906 -56.273448944092 2.041326284409
-121.150360107422 -67.020225524902 -256.428863525391 3.788167715073
-120.619369506836 -63.733402252197 -256.720489501953 5.457599163055
-93.991928100586 -74.055267333984 -90.176490783691 2.691651582718
-146.552734375000 -80.943992614746 -257.319091796875 2.139819145203
9.644234657288 -81.472724914551 -277.327880859375 1.131272196770
55.200912475586 -78.473472595215 -103.018249511719 3.080921888351
70.341888427734 -72.005058288574 -73.002471923828 1.449649930000
-6.736924171448 -85.483932495117 -266.738586425781 3.196743965149
-169.680053710938 -69.031555175781 -253.920028686523 2.068075656891
9.505508422852 -68.936187744141 -152.405654907227 1.750536084175
82.193786621094 -68.174537658691 -105.119453430176 0.591580271721
-140.147796630859 -73.987640380859 -280.991638183594 5.156005859375
-143.240722656250 -78.685623168945 -260.323822021484 2.215823173523
77.431709289551 -68.457633972168 -232.357452392578 3.332107305527
-148.880264282227 -62.843784332275 -271.822662353516 2.999984979630
-141.710418701172 -63.740726470947 -287.552490234375 1.855663180351
-160.549560546875 -67.379981994629 -276.279571533203 3.417986869812
-155.894622802734 -81.922737121582 -261.270538330078 2.161985635757
-159.951629638672 -63.023601531982 -275.388183593750 6.830564975739
-173.470046997070 -64.783088684082 -258.535736083984 7.610343933105
-138.435791015625 -63.763389587402 -293.106628417969 4.329874515533
25.330236434937 -74.467147827148 -175.405258178711 1.263731002808
12.747429847717 -81.455917358398 -152.964202880859 8.202075958252
-71.297393798828 -79.552772521973 -99.789726257324 3.001732826233
5.830565929413 -72.846939086914 -150.788528442383 3.742444753647
27.152189254761 -71.439514160156 -163.063400268555 2.141502857208
86.911056518555 -74.359451293945 -107.757118225098 5.240562438965
86.518333435059 -71.390136718750 -69.323242187500 2.393942356110
39.389873504639 -80.591674804688 -110.188110351563 2.765881776810
-60.299396514893 -82.733535766602 -205.404556274414 1.444992184639
52.001152038574 -72.634246826172 -103.803436279297 2.380329608917
-0.546414971352 -84.910804748535 -268.462829589844 1.932824373245
-94.509536743164 -68.541297912598 -91.085823059082 1.849144220352
-3.769705057144 -86.599334716797 -268.853973388672 3.468594789505
-71.037536621094 -83.397552490234 -68.370536804199 3.642329692841
-1.736335992813 -85.409065246582 -278.293212890625 5.192593574524
-81.537750244141 -84.761619567871 -83.097923278809 3.715968847275
1.710944056511 -78.122276306152 -284.375549316406 2.542384862900
22.659318923950 -69.559509277344 -269.170867919922 1.695305347443
-68.610755920410 -79.653541564941 -205.155212402344 1.888580799103
-58.581474304199 -85.545593261719 -212.575012207031 4.827345848083
56.386604309082 -80.758903503418 -92.769538879395 6.239084243774
38.675262451172 -80.025466918945 -111.437576293945 2.693714857101
-4.018446922302 -86.982177734375 -271.268554687500 4.130450248718
-77.951530456543 -69.757324218750 -102.507926940918 2.487271785736
-133.616333007813 -63.406795501709 -258.976043701172 1.250914216042
-84.987030029297 -78.598892211914 -80.906875610352 2.956046819687
-153.992279052734 -77.752441406250 -295.117370605469 1.972001910210
-158.453292846680 -74.853622436523 -280.980468750000 4.898999214172
-83.498161315918 -82.095115661621 -86.137481689453 2.139325857162
-152.618896484375 -74.978805541992 -290.142425537109 2.609269857407
-169.050949096680 -69.045402526855 -279.042083740234 3.880806922913
-152.852905273438 -66.756965637207 -303.859619140625 2.964808464050
-69.027503967285 -85.449905395508 -83.773162841797 2.794262647629
-129.451171875000 -69.386871337891 -261.773864746094 3.556500673294
-131.530960083008 -61.555778503418 -264.267547607422 3.807026386261
-56.661563873291 -84.157333374023 -75.097068786621 3.105529785156
118.662178039551 -76.914489746094 -144.670257568359 4.591380596161
109.391632080078 -79.483612060547 -141.657455444336 4.330287456512
-41.573101043701 -88.260757446289 -82.223815917969 5.086434364319
8.037951469421 -73.835838317871 -291.618652343750 1.466821074486
8.023020744324 -67.755798339844 -284.392120361328 5.542182922363
-106.247283935547 -68.375541687012 -163.381042480469 1.585393309593
-64.586532592773 -82.042510986328 -209.397232055664 1.880510210991
-67.144561767578 -78.145362854004 -203.479858398438 3.152230739594
50.593482971191 -77.433273315430 -109.045448303223 1.201352119446
-75.048789978027 -60.017570495605 -112.337280273438 2.508263826370
38.054981231689 -83.859359741211 -108.518539428711 5.764843940735
104.651268005371 -75.995796203613 -169.163894653320 3.009950637817
-78.420532226563 -80.554496765137 -91.913749694824 3.031910657883
-76.930763244629 -85.309722900391 -85.213424682617 2.801436424255
-157.022079467773 -70.856918334961 -175.979583740234 4.556634426117
-157.783752441406 -63.708271026611 -174.386718750000 5.530004978180
-76.505630493164 -68.455688476563 -104.614570617676 0.502291262150
-151.509780883789 -61.430763244629 -177.519073486328 2.162384986877
-2.813807010651 -63.883274078369 -270.527130126953 2.024211406708
-146.028274536133 -62.697772979736 -169.079208374023 5.819984912872
-66.833480834961 -85.119293212891 -72.538482666016 2.932010173798
-122.078071594238 -73.148368835449 -250.327331542969 4.847843170166
-57.242015838623 -72.878036499023 -51.551483154297 3.314426183701
92.971527099609 -81.560890197754 -199.678054809570 6.512048721313
-44.047794342041 -79.060234069824 -200.047729492188 1.100980520248
-56.619758605957 -84.688972473145 -183.560867309570 5.251063346863
-91.362487792969 -79.509864807129 -85.778755187988 5.709489345551
61.489479064941 -76.054222106934 -95.848930358887 4.210698604584
-143.414520263672 -70.685165405273 -287.202514648438 2.763076066971
-126.186241149902 -68.448936462402 -255.179473876953 2.230733394623
-84.253608703613 -80.802696228027 -98.237945556641 1.561081409454
-163.001800537109 -73.108848571777 -290.593658447266 1.309942126274
-146.749755859375 -72.801879882813 -302.803558349609 2.226416587830
-148.578704833984 -64.006591796875 -283.320190429688 1.556054592133
-150.585372924805 -63.172496795654 -293.261505126953 2.197452545166
-155.893707275391 -69.117126464844 -284.845581054688 1.999540567398
54.580730438232 -71.276847839355 -86.721183776855 2.247776985168
50.203578948975 -66.195358276367 -92.698768615723 1.312165141106
49.332958221436 -68.522842407227 -92.946479797363 2.322179794312
-147.312561035156 -67.100570678711 -281.199859619141 2.050492525101
-149.313003540039 -61.664390563965 -292.565032958984 2.011499643326
61.905403137207 -66.386260986328 -84.853294372559 1.257125735283
43.946075439453 -70.062454223633 -96.310073852539 1.678207874298
85.845252990723 -65.253486633301 -59.244186401367 3.892989397049
-112.566627502441 -68.127738952637 -255.570861816406 1.827890038490
-87.284706115723 -80.965415954590 -96.860359191895 2.907856941223
-88.034820556641 -82.196014404297 -97.802543640137 3.609477281570
29.343563079834 -62.811840057373 -257.138519287109 2.207347631454
-11.974366188049 -72.915184020996 -290.073547363281 1.137586236000
-13.932188034058 -76.456588745117 -292.446716308594 1.772551894188
-5.321478843689 -64.888374328613 -293.706542968750 2.766701698303
19.237094879150 -75.611160278320 -261.319580078125 2.394483327866
-10.084115982056 -67.816963195801 -289.130432128906 3.803654432297
109.658973693848 -73.864524841309 -166.542724609375 0.509555101395
-25.844182968140 -79.618400573730 -183.654342651367 1.470077157021
21.195875167847 -70.312416076660 -139.381240844727 3.289743900299
28.854749679565 -68.396141052246 -131.229827880859 2.897748231888
-35.656753540039 -71.900558471680 -154.388442993164 2.486237287521
-25.145914077759 -84.200279235840 -180.444824218750 3.636226415634
-110.536392211914 -66.760803222656 -231.953582763672 1.704237461090
-26.443492889404 -81.908088684082 -183.720733642578 1.224361896515
-43.584369659424 -74.618751525879 -153.415832519531 2.857589244843
-119.873313903809 -63.810390472412 -232.648315429688 1.406511664391
-43.348354339600 -84.961997985840 -189.412246704102 3.253166198730
-52.637977600098 -79.079261779785 -194.437118530273 2.918581962585
-59.481029510498 -86.595497131348 -198.718582153320 5.417296886444
-42.174427032471 -83.384315490723 -65.993766784668 3.558728456497
-47.752483367920 -84.282546997070 -71.153877258301 2.976971387863
-156.554061889648 -77.402015686035 -227.088546752930 2.839563131332
-138.170043945313 -75.422470092773 -196.247360229492 2.148370742798
-148.255508422852 -79.294685363770 -214.519958496094 1.737120270729
-62.777595520020 -60.925216674805 -137.669525146484 3.807923078537
-51.508117675781 -68.422676086426 -142.791809082031 1.868936300278
-27.683805465698 -68.745040893555 -243.795089721680 5.952303409576
-158.285919189453 -82.838684082031 -219.154174804688 8.352031707764
4.435849189758 -76.561248779297 -215.069885253906 2.817192077637
9.791947364807 -82.050086975098 -210.961975097656 4.178459644318
-35.949810028076 -78.103813171387 -237.236877441406 1.989110946655
-153.169387817383 -80.182647705078 -221.881820678711 3.295930862427
-148.729156494141 -81.509468078613 -222.299819946289 3.090300798416
-145.375946044922 -87.729141235352 -229.746826171875 4.142436504364
-23.123435974121 -75.334434509277 -214.697219848633 2.204291105270
-153.887817382813 -81.984252929688 -228.253677368164 2.180942058563
-169.687942504883 -63.942707061768 -229.410781860352 4.390429496765
12.510484695435 -75.529426574707 -185.873321533203 1.712810039520
33.094543457031 -77.947189331055 -149.967880249023 1.763358831406
-149.013626098633 -82.138366699219 -226.769241333008 0.570318579674
-150.297698974609 -80.787757873535 -235.899871826172 2.898912429810
-147.722808837891 -80.100677490234 -237.558135986328 3.384594678879
-153.213165283203 -80.343681335449 -230.051712036133 1.781733512878
-172.431274414063 -62.010654449463 -233.101760864258 8.811716079712
6.080889225006 -67.352455139160 -217.508972167969 4.042886734009
-29.221836090088 -84.042556762695 -216.353713989258 5.277598381042
-144.841049194336 -76.407165527344 -238.480682373047 3.011468172073
-82.319564819336 -71.488220214844 -211.528976440430 2.247734546661
6.844131946564 -70.422782897949 -156.961685180664 1.406682014465
-56.453105926514 -72.488677978516 -238.473251342773 5.065206527710
-59.294647216797 -81.213348388672 -240.776138305664 5.273473262787
16.557571411133 -69.834877014160 -175.061950683594 1.396036863327
-169.346755981445 -66.999412536621 -261.710876464844 2.425565719604
94.720169067383 -79.796432495117 -99.570251464844 5.694998741150
-139.607818603516 -67.149055480957 -284.930267333984 3.702689170837
-152.636337280273 -62.502254486084 -278.780944824219 4.002903938293
12.771795272827 -71.526741027832 -148.966262817383 1.513532400131
24.328903198242 -72.723571777344 -166.838470458984 3.112121343613
69.811309814453 -76.583480834961 -93.412384033203 3.910209655762
-150.941024780273 -75.170906066895 -252.385421752930 1.329143643379
25.802272796631 -68.951576232910 -172.988250732422 2.614518880844
6.565536975861 -74.179550170898 -149.767990112305 4.041094303131
62.468425750732 -70.346809387207 -88.392196655273 1.925303578377
-152.293045043945 -80.474746704102 -258.355377197266 2.260911464691
-174.988937377930 -71.684822082520 -255.050918579102 7.026840686798
-154.770980834961 -86.158599853516 -258.087432861328 3.242136478424
3.364892959595 -58.026805877686 -282.668121337891 4.508787155151
69.600936889648 -66.363349914551 -67.880455017090 1.538340449333
-51.584369659424 -79.598907470703 -70.908599853516 2.257078409195
11.592122077942 -83.100410461426 -255.700546264648 1.904142737389
-78.683311462402 -74.085678100586 -251.580947875977 1.829439640045
28.123975753784 -67.529678344727 -252.475128173828 4.438618659973
111.516372680664 -79.000709533691 -157.734680175781 2.117977142334
7.288034915924 -78.210571289063 -175.441085815430 9.957433700562
-164.970352172852 -67.914085388184 -256.289398193359 3.724315166473
-154.501083374023 -76.681610107422 -261.824066162109 2.458561897278
9.404202461243 -72.515983581543 -184.617279052734 3.482120752335
-3.607383966446 -82.507255554199 -269.424987792969 1.710230708122
4.080794811249 -80.085075378418 -293.516784667969 3.567494392395
83.207115173340 -81.834785461426 -98.971244812012 5.960190296173
78.421897888184 -73.410476684570 -104.186378479004 3.375810861588
-6.734391212463 -78.259140014648 -277.723815917969 2.202904224396
2.347623109818 -83.728973388672 -272.117523193359 1.172873854637
46.095870971680 -79.466537475586 -111.753280639648 2.781619548798
-91.809547424316 -77.387657165527 -214.847732543945 1.199912428856
25.823038101196 -69.159294128418 -267.595306396484 2.794018745422
62.716030120850 -74.714912414551 -234.726760864258 4.127800464630
37.590549468994 -77.530807495117 -105.333900451660 2.252691745758
-91.690925598145 -82.591377258301 -106.759727478027 4.456250190735
-7.680233955383 -80.931030273438 -266.432769775391 1.199075937271
40.976417541504 -73.679069519043 -114.552345275879 2.749991178513
-0.773627996445 -56.758235931396 -254.129669189453 5.575610637665
-55.740512847900 -81.671997070313 -95.316459655762 2.851872444153
-161.286087036133 -74.539779663086 -260.450927734375 1.601300477982
-163.939651489258 -72.719367980957 -257.767456054688 2.825217962265
-154.321136474609 -80.948722839355 -276.586914062500 3.298647403717
-171.385055541992 -62.692298889160 -279.698181152344 9.544749259949
69.560630798340 -74.607421875000 -104.730987548828 6.803736209869
-152.988616943359 -61.994060516357 -256.445251464844 2.019040584564
-87.390716552734 -62.836818695068 -54.468143463135 3.313037633896
-152.202041625977 -59.584499359131 -258.237335205078 3.576026916504
30.092094421387 -71.644706726074 -150.275772094727 1.315066576004
-158.685348510742 -79.039855957031 -266.670654296875 5.081544876099
-159.647201538086 -75.566627502441 -270.952545166016 3.960997343063
-148.278717041016 -68.990234375000 -250.463470458984 2.502976655960
17.936138153076 -76.960647583008 -160.883514404297 2.873302459717
26.075841903687 -68.295585632324 -151.709396362305 1.697832107544
-170.052169799805 -63.152690887451 -268.841094970703 7.324567317963
-161.341934204102 -65.126571655273 -270.055389404297 4.449349880219
-133.503570556641 -67.393264770508 -257.190277099609 2.036471605301
45.432529449463 -67.571479797363 -105.547431945801 2.040733337402
-168.074066162109 -66.139053344727 -303.649322509766 13.228876113892
28.840675354004 -75.548103332520 -120.186668395996 3.182038784027
-38.696556091309 -79.089271545410 -184.552230834961 5.870810508728
-93.286788940430 -81.958801269531 -102.921821594238 6.361135959625
-154.554946899414 -75.474327087402 -293.884155273438 1.617583632469
-34.691635131836 -84.766929626465 -174.360580444336 3.985711812973
-148.123260498047 -80.240501403809 -284.472167968750 2.667242527008
-68.352912902832 -78.344512939453 -212.641220092773 1.561901450157
-149.780975341797 -72.653396606445 -290.956207275391 2.374610424042
-60.609539031982 -85.815650939941 -202.324142456055 2.793857336044
-62.699092864990 -83.682540893555 -200.138214111328 3.106562137604
-47.969276428223 -78.392707824707 -186.413574218750 0.872742354870
-159.178726196289 -69.365730285645 -293.990600585938 2.536241054535
-61.600101470947 -87.954071044922 -208.272323608398 3.816923856735
-159.252822875977 -62.429332733154 -306.496978759766 8.091181755066
-88.317268371582 -67.865486145020 -103.987663269043 3.056257486343
-67.217697143555 -78.955322265625 -80.385215759277 4.778614997864
-49.385284423828 -78.092956542969 -57.911045074463 2.720446825027
-89.208419799805 -81.545822143555 -101.023284912109 2.816105365753
9.252641677856 -85.727554321289 -255.946212768555 1.857833027840
-50.379768371582 -85.998916625977 -77.859382629395 2.637757778168
-52.862915039063 -79.853195190430 -78.862518310547 2.727948665619
-141.448150634766 -77.359855651855 -259.808532714844 0.906192183495
-37.263999938965 -76.486854553223 -165.037353515625 3.083112955093
-19.507017135620 -82.911659240723 -177.155029296875 2.021929502487
-15.905805587769 -73.553855895996 -174.628448486328 4.106081962585
90.047340393066 -80.991043090820 -73.776229858398 5.967360496521
-140.634033203125 -70.613975524902 -256.844940185547 1.251737356186
20.838216781616 -80.463600158691 -137.883850097656 4.458080768585
-153.265121459961 -77.759201049805 -302.139007568359 1.913083553314
-17.678693771362 -76.669364929199 -171.336685180664 4.344231128693
-159.135040283203 -67.072540283203 -311.793243408203 3.711168527603
27.896602630615 -78.821891784668 -134.051788330078 2.488910436630
23.562116622925 -74.790435791016 -134.181213378906 3.767334938049
81.663124084473 -80.353240966797 -81.511322021484 1.587632536888
-4.368987083435 -81.673133850098 -164.694519042969 2.686791658401
64.601989746094 -73.529304504395 -68.788726806641 7.929685592651
91.790596008301 -80.942253112793 -76.624786376953 5.376704692841
-41.674758911133 -79.179115295410 -66.365524291992 1.065926551819
-43.653335571289 -85.997039794922 -73.556449890137 3.851086139679
-168.501693725586 -70.675613403320 -286.316040039063 0.988358855247
-139.692489624023 -67.506378173828 -255.541061401367 2.734657526016
-105.657882690430 -73.854270935059 -217.387710571289 3.454827547073
-45.229839324951 -83.689796447754 -73.692955017090 2.584806442261
-44.386772155762 -75.510673522949 -209.558853149414 5.673753261566
73.784408569336 -70.271034240723 -226.452774047852 1.795698046684
-9.211027145386 -76.309539794922 -251.004852294922 0.394718974829
103.848220825195 -73.386299133301 -129.333831787109 5.850154876709
-65.181213378906 -66.403846740723 -94.515243530273 1.189709067345
58.467369079590 -62.021854400635 -72.012161254883 6.382937431335
92.626701354980 -75.747154235840 -81.797447204590 0.580456495285
-43.317234039307 -84.520004272461 -79.966491699219 1.957824587822
-40.750980377197 -79.282844543457 -243.942199707031 0.786434590816
-140.238693237305 -76.498687744141 -287.531311035156 2.385538578033
-77.615112304688 -76.579307556152 -211.828201293945 1.164779543877
-135.841293334961 -71.928916931152 -282.479797363281 2.528645515442
-76.981773376465 -85.103340148926 -74.723457336426 4.237723827362
17.652282714844 -63.200653076172 -142.089401245117 1.607402086258
-77.036399841309 -83.363883972168 -82.012763977051 2.081326484680
-88.331459045410 -68.334678649902 -108.074836730957 3.263713836670
54.429462432861 -63.649345397949 -99.236419677734 1.745819211006
-25.424263000488 -64.501266479492 -292.342041015625 7.304716110229
-80.291244506836 -82.892066955566 -78.267173767090 3.032160520554
-72.349792480469 -67.396453857422 -97.996131896973 1.847433686256
-91.154609680176 -68.029769897461 -111.785247802734 3.827755212784
44.394680023193 -70.035873413086 -99.177749633789 1.216662287712
-149.486984252930 -71.816566467285 -266.648101806641 2.492600440979
-134.409698486328 -68.711135864258 -278.978912353516 5.115051269531
-158.774612426758 -68.925369262695 -248.925582885742 1.429416418076
-161.119247436523 -72.076324462891 -249.699096679688 2.821545124054
-51.575531005859 -80.350318908691 -85.207077026367 3.308465480804
-155.318054199219 -72.049285888672 -257.432891845703 2.001257658005
-129.285491943359 -66.545677185059 -286.516693115234 2.162948846817
-136.017456054688 -60.368644714355 -286.682922363281 5.583221435547
-153.957962036133 -67.270866394043 -269.270782470703 2.596158504486
-160.121109008789 -57.444038391113 -266.112365722656 8.022085189819
-146.077987670898 -73.897895812988 -256.825317382813 1.914605379105
88.179252624512 -81.925445556641 -99.737380981445 6.590737342834
-70.929435729980 -78.951683044434 -102.940383911133 3.022158861160
-50.018371582031 -83.190597534180 -69.191062927246 3.185924291611
-82.449447631836 -80.876647949219 -106.517807006836 2.863073825836
46.824508666992 -74.832832336426 -98.807434082031 0.329482197762
51.104106903076 -73.156936645508 -92.903266906738 1.827668905258
-41.973743438721 -76.204338073730 -174.230697631836 1.786328077316
-154.749313354492 -69.917442321777 -288.640289306641 1.240089774132
-147.623077392578 -68.740806579590 -302.344390869141 2.880819797516
-150.920440673828 -74.679008483887 -300.898620605469 2.503633260727
68.014686584473 -74.008010864258 -70.949836730957 5.099675178528
62.615173339844 -69.887756347656 -79.532211303711 3.986974000931
57.373577117920 -70.387031555176 -85.683593750000 0.958082854748
32.448513031006 -73.758735656738 -110.713333129883 2.970295429230
-40.607559204102 -71.580009460449 -177.677276611328 3.250175476074
-125.871704101563 -62.220016479492 -261.895996093750 2.312731266022
-156.662902832031 -64.861717224121 -292.720062255859 1.594380140305
79.189445495605 -75.277351379395 -67.330444335938 3.660695075989
-31.748811721802 -63.997180938721 -177.648345947266 5.188733100891
-113.778114318848 -64.021888732910 -255.799560546875 3.975436210632
-121.173782348633 -62.168277740479 -259.222045898438 4.899123668671
43.632987976074 -69.365287780762 -99.208610534668 1.767326116562
59.438674926758 -72.813095092773 -82.885841369629 3.440297842026
85.667373657227 -70.521621704102 -60.489692687988 4.026473522186
-158.097351074219 -59.318618774414 -284.997650146484 4.979298591614
-151.948028564453 -60.518005371094 -293.603149414063 3.439536571503
-154.944473266602 -60.527633666992 -295.139984130859 4.475710868835
-15.609870910645 -81.895530700684 -182.172439575195 2.075314521790
-39.112506866455 -79.264198303223 -162.582717895508 1.724997162819
-17.534292221069 -83.742759704590 -179.339004516602 1.675106287003
12.818869590759 -78.438529968262 -218.878479003906 1.192732691765
-149.365982055664 -81.602226257324 -187.988662719727 1.232632040977
-42.491180419922 -77.804054260254 -152.979248046875 1.784976482391
-62.721050262451 -74.438224792480 -173.775604248047 1.052244305611
-13.152811050415 -79.241561889648 -212.256622314453 0.932475030422
20.612556457520 -83.318588256836 -246.349960327148 2.543390750885
-35.806587219238 -81.143104553223 -191.769180297852 1.915901184082
-6.920135021210 -67.221969604492 -234.559646606445 0.903095424175
-96.420677185059 -67.415290832520 -145.943603515625 2.852261543274
-45.545387268066 -74.424095153809 -198.380325317383 2.515380859375
-47.126792907715 -79.487777709961 -187.936096191406 2.099577903748
-49.839202880859 -81.387405395508 -192.099395751953 2.706094741821
-95.452926635742 -70.646965026855 -217.779281616211 2.009794950485
-44.371410369873 -78.574134826660 -55.785720825195 3.221495628357
8.334400177002 -74.203643798828 -249.081970214844 4.324874401093
-129.191879272461 -71.908195495605 -227.342376708984 2.528753995895
-152.213653564453 -70.254814147949 -196.491989135742 2.017600774765
-32.762111663818 -82.262474060059 -69.871032714844 3.895047664642
-156.005935668945 -73.810897827148 -186.689041137695 5.296788215637
-159.991119384766 -67.890434265137 -195.388137817383 1.091903924942
-132.255111694336 -63.084537506104 -220.987182617188 6.088539600372
-141.785171508789 -66.526931762695 -198.359344482422 1.165347695351
-146.290512084961 -56.489719390869 -195.380233764648 3.280467271805
-69.873939514160 -73.939285278320 -155.494674682617 1.426449179649
10.990519523621 -79.208023071289 -247.388488769531 1.353460192680
-72.548492431641 -70.378715515137 -145.989883422852 2.118701696396
-13.744912147522 -69.399818420410 -217.445556640625 1.799838304520
-72.895103454590 -72.078804016113 -247.469161987305 1.433328032494
-13.133278846741 -82.789459228516 -215.187088012695 4.416192531586
-89.261360168457 -61.979026794434 -116.403472900391 2.023804664612
-45.956260681152 -73.815361022949 -288.833709716797 1.787388443947
-23.435087203979 -72.560852050781 -62.040328979492 2.254345655441
-142.710723876953 -68.129142761230 -180.650207519531 2.383001089096
-145.541336059570 -58.026473999023 -180.021270751953 3.463506937027
-19.218143463135 -79.520317077637 -202.812179565430 1.278121471405
-151.998626708984 -68.328147888184 -186.810775756836 2.047405481339
-154.841720581055 -80.194396972656 -198.932037353516 2.846119880676
-157.405044555664 -65.267356872559 -184.371658325195 5.733240604401
-164.099105834961 -62.197799682617 -198.056579589844 5.106842994690
-151.677337646484 -56.711215972900 -189.397781372070 6.756502628326
-119.337348937988 -69.559555053711 -226.286529541016 2.281702280045
31.598846435547 -78.050552368164 -138.773544311523 1.819565296173
-55.487815856934 -77.131828308105 -190.521682739258 2.692931175232
-52.806766510010 -77.875572204590 -196.442916870117 4.174113750458
-147.822128295898 -85.343574523926 -202.950576782227 2.527508974075
-149.093063354492 -77.504951477051 -199.823608398438 1.872893571854
-150.989318847656 -78.880279541016 -205.491653442383 1.924965620041
-11.789312362671 -64.587020874023 -57.588165283203 1.058570861816
-53.355251312256 -75.822334289551 -284.554412841797 2.970602273941
-86.010665893555 -68.655204772949 -248.463531494141 4.157355308533
-108.446502685547 -68.019279479980 -228.881362915039 1.764041423798
-146.867004394531 -83.924728393555 -197.884963989258 1.744272589684
-149.793869018555 -66.438995361328 -187.868911743164 1.635866999626
-28.861469268799 -64.547264099121 -76.432167053223 3.733829021454
-153.267486572266 -62.792892456055 -186.280456542969 2.250571727753
-34.504238128662 -60.393318176270 -67.682830810547 2.680066585541
-39.075885772705 -79.171333312988 -197.484695434570 2.180421829224
-57.169361114502 -74.218864440918 -187.422515869141 5.020195007324
75.790756225586 -84.283058166504 -72.240135192871 10.387097358704
96.156105041504 -74.100784301758 -70.459197998047 2.271870613098
43.262073516846 -73.930412292480 -250.550476074219 2.967420339584
-73.116340637207 -79.041297912598 -74.983039855957 1.106054544449
4.493961811066 -80.694381713867 -278.012420654297 1.421267747879
6.011229991913 -76.646171569824 -280.098907470703 4.208849906921
-69.302124023438 -82.627716064453 -209.955841064453 1.067225456238
-90.657257080078 -71.235382080078 -84.525421142578 2.334637641907
-84.161422729492 -83.913894653320 -82.473762512207 4.299180507660
-105.088569641113 -69.483413696289 -221.883972167969 0.828513145447
-58.290473937988 -69.829284667969 -46.380153656006 1.761811017990
98.468521118164 -74.393089294434 -200.359756469727 0.301780819893
-120.116592407227 -60.799053192139 -200.136444091797 3.894756317139
-151.563644409180 -73.326141357422 -223.569747924805 2.015794754028
-149.900070190430 -72.423309326172 -215.278442382813 1.275450229645
9.207638740540 -80.505241394043 -188.180419921875 5.968403339386
-168.786163330078 -64.783729553223 -213.104125976563 5.144314765930
-14.792304039001 -63.229366302490 -245.852722167969 4.988946437836
-70.992858886719 -56.786903381348 -118.709312438965 1.938942670822
-151.048706054688 -76.774017333984 -214.052810668945 2.849792480469
20.215694427490 -70.338302612305 -199.557250976563 1.426223993301
-33.965301513672 -74.684204101563 -242.883041381836 1.270927071571
98.191673278809 -74.078048706055 -84.887855529785 1.256371736526
-7.648096084595 -71.466247558594 -242.354553222656 2.001102447510
-150.894866943359 -75.315589904785 -215.929290771484 1.582306265831
-116.744407653809 -59.779834747314 -197.777465820313 4.500895977020
-167.895172119141 -67.465385437012 -229.510910034180 3.165226221085
-158.480606079102 -76.295791625977 -229.690368652344 4.118599414825
-100.728965759277 -70.985481262207 -290.363708496094 1.738339424133
-157.721893310547 -67.847572326660 -246.862045288086 2.073264598846
-145.096237182617 -78.551742553711 -227.320480346680 1.084596157074
-156.277648925781 -65.883865356445 -245.913757324219 3.919237375259
1.128443002701 -78.694442749023 -245.511947631836 1.909207820892
8.273838043213 -76.748901367188 -242.172042846680 1.816157698631
5.150849819183 -80.217628479004 -238.028579711914 2.358041763306
-35.784141540527 -64.455589294434 -54.205337524414 6.698131561279
-29.456346511841 -83.575744628906 -217.154663085938 5.298825740814
-62.736835479736 -80.446678161621 -167.967193603516 1.129818797112
6.939777851105 -86.293060302734 -239.604507446289 6.305579185486
-18.136543273926 -72.742462158203 -206.115692138672 2.009516239166
31.611358642578 -84.277107238770 -117.983863830566 5.190875053406
33.526748657227 -76.668693542480 -109.804428100586 3.815944671631
3.466545104980 -84.035232543945 -245.568161010742 4.304367065430
9.994396209717 -84.788391113281 -237.900680541992 2.883300542831
-101.467391967773 -68.951614379883 -149.218582153320 3.952137947083
0.304563999176 -66.993896484375 -238.650070190430 1.629967093468
-148.004440307617 -78.415550231934 -208.448028564453 2.417004108429
-165.215499877930 -62.626892089844 -209.167724609375 3.686404705048
45.385166168213 -83.177047729492 -116.381217956543 3.298215866089
-138.095901489258 -67.132514953613 -223.666870117188 3.098066806793
31.408531188965 -83.225128173828 -122.994262695313 3.771167755127
-137.929183959961 -77.631454467773 -226.479995727539 0.398612707853
9.043064117432 -85.706596374512 -247.640136718750 4.404382705688
-99.459648132324 -65.925407409668 -141.262390136719 3.561668157578
0.540646016598 -66.051033020020 -235.652969360352 1.740112543106
-7.277068138123 -79.587020874023 -224.899887084961 2.701913595200
-72.099861145020 -72.569747924805 -157.755264282227 1.398621439934
-23.679052352905 -77.103469848633 -212.976852416992 0.987628996372
97.933921813965 -81.676582336426 -194.303833007813 6.584477424622
15.950043678284 -78.215354919434 -248.196853637695 1.575554609299
31.654100418091 -75.962333679199 -134.380645751953 2.501847743988
-81.231346130371 -60.548599243164 -110.944969177246 1.028304338455
15.046725273132 -85.780265808105 -239.012207031250 3.414296865463
-83.017288208008 -63.512878417969 -126.065574645996 0.335697323084
0.200298994780 -72.151710510254 -286.040924072266 3.266917943954
-6.950331211090 -80.259429931641 -258.779937744141 1.281294107437
-171.134674072266 -73.751853942871 -272.380126953125 4.772345542908
93.289665222168 -80.890884399414 -83.733383178711 4.738637447357
-149.697128295898 -68.987426757813 -254.729583740234 3.144427776337
78.389533996582 -76.836990356445 -100.468849182129 3.127055168152
79.316627502441 -76.455093383789 -104.722595214844 5.793631553650
-159.022171020508 -64.332534790039 -255.819274902344 3.608272552490
20.857465744019 -78.434402465820 -152.990768432617 3.061340808868
-145.132247924805 -76.713645935059 -258.933593750000 1.289763569832
34.386291503906 -77.653381347656 -151.369430541992 2.108049392700
84.501113891602 -82.749320983887 -91.789649963379 3.323299407959
-69.548789978027 -76.497039794922 -242.306091308594 4.340376377106
20.660669326782 -79.791076660156 -163.118865966797 2.892635107040
-152.696228027344 -77.927871704102 -258.443176269531 3.634683609009
-167.613082885742 -69.376907348633 -263.083587646484 0.656139314175
-154.305709838867 -75.889297485352 -259.925262451172 2.393160104752
-117.461067199707 -72.518745422363 -287.000000000000 2.010965585709
-159.275024414063 -59.865997314453 -260.233551025391 5.728739738464
-160.704818725586 -73.880805969238 -242.924560546875 2.409961223602
82.094673156738 -80.425590515137 -225.249114990234 4.843851566315
-155.208312988281 -81.431221008301 -253.419281005859 2.309034585953
-50.460380554199 -81.224830627441 -79.951103210449 2.813907623291
-11.939812660217 -87.461021423340 -260.654632568359 6.914012908936
20.228570938110 -63.124237060547 -40.294712066650 4.072557926178
-16.341114044189 -72.079238891602 -272.146606445313 3.172760725021
-6.811222076416 -72.538619995117 -267.654785156250 5.194231510162
-11.748563766479 -71.691368103027 -278.079223632813 1.233520865440
-4.844223022461 -67.250602722168 -278.838195800781 1.364836096764
-67.773086547852 -71.039596557617 -246.188079833984 1.557438135147
-7.608430862427 -83.349899291992 -267.072814941406 2.828700780869
-11.671105384827 -77.716285705566 -262.599822998047 2.146198987961
44.513134002686 -67.116073608398 -98.519332885742 1.376465559006
5.008498191833 -82.846626281738 -275.721160888672 1.097587943077
-71.585578918457 -61.925586700439 -101.499320983887 1.521192550659
47.240505218506 -78.206390380859 -105.541755676270 0.502295970917
-90.153465270996 -76.517730712891 -99.983436584473 2.063635826111
99.474800109863 -84.056266784668 -170.694046020508 11.313611984253
-68.973022460938 -63.716995239258 -43.982101440430 1.488883852959
-68.295272827148 -77.308876037598 -203.933547973633 2.722306013107
-56.001445770264 -81.856307983398 -184.949890136719 2.764256477356
4.877542018890 -80.215103149414 -276.347930908203 1.637909173965
10.153846740723 -80.190093994141 -276.031494140625 1.000537753105
64.657920837402 -70.815704345703 -244.184768676758 2.535954713821
22.200525283813 -73.576568603516 -274.382354736328 2.767776489258
-139.600311279297 -76.060729980469 -286.369750976563 2.755175352097
-150.923812866211 -77.008544921875 -281.065063476563 2.563994169235
14.361329078674 -74.729866027832 -180.292999267578 0.847634077072
1.615165948868 -76.775230407715 -160.985794067383 1.443628430367
17.524570465088 -82.349159240723 -168.403808593750 5.470673561096
20.723775863647 -79.959053039551 -167.060302734375 3.675806522369
-160.392059326172 -63.887340545654 -272.408172607422 5.601664543152
-156.914367675781 -73.738571166992 -276.008422851563 3.378503561020
-69.743362426758 -78.479827880859 -90.938232421875 6.435700416565
-157.229187011719 -76.758773803711 -277.869598388672 3.955852270126
-159.531341552734 -64.667076110840 -281.094665527344 5.421798706055
-61.705490112305 -81.719345092773 -66.419128417969 2.233427286148
34.876731872559 -72.948913574219 -140.579055786133 1.105633854866
47.681755065918 -73.076416015625 -94.064804077148 1.012444615364
-67.008239746094 -81.782554626465 -77.824851989746 1.986034750938
56.307052612305 -69.630218505859 -100.443656921387 1.073472261429
-84.536048889160 -62.917011260986 -111.264511108398 1.953487396240
23.359645843506 -68.841262817383 -142.502380371094 1.682252287865
89.617279052734 -69.758155822754 -66.489227294922 1.955617785454
-44.492515563965 -74.675697326660 -210.386520385742 6.450412750244
-50.801803588867 -77.771530151367 -157.230422973633 2.503421545029
-20.238071441650 -74.064651489258 -188.414459228516 2.036850214005
-52.806079864502 -61.139541625977 -38.204635620117 5.522153854370
28.680311203003 -78.791213989258 -143.296936035156 1.803769230843
-87.738197326660 -75.306953430176 -253.919174194336 1.576828598976
32.643413543701 -81.472389221191 -147.288970947266 2.143177032471
-36.516799926758 -83.176246643066 -75.701622009277 2.273782014847
-142.973449707031 -74.062675476074 -183.037475585938 1.338775157928
-80.261444091797 -81.142532348633 -75.227775573730 2.431102752686
87.386314392090 -78.479324340820 -91.222862243652 1.766816377640
-51.617622375488 -83.699684143066 -79.273826599121 1.273779034615
-55.483238220215 -80.472930908203 -91.508125305176 1.757061719894
107.377853393555 -74.537345886230 -163.212966918945 1.878911852837
-91.817329406738 -77.831108093262 -92.316604614258 1.161060333252
-50.403587341309 -83.159370422363 -59.530868530273 4.089216709137
48.768379211426 -62.185794830322 -250.727691650391 3.235463142395
-49.260944366455 -75.426170349121 -203.404617309570 4.683358192444
56.049011230469 -65.747032165527 -94.156776428223 1.891062736511
-74.448295593262 -83.961051940918 -100.176948547363 2.090056896210
-32.604476928711 -78.255996704102 -187.721817016602 1.859020948410
-26.018150329590 -78.467597961426 -198.255722045898 2.665330648422
-41.984073638916 -81.935249328613 -185.939117431641 4.688451290131
-26.220081329346 -80.169265747070 -194.444030761719 2.371141672134
1.827741026878 -78.939682006836 -223.062011718750 2.771595239639
-7.105051994324 -80.402534484863 -226.159484863281 2.505282163620
3.004760980606 -79.341346740723 -219.309616088867 4.498644828796
11.891210556030 -76.898231506348 -224.460693359375 2.073454380035
-8.381196975708 -75.387336730957 -228.771759033203 1.911679387093
-0.660749018192 -75.214462280273 -226.047363281250 2.251376152039
-52.011455535889 -78.114822387695 -181.308319091797 1.945622324944
-31.534860610962 -84.066726684570 -192.078552246094 2.198208808899
-47.692329406738 -83.416442871094 -165.940093994141 5.500298500061
-94.645385742188 -69.263122558594 -218.671188354492 2.082278728485
-49.561019897461 -70.939002990723 -196.587722778320 6.024052143097
-51.215698242188 -73.636878967285 -45.111297607422 4.345959663391
-50.462486267090 -79.226097106934 -181.322326660156 0.664690077305
-44.346538543701 -80.438522338867 -198.959991455078 1.388966202736
-149.537002563477 -69.766624450684 -197.793945312500 0.746475636959
-58.938659667969 -65.833938598633 -287.538818359375 4.424991130829
-149.176528930664 -77.470115661621 -191.364501953125 3.200884342194
-144.034866333008 -62.012199401855 -199.635360717773 1.746638894081
-130.657028198242 -60.392597198486 -227.418914794922 4.494549751282
-153.484405517578 -59.069259643555 -200.783859252930 2.684147357941
-149.301681518555 -50.870639801025 -201.818679809570 8.713702201843
-93.694473266602 -69.682113647461 -255.632324218750 2.010291337967
28.469247817993 -85.325241088867 -139.276947021484 5.325259208679
-149.467956542969 -72.450019836426 -191.406677246094 1.347027659416
28.584947586060 -84.323448181152 -131.170837402344 3.249843597412
46.630138397217 -74.835319519043 -118.421379089355 2.027862310410
-24.178480148315 -79.158302307129 -223.191482543945 3.746024847031
-142.300704956055 -76.769638061523 -195.850601196289 1.669018149376
30.510877609253 -67.466033935547 -38.442676544189 2.284882783890
110.869110107422 -68.491767883301 -103.535110473633 1.584551095963
-56.676406860352 -75.345001220703 -187.707412719727 4.383541584015
-42.406856536865 -82.576072692871 -197.357269287109 2.015961647034
-1.891538023949 -63.953220367432 -278.521026611328 3.086078166962
-140.917724609375 -84.501556396484 -195.005050659180 2.700431108475
14.708717346191 -80.585098266602 -237.738296508789 0.522421121597
36.894058227539 -75.060714721680 -137.430572509766 2.126253366470
-110.751731872559 -72.590530395508 -225.308700561523 1.308046817780
-21.762891769409 -72.952804565430 -193.792709350586 3.423259258270
-44.812263488770 -70.348320007324 -161.184341430664 1.576325297356
-21.890169143677 -79.691177368164 -198.925552368164 2.170834302902
-85.470901489258 -68.361763000488 -118.753593444824 1.548330307007
-69.135810852051 -68.892875671387 -44.673198699951 3.103373050690
-41.050052642822 -74.526168823242 -210.491439819336 4.659353256226
-47.266765594482 -64.343017578125 -154.284164428711 4.626404285431
42.403774261475 -76.209167480469 -124.257255554199 1.688782811165
-151.483551025391 -78.807769775391 -198.308486938477 1.637501835823
-166.907363891602 -62.621719360352 -207.516250610352 3.926554203033
35.320236206055 -75.176010131836 -140.959609985352 2.828894615173
35.581424713135 -80.621574401855 -133.474502563477 1.959575533867
-32.746273040771 -72.429374694824 -213.362075805664 2.186295986176
38.873714447021 -80.530090332031 -120.300323486328 1.528786659241
44.184162139893 -78.137260437012 -121.414794921875 1.072145342827
-97.265838623047 -63.957794189453 -140.878250122070 1.906151533127
-5.224793910980 -71.857353210449 -239.904525756836 1.153563261032
-139.713409423828 -75.445945739746 -230.865386962891 1.706514120102
37.154453277588 -84.913238525391 -115.634078979492 5.170478820801
-137.906356811523 -60.571434020996 -227.172882080078 3.980454921722
-147.429397583008 -77.861198425293 -203.673858642578 2.459185600281
-163.035964965820 -60.795677185059 -208.492309570313 5.224609375000
29.377296447754 -74.572334289551 -136.067260742188 2.519425630569
-88.641189575195 -69.835601806641 -243.076766967773 7.657685279846
111.747535705566 -76.239013671875 -190.227310180664 2.381746292114
-149.192504882813 -71.960205078125 -207.068862915039 2.023108959198
-113.088897705078 -65.939697265625 -227.787170410156 1.567049026489
-170.475769042969 -65.946075439453 -210.114624023438 4.838610172272
37.109561920166 -81.047256469727 -113.712417602539 3.653673410416
42.817646026611 -82.927093505859 -120.543052673340 3.287051916122
-127.532829284668 -64.638618469238 -231.108306884766 2.016481399536
-31.605020523071 -72.356025695801 -195.882492065430 4.576119422913
-27.917524337769 -81.122779846191 -195.782211303711 3.869019508362
8.901921272278 -85.768959045410 -226.580886840820 4.926069736481
6.797039031982 -80.943016052246 -228.223815917969 2.524521589279
-24.903617858887 -75.174774169922 -199.300613403320 1.286997199059
-148.053451538086 -77.932189941406 -206.892684936523 2.449036598206
2.691751003265 -80.963462829590 -228.907913208008 2.429060935974
8.907900810242 -78.559295654297 -230.229446411133 2.264681339264
-27.288658142090 -77.246253967285 -193.278350830078 1.516352176666
2.136079072952 -60.681644439697 -235.514358520508 2.783632755280
-95.815773010254 -65.216400146484 -140.707565307617 0.531234264374
-4.674921989441 -78.648727416992 -223.384506225586 1.541368246078
11.675321578979 -87.386131286621 -204.226409912109 7.568694114685
-6.262785911560 -76.603881835938 -245.518524169922 1.814473152161
-156.066467285156 -79.283767700195 -232.732742309570 2.634579420090
-112.527854919434 -66.374832153320 -180.086242675781 2.503952980042
12.853995323181 -86.124916076660 -238.450759887695 3.246126174927
0.171352997422 -78.273101806641 -234.401550292969 2.401094675064
30.873069763184 -72.458511352539 -117.811851501465 1.451349854469
-25.345760345459 -80.187660217285 -71.301406860352 3.104598999023
-70.204940795898 -77.624313354492 -160.260925292969 0.908889710903
6.688609123230 -82.323898315430 -240.571792602539 3.096071004868
2.252778053284 -76.502731323242 -245.184997558594 0.827989280224
-58.858242034912 -75.211456298828 -149.760391235352 4.194226741791
-50.653976440430 -86.654014587402 -145.414459228516 9.004516601563
-57.234592437744 -80.020919799805 -174.782974243164 1.761244058609
12.623695373535 -80.827743530273 -245.370483398438 2.024202585220
4.138930797577 -79.465988159180 -243.684997558594 2.229123115540
-90.021263122559 -55.956470489502 -131.238128662109 8.269155502319
32.299331665039 -73.166831970215 -261.652465820313 3.539793968201
-45.278430938721 -84.292404174805 -79.556373596191 1.277888774872
-2.383368968964 -82.957656860352 -249.004211425781 2.102477312088
-2.371071100235 -62.087471008301 -271.391815185547 3.921434402466
-85.809890747070 -74.832450866699 -108.414009094238 2.530000209808
-27.592407226563 -79.875755310059 -281.253784179688 6.345176696777
5.861347198486 -79.449058532715 -247.304458618164 2.005237102509
-33.150341033936 -77.945297241211 -288.547058105469 1.184406518936
-42.451980590820 -80.340278625488 -62.987953186035 1.721237063408
-71.470756530762 -79.473297119141 -55.487052917480 4.391490459442
84.288269042969 -80.581863403320 -213.025650024414 5.245252609253
-138.179336547852 -73.096961975098 -252.705505371094 3.160400629044
-97.311096191406 -54.955615997314 -99.081703186035 2.701990127563
115.105781555176 -78.404708862305 -125.219535827637 4.849757194519
18.285501480103 -76.134109497070 -28.965339660645 4.754087924957
-11.561613082886 -76.463645935059 -254.030014038086 2.050006866455
-71.698707580566 -75.259460449219 -48.401466369629 3.656125307083
91.129280090332 -80.653533935547 -212.280776977539 3.786522150040
46.744590759277 -71.367683410645 -102.919326782227 2.311485767365
-74.409019470215 -56.939453125000 -104.490425109863 2.965516328812
-171.184555053711 -65.160804748535 -289.935119628906 6.930885791779
-33.381752014160 -79.941711425781 -181.271331787109 1.539247393608
-39.091514587402 -81.515380859375 -173.521270751953 4.269723892212
-160.237930297852 -78.042037963867 -288.901672363281 3.089255332947
-140.803817749023 -80.094604492188 -291.739685058594 1.957900762558
-153.633590698242 -77.434997558594 -278.540710449219 3.065546035767
-159.633132934570 -73.734588623047 -300.811859130859 3.909358501434
-154.040130615234 -58.485988616943 -302.356262207031 8.099998474121
-96.202529907227 -69.558403015137 -88.758178710938 2.096096038818
-87.120498657227 -73.561286926270 -102.987281799316 5.625743389130
-56.715297698975 -80.935943603516 -69.834968566895 2.598158359528
-82.459678649902 -78.124916076660 -105.430107116699 1.597549676895
-49.988842010498 -84.188789367676 -69.702926635742 3.301079750061
-95.588996887207 -72.570755004883 -110.772270202637 1.831765413284
-74.819206237793 -81.113098144531 -69.274551391602 1.878429770470
-46.868434906006 -76.625083923340 -238.502105712891 2.570551872253
71.111236572266 -67.243820190430 -108.926620483398 3.733795642853
-6.731947898865 -74.539466857910 -286.835113525391 1.192175269127
69.439544677734 -65.094512939453 -105.690795898438 2.462029218674
-147.469879150391 -69.894470214844 -286.605072021484 2.028843879700
-133.177719116211 -73.246063232422 -250.176239013672 3.743602275848
-155.709686279297 -75.951744079590 -280.319427490234 4.343708038330
-156.486709594727 -65.380409240723 -284.472045898438 1.899242877960
-144.868164062500 -70.395126342773 -295.666687011719 1.714734315872
-149.146789550781 -60.378273010254 -285.884124755859 2.570678710938
-162.253280639648 -57.704242706299 -289.723358154297 8.862684249878
64.679786682129 -63.610542297363 -82.814369201660 1.081094741821
-41.967830657959 -78.811386108398 -66.990623474121 1.107375383377
-75.542053222656 -77.871520996094 -93.892005920410 6.484180927277
