-44.791309356689 -85.719680786133 -194.287933349609 2.700310468674
15.273709297180 -82.315933227539 -258.316101074219 1.564281105995
31.179487228394 -76.285385131836 -261.636993408203 6.372890472412
8.750587463379 -88.198799133301 -252.259628295898 4.160124778748
21.208200454712 -68.380210876465 -252.483367919922 2.835108995438
-2.520453929901 -85.170639038086 -253.593597412109 3.186135530472
-41.856128692627 -82.326255798340 -199.322097778320 1.426321625710
-94.988861083984 -81.512046813965 -214.402755737305 5.570127010345
-48.210609436035 -87.585128784180 -66.441574096680 7.817716121674
109.036674499512 -84.594978332520 -142.615768432617 8.852591514587
3.539369106293 -88.497146606445 -240.306243896484 9.880436897278
-54.018882751465 -87.385772705078 -200.297546386719 2.593244075775
-154.382385253906 -74.227600097656 -173.974945068359 4.411705017090
-58.816020965576 -76.539482116699 -71.017883300781 4.625067234039
-155.996124267578 -74.469467163086 -179.731292724609 5.317657947540
-149.974227905273 -68.170516967773 -174.701354980469 1.961386442184
2.586909055710 -66.680175781250 -252.222030639648 5.561923027039
54.250518798828 -72.510566711426 -99.622291564941 1.859054207802
-58.825824737549 -89.034584045410 -200.122512817383 5.060665607452
-73.220443725586 -67.500129699707 -101.289505004883 1.662474632263
-79.562538146973 -71.292655944824 -104.102157592773 3.179504394531
28.212360382080 -80.168327331543 -148.499176025391 1.443779945374
-147.051849365234 -89.801689147949 -250.816360473633 4.659029006958
-151.339752197266 -87.186035156250 -253.335281372070 3.285465240479
-170.510421752930 -79.859237670898 -244.339263916016 7.719134807587
79.088058471680 -79.617782592773 -231.004577636719 3.221312284470
-148.914245605469 -73.240951538086 -274.273986816406 3.031147480011
-92.866127014160 -75.192573547363 -66.155029296875 4.783726692200
-142.811141967773 -92.103637695313 -255.180633544922 7.507336139679
-133.323928833008 -74.333732604980 -286.475219726563 0.991959750652
-154.325363159180 -64.016639709473 -276.635925292969 3.409474849701
-165.394577026367 -79.259445190430 -290.363586425781 4.446528434753
-148.555160522461 -87.770286560059 -298.743011474609 2.137397289276
-102.487182617188 -72.374320983887 -251.817794799805 3.478965520859
95.505256652832 -77.078796386719 -204.231155395508 0.556378364563
-130.667816162109 -79.377258300781 -256.133453369141 3.966646432877
-59.553226470947 -74.783584594727 -53.859176635742 2.058782577515
-117.562110900879 -74.231628417969 -255.785354614258 0.740109622478
-117.134071350098 -70.937438964844 -256.153198242188 2.304466485977
-94.798095703125 -75.895515441895 -88.734634399414 4.135185241699
-142.447540283203 -89.038879394531 -256.971130371094 4.820499420166
14.173203468323 -84.732810974121 -272.767974853516 3.281651973724
54.757411956787 -75.524909973145 -97.450019836426 0.775278329849
68.835075378418 -67.742286682129 -67.229400634766 2.587468147278
-2.350852966309 -89.020912170410 -262.514495849609 4.569316387177
-166.047607421875 -77.841873168945 -254.522415161133 4.615506172180
10.152718544006 -68.883293151855 -148.287567138672 1.844925403595
81.436569213867 -64.364135742188 -99.110916137695 5.524687767029
-135.626846313477 -82.499969482422 -280.646514892578 6.602619171143
-139.131362915039 -86.748916625977 -259.947204589844 1.904181599617
80.213020324707 -68.201950073242 -226.374557495117 1.341967940331
-144.979721069336 -71.422355651855 -272.025512695313 2.633481740952
-137.350814819336 -72.491310119629 -287.526977539063 2.649640083313
-156.361953735352 -76.474060058594 -276.666473388672 3.877043485641
-151.638183593750 -90.443046569824 -261.142791748047 4.823510169983
-155.935775756836 -72.077491760254 -275.879882812500 2.858972311020
-169.848999023438 -73.850685119629 -259.353363037109 4.033424377441
-133.924682617188 -72.549461364746 -292.988677978516 1.797833442688
26.785495758057 -74.478233337402 -170.693878173828 1.641010046005
13.828014373779 -81.294654846191 -148.413604736328 9.501770973206
-71.673957824707 -80.864166259766 -97.581436157227 4.453692913055
6.567972183228 -72.873527526855 -146.662185668945 4.440983295441
28.162046432495 -71.061897277832 -158.395858764648 1.875534176826
86.430389404297 -70.451400756836 -101.449737548828 2.766828775406
84.873580932617 -66.473983764648 -63.136684417725 1.972694158554
39.231212615967 -78.375549316406 -104.979545593262 1.879652857780
-57.653919219971 -86.478988647461 -202.735961914063 1.776744008064
51.386093139648 -69.822097778320 -98.481361389160 3.291347742081
3.862270116806 -88.281547546387 -264.087524414063 2.285845518112
-95.475433349609 -70.428794860840 -89.809234619141 1.507465004921
0.709650993347 -90.089675903320 -264.518096923828 4.843238353729
-72.155380249023 -83.858947753906 -66.072479248047 5.009407043457
2.962533950806 -89.082252502441 -273.928741455078 5.358105659485
-82.191810607910 -85.975097656250 -81.032524108887 5.108628273010
6.330002784729 -81.846008300781 -280.115264892578 2.158771514893
26.549398422241 -72.166206359863 -264.597045898438 1.800346851349
-66.067863464355 -83.680877685547 -202.794296264648 3.758133888245
-55.644451141357 -89.420471191406 -209.777542114258 6.694991588593
55.734939575195 -77.494277954102 -87.114105224609 4.916163921356
38.532848358154 -77.867736816406 -106.262840270996 1.093351840973
0.540902018547 -90.545066833496 -266.927001953125 5.112197399139
-78.575859069824 -71.379096984863 -100.745964050293 1.305079460144
-130.067199707031 -71.117889404297 -258.764129638672 4.985661506653
-85.905731201172 -79.878326416016 -79.105430603027 3.533153533936
-148.940307617188 -87.113456726074 -295.028686523438 1.833397984505
-153.886169433594 -83.993881225586 -281.101654052734 4.073402881622
-84.155822753906 -83.459487915039 -84.195877075195 3.340004205704
-147.799316406250 -84.162658691406 -290.097167968750 1.090273857117
-164.722747802734 -78.503677368164 -279.608673095703 5.593604087830
-147.929580688477 -76.322250366211 -304.037231445313 2.665864944458
-69.651588439941 -86.250816345215 -81.353286743164 3.795761823654
-125.627403259277 -77.023742675781 -261.283386230469 2.032370567322
-127.899467468262 -69.337997436523 -264.046905517578 2.625277042389
-57.581180572510 -84.303268432617 -72.388130187988 2.254925489426
119.259780883789 -72.896781921387 -137.414886474609 2.461726188660
110.000968933105 -75.701744079590 -134.581710815430 1.249419331551
-42.171649932861 -88.074256896973 -78.992401123047 5.258797168732
12.707506179810 -77.539253234863 -287.301818847656 1.232536315918
12.287972450256 -71.272865295410 -280.248718261719 4.318608760834
-105.205032348633 -72.593467712402 -162.369873046875 4.339775562286
-61.849624633789 -86.042358398438 -206.859542846680 2.124440670013
-64.700180053711 -82.079086303711 -201.122512817383 4.205779552460
50.286331176758 -74.804672241211 -103.624824523926 0.873560309410
-75.731109619141 -61.810798645020 -110.758949279785 1.609986662865
37.961215972900 -81.641517639160 -103.256828308105 5.590387821198
105.909751892090 -73.113273620605 -162.290939331055 2.282226085663
-78.974815368652 -81.899795532227 -89.874397277832 2.434301614761
-77.512168884277 -86.420745849609 -83.007987976074 3.714779615402
-155.499221801758 -77.153137207031 -176.250289916992 6.890020370483
-156.544662475586 -69.994972229004 -174.876159667969 4.718514442444
-77.116744995117 -70.085159301758 -102.848236083984 2.560557842255
-150.266464233398 -67.587509155273 -177.901016235352 3.226931095123
0.947157025337 -67.406852722168 -266.790954589844 2.726527929306
-144.981338500977 -68.439994812012 -169.285675048828 5.934776782990
-67.781967163086 -85.545684814453 -70.077278137207 4.487904071808
-118.451896667480 -80.223220825195 -249.544174194336 8.724308013916
-59.192562103271 -72.427024841309 -49.186580657959 3.188941001892
95.273468017578 -79.887771606445 -192.941802978516 7.086009025574
-41.689643859863 -82.107910156250 -197.049224853516 1.935847997665
-54.517093658447 -87.723915100098 -180.755950927734 6.363854408264
-92.109558105469 -81.137382507324 -84.119300842285 5.833840370178
60.760070800781 -72.700767517090 -90.184333801270 2.186668634415
-138.829483032227 -79.478416442871 -287.031372070313 0.935860514641
-122.579788208008 -75.798736572266 -254.632339477539 2.804276943207
-84.618827819824 -82.516777038574 -96.343261718750 1.021450281143
-158.222732543945 -82.663291931152 -290.877655029297 3.888300418854
-141.658233642578 -82.123565673828 -302.651794433594 6.186071395874
-144.320877075195 -72.880149841309 -283.474395751953 1.379929542542
-146.078308105469 -72.380767822266 -293.485076904297 1.879964709282
-151.414825439453 -78.277877807617 -285.053588867188 1.470023512840
53.444400787354 -67.922035217285 -81.380096435547 5.116906166077
49.066120147705 -63.155094146729 -87.610618591309 4.076294422150
48.281448364258 -65.516899108887 -87.817268371582 4.028990745544
-143.010620117188 -75.871177673340 -281.236358642578 3.452239274979
-144.877151489258 -70.811805725098 -292.796661376953 1.374761939049
60.545936584473 -62.734580993652 -79.452339172363 1.583388686180
43.044620513916 -67.329826354980 -91.280166625977 5.336284160614
83.715599060059 -60.097629547119 -53.252353668213 5.846381664276
-108.973052978516 -75.020248413086 -254.667587280273 4.003987789154
-87.679740905762 -82.746788024902 -95.043373107910 3.877825498581
-88.361663818359 -84.027114868164 -95.971015930176 4.569791316986
32.667110443115 -64.874519348145 -252.580703735352 3.412949323654
-7.359571933746 -77.265998840332 -286.319122314453 3.321194648743
-9.130719184875 -80.934585571289 -288.645263671875 4.282228946686
-0.882269978523 -69.114997863770 -289.992645263672 2.945101022720
23.116432189941 -78.120468139648 -256.676269531250 2.794178009033
-5.668670177460 -72.082504272461 -285.466674804688 1.601480484009
110.768432617188 -70.742065429688 -159.596389770508 1.530082225800
-23.938638687134 -81.603050231934 -180.165100097656 2.791267156601
21.517490386963 -69.509338378906 -134.921798706055 4.764460563660
28.878866195679 -67.114425659180 -126.624168395996 4.969310760498
-34.812072753906 -73.449668884277 -151.396469116211 3.933890342712
-23.175867080688 -86.071052551270 -176.812896728516 3.772312402725
-107.644905090332 -72.955352783203 -231.051116943359 2.735354185104
-24.458549499512 -83.912940979004 -180.184356689453 3.004756212234
-42.667705535889 -76.411796569824 -150.561889648438 1.532856941223
-117.052932739258 -70.347106933594 -232.076721191406 0.374550431967
-41.087020874023 -87.696578979492 -186.240112304688 6.120324611664
-50.426445007324 -82.272567749023 -191.672256469727 3.681584119797
-56.891674041748 -90.130966186523 -195.926498413086 7.952642440796
-43.385948181152 -82.790512084961 -62.924949645996 2.926424264908
-48.785572052002 -84.017112731934 -68.205833435059 4.411748409271
-153.395843505859 -85.038192749023 -227.128417968750 1.608997941017
-135.950149536133 -81.606742858887 -195.872360229492 1.436550974846
-145.389678955078 -86.308898925781 -214.294708251953 2.188359737396
-62.739334106445 -62.971088409424 -135.718841552734 1.422957301140
-51.086563110352 -70.210716247559 -140.328781127930 2.705830812454
-24.476234436035 -72.406158447266 -240.610549926758 0.852142155170
-155.163024902344 -90.317749023438 -219.096359252930 9.831341743469
7.080064773560 -78.345573425293 -210.830917358398 1.586840152740
12.501853942871 -83.535675048828 -206.431243896484 4.548664569855
-32.601364135742 -81.865333557129 -234.020416259766 5.368151187897
-150.065124511719 -87.561103820801 -221.758224487305 4.721701622009
-145.572906494141 -88.745223999023 -222.020416259766 4.955632209778
-141.807449340820 -95.042266845703 -229.200592041016 11.413788795471
-20.504634857178 -78.057044982910 -211.230331420898 3.308275461197
-150.545791625977 -89.555519104004 -228.094924926758 5.641194343567
-166.905502319336 -72.104850769043 -230.171844482422 1.475326180458
14.303597450256 -76.259056091309 -181.468185424805 1.598915100098
33.954833984375 -77.010169982910 -144.971420288086 1.798193454742
-145.712158203125 -89.502433776855 -226.476821899414 5.458171844482
-146.787506103516 -88.440582275391 -235.672317504883 4.938941001892
-144.192230224609 -87.709869384766 -237.279373168945 4.976161003113
-149.877120971680 -87.941246032715 -229.918807983398 4.402313709259
-169.608963012695 -70.367279052734 -233.986846923828 1.710423231125
8.481459617615 -69.153976440430 -213.478134155273 1.871233344078
-26.258548736572 -87.010650634766 -212.808731079102 7.207304000854
-141.411849975586 -83.945411682129 -238.225936889648 3.024303436279
-79.861663818359 -76.164260864258 -209.755645751953 2.002753496170
7.670059204102 -70.581375122070 -152.870483398438 1.504041433334
-53.239761352539 -76.993049621582 -235.959762573242 6.831434726715
-55.721446990967 -85.868484497070 -238.096405029297 6.780013561249
17.855888366699 -70.142662048340 -170.713485717773 1.081485152245
-165.567138671875 -76.007850646973 -262.354614257813 1.938263773918
94.188133239746 -75.396675109863 -92.909858703613 1.831852078438
-135.208236694336 -75.754272460938 -284.756378173828 2.340049505234
-148.550979614258 -71.395683288574 -279.088623046875 3.757414579391
13.407743453979 -71.267478942871 -144.691802978516 2.951022863388
25.489185333252 -72.542381286621 -162.208312988281 2.529493570328
69.024307250977 -72.878608703613 -87.512153625488 1.071957349777
-147.162429809570 -83.290557861328 -252.317825317383 1.606997489929
27.004671096802 -68.887237548828 -168.418136596680 1.048209428787
7.318786144257 -74.152420043945 -145.585968017578 5.629702568054
61.339626312256 -66.766357421875 -82.864311218262 1.278577685356
-148.169464111328 -88.794960021973 -258.173309326172 3.956124305725
-171.230911254883 -80.705200195313 -255.721435546875 9.179666519165
-150.461334228516 -94.551445007324 -257.815155029297 8.671140670776
7.259372234344 -61.667205810547 -278.919067382813 1.137546062469
67.763252258301 -61.994857788086 -62.286609649658 1.967340707779
-52.778102874756 -79.463050842285 -68.192520141602 1.584920048714
15.574895858765 -85.715583801270 -251.059570312500 3.908560037613
-75.032089233398 -79.701828002930 -249.608993530273 3.868139982224
31.478143692017 -69.505508422852 -247.823287963867 7.242344856262
112.552787780762 -75.574798583984 -150.603469848633 2.177611351013
8.887286186218 -78.839073181152 -171.109558105469 8.106870651245
-161.314315795898 -76.626770019531 -256.794738769531 2.287163257599
-150.406875610352 -85.173744201660 -261.803161621094 1.425160646439
11.064142227173 -73.321739196777 -180.379364013672 4.020360946655
0.750038027763 -86.011116027832 -265.197204589844 1.825981497765
9.016816139221 -83.969154357910 -289.132141113281 4.942939758301
82.737953186035 -77.812767028809 -92.563362121582 1.520018696785
77.818473815918 -69.699867248535 -98.135124206543 4.243175029755
-2.286967039108 -82.095664978027 -273.690826416016 2.332404851913
6.815058231354 -87.098800659180 -267.694641113281 3.047522544861
45.936367034912 -77.062751770020 -106.395019531250 1.908233642578
-89.052345275879 -82.472686767578 -213.163345336914 4.534198760986
29.653017044067 -71.615653991699 -262.948944091797 1.865084409714
65.787338256836 -75.022155761719 -228.963577270508 4.747559547424
37.196212768555 -75.250030517578 -100.261528015137 5.968710422516
-91.752891540527 -84.786483764648 -105.008567810059 4.966834068298
-3.454830884933 -84.496582031250 -262.359771728516 1.053194999695
40.704700469971 -71.531288146973 -109.488716125488 1.126879811287
2.291608095169 -59.781398773193 -250.547500610352 2.061703681946
-56.184494018555 -82.327552795410 -92.636451721191 2.027393817902
-157.295486450195 -83.230499267578 -260.671813964844 3.743264198303
-160.082077026367 -81.431480407715 -258.111541748047 5.242027282715
-149.674682617188 -89.824111938477 -276.432586669922 3.463531017303
-167.250091552734 -72.254280090332 -280.502014160156 2.660822868347
69.020942687988 -71.214706420898 -98.883598327637 1.608381509781
-149.538711547852 -70.304748535156 -256.792907714844 2.238503217697
-89.569496154785 -63.509086608887 -53.185329437256 1.748335361481
-148.784240722656 -67.918205261230 -258.629058837891 0.979102373123
30.751842498779 -70.825035095215 -145.533294677734 2.126400470734
-154.373611450195 -87.802726745605 -266.693176269531 5.268988132477
-155.332733154297 -84.479965209961 -271.093414306641 3.698043107986
-144.763717651367 -76.973022460938 -250.496475219727 1.567175149918
19.080007553101 -76.836410522461 -156.312088012695 1.811895847321
26.666498184204 -67.655311584473 -147.165771484375 2.183572053909
-166.203735351563 -72.379058837891 -269.604553222656 2.293267488480
-157.401748657227 -74.084106445313 -270.530242919922 2.241684436798
-129.869964599609 -75.049110412598 -256.866729736328 2.838172197342
44.701778411865 -65.036331176758 -100.539588928223 2.118221998215
-163.162902832031 -76.222381591797 -304.251708984375 7.694517612457
28.799394607544 -73.965766906738 -115.392295837402 4.476712226868
-36.771732330322 -81.540016174316 -181.421081542969 4.639174938202
-93.474822998047 -84.107048034668 -101.233680725098 7.363098144531
-149.613220214844 -84.823966979980 -293.874298095703 1.897941112518
-32.862007141113 -86.803039550781 -170.973144531250 5.587926387787
-143.288085937500 -89.113746643066 -284.165557861328 5.002272129059
-65.646919250488 -82.563758850098 -210.303985595703 1.700046300888
-145.019729614258 -81.763610839844 -290.898468017578 1.236214399338
-57.945457458496 -89.486740112305 -199.581115722656 5.262044429779
-60.165302276611 -87.369194030762 -197.511596679688 6.689850807190
-46.007514953613 -81.212371826172 -183.548568725586 2.854615688324
-154.435058593750 -78.882881164551 -294.272918701172 2.290827751160
-58.698410034180 -91.815719604492 -205.492446899414 6.714012622833
-154.395889282227 -72.288932800293 -306.963348388672 2.272845029831
-88.954383850098 -69.884704589844 -102.554359436035 5.156599998474
-68.155731201172 -79.609886169434 -78.098510742188 3.932182550430
-50.991775512695 -77.536521911621 -55.187225341797 3.396084070206
-89.466804504395 -83.503707885742 -99.238723754883 4.920809745789
13.332778930664 -88.427177429199 -251.295242309570 5.826143264771
-51.166904449463 -86.000869750977 -74.929397583008 4.645205020905
-53.826560974121 -79.973030090332 -76.167778015137 2.645562648773
-137.399353027344 -85.349075317383 -259.420867919922 1.024909019470
-35.968605041504 -78.370697021484 -161.954055786133 0.671981155872
-17.676780700684 -84.502189636230 -173.410079956055 3.189481496811
-14.463631629944 -74.962150573730 -171.047027587891 4.126277446747
88.845413208008 -76.063224792480 -67.227088928223 3.245519161224
-136.894927978516 -78.502609252930 -256.623718261719 1.766029000282
21.460027694702 -79.623298645020 -133.155105590820 7.072316646576
-148.019119262695 -87.282371520996 -302.025451660156 1.289021134377
-16.221260070801 -78.047897338867 -167.719253540039 5.341502666473
-153.975387573242 -77.064857482910 -312.124481201172 2.398660659790
28.350364685059 -77.638450622559 -129.182159423828 1.083771109581
23.888017654419 -73.763206481934 -129.538742065430 5.090727806091
80.661972045898 -75.920310974121 -75.198562622070 1.494339704514
-2.939922094345 -82.412513732910 -160.587585449219 4.534318923950
63.035160064697 -69.350028991699 -63.130428314209 7.772493362427
90.664276123047 -76.030502319336 -70.028205871582 2.289563179016
-43.017856597900 -78.582023620605 -63.399032592773 1.294053792953
-44.566116333008 -85.653160095215 -70.449584960938 4.267366886139
-163.917724609375 -80.307350158691 -286.817565917969 4.819258689880
-136.094894409180 -75.330841064453 -255.381301879883 1.892792820930
-102.935981750488 -79.486236572266 -216.169738769531 7.785952568054
-46.214923858643 -83.405914306641 -70.691833496094 2.774729728699
-41.884197235107 -78.826858520508 -206.660278320313 2.918431997299
76.466590881348 -69.981597900391 -220.521896362305 5.008432865143
-5.566922187805 -79.520858764648 -247.111694335938 2.698651790619
103.916427612305 -69.472229003906 -122.583801269531 2.994391679764
-66.151824951172 -67.376914978027 -92.509727478027 2.424252510071
56.608711242676 -58.150188446045 -66.833129882813 9.122959136963
91.468193054199 -70.949455261230 -75.317932128906 3.493034839630
-44.102436065674 -84.336822509766 -76.886627197266 2.004341125488
-37.172595977783 -83.386955261230 -240.816833496094 3.556822538376
-135.452072143555 -85.186065673828 -287.114532470703 1.049416303635
-74.982200622559 -81.096839904785 -209.788269042969 0.274067133665
-131.352432250977 -80.334861755371 -282.075042724609 5.708690166473
-77.860641479492 -85.936714172363 -72.532829284668 5.326214313507
17.813142776489 -62.598262786865 -137.918975830078 3.812163829803
-77.771789550781 -84.395065307617 -79.866188049316 4.049165725708
-88.839569091797 -70.462875366211 -106.625946044922 4.098615646362
53.383476257324 -60.640525817871 -94.100502014160 1.627946734428
-21.016784667969 -69.382698059082 -289.178161621094 2.606795310974
-81.143165588379 -83.935714721680 -76.223533630371 4.770243644714
-73.183799743652 -68.707710266113 -96.152618408203 3.954216718674
-91.567512512207 -70.354171752930 -110.417625427246 3.480415582657
43.571338653564 -67.364280700684 -94.134437561035 2.855156183243
-145.427490234375 -80.269577026367 -266.623535156250 1.183868885040
-130.127365112305 -76.977622985840 -278.627136230469 5.437335968018
-155.294433593750 -77.227905273438 -249.242553710938 4.121169090271
-157.509460449219 -80.477073669434 -249.991394042969 4.922092437744
-52.347938537598 -80.594551086426 -82.459465026855 4.159762859344
-151.500457763672 -80.456840515137 -257.564880371094 2.415456771851
-124.872039794922 -74.839027404785 -286.081848144531 1.921803116798
-131.800720214844 -68.903610229492 -286.598602294922 1.217099666595
-149.974426269531 -75.951721191406 -269.489379882813 2.007487058640
-156.549636840820 -66.261802673340 -266.769348144531 3.475267648697
-142.223846435547 -81.969978332520 -256.659332275391 0.943540751934
87.729637145996 -77.752899169922 -93.193298339844 0.841123223305
-71.239288330078 -80.334976196289 -100.736488342285 2.534672260284
-51.140396118164 -82.951751708984 -66.335266113281 3.421672582626
-82.584541320801 -82.749351501465 -104.566658020020 1.830357909203
46.149902343750 -72.063339233398 -93.567031860352 2.078486442566
50.205543518066 -70.084594726563 -87.598854064941 2.587107896805
-40.428722381592 -78.495330810547 -171.274505615234 1.618465781212
-150.139495849609 -79.139251708984 -288.792785644531 0.720796108246
-142.679992675781 -78.084106445313 -302.328369140625 3.180810213089
-145.814590454102 -84.091468811035 -300.808166503906 2.067861795425
66.520576477051 -69.768600463867 -65.185356140137 5.347342014313
61.225376129150 -66.066551208496 -74.019615173340 4.132187366486
56.175937652588 -66.909431457520 -80.293029785156 4.205615997314
32.081226348877 -71.801605224609 -105.878707885742 6.563727855682
-39.123859405518 -73.920295715332 -174.809494018555 1.470575928688
-122.288940429688 -69.743927001953 -261.507263183594 2.866659641266
-152.108261108398 -74.262809753418 -293.060180664063 0.963271141052
77.627159118652 -70.556259155273 -61.234401702881 3.528328418732
-30.529293060303 -66.039443969727 -174.752502441406 2.938040971756
-110.315109252930 -70.966003417969 -255.041793823242 2.346468687057
-117.671287536621 -69.459526062012 -258.710906982422 2.147012472153
42.788677215576 -66.721336364746 -94.204162597656 3.125128269196
58.243156433105 -69.187667846680 -77.375137329102 6.543801307678
83.749534606934 -65.400093078613 -54.356407165527 5.372168064117
-153.941650390625 -68.568420410156 -285.534759521484 1.160001158714
-147.519454956055 -69.784721374512 -293.936157226563 1.482859611511
-150.470169067383 -69.938278198242 -295.551849365234 0.654595553875
-13.678519248962 -83.486839294434 -178.347457885742 1.958557724953
-37.789958953857 -81.143508911133 -159.474121093750 1.988007545471
-15.617486953735 -85.322921752930 -175.516693115234 2.713171243668
15.623751640320 -80.034515380859 -214.360458374023 2.634616613388
-147.156433105469 -87.945259094238 -187.749130249023 5.299037933350
-41.480541229248 -79.544883728027 -150.008499145508 1.522438168526
-61.228324890137 -77.431716918945 -171.424026489258 0.490261793137
-10.479701042175 -81.552795410156 -208.416793823242 2.576462030411
24.335092544556 -85.374343872070 -241.468338012695 6.856403827667
-33.615539550781 -83.684951782227 -188.498672485352 1.108987450600
-4.039309024811 -69.924842834473 -230.867935180664 1.493027329445
-95.903060913086 -70.831672668457 -144.708694458008 3.684784412384
-43.387889862061 -77.483177185059 -195.551010131836 1.802239894867
-45.086833953857 -82.318038940430 -185.017196655273 2.969957590103
-47.617469787598 -84.420043945313 -189.197662353516 4.512162208557
-92.837715148926 -75.941711425781 -216.376220703125 1.649682760239
-46.025352478027 -77.788299560547 -52.915946960449 3.277504682541
11.837775230408 -76.762771606445 -244.778488159180 1.168584823608
-126.237335205078 -78.616058349609 -226.800888061523 3.605406284332
-150.147399902344 -76.933090209961 -196.635391235352 1.858420729637
-33.912887573242 -81.449630737305 -66.578254699707 3.628043651581
-154.088058471680 -80.354843139648 -186.843154907227 4.235565185547
-158.027572631836 -74.808792114258 -195.805816650391 3.541038513184
-129.770401000977 -69.736625671387 -220.775772094727 3.647232055664
-139.802459716797 -72.900138854980 -198.324920654297 2.461748600006
-144.723541259766 -62.947841644287 -195.745483398438 2.422163486481
-68.897583007813 -76.691810607910 -153.361892700195 2.133495807648
14.612737655640 -81.626007080078 -242.877120971680 3.074332714081
-71.952613830566 -72.973175048828 -144.033950805664 2.415301084518
-11.258436203003 -71.879013061523 -213.889190673828 2.678569316864
-69.430747985840 -77.388351440430 -245.400604248047 2.161708354950
-10.259714126587 -85.174766540527 -211.246719360352 5.328175544739
-89.751594543457 -64.367187500000 -115.148620605469 2.349292039871
-41.313285827637 -79.300041198730 -285.965332031250 2.360775470734
-25.137847900391 -71.227951049805 -58.771148681641 1.825362205505
-141.163787841797 -74.060630798340 -180.609481811523 2.257032632828
-144.348846435547 -64.048034667969 -180.335433959961 2.874434947968
-16.791513442993 -81.787986755371 -199.134063720703 3.540112972260
-150.265533447266 -74.742820739746 -187.008712768555 2.550386428833
-152.371170043945 -87.018615722656 -198.869857788086 4.542785167694
-155.837310791016 -71.805702209473 -184.800582885742 3.533000707626
-162.249160766602 -69.333839416504 -198.739288330078 1.479876518250
-150.263519287109 -63.194793701172 -189.905593872070 3.180360078812
-116.500381469727 -75.902847290039 -225.546722412109 2.869872570038
32.153949737549 -76.866462707520 -133.822555541992 1.975818395615
-53.447517395020 -80.320556640625 -187.889739990234 1.828526377678
-50.579986572266 -81.129287719727 -193.714294433594 1.746872186661
-145.073791503906 -92.028800964355 -202.555450439453 8.842869758606
-146.693695068359 -84.157928466797 -199.681015014648 2.231648445129
-148.384918212891 -85.748191833496 -205.357711791992 2.916836977005
-13.894573211670 -62.742801666260 -54.230354309082 1.989973545074
-48.756305694580 -81.445320129395 -281.831970214844 5.905763149261
-82.621437072754 -74.445205688477 -246.839874267578 3.773450374603
-105.599784851074 -74.058937072754 -227.890487670898 1.515681505203
-144.307586669922 -90.443458557129 -197.507141113281 7.078085422516
-148.097091674805 -72.807891845703 -188.059127807617 1.290860176086
-30.429882049561 -63.792015075684 -73.518669128418 3.849191188812
-151.734008789063 -69.242271423340 -186.665420532227 2.288554191589
-36.449329376221 -59.602706909180 -65.041473388672 4.188130378723
-36.789710998535 -81.979736328125 -194.351882934570 0.737944602966
-55.311264038086 -77.385528564453 -184.918228149414 2.350510835648
74.670501708984 -79.801101684570 -65.983093261719 8.345800399780
94.624816894531 -68.881156921387 -63.938964843750 2.642917156219
46.763786315918 -75.328674316406 -245.318176269531 5.132618427277
-74.195526123047 -79.754493713379 -72.855903625488 2.091558694839
9.020608901978 -84.150436401367 -273.611389160156 2.019098043442
10.458110809326 -80.109535217285 -275.767364501953 0.755898654461
-66.525588989258 -86.803955078125 -207.527862548828 3.707020998001
-91.717941284180 -72.813087463379 -83.076217651367 2.323013782501
-84.858787536621 -85.201690673828 -80.502464294434 6.297965049744
-102.389640808105 -75.219787597656 -220.767974853516 2.382015228271
-60.485786437988 -69.279350280762 -44.131233215332 2.556477785110
100.543106079102 -72.556022644043 -193.673492431641 1.279647231102
-118.297813415527 -66.480422973633 -199.678451538086 2.566798210144
-148.644699096680 -80.700889587402 -223.591003417969 2.833539247513
-147.242721557617 -79.520751953125 -215.286193847656 1.776010990143
11.235106468201 -81.405158996582 -183.724792480469 6.449150562286
-166.427993774414 -72.479461669922 -213.829910278320 3.143123388290
-11.725440025330 -66.507537841797 -242.473571777344 2.922975778580
-71.611152648926 -58.613647460938 -117.106765747070 2.513872385025
-148.277908325195 -83.874153137207 -213.972229003906 2.650302171707
22.205986022949 -71.172790527344 -195.078842163086 1.563906908035
-30.577327728271 -78.531257629395 -239.703567504883 2.157845973969
97.057357788086 -69.173057556152 -78.303070068359 3.865946769714
-4.407945156097 -74.397880554199 -238.559524536133 1.220491290092
-148.121292114258 -82.461830139160 -215.883422851563 1.391823410988
-115.028442382813 -65.283409118652 -197.259033203125 0.588936209679
-164.993209838867 -75.565261840820 -230.126724243164 2.729334592819
-155.285690307617 -84.068565368652 -229.810424804688 1.742834329605
-96.086776733398 -78.395843505859 -289.038909912109 3.536306142807
-154.336120605469 -76.059959411621 -247.182098388672 3.148858070374
-141.903823852539 -85.799270629883 -227.021667480469 2.755638360977
-152.985534667969 -74.023193359375 -246.249984741211 2.843767881393
4.690772056580 -81.401794433594 -241.280212402344 4.236948966980
11.671450614929 -79.123535156250 -237.805084228516 2.995631933212
8.553289413452 -82.585861206055 -233.652648925781 2.255979061127
-37.964748382568 -63.345897674561 -51.496173858643 5.093230724335
-26.486347198486 -86.573684692383 -213.628250122070 6.525535583496
-61.202957153320 -83.280220031738 -165.454605102539 3.259486913681
10.588460922241 -88.636062622070 -235.011962890625 5.837292671204
-15.847340583801 -75.067428588867 -202.593109130859 1.830497741699
31.799945831299 -82.532585144043 -112.876174926758 7.155055999756
33.231113433838 -74.647537231445 -104.861343383789 6.216459751129
7.207797050476 -86.658683776855 -241.126464843750 6.528933525085
13.542387962341 -86.982437133789 -233.269088745117 4.956550121307
-100.802604675293 -72.627258300781 -148.074005126953 5.047946929932
3.284168958664 -69.557739257813 -234.768157958984 0.802132308483
-145.336593627930 -85.260124206543 -208.244796752930 2.610671043396
-163.042282104492 -70.097038269043 -209.860275268555 3.164672851563
45.479297637939 -80.917518615723 -110.936225891113 2.577240467072
-135.395309448242 -74.052902221680 -223.498245239258 3.109657764435
31.700725555420 -81.622108459473 -117.917320251465 4.204426288605
-134.797790527344 -84.611167907715 -226.015258789063 2.245450973511
12.892617225647 -88.192054748535 -243.001495361328 5.055389404297
-99.118919372559 -69.322868347168 -140.153396606445 4.801036834717
3.405303001404 -68.527770996094 -231.792968750000 1.642865657806
-4.247700214386 -82.032997131348 -220.883850097656 3.137499094009
-71.104827880859 -75.460311889648 -155.718200683594 2.665224075317
-21.047895431519 -79.797645568848 -209.477340698242 4.693072319031
100.086174011230 -79.689590454102 -187.435485839844 3.980392694473
19.556568145752 -80.485389709473 -243.579452514648 1.964426636696
32.017250061035 -74.661239624023 -129.489013671875 3.216609716415
-81.928504943848 -62.516674041748 -109.518577575684 1.323689937592
18.654062271118 -87.829376220703 -234.217147827148 6.898102760315
-83.194236755371 -65.942543029785 -124.594070434570 2.224688529968
4.666161060333 -75.977386474609 -281.984497070313 3.128425359726
-2.960186004639 -83.596557617188 -254.711563110352 2.340320348740
-166.830780029297 -83.099716186523 -272.877624511719 7.837343692780
92.357109069824 -76.117134094238 -77.092819213867 2.512172222137
-146.062698364258 -77.132659912109 -254.797485351563 3.171058416367
77.798377990723 -73.025169372559 -94.326705932617 2.307119369507
78.829574584961 -72.725158691406 -98.563018798828 1.405521869659
-155.505249023438 -72.831665039063 -256.264465332031 1.398994684219
21.829488754272 -77.998016357422 -148.306304931641 1.757847905159
-141.125915527344 -84.806747436523 -258.663055419922 0.459610581398
35.274299621582 -76.709609985352 -146.345443725586 2.998028755188
83.862541198730 -78.490554809570 -85.327209472656 0.672442257404
-66.082061767578 -81.549804687500 -240.029891967773 7.573706150055
21.959045410156 -79.630111694336 -158.394775390625 1.751189470291
-148.655471801758 -86.266685485840 -258.342071533203 1.973820209503
-163.717147827148 -78.360107421875 -263.614318847656 3.605084657669
-150.290908813477 -84.324851989746 -259.922363281250 0.206487134099
-112.844612121582 -80.412986755371 -286.083465576172 6.134847640991
-155.785766601563 -68.495704650879 -260.805450439453 2.169364213943
-157.222412109375 -82.085037231445 -243.160995483398 7.631163120270
85.077079772949 -79.808883666992 -218.816528320313 3.571016073227
-151.186538696289 -89.719146728516 -253.292541503906 4.797079563141
-51.350028991699 -81.289825439453 -77.153396606445 0.443380147219
-7.650847911835 -91.012763977051 -256.519866943359 7.593968391418
17.564702987671 -59.720199584961 -36.132667541504 4.208578586578
-12.246861457825 -76.103088378906 -268.545410156250 2.012012720108
-2.834990024567 -76.114822387695 -263.789062500000 7.754280567169
-7.507378101349 -75.715888977051 -274.361389160156 1.927270531654
-0.737888991833 -71.062294006348 -275.057373046875 5.809635639191
-64.384017944336 -76.139968872070 -244.011978149414 2.130734920502
-3.284032106400 -86.927757263184 -262.930664062500 2.639796972275
-7.656184196472 -81.319869995117 -258.725158691406 1.104018688202
43.573265075684 -64.425628662109 -93.553863525391 4.449685573578
9.543558120728 -86.221900939941 -271.248687744141 4.000422477722
-72.507240295410 -63.309127807617 -99.783638000488 2.505303859711
46.865482330322 -75.598899841309 -100.192184448242 1.236209154129
-90.608825683594 -78.485137939453 -98.363624572754 1.512929677963
101.051620483398 -81.384780883789 -163.736267089844 9.985692024231
-71.430145263672 -63.476028442383 -42.189582824707 2.298141479492
-65.865364074707 -81.295028686523 -201.629760742188 3.938042879105
-53.956138610840 -84.909706115723 -182.205520629883 3.813315629959
9.341601371765 -83.614067077637 -271.951049804688 2.573266744614
14.603292465210 -83.399337768555 -271.494262695313 1.953592896461
67.858261108398 -71.311996459961 -238.470138549805 0.795761585236
26.370473861694 -76.334136962891 -269.706146240234 4.528585910797
-134.861190795898 -84.695625305176 -285.948822021484 2.382184982300
-146.289031982422 -85.890281677246 -280.925140380859 2.592666864395
15.971224784851 -75.247917175293 -175.864486694336 2.156482219696
2.771126031876 -77.214752197266 -156.856445312500 2.634967803955
19.058332443237 -82.434410095215 -163.689224243164 5.944690227509
22.136919021606 -79.900817871094 -162.326965332031 2.101779460907
-156.429290771484 -72.876121520996 -272.890045166016 3.185861825943
-152.523910522461 -82.694480895996 -276.122833251953 2.919599533081
-70.402671813965 -79.502906799316 -88.724464416504 5.817469120026
-152.685333251953 -85.772254943848 -277.907775878906 2.659182071686
-155.302536010742 -73.857070922852 -281.525573730469 3.117342233658
-62.942676544189 -81.809631347656 -63.918907165527 3.967286825180
35.307193756104 -71.705131530762 -135.679656982422 0.613508820534
46.815902709961 -70.152709960938 -88.853393554688 2.368749380112
-67.922325134277 -82.359001159668 -75.456451416016 1.876186847687
55.493831634521 -66.583389282227 -95.091613769531 2.363694667816
-85.141578674316 -65.004928588867 -109.861053466797 3.113689661026
23.716196060181 -68.048416137695 -138.023254394531 3.159601688385
87.836204528809 -64.661521911621 -60.266788482666 2.998759984970
-41.994987487793 -78.018371582031 -207.513198852539 2.680815696716
-49.666614532471 -79.911285400391 -154.479965209961 1.936135172844
-18.392740249634 -75.988777160645 -184.924758911133 0.650584578514
-55.525253295898 -60.191455841064 -36.054565429688 6.942279338837
29.388387680054 -77.827285766602 -138.400329589844 2.299229383469
-83.972541809082 -81.295440673828 -252.154266357422 5.176947116852
33.548461914063 -80.476135253906 -142.209335327148 2.953216552734
-37.471778869629 -82.646972656250 -72.479866027832 2.744171380997
-141.160629272461 -80.061210632324 -182.838363647461 5.423759460449
-81.256408691406 -82.105804443359 -73.233833312988 2.367109537125
86.585731506348 -74.110343933105 -84.801353454590 3.168209552765
-52.441715240479 -83.784049987793 -76.439353942871 2.558380603790
-56.073276519775 -81.019279479980 -88.857116699219 3.919502735138
108.419868469238 -71.403884887695 -156.311630249023 2.229470729828
-92.439315795898 -79.650100708008 -90.710800170898 2.532147169113
-51.793884277344 -82.676315307617 -56.693389892578 4.735903263092
51.874858856201 -63.410671234131 -245.671722412109 1.896996021271
-46.927055358887 -78.745903015137 -200.643463134766 2.412731409073
54.931312561035 -62.545181274414 -88.923385620117 0.969558358192
-74.662918090820 -85.386871337891 -97.931167602539 1.577535152435
-30.625656127930 -80.582656860352 -184.448181152344 2.157148599625
-23.746677398682 -80.848495483398 -194.792098999023 1.753609299660
-39.922016143799 -84.533241271973 -182.816482543945 7.919220447540
-23.996780395508 -82.453895568848 -190.941711425781 3.033638238907
4.775790214539 -81.024398803711 -218.821380615234 3.709100961685
-4.013535022736 -82.875404357910 -222.115417480469 3.735346794128
5.861258029938 -81.285224914551 -215.029159545898 3.100687026978
14.799806594849 -78.676338195801 -220.005859375000 2.142333507538
-5.384746074677 -77.978431701660 -224.898239135742 1.775425076485
2.247095108032 -77.467796325684 -221.973892211914 2.852569580078
-50.196617126465 -80.937583923340 -178.562988281250 2.105886220932
-29.240987777710 -86.467262268066 -188.612792968750 1.686519384384
-46.129020690918 -85.676147460938 -162.944259643555 6.785529613495
-92.052764892578 -74.555206298828 -217.283996582031 1.707763791084
-47.566555023193 -74.091598510742 -193.963378906250 1.643196702003
-53.324840545654 -72.806404113770 -42.568855285645 6.244812011719
-48.611362457275 -81.994949340820 -178.504852294922 3.143225431442
-41.971889495850 -83.466171264648 -195.932266235352 2.443700313568
-147.453659057617 -76.388084411621 -197.878158569336 1.033469915390
-54.587608337402 -71.737792968750 -285.239135742188 2.043522596359
-147.012588500977 -83.900535583496 -191.231369018555 1.941956520081
-142.166473388672 -68.500999450684 -199.784759521484 3.302367448807
-128.086181640625 -67.163742065430 -227.234222412109 2.496317625046
-151.674179077148 -65.916183471680 -201.266601562500 2.489787101746
-147.742462158203 -57.609165191650 -202.414779663086 2.761653423309
-90.064842224121 -75.926261901855 -254.180786132813 2.269027709961
29.285879135132 -84.255241394043 -134.208755493164 4.029369831085
-147.471374511719 -78.896324157715 -191.419769287109 3.278014898300
29.143243789673 -83.034355163574 -126.133171081543 5.556896209717
46.499107360840 -72.595283508301 -113.171615600586 1.300367236137
-21.194808959961 -82.139953613281 -219.641113281250 2.285098314285
-140.042587280273 -83.083999633789 -195.549346923828 2.443388462067
27.931943893433 -63.655181884766 -33.886917114258 1.833512902260
110.051452636719 -63.653430938721 -96.751144409180 5.355425357819
-54.773017883301 -78.501258850098 -185.158660888672 1.674375295639
-40.006565093994 -85.492317199707 -194.219848632813 1.780803084373
2.092333078384 -67.658111572266 -274.752319335938 3.677435636520
-138.424331665039 -90.738548278809 -194.454132080078 8.571823120117
18.106401443481 -82.616790771484 -233.096511840820 2.633302927017
37.306404113770 -73.661697387695 -132.421249389648 2.167861700058
-107.848083496094 -78.609855651855 -224.256118774414 5.792250156403
-19.804519653320 -75.073738098145 -190.370544433594 1.217998266220
-43.822841644287 -72.394668579102 -158.475311279297 3.282626628876
-19.562915802002 -81.946914672852 -195.317153930664 2.206774473190
-85.685012817383 -70.676261901855 -117.219459533691 1.101874828339
-71.399597167969 -68.671028137207 -42.741775512695 4.350809574127
-38.557914733887 -77.753479003906 -207.529998779297 0.557750880718
-46.668075561523 -66.295478820801 -151.811584472656 3.195796489716
42.484603881836 -74.268608093262 -119.078453063965 2.604447126389
-149.080093383789 -85.501281738281 -198.195098876953 3.882417678833
-164.778457641602 -70.105995178223 -208.255477905273 2.353553771973
35.835704803467 -73.925025939941 -135.986633300781 1.406890749931
36.072418212891 -79.156959533691 -128.349868774414 3.205391168594
-30.253005981445 -75.449829101563 -210.233978271484 1.269436597824
38.993579864502 -78.601280212402 -115.099800109863 1.674066066742
44.249397277832 -76.057937622070 -116.137237548828 1.010308980942
-97.003990173340 -67.271484375000 -139.765075683594 2.203332901001
-2.041657924652 -74.640037536621 -236.035614013672 1.868968963623
-136.532333374023 -82.605918884277 -230.505477905273 0.684223473072
37.294078826904 -82.914993286133 -110.362159729004 5.698644638062
-135.329437255859 -67.584968566895 -227.177551269531 1.567644715309
-144.912994384766 -84.559295654297 -203.474044799805 2.565211772919
-160.945098876953 -68.174659729004 -209.177505493164 1.942641854286
29.742589950562 -73.395751953125 -131.273681640625 1.393501520157
-85.358985900879 -75.571296691895 -241.494964599609 8.346379280090
113.590919494629 -73.673812866211 -183.142059326172 2.599116325378
-146.778808593750 -78.814964294434 -207.076507568359 2.324779272079
-110.338012695313 -72.111686706543 -226.978759765625 1.183813929558
-168.159729003906 -73.619087219238 -210.855789184570 3.242056369781
37.066009521484 -79.002998352051 -108.549743652344 2.539781808853
43.021087646484 -80.866958618164 -115.170631408691 1.645612597466
-124.719985961914 -71.396720886230 -230.720123291016 2.405905246735
-29.599485397339 -74.871437072754 -192.738769531250 1.856627821922
-25.623483657837 -83.500511169434 -192.298049926758 4.241075038910
12.170363426208 -87.697906494141 -221.959869384766 6.434995651245
9.950715065002 -82.992660522461 -223.791061401367 1.652136087418
-22.714981079102 -77.548332214355 -195.897171020508 0.612970173359
-145.444900512695 -84.737457275391 -206.705245971680 2.766007184982
5.868960857391 -83.172393798828 -224.583999633789 4.303636074066
12.034976959229 -80.592109680176 -225.804428100586 1.839555025101
-25.194921493530 -79.539299011230 -189.886108398438 2.190825223923
4.814835071564 -63.104946136475 -231.759826660156 2.094985008240
-95.517707824707 -68.474517822266 -139.520965576172 2.713225126266
-1.721550941467 -80.965782165527 -219.325775146484 1.635220646858
14.376291275024 -88.622421264648 -199.503067016602 9.483252525330
-2.763554096222 -79.567382812500 -241.542358398438 4.432644844055
-152.689102172852 -87.051841735840 -232.703491210938 4.452777385712
-111.084182739258 -71.255729675293 -179.286087036133 3.211564779282
16.459451675415 -88.234092712402 -233.705322265625 6.693620204926
3.412666082382 -80.717613220215 -230.215286254883 2.028218507767
30.660190582275 -70.745948791504 -113.050025939941 2.925550460815
-26.533721923828 -79.160041809082 -67.866195678711 1.571637034416
-68.972335815430 -80.511764526367 -158.031860351563 3.178293466568
10.230859756470 -84.705078125000 -236.094711303711 2.714342355728
5.731287002563 -79.164810180664 -240.983840942383 2.310374975204
-58.008403778076 -77.431396484375 -147.301803588867 2.869863033295
-49.547550201416 -88.465354919434 -142.423812866211 10.829950332642
-55.531452178955 -82.847450256348 -172.129760742188 3.781326532364
16.242927551270 -83.134277343750 -240.772201538086 2.202402353287
7.673739910126 -82.020462036133 -239.352722167969 2.230825901031
-90.302360534668 -58.771831512451 -130.158752441406 6.017209529877
36.093299865723 -75.238449096680 -256.726562500000 4.348706245422
-46.080787658691 -84.165901184082 -76.535598754883 0.748554408550
1.422381043434 -85.874740600586 -244.746337890625 6.364816188812
1.353039026260 -65.620590209961 -267.692657470703 2.826893568039
-86.092514038086 -76.876892089844 -106.718139648438 4.395516872406
-22.973045349121 -84.521606445313 -277.732116699219 11.453935623169
9.494211196899 -82.040832519531 -242.923843383789 2.116624832153
-28.388591766357 -82.978363037109 -285.222076416016 6.472565174103
-43.848854064941 -79.678779602051 -60.012741088867 2.149428129196
-73.077011108398 -79.609901428223 -53.318351745605 5.060745716095
86.935256958008 -79.563827514648 -206.539047241211 7.073414802551
-134.473739624023 -80.788558959961 -252.353149414063 5.175159454346
-98.509666442871 -57.165351867676 -98.248908996582 3.032392740250
115.218078613281 -73.989364624023 -118.032684326172 1.993573307991
15.747116088867 -72.482566833496 -24.504888534546 5.336759090424
-7.826299190521 -79.836235046387 -250.193313598633 2.788404226303
-73.642715454102 -75.219024658203 -46.360324859619 5.792160987854
93.751548767090 -79.380485534668 -205.609573364258 2.802114486694
46.067443847656 -68.713806152344 -97.773597717285 1.650087237358
-75.412796020508 -58.504463195801 -102.985656738281 2.553430557251
-166.683212280273 -74.986412048340 -290.657928466797 2.383690834045
-31.524188995361 -82.121559143066 -177.976791381836 3.540979146957
-37.390293121338 -83.683395385742 -170.341949462891 4.631237030029
-155.342483520508 -87.451744079590 -288.976837158203 3.309962749481
-135.779174804688 -88.910163879395 -291.235748291016 3.352667570114
-149.051803588867 -86.342163085938 -278.463439941406 0.847501218319
-154.553176879883 -83.445030212402 -300.980834960938 2.797861814499
-149.435440063477 -68.059822082520 -302.794860839844 2.910586357117
-97.197090148926 -71.441070556641 -87.500595092773 1.944701075554
-87.594940185547 -75.507324218750 -101.365577697754 4.597542762756
-57.888942718506 -80.946525573730 -67.220207214355 2.212962627411
-82.717430114746 -79.971580505371 -103.555923461914 3.228014469147
-51.063152313232 -83.961624145508 -66.818435668945 4.419680595398
-95.873054504395 -75.016242980957 -109.398895263672 2.414213657379
-75.985229492188 -81.730705261230 -67.140090942383 3.292900562286
-43.524299621582 -80.796936035156 -235.617874145508 5.486641883850
70.438697814941 -63.916618347168 -103.237701416016 1.818082690239
-2.157217979431 -78.622276306152 -282.897888183594 2.285274267197
68.606681823730 -61.740547180176 -100.108314514160 2.693758726120
-142.924118041992 -78.811904907227 -286.564758300781 2.241118907928
-129.541900634766 -80.698226928711 -249.687713623047 8.616884231567
-151.126556396484 -84.979064941406 -280.337341308594 2.064905881882
-152.143264770508 -74.555114746094 -284.799255371094 1.845343351364
-140.057037353516 -79.464202880859 -295.536193847656 4.429368972778
-144.939392089844 -69.343124389648 -286.151702880859 2.231035947800
-158.017013549805 -67.224342346191 -290.412811279297 3.006602048874
63.167873382568 -59.811805725098 -77.417182922363 0.955984115601
-43.305698394775 -78.241378784180 -64.041656494141 1.730198264122
-76.134490966797 -79.173179626465 -91.848106384277 5.607573032379
-92.296470642090 -78.085029602051 -211.497787475586 3.702590465546
-111.667716979980 -71.790397644043 -260.381347656250 1.912116289139
-45.729125976563 -75.877243041992 -203.429260253906 3.818274259567
-47.053913116455 -81.529518127441 -155.554306030273 1.775776147842
