-47.680568695068 -78.918342590332 -56.697704315186 3.094262599945
10.724872589111 -75.112602233887 -275.699157714844 4.070320606232
-63.709114074707 -77.665077209473 -54.989326477051 2.419260025024
108.313415527344 -75.555320739746 -160.446792602539 1.070432424545
-8.379228591919 -73.318504333496 -277.116760253906 2.336141347885
-50.974617004395 -74.650611877441 -50.454532623291 3.249227523804
-11.408327102661 -76.408744812012 -282.344177246094 3.946696519852
17.862815856934 -62.810905456543 -264.202606201172 7.490799903870
-38.294425964355 -86.210769653320 -59.533653259277 8.767486572266
92.680534362793 -78.077568054199 -196.318725585938 6.089390754700
-79.470634460449 -73.184104919434 -95.336303710938 5.341586589813
-166.750534057617 -70.155563354492 -281.714935302734 3.439182996750
-154.093872070313 -76.829002380371 -292.995178222656 2.366097688675
72.350097656250 -77.495483398438 -231.798355102539 3.734962940216
-85.273033142090 -80.803359985352 -61.972854614258 7.685859203339
-20.214462280273 -66.169769287109 -248.735305786133 5.868749618530
66.707305908203 -68.738792419434 -101.448097229004 4.209449768066
-13.648775100708 -64.389244079590 -53.353023529053 2.105267286301
-21.041927337646 -72.722984313965 -54.318321228027 3.807809591293
-19.744852066040 -80.015426635742 -68.004173278809 3.945843219757
-22.005475997925 -78.513122558594 -71.654083251953 2.236435413361
14.974117279053 -78.392257690430 -246.501129150391 3.176575899124
108.506027221680 -66.731262207031 -190.731964111328 3.610137224197
34.529479980469 -69.687705993652 -39.479763031006 1.364258646965
104.576713562012 -72.090507507324 -108.210479736328 1.491318225861
-58.334980010986 -71.902656555176 -133.005172729492 0.638782441616
5.865128993988 -72.588966369629 -200.838027954102 2.835989952087
-35.540050506592 -78.501464843750 -77.075271606445 2.550077199936
-93.772460937500 -74.404571533203 -210.047103881836 4.048751354218
85.194717407227 -80.607688903809 -78.760307312012 3.864438056946
100.720275878906 -66.594474792480 -98.755279541016 1.886177897453
-11.055998802185 -67.632843017578 -269.660583496094 2.137988090515
-124.036773681641 -76.632568359375 -282.174957275391 2.545774698257
-146.543579101563 -76.944999694824 -255.906326293945 2.746226549149
-91.187454223633 -68.545959472656 -53.393848419189 4.459612369537
80.572990417480 -80.118141174316 -84.091247558594 2.980479240417
79.209175109863 -79.877319335938 -89.250404357910 2.974989652634
67.838134765625 -72.237037658691 -92.626037597656 3.723917961121
-42.546863555908 -78.297828674316 -79.809776306152 3.202604532242
76.694847106934 -77.599082946777 -86.176757812500 1.381962299347
-22.256652832031 -80.235496520996 -264.726531982422 8.831919670105
7.117805004120 -78.844757080078 -289.105712890625 1.791179776192
86.175842285156 -76.536178588867 -89.553985595703 2.079180240631
-59.395130157471 -64.704627990723 -81.925918579102 2.422513723373
79.223167419434 -80.587806701660 -84.658042907715 4.232069492340
74.059013366699 -78.061515808105 -83.380088806152 3.169622898102
-94.956115722656 -68.845420837402 -54.406333923340 6.471999645233
31.585887908936 -62.629009246826 -40.686473846436 2.249097585678
89.140014648438 -81.813781738281 -89.058319091797 4.284739017487
77.477142333984 -75.165351867676 -94.672569274902 1.474122166634
-10.905686378479 -74.506607055664 -270.957427978516 3.289056301117
-87.733802795410 -73.750556945801 -54.204879760742 4.818233013153
-63.855716705322 -79.267326354980 -89.382423400879 5.197905540466
46.599071502686 -79.405044555664 -104.983436584473 0.880005896091
88.297760009766 -77.413574218750 -70.778160095215 3.280598640442
-50.379467010498 -75.115188598633 -134.703887939453 2.294945955276
8.407152175903 -74.933685302734 -205.789993286133 2.589196205139
-48.848201751709 -78.068687438965 -145.271255493164 1.357257366180
-173.675170898438 -69.061759948730 -230.836425781250 6.660662651062
-139.626892089844 -67.138244628906 -195.973266601563 2.129921913147
-101.155090332031 -65.077438354492 -248.028991699219 4.939960002899
-166.140991210938 -70.751747131348 -189.441848754883 8.568932533264
-42.026733398438 -81.914382934570 -144.937408447266 5.272242069244
49.116512298584 -63.974994659424 -110.416496276855 3.264317274094
-63.054824829102 -72.211593627930 -158.499038696289 0.878993153572
-20.170160293579 -79.003219604492 -204.022293090820 1.278131484985
-123.186241149902 -75.719261169434 -222.360549926758 3.897923469543
-127.418304443359 -70.349800109863 -227.160415649414 2.534351110458
-68.742828369141 -75.002548217773 -149.560302734375 1.502054214478
18.261697769165 -76.199356079102 -150.156387329102 4.444736003876
-72.020133972168 -81.407966613770 -157.317611694336 4.826736450195
-20.666574478149 -74.914199829102 -206.838470458984 1.752160310745
-13.852420806885 -80.069580078125 -199.806411743164 1.957357406616
108.309333801270 -72.652740478516 -167.183898925781 1.927455425262
-56.521610260010 -76.863342285156 -164.703964233398 2.424272298813
-26.919763565063 -78.028320312500 -197.939010620117 2.743037462234
3.255347013474 -70.802139282227 -225.337173461914 0.718363881111
-83.194740295410 -66.248985290527 -126.557319641113 1.548301577568
107.194900512695 -77.112037658691 -175.760192871094 2.614822626114
-72.800323486328 -76.080757141113 -161.775985717773 3.720685243607
108.614608764648 -77.014625549316 -171.007278442383 0.651474297047
-19.314903259277 -75.752487182617 -171.429702758789 5.560599327087
-31.967823028564 -72.595245361328 -158.175277709961 2.447147130966
110.644851684570 -75.806434631348 -184.669525146484 2.349284172058
17.298400878906 -78.653861999512 -186.997146606445 1.506811976433
11.074908256531 -81.301574707031 -193.430633544922 4.847034454346
-52.732173919678 -76.545341491699 -285.560546875000 1.889902234077
-147.381423950195 -74.655715942383 -186.854293823242 0.540985822678
6.383528232574 -63.141258239746 -237.851516723633 2.302484989166
-26.198850631714 -69.014442443848 -72.092414855957 2.713436603546
-26.995523452759 -72.382919311523 -65.658287048340 3.642729282379
-71.391891479492 -73.855316162109 -112.185005187988 6.758185386658
103.512145996094 -72.898796081543 -194.003097534180 1.438547968864
-151.477340698242 -70.250686645508 -208.056167602539 2.470771551132
-139.933349609375 -77.497711181641 -193.257247924805 1.902817010880
-157.194717407227 -65.655166625977 -204.534774780273 3.988377332687
-126.667678833008 -62.258052825928 -219.294860839844 7.287737369537
-150.126174926758 -57.898845672607 -206.757156372070 2.788264513016
41.918952941895 -64.574234008789 -113.970169067383 3.400069713593
-112.286430358887 -68.886146545410 -257.236938476563 1.709048748016
-89.288345336914 -67.171508789063 -112.230506896973 1.738954424858
58.844158172607 -71.893684387207 -242.353210449219 2.178137302399
-53.369232177734 -82.102790832520 -193.537200927734 4.392737865448
5.685249805450 -73.985015869141 -198.054092407227 4.501216411591
-106.234970092773 -66.748008728027 -166.530532836914 0.262185722589
19.500797271729 -75.783035278320 -190.254592895508 1.674717307091
47.419616699219 -66.782920837402 -21.288936614990 1.267487406731
-103.351531982422 -63.775310516357 -156.897399902344 2.312078714371
-14.941596031189 -77.839378356934 -193.181198120117 3.024742364883
3.671626091003 -76.501777648926 -222.098358154297 2.629800796509
-22.271839141846 -81.609123229980 -198.477737426758 3.386809110641
-134.774871826172 -71.601524353027 -194.508056640625 2.341538429260
-125.996681213379 -70.389068603516 -198.741424560547 3.487692594528
14.471576690674 -78.576774597168 -200.543060302734 2.712465524673
92.527183532715 -77.024650573730 -202.402038574219 2.192533969879
100.693046569824 -80.347702026367 -208.810668945313 4.988766670227
-73.592109680176 -81.897377014160 -197.242645263672 10.119813919067
-60.930984497070 -76.109207153320 -152.937927246094 3.997159957886
-18.815162658691 -78.773254394531 -203.920669555664 0.576512217522
-155.465759277344 -74.000556945801 -223.813156127930 2.740466356277
-80.497444152832 -80.480468750000 -284.191711425781 5.472634315491
-147.006225585938 -77.030609130859 -206.083435058594 0.860573768616
48.649963378906 -62.916408538818 -42.176143646240 5.458794593811
-30.347957611084 -77.144897460938 -212.731201171875 1.450047373772
-75.747528076172 -75.795654296875 -137.613037109375 1.821260571480
-2.596467018127 -72.330795288086 -216.818878173828 0.870899796486
-9.646784782410 -64.060310363770 -231.668991088867 3.455571174622
6.768562793732 -76.345794677734 -220.910278320313 0.717754662037
-42.306091308594 -77.909172058105 -237.928527832031 2.310196876526
-26.157262802124 -78.698974609375 -219.958053588867 2.292148590088
15.179676055908 -63.845149993896 -199.972473144531 2.400984048843
-60.664287567139 -68.876693725586 -123.399482727051 0.835946738720
-153.077560424805 -82.773384094238 -222.014480590820 2.909259796143
-163.313278198242 -67.941390991211 -215.722564697266 0.572708964348
-145.674011230469 -78.330459594727 -223.325942993164 1.022543072701
-134.717590332031 -65.015335083008 -192.347824096680 2.530362844467
-9.902218818665 -74.003936767578 -231.410278320313 1.405624508858
-11.404400825500 -70.137153625488 -229.050186157227 1.028198838234
-151.912414550781 -79.401000976563 -227.415130615234 1.592514753342
-104.458892822266 -67.221015930176 -180.836578369141 2.323503494263
-162.028427124023 -68.615112304688 -230.892089843750 3.025059223175
-73.449569702148 -72.456314086914 -284.232666015625 2.308660984039
-58.208847045898 -77.720680236816 -239.855300903320 4.695099830627
-81.253173828125 -73.362182617188 -134.468597412109 2.479198932648
-4.479061126709 -82.936096191406 -242.010604858398 6.985661029816
105.165611267090 -73.913497924805 -154.618911743164 5.411707878113
15.928296089172 -76.028495788574 -252.015243530273 2.521127939224
106.544815063477 -68.479110717773 -150.219512939453 5.644155979156
-49.490760803223 -79.239845275879 -48.205986022949 7.257485389709
-91.261108398438 -79.139541625977 -89.664154052734 2.569480180740
15.546797752380 -75.860313415527 -265.779663085938 5.376566410065
10.160524368286 -72.814872741699 -267.897857666016 9.849103927612
-88.929756164551 -76.842353820801 -248.702438354492 4.152334690094
-47.180854797363 -77.549674987793 -280.346679687500 5.451964378357
-76.970443725586 -76.915817260742 -241.592834472656 5.968400955200
-119.768196105957 -65.887825012207 -221.004013061523 5.748616695404
-46.131629943848 -74.641548156738 -279.478759765625 6.196837902069
-46.344825744629 -81.909210205078 -287.198150634766 5.359181880951
-22.186201095581 -79.993766784668 -65.106216430664 4.099589347839
40.928272247314 -62.862976074219 -252.776092529297 3.014492750168
113.674003601074 -71.397377014160 -151.137847900391 1.681096673012
-14.125919342041 -78.619888305664 -284.701904296875 2.662917375565
118.018119812012 -72.618209838867 -156.627700805664 2.784528493881
-19.203330993652 -80.196716308594 -284.116912841797 4.353569507599
-38.058219909668 -74.196372985840 -286.634857177734 0.676098823547
-153.919113159180 -75.123817443848 -270.112396240234 2.934437751770
77.755203247070 -74.982498168945 -229.338256835938 1.800944089890
-82.105957031250 -79.991317749023 -53.938434600830 8.844344139099
-139.423660278320 -74.705383300781 -281.903961181641 4.637247085571
70.359077453613 -69.509849548340 -101.901664733887 2.376168727875
108.397850036621 -69.002822875977 -165.282394409180 1.514602899551
-16.157529830933 -81.601760864258 -279.139770507813 7.818581104279
-8.820264816284 -74.694137573242 -289.839019775391 1.808097958565
19.481166839600 -63.293090820313 -270.597412109375 5.508504867554
17.785003662109 -56.193973541260 -269.592285156250 4.044741630554
-66.772384643555 -69.827308654785 -46.988304138184 1.518413424492
96.833404541016 -70.621261596680 -210.421539306641 2.161466121674
-59.594711303711 -71.314163208008 -282.210052490234 3.406787872314
-146.315460205078 -73.477294921875 -197.262100219727 1.271117687225
-113.481323242188 -67.505264282227 -218.154953002930 7.183670997620
2.765784025192 -73.452194213867 -288.794403076172 2.335596561432
-86.048042297363 -81.684318542480 -72.224922180176 5.096576690674
-116.127235412598 -72.732879638672 -281.476348876953 4.973219394684
84.112655639648 -70.628646850586 -217.826751708984 1.385942459106
-135.818618774414 -72.238342285156 -280.011138916016 4.485500335693
-148.624984741211 -78.244354248047 -268.102539062500 2.722247123718
-136.358840942383 -76.867698669434 -283.440551757813 3.514950752258
-90.565605163574 -83.328041076660 -209.908340454102 6.746641159058
-145.634582519531 -63.824218750000 -249.740173339844 3.222288846970
-76.953025817871 -82.820724487305 -52.060001373291 8.661774635315
78.566772460938 -78.721748352051 -226.899139404297 1.887232065201
-51.942909240723 -64.778434753418 -84.952850341797 0.890827119350
12.599211692810 -75.587669372559 -288.115661621094 2.228572845459
-77.819198608398 -78.565040588379 -61.330131530762 3.339953660965
-86.617057800293 -74.995964050293 -78.920967102051 4.076193809509
25.253374099731 -70.809494018555 -254.144821166992 1.318896770477
50.316928863525 -72.880149841309 -105.159187316895 1.188610196114
57.341369628906 -69.084960937500 -92.954460144043 1.435419559479
84.387733459473 -76.986351013184 -212.210586547852 3.413638114929
15.261303901672 -64.784973144531 -255.519149780273 7.777812004089
-32.934722900391 -62.438121795654 -42.539825439453 5.311340332031
-70.455421447754 -68.939773559570 -46.418384552002 2.350590467453
10.109281539917 -61.550601959229 -282.048919677734 4.464872837067
80.667358398438 -73.856979370117 -90.749923706055 4.127880573273
15.203285217285 -74.109260559082 -271.593536376953 5.773909568787
-91.617790222168 -82.999397277832 -79.670951843262 6.412304401398
37.825504302979 -69.079093933105 -110.423057556152 1.378765225410
47.387466430664 -73.188049316406 -84.683135986328 5.911013126373
51.309669494629 -74.307586669922 -88.287887573242 2.790703773499
23.879396438599 -75.867675781250 -146.517105102539 1.427183389664
-147.011367797852 -74.542785644531 -246.747650146484 2.072413682938
-153.982772827148 -73.428459167480 -272.132690429688 2.563216686249
-153.755081176758 -78.363052368164 -260.590728759766 2.369315862656
72.623481750488 -83.381980895996 -92.509216308594 8.231209754944
-158.042755126953 -70.968750000000 -262.545471191406 1.591018319130
-152.418228149414 -68.920516967773 -248.301147460938 0.489491224289
-115.177391052246 -67.173194885254 -281.144195556641 6.725131988525
29.041833877563 -60.996799468994 -150.516983032227 7.364971637726
-119.515907287598 -67.068168640137 -279.110290527344 8.874703407288
-50.846492767334 -63.142265319824 -76.647789001465 3.031902551651
-154.038589477539 -63.718238830566 -243.692672729492 3.535533189774
67.757507324219 -69.590469360352 -231.703796386719 2.486162424088
-71.665794372559 -75.967567443848 -43.562820434570 7.132602691650
-80.283714294434 -70.923606872559 -90.442993164063 9.262668609619
-83.082641601563 -80.411659240723 -102.036018371582 3.967713117599
108.603614807129 -76.299179077148 -133.186508178711 3.310959339142
111.531265258789 -78.692092895508 -139.396072387695 2.508842706680
6.677563190460 -79.127632141113 -192.266433715820 6.244637489319
-52.328929901123 -79.728408813477 -129.009292602539 6.862289905548
-81.997261047363 -74.076210021973 -204.253112792969 6.191294670105
107.129219055176 -84.565917968750 -133.231933593750 9.161811828613
108.610504150391 -83.922302246094 -137.749313354492 8.198979377747
-52.626152038574 -72.696304321289 -138.017929077148 1.533267140388
115.318923950195 -76.353500366211 -151.138671875000 1.362786293030
117.197334289551 -79.504722595215 -143.809967041016 4.310839653015
-58.530273437500 -82.962394714355 -131.809097290039 8.859923362732
-66.261039733887 -74.652091979980 -249.335510253906 2.502017974854
-38.506286621094 -72.085266113281 -140.198791503906 6.635342597961
114.065948486328 -82.134292602539 -141.845306396484 4.978370189667
108.392288208008 -74.384986877441 -152.826797485352 2.568902015686
73.978858947754 -62.947109222412 -58.983009338379 2.269449949265
26.580743789673 -65.385543823242 -258.180725097656 0.942762434483
114.884849548340 -77.354270935059 -165.442733764648 2.230533599854
-2.742616891861 -75.812805175781 -167.684921264648 2.412015438080
-40.768173217773 -64.781921386719 -73.860000610352 3.355075359344
-104.320449829102 -75.142791748047 -219.574783325195 2.903183937073
113.328689575195 -79.128341674805 -167.090042114258 1.500309109688
42.239700317383 -65.179908752441 -91.087020874023 6.504172325134
46.171298980713 -69.625152587891 -100.471542358398 2.328973770142
-85.701133728027 -68.780059814453 -105.012649536133 1.424896478653
-53.562892913818 -61.572200775146 -69.001960754395 8.527982711792
99.476516723633 -77.484664916992 -179.071502685547 5.161914348602
100.871414184570 -77.964775085449 -182.405624389648 2.651458501816
103.356979370117 -71.080543518066 -185.387969970703 1.059307098389
101.653732299805 -79.922615051270 -184.229614257813 3.773947954178
105.306655883789 -76.861618041992 -188.310363769531 1.306396961212
-156.709243774414 -79.432617187500 -228.320007324219 3.523350954056
8.714489936829 -74.102027893066 -193.260665893555 2.832371234894
-147.256591796875 -60.452411651611 -230.299819946289 1.001301765442
-145.190185546875 -77.125503540039 -196.073318481445 2.294508695602
-68.779098510742 -77.318916320801 -278.922821044922 7.459606170654
-34.180877685547 -64.104278564453 -76.698410034180 3.462281942368
99.940086364746 -77.596298217773 -193.559204101563 2.451039075851
-158.797729492188 -70.592163085938 -196.526062011719 1.546087145805
-27.606933593750 -77.178070068359 -77.862861633301 2.641459703445
-155.710601806641 -80.339439392090 -193.545883178711 4.805170536041
-33.094741821289 -74.096488952637 -72.623291015625 4.689388275146
-78.503738403320 -71.256111145020 -119.368774414063 0.905985474586
-76.450141906738 -63.204479217529 -117.985054016113 1.933392286301
-66.653099060059 -76.658172607422 -285.223541259766 2.270607471466
-150.810195922852 -76.484695434570 -196.894577026367 2.174234628677
111.844131469727 -72.570922851563 -134.506378173828 1.408293962479
113.734275817871 -73.904190063477 -134.259414672852 2.329721450806
-77.084739685059 -76.479324340820 -206.502120971680 2.829953193665
95.045951843262 -75.910614013672 -214.355468750000 2.656415939331
15.289204597473 -65.747406005859 -147.454971313477 1.255312085152
-55.737720489502 -72.648490905762 -86.621269226074 3.984424591064
-80.944549560547 -74.954917907715 -206.911834716797 3.585126638412
-129.380126953125 -75.100418090820 -221.430786132813 3.813446521759
-77.218490600586 -85.289192199707 -285.465667724609 8.636450767517
-150.107467651367 -79.098876953125 -214.407760620117 2.207352876663
-154.819427490234 -68.975257873535 -186.818466186523 2.806980848312
-146.358856201172 -60.880016326904 -189.869415283203 2.536741018295
-153.115829467773 -60.051284790039 -185.182769775391 3.850692987442
-7.033986091614 -59.904655456543 -49.878246307373 5.846058845520
9.926589965820 -77.742401123047 -214.641143798828 2.034898996353
-77.529937744141 -72.163787841797 -50.136215209961 1.371756672859
84.029586791992 -73.866355895996 -216.855422973633 1.544036746025
-19.961624145508 -78.187759399414 -214.308731079102 2.687642335892
-18.706064224243 -75.136970520020 -227.502197265625 2.864304065704
52.185256958008 -71.774536132813 -29.490436553955 2.998292446136
12.378367424011 -81.761451721191 -226.718688964844 0.827588617802
-137.026092529297 -79.473548889160 -215.749969482422 8.099286079407
-10.974865913391 -73.805984497070 -227.436233520508 1.297308683395
-153.029083251953 -71.810569763184 -208.647842407227 1.102626800537
-11.458027839661 -70.312194824219 -232.641815185547 1.182808756828
-158.669952392578 -76.182411193848 -206.067001342773 5.831052780151
-93.447731018066 -75.451911926270 -282.364318847656 4.869930267334
-149.876220703125 -77.053955078125 -229.408386230469 1.233007550240
-101.374267578125 -75.272094726563 -281.032684326172 4.704071044922
-150.506301879883 -76.733879089355 -228.505859375000 1.692344188690
-66.967475891113 -72.338478088379 -243.794326782227 2.658043622971
-49.942867279053 -80.581588745117 -239.654846191406 4.655810356140
-47.701118469238 -75.425025939941 -76.248786926270 7.192448616028
-83.082191467285 -77.785842895508 -213.863113403320 1.766363143921
-56.073089599609 -75.937980651855 -243.261520385742 1.431107878685
-10.138257026672 -69.371726989746 -258.522064208984 3.111049413681
-15.980682373047 -73.687118530273 -249.535491943359 2.382584810257
-21.439666748047 -74.734153747559 -253.306991577148 7.311173915863
115.473060607910 -70.742263793945 -118.033805847168 1.369827508926
30.449802398682 -64.837219238281 -30.529956817627 3.476245403290
-150.674560546875 -70.257904052734 -261.109649658203 2.284441232681
-144.096847534180 -69.067749023438 -254.854705810547 1.210509061813
-85.200904846191 -67.852928161621 -44.813728332520 5.149934291840
-19.772855758667 -70.703430175781 -270.368255615234 5.930797576904
26.084945678711 -59.247241973877 -24.025012969971 2.533000707626
-138.829895019531 -75.031959533691 -281.008911132813 5.704116344452
-156.294158935547 -79.232048034668 -270.843750000000 2.652599334717
35.407627105713 -74.781639099121 -11.989469528198 3.305457592010
25.228359222412 -69.231948852539 -16.848304748535 2.313399076462
2.408586978912 -80.102600097656 -284.925445556641 2.615395545959
-115.369949340820 -71.996009826660 -225.369995117188 1.473653674126
-85.015380859375 -74.324371337891 -250.627792358398 2.145283222198
-142.591262817383 -79.779541015625 -198.751296997070 2.135841369629
-64.079902648926 -76.730415344238 -283.651702880859 3.237939834595
-126.715599060059 -76.002853393555 -223.264175415039 2.970964908600
-157.179916381836 -75.706275939941 -188.026718139648 7.218743801117
-72.911178588867 -73.671325683594 -282.136199951172 3.894787311554
-7.919437885284 -65.080924987793 -54.787677764893 5.086045265198
-126.455825805664 -74.533676147461 -244.346252441406 9.278759956360
-149.221038818359 -74.898529052734 -294.102508544922 2.470896244049
-156.476974487305 -76.672546386719 -292.161651611328 2.033254623413
-155.738067626953 -77.809028625488 -278.084564208984 4.573835372925
-135.147537231445 -67.276550292969 -252.742233276367 2.316228866577
-160.366836547852 -69.047958374023 -276.895812988281 2.066585540771
99.608573913574 -68.077011108398 -67.265167236328 2.788953065872
-5.321681022644 -77.222793579102 -293.061706542969 2.770936012268
72.739105224609 -73.025115966797 -102.492561340332 2.864588737488
75.712440490723 -68.771728515625 -107.531715393066 3.410629749298
-155.786209106445 -76.108886718750 -301.343627929688 1.235614061356
68.891845703125 -61.478015899658 -68.679840087891 3.042210102081
-2.203810930252 -75.728408813477 -167.878005981445 2.029678821564
-159.644958496094 -76.298942565918 -307.357940673828 4.805324077606
-162.130493164063 -71.900787353516 -302.362335205078 6.422412872314
86.831718444824 -72.567657470703 -208.626541137695 2.804529190063
-68.882820129395 -79.656486511230 -57.383815765381 4.028761386871
-3.902246952057 -69.073165893555 -238.162414550781 2.399908304214
-34.957653045654 -73.498222351074 -54.074245452881 3.186340332031
-85.563041687012 -82.993911743164 -71.432441711426 6.208630084991
70.979339599609 -76.450195312500 -91.811683654785 2.069771051407
-139.418762207031 -72.084495544434 -244.836807250977 5.074719905853
-30.700548171997 -71.071220397949 -76.525520324707 2.709545135498
26.122091293335 -75.355270385742 -17.323047637939 3.554526090622
31.488227844238 -71.834213256836 -9.696317672729 3.541208505630
75.349021911621 -73.747222900391 -84.569267272949 2.885611772537
66.366210937500 -64.376617431641 -71.601387023926 1.659084558487
-7.184538841248 -65.782173156738 -272.818817138672 2.583338737488
90.937156677246 -64.343757629395 -64.405105590820 2.468941926956
-83.067420959473 -79.588623046875 -93.853431701660 4.191005706787
15.229045867920 -71.998497009277 -138.428558349609 7.707531452179
-93.498443603516 -80.396072387695 -97.640411376953 4.632931232452
-84.308448791504 -80.380996704102 -100.218078613281 3.453450202942
105.401626586914 -67.107299804688 -171.322753906250 3.631386518478
-97.609817504883 -77.032958984375 -105.341575622559 5.798317909241
-95.573127746582 -71.631706237793 -114.694534301758 3.789808511734
7.915602207184 -70.835014343262 -188.361175537109 4.650617599487
111.106941223145 -76.732032775879 -113.524177551270 3.489974260330
112.005859375000 -77.204757690430 -124.530395507813 2.391861200333
-19.036199569702 -69.068191528320 -247.478652954102 4.541000366211
-97.189163208008 -61.486724853516 -59.270015716553 2.232976436615
110.567039489746 -77.316154479980 -132.760025024414 2.814668178558
8.467905998230 -75.550857543945 -198.212692260742 3.185107231140
-53.645263671875 -76.112525939941 -128.315444946289 4.580366611481
-46.992984771729 -72.239410400391 -136.626327514648 1.191720724106
108.822601318359 -75.922218322754 -146.263702392578 2.905519247055
-52.421035766602 -76.750923156738 -136.717681884766 0.570850968361
-2.138701915741 -59.510322570801 -281.976593017578 3.329032659531
-20.029659271240 -75.487945556641 -280.575531005859 6.757565498352
15.361939430237 -70.601722717285 -248.490753173828 2.078543663025
-97.255844116211 -61.278278350830 -104.319580078125 2.104132413864
-24.284578323364 -77.099143981934 -284.337066650391 2.454678535461
115.870307922363 -73.801475524902 -157.034027099609 0.699311196804
16.346071243286 -69.011360168457 -169.086120605469 2.929064989090
90.280937194824 -75.209007263184 -199.636077880859 4.719268798828
-126.733268737793 -74.751541137695 -248.693557739258 5.446142673492
-52.374061584473 -78.510787963867 -180.909805297852 1.448014855385
97.186485290527 -76.138435363770 -188.935028076172 3.807750940323
-49.464965820313 -71.460037231445 -152.722015380859 1.754599690437
-23.419065475464 -72.020843505859 -193.178665161133 2.310134649277
-46.285457611084 -70.961944580078 -146.485229492188 1.312292456627
0.998103976250 -54.531036376953 -239.723556518555 1.006482958794
91.946029663086 -76.720123291016 -199.031799316406 4.278216362000
-81.988677978516 -56.959735870361 -116.981346130371 0.409486114979
-77.760772705078 -78.573745727539 -286.132385253906 2.783538818359
-148.611495971680 -69.734840393066 -204.200927734375 1.844532012939
-151.000701904297 -78.905982971191 -190.569610595703 3.013416051865
-157.437057495117 -68.961196899414 -187.019714355469 4.678169727325
-152.354263305664 -60.335559844971 -204.405761718750 1.378945469856
-138.608276367188 -74.915229797363 -193.296630859375 4.209719657898
102.684432983398 -74.494979858398 -201.215911865234 2.412445068359
-15.089611053467 -73.137702941895 -214.847976684570 1.363095283508
-44.406970977783 -73.123985290527 -158.157485961914 2.532871484756
-54.060707092285 -74.224838256836 -152.321197509766 2.400192975998
-20.185476303101 -72.735290527344 -185.470840454102 2.336564302444
-84.535453796387 -73.920356750488 -115.541664123535 3.307865381241
-55.093505859375 -67.014183044434 -143.622100830078 2.027845621109
-72.721656799316 -73.842750549316 -124.543075561523 5.486536026001
-95.735504150391 -78.872093200684 -243.315765380859 10.627226829529
12.919907569885 -72.032226562500 -215.119628906250 2.373805284500
-8.720797538757 -75.636711120605 -216.855743408203 3.332867622375
-74.836502075195 -65.514633178711 -140.261489868164 1.143776535988
-8.697955131531 -68.920806884766 -216.401367187500 1.440205931664
-50.510597229004 -69.842750549316 -119.665092468262 6.661479949951
-55.492244720459 -68.982795715332 -117.442344665527 5.748427391052
12.786389350891 -77.349830627441 -204.900634765625 2.478434801102
-159.365234375000 -76.412094116211 -219.831817626953 5.274068832397
-154.942169189453 -75.645370483398 -220.799987792969 2.700950384140
-162.226852416992 -72.129776000977 -243.382339477539 3.645297527313
-87.174362182617 -75.246688842773 -280.663879394531 6.084058284760
-149.702377319336 -82.438758850098 -224.406036376953 1.151250123978
-130.082962036133 -64.808219909668 -185.872848510742 8.928344726563
-12.021175384521 -69.480751037598 -233.178497314453 0.586729407310
-7.176382064819 -74.905639648438 -231.010574340820 1.229260087013
-1.797127008438 -78.910003662109 -228.540756225586 0.566930472851
-31.205774307251 -66.969909667969 -43.319526672363 5.116045475006
-61.633590698242 -64.543670654297 -121.826972961426 0.986958682537
-19.866350173950 -70.411682128906 -233.384719848633 4.673350334167
-42.361728668213 -72.878936767578 -231.243789672852 9.812392234802
-19.631158828735 -73.328216552734 -240.707626342773 1.753120899200
-23.098602294922 -74.277091979980 -265.991424560547 8.695373535156
-82.023689270020 -74.221733093262 -281.920471191406 3.659752130508
-120.135025024414 -72.451118469238 -193.182052612305 2.864680528641
-159.887802124023 -74.419433593750 -227.008651733398 1.757836461067
-158.145858764648 -74.380790710449 -226.339935302734 1.838367581367
-146.852096557617 -70.041366577148 -226.597793579102 2.615488052368
-82.300468444824 -73.283149719238 -282.728424072266 3.419121503830
-4.677124977112 -71.687744140625 -229.021987915039 1.408090829849
-156.371459960938 -75.329658508301 -205.313034057617 4.329030513763
-158.840377807617 -69.461380004883 -210.715957641602 2.527534961700
-149.415939331055 -65.845237731934 -211.255783081055 1.404753088951
-92.994186401367 -74.251403808594 -280.271514892578 6.897699356079
-62.493202209473 -65.684120178223 -127.098411560059 1.452427506447
-153.909408569336 -79.848228454590 -218.266998291016 4.366231441498
-84.349929809570 -77.093902587891 -278.187683105469 7.519956111908
-108.301185607910 -70.463211059570 -193.983596801758 1.673881530762
89.228424072266 -71.686096191406 -200.636367797852 4.151082038879
-57.154418945313 -75.371917724609 -41.623256683350 7.928793907166
19.702899932861 -57.582145690918 -241.798141479492 1.273631691933
23.726459503174 -74.588798522949 -257.599243164063 1.504857897758
-37.357437133789 -69.684455871582 -48.593082427979 1.103944897652
-43.013790130615 -76.948844909668 -47.942237854004 4.553938388824
85.832527160645 -76.540824890137 -68.573501586914 3.135350465775
56.523681640625 -74.883773803711 -101.336578369141 1.879920601845
-72.446044921875 -65.177124023438 -95.156021118164 4.419191360474
77.900268554688 -77.231132507324 -75.263595581055 2.448875188828
101.955101013184 -74.326560974121 -83.792137145996 4.063476562500
-77.927680969238 -60.799247741699 -42.335937500000 3.395833253860
101.998657226563 -71.407051086426 -87.907783508301 2.389681339264
65.553718566895 -73.053771972656 -96.378684997559 5.090030670166
73.121383666992 -81.234123229980 -94.266281127930 6.126110553741
67.331649780273 -73.815521240234 -87.450614929199 2.913611888885
2.804162979126 -68.694030761719 -290.784851074219 2.455871582031
69.622238159180 -67.992942810059 -74.755561828613 1.258162736893
3.787307977676 -63.586597442627 -286.300323486328 3.329271078110
75.723892211914 -70.215858459473 -95.994087219238 3.250626564026
20.918073654175 -69.567192077637 -167.086334228516 2.202094793320
-168.774536132813 -74.253013610840 -262.347229003906 2.857511520386
8.408639907837 -75.216392517090 -147.829818725586 4.835100173950
-67.429801940918 -79.489608764648 -95.503639221191 3.481724739075
23.623544692993 -66.600669860840 -167.122665405273 1.378991365433
-161.876556396484 -79.403617858887 -266.688537597656 4.210540771484
64.451065063477 -73.708053588867 -233.874267578125 2.871463537216
66.884155273438 -72.851142883301 -72.991004943848 4.592366218567
91.464248657227 -76.810333251953 -98.222686767578 2.585789203644
40.893802642822 -73.088226318359 -36.639614105225 2.786215782166
108.447601318359 -75.850830078125 -104.372337341309 0.812426686287
110.999763488770 -77.780578613281 -115.930625915527 3.723750829697
33.043167114258 -70.855674743652 -20.007320404053 2.651481151581
-57.628112792969 -69.423645019531 -137.638504028320 1.427218675613
116.055007934570 -74.379470825195 -142.211837768555 0.378387600183
-15.943330764771 -73.182983398438 -235.246444702148 1.625954270363
-103.697250366211 -69.118682861328 -154.378662109375 4.074815273285
-45.130256652832 -76.207214355469 -135.748352050781 2.422830104828
-105.288734436035 -71.817062377930 -280.971038818359 4.392427921295
-100.689216613770 -66.738296508789 -282.662139892578 5.791505813599
-151.482818603516 -59.784969329834 -234.766891479492 2.431972980499
-44.698596954346 -75.595329284668 -144.035995483398 1.669012069702
107.206634521484 -70.173034667969 -148.485595703125 4.625010967255
-59.854816436768 -74.843887329102 -137.505187988281 2.805172920227
105.602302551270 -64.701187133789 -98.411331176758 0.506902456284
46.334918975830 -64.982818603516 -29.897441864014 3.452509641647
109.231567382813 -79.157302856445 -147.790420532227 3.328750371933
37.317447662354 -75.977485656738 -163.700561523438 4.437521934509
-4.336884975433 -69.669143676758 -238.659759521484 1.530384898186
-29.889448165894 -74.061569213867 -206.799667358398 2.098614215851
-46.095088958740 -72.309852600098 -151.691207885742 2.707459688187
106.916481018066 -80.408332824707 -159.700149536133 4.983219146729
-45.629604339600 -72.688781738281 -151.271331787109 2.018252611160
-60.281242370605 -71.673034667969 -171.852157592773 2.286288499832
-71.000091552734 -71.828926086426 -159.539642333984 2.551031589508
111.071380615234 -74.521972656250 -171.021163940430 2.163868665695
-35.804473876953 -77.495719909668 -165.180252075195 2.705145359039
-40.973384857178 -71.096405029297 -163.291107177734 2.822063207626
-31.916513442993 -75.384536743164 -168.350265502930 1.680682301521
-31.761148452759 -69.000389099121 -172.830337524414 1.444212913513
-39.072658538818 -73.004295349121 -166.552734375000 1.927116274834
104.549568176270 -74.482994079590 -176.604965209961 1.386556982994
-79.604629516602 -66.144210815430 -109.336532592773 2.743099689484
43.479885101318 -66.841308593750 -247.565383911133 2.185465335846
-39.741378784180 -66.565605163574 -287.513549804688 4.480923652649
-146.262130737305 -78.965896606445 -173.326431274414 6.227230548859
-148.595291137695 -68.489334106445 -179.031051635742 3.111561536789
-154.681884765625 -69.074081420898 -176.041656494141 3.074368715286
22.253824234009 -60.024616241455 -255.347229003906 2.049533843994
13.569024085999 -70.917900085449 -254.228317260742 6.815891265869
-56.618068695068 -80.615509033203 -176.758956909180 2.804356813431
-152.420425415039 -70.332122802734 -237.970031738281 2.967569828033
-118.250251770020 -74.981254577637 -192.413024902344 4.603799343109
22.267442703247 -75.587104797363 -180.240036010742 2.273069858551
-36.442256927490 -70.122329711914 -177.836868286133 1.416114807129
-16.674943923950 -69.048004150391 -222.939041137695 1.117969632149
18.253431320190 -72.729202270508 -185.655349731445 3.330034255981
63.910972595215 -66.065658569336 -84.489463806152 2.234237670898
-43.251899719238 -74.488052368164 -44.286567687988 6.693917274475
14.819067955017 -73.586967468262 -256.598754882813 5.903391361237
92.895721435547 -78.444557189941 -192.891418457031 7.663527488708
-56.793533325195 -68.374382019043 -281.476348876953 5.661627292633
-141.538574218750 -71.801116943359 -192.135101318359 2.608632326126
-151.238647460938 -68.912231445313 -189.914367675781 2.264387369156
-155.048965454102 -63.134750366211 -187.273376464844 3.226049423218
-99.356857299805 -80.748764038086 -212.608383178711 7.393497467041
-37.230304718018 -76.070503234863 -198.229248046875 1.412281870842
-63.738246917725 -72.772216796875 -41.671581268311 5.746294021606
88.429237365723 -70.603088378906 -205.552841186523 4.683934211731
-32.127185821533 -81.087959289551 -209.620071411133 2.764370203018
-61.475818634033 -72.415023803711 -162.481460571289 2.234217643738
-22.515218734741 -78.819969177246 -198.657760620117 2.591768741608
5.995265007019 -78.013977050781 -236.525848388672 1.109907746315
58.271320343018 -69.881538391113 -243.428192138672 0.279243171215
96.606193542480 -69.830360412598 -209.485946655273 2.977981567383
8.261783599854 -75.581504821777 -207.052322387695 1.907145977020
-58.570030212402 -72.107353210449 -163.172683715820 3.249961614609
-34.045055389404 -74.331192016602 -206.233856201172 0.932072937489
-27.334016799927 -72.929679870605 -203.612594604492 3.431846380234
5.451550960541 -64.913665771484 -236.898391723633 1.280476450920
49.773593902588 -75.562057495117 -241.498138427734 4.521761894226
-34.361476898193 -64.146217346191 -79.146186828613 3.404339313507
12.377490997314 -72.836563110352 -276.149627685547 5.319042682648
16.589351654053 -70.225990295410 -273.744812011719 4.855869770050
86.989326477051 -72.987213134766 -209.898483276367 1.823598623276
48.870182037354 -72.826065063477 -251.288208007813 1.292658329010
83.755187988281 -75.519096374512 -215.417587280273 1.031719326973
15.743933677673 -73.661575317383 -178.377532958984 1.193570613861
-19.188192367554 -72.650192260742 -214.541076660156 2.174329996109
-34.802986145020 -75.122070312500 -215.656539916992 3.033058166504
-154.068298339844 -78.060188293457 -213.317581176758 4.934506893158
-154.460083007813 -66.346382141113 -213.509033203125 2.339548110962
76.784164428711 -77.432449340820 -219.548995971680 4.758725166321
99.675453186035 -57.115680694580 -103.714965820313 1.658696293831
68.149459838867 -71.554847717285 -224.822952270508 5.176976203918
-72.691604614258 -74.313056945801 -141.903289794922 1.042555093765
-156.172058105469 -72.447921752930 -223.566223144531 2.741206884384
-12.725186347961 -71.720535278320 -213.284973144531 3.164919614792
-156.135955810547 -70.225257873535 -225.472763061523 0.630059361458
-11.388572692871 -75.203620910645 -211.494262695313 2.796857357025
-145.340835571289 -61.671493530273 -221.011550903320 1.773648381233
-17.956548690796 -71.388488769531 -223.954208374023 1.993502736092
50.677177429199 -73.679367065430 -26.626615524292 2.641081094742
-113.219635009766 -74.601852416992 -188.701812744141 5.493135452271
-147.641433715820 -66.168647766113 -221.354309082031 1.228618741035
-157.827194213867 -68.746658325195 -222.463241577148 2.217982053757
-20.687986373901 -70.891410827637 -232.927200317383 5.040157318115
-13.585239410400 -63.246459960938 -199.183624267578 4.937708377838
-15.555451393127 -66.083122253418 -201.068801879883 3.176517248154
10.893989562988 -72.633460998535 -235.592178344727 1.402850866318
-44.331165313721 -67.815193176270 -130.187408447266 5.062871932983
-37.944171905518 -72.087669372559 -234.595458984375 6.193061828613
62.941978454590 -69.916816711426 -240.138809204102 1.225976347923
-3.142668008804 -66.351623535156 -290.638397216797 1.327369093895
-0.412782013416 -58.822483062744 -289.351715087891 3.058691501617
-110.856971740723 -59.755638122559 -175.457260131836 3.650238275528
-58.863178253174 -75.863883972168 -241.171722412109 3.812852144241
-50.790863037109 -71.539894104004 -47.033359527588 1.611630320549
-88.212097167969 -73.866340637207 -243.012985229492 7.091227531433
-106.411270141602 -70.836746215820 -221.323959350586 2.528717279434
-15.695718765259 -74.764259338379 -247.828109741211 3.542613029480
-101.253433227539 -74.653442382813 -251.619705200195 4.047973632813
-26.625009536743 -76.958290100098 -253.647872924805 9.944124221802
-128.103195190430 -78.819869995117 -252.305633544922 5.254152297974
-129.550460815430 -69.374824523926 -252.621917724609 1.915955424309
-134.140502929688 -74.698707580566 -258.762512207031 1.596988320351
18.092245101929 -77.089744567871 -263.865814208984 2.315125703812
-17.733539581299 -75.063896179199 -264.709350585938 3.407292604446
-20.126583099365 -63.487785339355 -268.210327148438 5.780840396881
26.937347412109 -59.333648681641 -31.630842208862 2.303019046783
-174.089538574219 -83.695129394531 -274.237976074219 11.894658088684
65.828109741211 -73.321067810059 -239.948745727539 1.368134260178
-177.397781372070 -74.121910095215 -272.476318359375 9.950461387634
-152.705688476563 -70.728111267090 -271.951538085938 2.647567272186
-160.428390502930 -78.264457702637 -270.873199462891 5.233680725098
-150.907913208008 -69.631019592285 -272.849945068359 3.729477643967
-2.485059976578 -74.387863159180 -164.566680908203 1.423536181450
-163.491043090820 -76.087013244629 -204.387557983398 4.845684051514
-147.624008178711 -71.849601745605 -189.240921020508 2.547356605530
-57.419425964355 -70.358833312988 -284.691101074219 2.057047605515
24.513462066650 -72.708114624023 -132.652801513672 4.526239395142
-52.217124938965 -68.444175720215 -283.096008300781 5.693055629730
-119.640960693359 -67.814147949219 -224.269485473633 2.532605648041
-151.701995849609 -60.163928985596 -191.917343139648 3.093105316162
-153.148590087891 -60.658966064453 -189.535522460938 4.929749965668
-87.665992736816 -76.147041320801 -107.089332580566 3.313738584518
-27.938655853271 -67.910537719727 -283.520385742188 5.908802986145
-22.625200271606 -72.343368530273 -278.990936279297 7.789778709412
-103.653594970703 -75.370429992676 -280.893066406250 5.622837066650
-114.474372863770 -65.617324829102 -190.032516479492 2.740999460220
80.463333129883 -67.705490112305 -222.035568237305 3.737691879272
14.078034400940 -76.083557128906 -288.187896728516 1.964667797089
14.296673774719 -71.100028991699 -278.673461914063 4.709116458893
-146.973999023438 -73.264076232910 -196.017745971680 1.276091575623
-65.672096252441 -75.797973632813 -284.485504150391 3.393983840942
-143.429153442383 -71.835090637207 -195.697998046875 2.262637615204
-157.171478271484 -72.289878845215 -194.285491943359 1.133625149727
-155.418838500977 -62.079357147217 -195.223571777344 2.376727342606
-144.853408813477 -71.069099426270 -237.390640258789 2.413605690002
-105.961639404297 -75.567611694336 -288.162078857422 2.835732221603
-107.042572021484 -75.248947143555 -279.303649902344 7.332663536072
-47.020935058594 -72.839561462402 -138.886398315430 1.030056357384
103.942512512207 -73.807731628418 -175.721847534180 1.762988567352
-30.221012115479 -69.486961364746 -287.219909667969 2.617946863174
-6.412347793579 -76.555809020996 -292.931335449219 2.575404644012
66.877395629883 -66.396286010742 -240.355239868164 2.695229053497
30.686088562012 -62.800987243652 -10.830032348633 3.636316776276
31.307937622070 -58.999519348145 -15.673244476318 3.332164525986
-28.576034545898 -74.304946899414 -47.464202880859 5.705510139465
-136.297576904297 -78.597869873047 -222.041427612305 4.693506240845
-20.917615890503 -76.184448242188 -64.507713317871 2.305362462997
81.145996093750 -71.456756591797 -63.312839508057 2.532779693604
82.116996765137 -66.274780273438 -64.527244567871 2.332072257996
62.870346069336 -78.166984558105 -236.169418334961 5.524462699890
-89.098327636719 -74.857704162598 -61.119293212891 5.411916732788
68.860404968262 -73.115348815918 -87.364860534668 1.257188439369
81.779670715332 -71.263595581055 -69.499359130859 1.713255405426
79.513404846191 -73.926239013672 -75.378738403320 1.445171833038
66.543624877930 -75.944488525391 -71.315574645996 7.124346733093
41.041973114014 -73.842025756836 -101.579627990723 3.246688842773
97.809265136719 -72.317108154297 -77.028121948242 1.382003784180
28.680873870850 -63.896652221680 -132.639816284180 1.253083348274
27.590419769287 -59.528511047363 -134.043228149414 0.928951382637
-139.344696044922 -80.977081298828 -246.043869018555 6.287075519562
-41.496665954590 -72.706222534180 -76.420089721680 2.999477624893
-66.970886230469 -74.467643737793 -86.301551818848 7.333444595337
-69.233970642090 -73.248573303223 -85.475547790527 8.986369132996
54.220062255859 -74.280799865723 -95.212379455566 1.343758344650
95.390037536621 -71.514968872070 -66.445808410645 3.777319431305
99.212409973145 -72.928649902344 -74.878997802734 2.389605760574
23.405166625977 -74.878440856934 -141.761169433594 1.255583167076
64.320442199707 -68.776550292969 -231.590087890625 4.555251121521
3.482059955597 -71.091499328613 -293.429870605469 1.033273816109
66.190551757813 -61.229091644287 -73.414566040039 2.305546760559
-3.333312034607 -65.740272521973 -284.752441406250 1.653453946114
91.387138366699 -73.273986816406 -102.342422485352 1.388862967491
-89.896728515625 -72.706764221191 -97.971290588379 4.327417373657
3.204601049423 -60.741302490234 -262.608825683594 2.803205728531
53.992835998535 -70.615005493164 -101.598838806152 1.295856356621
-60.848819732666 -64.060279846191 -80.988548278809 3.300351858139
92.733177185059 -75.721588134766 -100.504425048828 1.778172254562
41.350128173828 -71.024154663086 -33.307010650635 1.583596110344
109.701362609863 -75.529655456543 -107.095802307129 3.385995626450
53.588352203369 -70.013648986816 -17.837839126587 4.641305446625
-18.617822647095 -69.500343322754 -226.585311889648 1.855888366699
25.564291000366 -68.201583862305 -188.938049316406 2.246326923370
-99.330284118652 -73.239936828613 -102.319137573242 5.467994213104
37.986110687256 -68.906265258789 -33.337852478027 2.458379983902
110.783149719238 -73.976333618164 -109.028640747070 1.789738297462
-61.238124847412 -68.988502502441 -132.614425659180 2.386156797409
105.145729064941 -74.883995056152 -108.935798645020 0.648235619068
33.995101928711 -74.122245788574 -31.324512481689 6.028607845306
104.428390502930 -71.635856628418 -116.733718872070 2.342623233795
-50.675514221191 -68.520195007324 -81.750404357910 3.201388359070
108.019538879395 -73.425201416016 -124.887451171875 2.708766222000
111.212005615234 -74.872627258301 -122.182289123535 1.539307475090
108.030532836914 -78.939407348633 -129.364852905273 4.152086257935
108.967575073242 -74.414314270020 -130.771743774414 1.628049731255
-21.321763992310 -72.140769958496 -71.959274291992 1.140259623528
36.838790893555 -73.987983703613 -133.848266601563 2.931017160416
-20.690942764282 -70.331855773926 -69.711158752441 2.675799846649
-78.162239074707 -63.546577453613 -113.641304016113 2.243015766144
30.731668472290 -73.322219848633 -130.297515869141 2.218876361847
-167.628479003906 -78.207191467285 -215.318161010742 5.609532833099
4.994021892548 -72.495132446289 -195.732284545898 4.334328174591
-54.643623352051 -71.642227172852 -128.088455200195 1.086815714836
6.610765933990 -79.277717590332 -220.353363037109 1.161975860596
-79.058738708496 -66.703865051270 -133.110549926758 2.152171850204
-46.668720245361 -74.384429931641 -140.164306640625 1.234228372574
5.717187881470 -68.138153076172 -224.482452392578 1.307134747505
-33.982963562012 -78.185653686523 -194.173782348633 2.629590988159
28.364362716675 -65.943794250488 -250.207397460938 5.866997718811
-27.290830612183 -72.849678039551 -191.259811401367 1.947095990181
-74.979492187500 -71.321037292480 -147.134735107422 0.868476390839
-1.149474978447 -67.585548400879 -218.734024047852 3.227258205414
27.426298141479 -74.619163513184 -154.671432495117 3.448463916779
22.251001358032 -68.996917724609 -150.660659790039 2.012633323669
27.419025421143 -66.129241943359 -158.001510620117 4.091284751892
-15.508900642395 -72.548492431641 -205.316741943359 3.516633033752
-67.262733459473 -72.877838134766 -149.685943603516 1.186290383339
-37.582073211670 -72.606376647949 -152.913833618164 0.672560811043
109.519294738770 -72.139175415039 -156.519851684570 1.877102971077
-50.805797576904 -69.991821289063 -149.998870849609 1.731699824333
-47.758159637451 -61.598182678223 -149.317169189453 5.521524906158
-80.030876159668 -70.452156066895 -115.082504272461 2.070282697678
15.948893547058 -70.179389953613 -243.250732421875 2.111603975296
98.320007324219 -71.942199707031 -189.558029174805 2.100335359573
-18.894886016846 -71.663635253906 -207.960067749023 1.195235610008
105.318084716797 -78.536636352539 -186.167190551758 3.223928213120
-73.342498779297 -70.582756042480 -153.581863403320 2.743667840958
-23.501920700073 -70.724273681641 -210.993743896484 4.184418201447
29.734260559082 -75.514305114746 -152.214508056641 1.543285369873
19.442945480347 -77.989151000977 -166.547683715820 3.668990373611
12.422314643860 -70.684951782227 -151.133758544922 2.376850605011
-67.614295959473 -81.077461242676 -157.591735839844 3.013245820999
