-3.335125923157 -78.268089294434 -229.682601928711 1.558271884918
-3.219259023666 -82.896453857422 -254.797515869141 2.365369796753
-59.241027832031 -84.087562561035 -279.005920410156 9.845601081848
-109.442642211914 -68.429306030273 -197.982894897461 2.091540813446
-144.046218872070 -74.644691467285 -236.613952636719 2.059352636337
-142.416519165039 -74.540275573730 -235.710510253906 1.633461356163
-131.034545898438 -70.502861022949 -234.938415527344 1.165513515472
-59.362422943115 -83.274337768555 -279.972503662109 8.685662269592
9.865474700928 -75.194496154785 -216.297332763672 2.922182559967
-143.680099487305 -72.388450622559 -214.735443115234 3.375804901123
-145.119644165039 -67.342063903809 -221.230484008789 0.535382509232
-135.575775146484 -64.026123046875 -220.903213500977 5.696102142334
-70.326675415039 -83.663314819336 -278.990966796875 10.147687911987
-61.523941040039 -53.017482757568 -125.860115051270 2.601584196091
-139.591018676758 -78.827301025391 -226.401870727539 1.620142817497
-62.186763763428 -86.328567504883 -275.278320312500 14.542169570923
-97.544242858887 -66.807937622070 -197.324798583984 10.743761062622
98.722518920898 -72.761695861816 -174.794250488281 6.922799110413
-68.749275207520 -49.999458312988 -40.028636932373 3.938625574112
36.358963012695 -63.609622955322 -227.273193359375 20.418045043945
41.892524719238 -82.848365783691 -239.696594238281 14.943419456482
-47.951202392578 -45.788040161133 -44.777378082275 5.393433570862
-53.930957794189 -52.766242980957 -43.919139862061 3.177018642426
76.449417114258 -57.877994537354 -45.341236114502 12.216988563538
52.171184539795 -60.549518585205 -81.928176879883 6.125524044037
-75.875183105469 -47.581619262695 -96.125869750977 4.227222919464
69.524169921875 -59.403545379639 -52.948364257813 7.251145839691
94.642333984375 -58.256160736084 -58.198993682861 2.809551954269
-88.607154846191 -35.301990509033 -45.863731384277 6.737703323364
95.386482238770 -55.981826782227 -62.641696929932 2.881034374237
60.473693847656 -58.175342559814 -76.020317077637 3.783661127090
67.329490661621 -66.093521118164 -71.667106628418 2.708427906036
60.936038970947 -57.635967254639 -66.912788391113 4.805123329163
26.140037536621 -81.552223205566 -276.082763671875 8.198980331421
61.636997222900 -50.036659240723 -54.993362426758 8.755455970764
26.682748794556 -75.854873657227 -272.286834716797 5.882894992828
70.592750549316 -55.505699157715 -74.567077636719 3.323833942413
26.488008499146 -64.383514404297 -152.246963500977 4.231537818909
-147.820343017578 -79.561012268066 -272.522186279297 1.683828234673
11.157954216003 -66.870384216309 -134.413909912109 9.858824729919
-71.441520690918 -61.879703521729 -93.668601989746 3.092016220093
29.288702011108 -61.507293701172 -152.315063476563 7.063516139984
-140.590011596680 -85.429641723633 -275.020080566406 5.863145351410
78.845260620117 -79.227439880371 -210.653045654297 7.835949420929
58.482810974121 -54.525856018066 -52.965770721436 12.817613601685
86.211242675781 -62.656208038330 -73.496849060059 8.893325805664
27.614215850830 -48.865703582764 -21.152709960938 2.922059059143
103.919525146484 -62.944072723389 -77.172073364258 2.047161102295
108.004287719727 -66.617675781250 -87.832794189453 3.509069919586
17.581850051880 -44.038169860840 -6.344046115875 13.692351341248
-55.368797302246 -58.373168945313 -134.925308227539 2.046511173248
116.866561889648 -67.255363464355 -113.305885314941 5.776947021484
-0.455769985914 -77.383316040039 -223.819824218750 1.859415769577
-98.549942016602 -59.682464599609 -158.084899902344 3.794057607651
-43.548809051514 -65.037094116211 -130.270629882813 7.197805404663
-82.289695739746 -81.126548767090 -281.823303222656 6.607361793518
-77.295921325684 -76.443763732910 -283.538818359375 4.371719837189
-134.043273925781 -61.487682342529 -245.089553833008 11.258305549622
-41.922504425049 -65.671524047852 -138.406875610352 5.228016376495
109.173637390137 -63.860130310059 -121.345741271973 3.219634294510
-57.808631896973 -63.670124053955 -134.338394165039 1.539970755577
100.709938049316 -50.980522155762 -73.362106323242 2.035527467728
32.367107391357 -39.953578948975 -14.928214073181 9.619248390198
110.715682983398 -72.678298950195 -119.073562622070 1.195973277092
41.969978332520 -70.530380249023 -145.612243652344 4.814754962921
11.649443626404 -74.636909484863 -225.971191406250 3.175112009048
-18.317092895508 -73.760765075684 -197.890396118164 2.765599966049
-42.086235046387 -63.533794403076 -146.576934814453 5.634543418884
110.063507080078 -75.640487670898 -130.887374877930 1.374869465828
-41.700622558594 -63.854923248291 -146.043334960938 5.425968170166
-53.234226226807 -65.629470825195 -168.473220825195 9.938978195190
-65.587509155273 -63.750640869141 -157.966918945313 6.440699100494
116.015022277832 -71.581367492676 -142.209091186523 1.822437524796
-30.205129623413 -70.860778808594 -157.526779174805 3.759050130844
-35.327350616455 -64.154701232910 -157.356277465820 7.026440143585
-25.825174331665 -69.318275451660 -160.365615844727 6.494807720184
-24.779088973999 -63.674644470215 -165.648406982422 8.785531044006
-33.062000274658 -66.561752319336 -159.995452880859 5.370535850525
110.357421875000 -72.248321533203 -148.632568359375 2.395015954971
-80.984672546387 -50.508296966553 -110.910842895508 2.283776760101
60.320480346680 -74.073280334473 -228.107452392578 8.949118614197
-16.318870544434 -78.152748107910 -279.405395507813 5.864699363708
-138.361511230469 -71.424034118652 -181.428604125977 3.625424623489
-139.438217163086 -61.868736267090 -188.863784790039 4.533491134644
-145.905654907227 -61.887039184570 -186.743164062500 0.924895226955
40.703998565674 -68.085891723633 -239.808532714844 8.830918312073
31.516201019287 -78.524932861328 -238.411315917969 11.177335739136
-49.276126861572 -75.269691467285 -171.450286865234 5.691747665405
-134.941909790039 -72.373901367188 -246.840103149414 7.199741840363
-107.789466857910 -70.852508544922 -196.589874267578 2.754309892654
29.444320678711 -72.315277099609 -164.054885864258 2.370242595673
-28.744707107544 -65.438674926758 -171.070465087891 4.171936035156
-2.757117033005 -71.452690124512 -212.478012084961 2.118156671524
26.356927871704 -70.217773437500 -170.353622436523 1.321467161179
57.445468902588 -49.468563079834 -65.632453918457 6.402530193329
-54.585403442383 -49.785598754883 -40.731101989746 4.918687343597
32.980964660645 -81.539817810059 -240.163574218750 12.313457489014
100.979507446289 -78.363090515137 -165.703567504883 7.659251689911
-34.113502502441 -78.719978332520 -275.727783203125 10.791664123535
-130.734710693359 -67.224082946777 -200.179733276367 2.647064208984
-140.527175903320 -63.853408813477 -199.840484619141 1.266654849052
-144.437271118164 -57.676288604736 -198.645919799805 2.414325475693
-86.472412109375 -79.914443969727 -212.762100219727 1.491562008858
-26.873575210571 -74.334243774414 -190.285537719727 2.235322713852
-75.149551391602 -47.311054229736 -41.413017272949 3.936196327209
98.672584533691 -72.406089782715 -179.878982543945 6.169076442719
-20.413944244385 -81.084358215332 -199.964218139648 2.007922887802
-55.773880004883 -64.948280334473 -159.369705200195 8.799358367920
-12.369261741638 -77.396186828613 -188.158004760742 5.317992210388
21.229866027832 -82.767082214355 -221.169235229492 6.130838871002
74.241447448730 -76.745887756348 -221.458404541016 5.483522415161
107.348899841309 -72.381866455078 -182.644821166992 0.432933807373
19.392154693604 -76.026603698730 -192.343353271484 2.558752536774
-52.789436340332 -64.802024841309 -159.665954589844 6.874202251434
-22.518398284912 -73.864273071289 -197.905014038086 0.760998129845
-16.195655822754 -72.216773986816 -194.561065673828 2.055730819702
21.273105621338 -69.859535217285 -223.502914428711 4.268498897552
65.333885192871 -81.914016723633 -219.991882324219 14.692067146301
-40.434062957764 -44.908176422119 -75.040527343750 1.468173265457
33.367431640625 -83.655899047852 -259.762908935547 13.389218330383
37.297714233398 -80.797607421875 -257.170410156250 9.465583801270
97.768218994141 -75.381523132324 -183.998550415039 6.060255050659
65.938293457031 -80.646102905273 -230.100021362305 7.498252391815
95.249572753906 -78.643264770508 -189.507476806641 6.587350368500
22.805679321289 -70.010726928711 -163.463104248047 1.817361354828
-6.578495979309 -73.718864440918 -204.106658935547 2.878471851349
-21.964378356934 -76.031639099121 -207.123611450195 3.378922700882
-140.377624511719 -76.321128845215 -221.839035034180 2.416644096375
-140.265686035156 -64.760429382324 -223.773269653320 2.742155790329
88.863090515137 -81.016227722168 -194.293548583984 11.004849433899
95.905380249023 -44.155761718750 -80.512977600098 2.207089185715
81.307167053223 -75.824203491211 -201.564727783203 12.249060630798
-69.860488891602 -63.554546356201 -140.595214843750 5.512893676758
-140.779479980469 -72.254684448242 -232.986251831055 2.061219692230
-0.326604008675 -72.735992431641 -202.066955566406 6.758234977722
-140.383926391602 -70.341003417969 -235.167495727539 1.763185620308
0.601163029671 -75.939186096191 -199.616683959961 7.745258331299
-129.994094848633 -61.426254272461 -230.457641601563 3.790517091751
-3.975212097168 -73.893218994141 -213.321228027344 2.003905534744
35.847709655762 -48.148700714111 -9.838138580322 3.542128562927
-103.324501037598 -70.021713256836 -192.277328491211 4.063998699188
-132.402328491211 -65.879852294922 -230.480606079102 1.889942407608
-142.423645019531 -68.399826049805 -232.682510375977 0.983637213707
-5.384957790375 -74.682823181152 -222.573883056641 2.631782531738
-2.834307909012 -62.246265411377 -189.614059448242 15.471294403076
-4.630183219910 -65.293525695801 -191.337814331055 11.830491065979
26.159719467163 -77.401710510254 -220.315704345703 7.660170078278
-43.208278656006 -55.928791046143 -125.921875000000 10.526252746582
-22.264528274536 -75.785270690918 -226.555694580078 1.493003845215
78.393455505371 -76.380928039551 -217.551498413086 5.264298915863
20.331819534302 -79.101387023926 -277.146331787109 3.306284666061
23.153108596802 -71.517936706543 -276.574157714844 2.468271255493
-102.266304016113 -53.420280456543 -181.111160278320 10.045720100403
-42.175296783447 -80.098045349121 -235.504074096680 4.963297843933
-61.533859252930 -47.135387420654 -44.946292877197 1.856089234352
-70.862281799316 -77.838447570801 -241.883010864258 5.466061115265
-91.814804077148 -71.274848937988 -223.752578735352 3.517245054245
1.508700966835 -80.820579528809 -235.869140625000 1.591907024384
-82.573059082031 -79.647277832031 -252.098556518555 3.163859367371
-8.564842224121 -83.646614074707 -242.845550537109 8.172183990479
-109.200454711914 -83.358024597168 -256.092468261719 9.079308509827
-110.206268310547 -74.038970947266 -257.975891113281 1.758322000504
-114.090499877930 -80.127761840820 -263.888458251953 7.098621845245
37.107200622559 -86.144912719727 -246.292236328125 16.182147979736
1.873785018921 -83.585945129395 -252.645248413086 1.151078701019
0.469850987196 -72.614990234375 -258.091094970703 7.914922714233
13.654777526855 -34.256759643555 -20.274108886719 19.272171020508
-151.772644042969 -90.562034606934 -283.574340820313 5.295345783234
81.083877563477 -79.773429870605 -216.452682495117 4.330808162689
-154.908462524414 -80.772163391113 -283.714477539063 2.082911014557
-130.423492431641 -77.808242797852 -280.082153320313 4.590357780457
-138.518600463867 -84.952529907227 -279.068237304688 7.438411235809
-128.473770141602 -76.891181945801 -280.856964111328 3.969629049301
2.788867950439 -68.330444335938 -152.505569458008 5.014708042145
-150.883666992188 -72.864387512207 -214.760848999023 2.323125362396
-137.165878295898 -66.726341247559 -198.229476928711 3.833046197891
-34.356914520264 -81.147727966309 -278.679260253906 8.813032150269
25.036905288696 -62.441978454590 -117.568656921387 10.637326240540
-29.360301971436 -79.116630554199 -276.634094238281 9.596153259277
-104.360694885254 -68.472343444824 -229.004592895508 0.930176496506
-140.348815917969 -55.492527008057 -203.130371093750 5.058561801910
-142.137176513672 -55.600631713867 -200.939285278320 5.254336357117
-89.679862976074 -59.911167144775 -108.446708679199 6.576051712036
-5.265223026276 -79.113746643066 -273.578582763672 2.234342098236
-0.830511987209 -82.924736022949 -267.729766845703 2.567348957062
-80.826728820801 -84.659355163574 -280.995513916016 10.248154640198
-104.014663696289 -61.312347412109 -195.058990478516 6.120410442352
93.246734619141 -71.838333129883 -197.592514038086 3.286839485168
36.624786376953 -88.686996459961 -270.827819824219 19.310905456543
35.693405151367 -82.350379943848 -262.202972412109 12.831501007080
-135.619445800781 -69.143974304199 -204.562911987305 2.860608816147
-42.767944335938 -86.338035583496 -278.899475097656 11.473749160767
-132.101013183594 -67.751022338867 -203.938064575195 0.632068455219
-145.911849975586 -67.729507446289 -204.498245239258 2.945761680603
-143.633697509766 -57.806835174561 -206.632995605469 2.886397361755
-127.569335937500 -73.160392761230 -245.060989379883 8.239583969116
-82.087219238281 -85.890289306641 -288.418487548828 10.220793724060
-84.399093627930 -84.238670349121 -279.952728271484 10.406295776367
-44.838279724121 -62.137653350830 -134.103851318359 5.393964767456
109.659049987793 -71.437942504883 -147.954391479492 3.293229341507
-7.061854839325 -81.178581237793 -277.305419921875 2.528297662735
17.011400222778 -89.468940734863 -278.396362304688 10.603721618652
82.458534240723 -73.007087707520 -217.696029663086 2.556474208832
14.274490356445 -34.666137695313 1.131440043449 25.816440582275
15.729301452637 -31.638872146606 -4.066034793854 24.504533767700
-39.611976623535 -50.355705261230 -41.722846984863 7.338540554047
-121.586074829102 -78.486686706543 -227.702590942383 4.434333801270
-29.697212219238 -54.891609191895 -57.012977600098 5.330683231354
71.273399353027 -51.980632781982 -41.610847473145 15.045458793640
72.614860534668 -47.055980682373 -43.404937744141 11.826824188232
77.427337646484 -83.946990966797 -212.487136840820 10.491954803467
-97.560348510742 -51.779888153076 -63.851436614990 2.689449071884
62.464179992676 -56.960029602051 -66.706459045410 3.221689224243
72.784820556641 -52.720760345459 -47.600814819336 9.340803146362
71.269271850586 -56.183708190918 -53.302024841309 5.632465839386
57.783802032471 -57.328933715820 -50.929611206055 15.235425949097
36.934947967529 -59.261222839355 -84.578666687012 16.066238403320
89.664054870605 -55.185684204102 -52.474777221680 5.460639953613
29.512260437012 -53.807220458984 -118.217933654785 8.600742340088
28.808753967285 -49.676094055176 -120.380851745605 9.869709968567
-121.293762207031 -84.346885681152 -251.295700073242 10.690934181213
-48.222892761230 -52.830963134766 -72.180480957031 5.711213111877
-72.089431762695 -55.556060791016 -85.319900512695 8.502465248108
-74.395729064941 -54.184989929199 -85.018043518066 10.941305160522
49.048984527588 -58.999740600586 -76.358070373535 11.902484893799
85.803649902344 -52.774490356445 -42.587165832520 13.518588066101
90.722610473633 -55.497737884521 -50.078193664551 8.071514129639
25.144214630127 -65.919876098633 -126.331848144531 7.423217773438
78.591148376465 -74.009750366211 -209.147949218750 8.452237129211
27.088771820068 -84.328483581543 -278.226562500000 10.882574081421
58.325424194336 -43.084621429443 -55.158042907715 10.226244926453
19.333633422852 -77.618904113770 -271.501831054688 1.063026070595
86.861495971680 -59.770298004150 -78.050163269043 5.923914432526
-93.039916992188 -55.112712860107 -100.345153808594 6.466516971588
22.863103866577 -69.511016845703 -249.595703125000 2.032757282257
49.877258300781 -56.319732666016 -83.170417785645 8.131622314453
-66.367630004883 -44.593204498291 -80.726654052734 8.258011817932
87.833641052246 -61.942840576172 -75.701583862305 8.473548889160
27.676422119141 -46.338497161865 -18.122156143188 3.907531023026
105.558570861816 -63.054954528809 -79.700622558594 2.022509813309
37.629188537598 -43.274036407471 -1.339959025383 13.409279823303
-4.180203914642 -72.404670715332 -216.265243530273 1.568638682365
34.235816955566 -66.367919921875 -173.151107788086 6.198778152466
-101.775718688965 -56.106388092041 -105.901985168457 3.129051923752
24.438896179199 -44.185104370117 -18.949415206909 7.152357101440
106.965133666992 -61.826866149902 -81.658248901367 2.806819200516
-59.633964538574 -57.127914428711 -130.598571777344 1.020292162895
101.339508056641 -62.603298187256 -82.260269165039 3.313116073608
19.995779037476 -48.967266082764 -16.809822082520 3.553728342056
101.866241455078 -60.536598205566 -90.465377807617 3.584396123886
-56.377231597900 -49.309459686279 -79.342330932617 4.034993648529
106.501747131348 -63.585361480713 -97.662506103516 2.041054964066
109.217567443848 -64.675300598145 -94.339683532715 4.642321586609
106.924911499023 -69.702735900879 -101.247520446777 1.840360403061
108.233589172363 -65.455505371094 -103.140205383301 1.807369589806
-28.877723693848 -51.992851257324 -64.948097229004 3.190409421921
37.345512390137 -64.119392395020 -116.752929687500 4.483897686005
-28.499498367310 -49.882350921631 -62.916614532471 3.041741847992
-78.843132019043 -48.606906890869 -115.287796020508 3.212825536728
30.828624725342 -62.817501068115 -114.266296386719 9.114964485168
-153.512115478516 -76.505813598633 -225.757354736328 1.964752197266
14.680013656616 -71.231208801270 -182.187210083008 1.161764144897
-53.859962463379 -59.204738616943 -124.822601318359 2.289369821548
19.495414733887 -81.625717163086 -205.069107055664 3.500468969345
-77.097579956055 -54.603862762451 -134.017807006836 8.553366661072
-44.371070861816 -63.861637115479 -135.080230712891 5.420023441315
19.645998001099 -71.208213806152 -210.847595214844 1.448247194290
-24.321790695190 -75.884811401367 -185.536849975586 2.136196374893
45.780647277832 -73.290939331055 -233.031478881836 11.621998786926
-17.900596618652 -70.303382873535 -182.476699829102 2.783980846405
-71.261260986328 -61.329944610596 -146.481094360352 6.075748443604
12.061802864075 -69.677284240723 -206.304779052734 1.271924257278
30.961797714233 -67.657920837402 -138.416824340820 2.680013179779
25.501207351685 -61.404834747314 -136.058746337891 1.583935260773
31.768924713135 -59.758331298828 -142.901611328125 6.808618068695
-4.242724895477 -72.317924499512 -194.555862426758 9.239022254944
-63.329902648926 -63.394939422607 -147.625732421875 6.879118442535
-33.504817962646 -64.170494079590 -146.486724853516 10.547857284546
112.520545959473 -67.041633605957 -128.587249755859 1.478422284126
-46.891918182373 -60.900917053223 -145.943405151367 5.695356369019
-43.635742187500 -52.558628082275 -146.041580200195 14.541610717773
-80.765525817871 -55.613166809082 -115.975288391113 0.743518829346
32.343906402588 -76.209190368652 -227.426376342773 13.353918075562
106.134284973145 -71.542015075684 -162.586456298828 2.451400756836
-7.181402206421 -71.771354675293 -197.765304565430 5.881487369537
112.309455871582 -77.691413879395 -157.294036865234 0.640678167343
-68.698554992676 -61.588893890381 -152.658126831055 7.102505207062
-11.270273208618 -71.205650329590 -201.543060302734 1.900631546974
32.860225677490 -68.221862792969 -135.545867919922 2.015494585037
24.613059997559 -72.602401733398 -150.720565795898 1.689983487129
15.778819084167 -62.957206726074 -137.714553833008 4.338039875031
-62.887683868408 -72.669860839844 -154.231704711914 1.993035912514
-61.935127258301 -61.885829925537 -158.718627929688 9.513156890869
-3.803473949432 -78.636993408203 -195.836090087891 10.029740333557
31.722417831421 -76.160118103027 -227.270996093750 12.750019073486
-37.654769897461 -66.853149414063 -153.673828125000 3.961415529251
23.442733764648 -59.840656280518 -163.834884643555 7.116377353668
3.857356071472 -74.017570495605 -148.873733520508 6.009585380554
-16.919622421265 -74.822433471680 -166.242813110352 7.378924846649
-21.791929244995 -61.404285430908 -153.958450317383 16.282573699951
-31.081052780151 -69.230049133301 -159.951583862305 3.893025398254
-27.769510269165 -65.569084167480 -159.710357666016 8.263730049133
14.822538375854 -66.973953247070 -137.504547119141 6.157630443573
4.322319984436 -65.226325988770 -149.688751220703 7.202537536621
16.918731689453 -63.587329864502 -134.211456298828 5.463423728943
112.717193603516 -71.862266540527 -146.227569580078 1.741161108017
110.860893249512 -67.052413940430 -142.255523681641 3.443126916885
115.234062194824 -67.918655395508 -141.018066406250 3.000574827194
60.956470489502 -74.588775634766 -232.229537963867 5.413069248199
23.744710922241 -69.390617370605 -197.582199096680 3.068875789642
-23.260213851929 -67.616569519043 -170.558349609375 5.572787284851
-32.572246551514 -71.399047851563 -161.989761352539 1.415950059891
-21.891769409180 -63.819618225098 -175.282699584961 7.257985591888
-35.749107360840 -61.802219390869 -155.097259521484 8.194704055786
25.960044860840 -61.452117919922 -155.396774291992 7.348841667175
20.851985931396 -62.877120971680 -148.032852172852 2.193839788437
117.452087402344 -70.230560302734 -145.063232421875 2.129218816757
-28.753681182861 -66.201751708984 -176.421203613281 2.982690811157
-33.831207275391 -72.385948181152 -166.697509765625 1.313400149345
-36.954013824463 -60.472854614258 -159.932723999023 9.089070320129
-65.717643737793 -61.275009155273 -136.784927368164 4.567137241364
-27.068353652954 -58.449748992920 -168.918121337891 11.012114524841
-20.367141723633 -86.119346618652 -272.517913818359 11.728090286255
-14.857398033142 -87.220138549805 -269.237030029297 9.496368408203
-137.896316528320 -68.071258544922 -177.964202880859 3.893307685852
-132.372024536133 -63.133251190186 -176.730209350586 9.450728416443
-148.217178344727 -60.586204528809 -180.152954101563 2.614404678345
-146.819869995117 -57.368148803711 -181.689285278320 4.225633144379
-83.347602844238 -51.047737121582 -97.499572753906 9.452400207520
-145.276809692383 -52.579971313477 -173.445098876953 9.820751190186
18.434490203857 -77.047386169434 -244.718566894531 2.186159610748
-15.883573532104 -68.814170837402 -172.600158691406 8.813162803650
-41.289268493652 -61.944988250732 -153.897857666016 6.201551437378
-23.257755279541 -71.953048706055 -171.159835815430 4.282361030579
55.576957702637 -79.615989685059 -234.292770385742 9.342937469482
20.245988845825 -76.153656005859 -199.686309814453 1.108013868332
-74.068527221680 -58.606166839600 -127.189407348633 4.286942005157
-81.395576477051 -60.787475585938 -132.676132202148 3.799161672592
-25.428764343262 -68.681381225586 -177.155929565430 2.561822414398
-38.321083068848 -66.771652221680 -163.491836547852 3.258132696152
-139.004180908203 -68.799552917480 -182.727890014648 1.987416505814
-144.778198242188 -56.054569244385 -185.453796386719 5.035459041595
-136.384124755859 -57.259380340576 -184.072235107422 8.304751396179
-23.301042556763 -49.599544525146 -49.868824005127 3.636098146439
63.827724456787 -78.131523132324 -229.424011230469 7.856881141663
-24.988758087158 -70.446708679199 -175.549102783203 0.842914283276
-25.466238021851 -70.497550964355 -171.085159301758 3.956109285355
103.150779724121 -73.098747253418 -164.568435668945 4.694738864899
-51.495326995850 -63.313533782959 -128.555938720703 2.301733493805
11.728063583374 -67.480476379395 -174.834518432617 5.771942138672
33.335384368896 -70.985610961914 -165.803131103516 3.015626668930
109.845085144043 -71.394866943359 -169.561874389648 1.362076997757
-124.307838439941 -70.393539428711 -196.058105468750 1.521613001823
-116.907142639160 -71.883064270020 -197.740707397461 1.809556722641
-142.499450683594 -66.021072387695 -224.278305053711 2.776358604431
-97.268798828125 -67.265724182129 -191.912078857422 9.968811035156
-12.436920166016 -74.124450683594 -196.364364624023 1.678678035736
-64.951324462891 -64.249938964844 -164.093338012695 7.808278560638
26.080865859985 -81.767799377441 -225.592651367188 7.627335071564
106.994186401367 -71.425918579102 -177.465393066406 1.987117648125
-45.188888549805 -80.318923950195 -279.103118896484 8.039706230164
-136.041595458984 -71.925178527832 -211.828079223633 7.646086692810
-139.912307739258 -57.007537841797 -208.362533569336 5.783305644989
29.730548858643 -74.974227905273 -194.707885742188 5.086678981781
95.596366882324 -73.189163208008 -192.348007202148 3.614601612091
21.848716735840 -76.888008117676 -189.620285034180 1.502176165581
96.609443664551 -47.122653961182 -58.251449584961 2.705614089966
-65.666511535645 -63.984222412109 -147.270584106445 6.070125579834
-1.893664002419 -76.336723327637 -201.987823486328 8.419213294983
-87.155891418457 -70.201919555664 -210.687545776367 4.765055656433
-126.041694641113 -73.761779785156 -252.085922241211 2.237820148468
-78.302642822266 -54.107025146484 -133.762313842773 8.705525398254
12.057703971863 -77.434410095215 -209.361877441406 0.899883151054
-14.090295791626 -75.300727844238 -211.308944702148 2.314579010010
-99.974822998047 -82.184951782227 -287.479553222656 7.409777641296
-135.015396118164 -70.518913269043 -264.161041259766 1.225090384483
92.796936035156 -73.651657104492 -202.356201171875 1.944720029831
-14.534231185913 -75.285476684570 -205.400939941406 2.656723737717
17.590116500854 -67.921699523926 -172.543609619141 2.329688549042
-109.931785583496 -60.806587219238 -195.396026611328 4.496071815491
7.711125850677 -78.224037170410 -209.207565307617 1.342581272125
5.049476146698 -68.282829284668 -214.536453247070 2.404684066772
92.355323791504 -76.728752136230 -202.180587768555 2.455712556839
-128.035873413086 -67.931037902832 -230.380218505859 3.649563789368
21.154237747192 -75.382278442383 -221.180847167969 2.230791568756
26.639801025391 -77.363029479980 -210.799255371094 8.504902839661
-59.304534912109 -79.885047912598 -278.515960693359 7.282507896423
-132.093826293945 -66.141433715820 -217.438095092773 7.137816905975
-138.507156372070 -64.329917907715 -221.522354125977 5.124184131622
-145.172073364258 -71.451873779297 -236.922393798828 2.705000162125
34.454063415527 -41.703945159912 -0.590883016586 14.523200035095
-129.962066650391 -69.230728149414 -235.164627075195 1.580227017403
-5.062948226929 -78.063011169434 -219.901626586914 1.642147183418
-150.853332519531 -76.856391906738 -238.551025390625 2.670772552490
16.235456466675 -74.807212829590 -200.305038452148 1.880273103714
-73.293319702148 -82.997802734375 -282.051574707031 8.815057754517
-147.703155517578 -78.555442810059 -244.152633666992 1.437651038170
-143.696777343750 -66.758956909180 -238.862915039063 3.126202583313
31.986000061035 -38.587139129639 2.483917951584 18.996488571167
27.169960021973 -52.539844512939 -125.318222045898 7.087689399719
68.023025512695 -84.323509216309 -218.609237670898 14.824143409729
21.380285263062 -70.178604125977 -187.428863525391 2.040313720703
-57.674079895020 -56.348110198975 -128.128768920898 2.850360155106
-11.369260787964 -71.095664978027 -223.243225097656 1.866390466690
9.459093093872 -42.253147125244 0.618713021278 23.732967376709
15.892845153809 -40.132415771484 2.162461042404 22.485418319702
-100.914443969727 -51.564174652100 -70.974357604980 1.956605315208
76.223266601563 -80.192390441895 -215.477737426758 8.439563751221
-138.230545043945 -75.539817810059 -245.586669921875 6.612526893616
3.674841880798 -80.986183166504 -219.572784423828 4.104733467102
2.384493112564 -65.706665039063 -226.455123901367 3.887356042862
-8.213071823120 -82.110122680664 -228.389114379883 4.403208255768
-122.276947021484 -63.449661254883 -203.152481079102 1.475585103035
-155.749114990234 -72.754066467285 -235.417877197266 3.128593921661
-148.782699584961 -69.917510986328 -248.927825927734 2.894890308380
16.539669036865 -84.330924987793 -225.655944824219 3.343225002289
-154.763275146484 -74.514289855957 -244.295547485352 3.016930818558
-26.009628295898 -86.524070739746 -276.543609619141 14.016946792603
-135.605224609375 -64.602073669434 -192.085739135742 3.340889692307
-140.551086425781 -57.215560913086 -190.371734619141 5.712093353271
10.168471336365 -75.328834533691 -225.464782714844 2.098854303360
34.863010406494 -77.955230712891 -224.747024536133 15.810125350952
5.908337116241 -79.175590515137 -225.627319335938 1.981613278389
-97.837196350098 -58.789775848389 -145.385314941406 5.088617801666
5.171527862549 -79.216766357422 -226.705078125000 1.281631708145
-136.501983642578 -61.089443206787 -196.080169677734 4.470229625702
-137.466003417969 -71.125564575195 -247.535064697266 6.644575119019
-132.394042968750 -66.710990905762 -245.239776611328 9.609757423401
-136.410003662109 -57.700466156006 -244.448699951172 11.578653335571
-147.705612182617 -73.187782287598 -244.977157592773 2.339185953140
-67.147605895996 -81.785003662109 -239.797714233398 8.050864219666
-47.048137664795 -80.009460449219 -235.711624145508 6.791729450226
-92.890853881836 -65.962799072266 -211.261688232422 6.279764652252
-82.135498046875 -75.733489990234 -252.161102294922 0.994985163212
2.090902090073 -85.087455749512 -240.159576416016 6.832412719727
-42.028205871582 -88.744674682617 -273.618225097656 16.923276901245
-136.832809448242 -69.517776489258 -199.414474487305 3.270388364792
-132.420898437500 -62.452495574951 -207.964874267578 2.428432941437
-146.577590942383 -62.362312316895 -210.020614624023 1.977751135826
-77.291412353516 -77.456726074219 -244.310577392578 4.632764339447
-65.343978881836 -82.489036560059 -277.235809326172 11.183565139771
-137.448028564453 -65.789901733398 -225.368377685547 2.893243789673
-119.126617431641 -55.737766265869 -204.851089477539 7.767611980438
-81.204193115234 -82.884620666504 -279.766448974609 9.311470985413
-74.323417663574 -79.414222717285 -284.611419677734 5.142015457153
-131.997222900391 -72.920639038086 -238.994232177734 3.906508922577
-106.371627807617 -60.672637939453 -203.797592163086 6.757136821747
-133.690902709961 -62.162631988525 -235.287979125977 4.138167858124
31.580867767334 -46.622024536133 -1.582576990128 11.902246475220
32.881381988525 -87.683319091797 -263.192047119141 15.471694946289
-99.580535888672 -64.910682678223 -164.732055664063 3.293788433075
28.546649932861 -78.905242919922 -268.971405029297 7.276978492737
-66.607284545898 -84.555572509766 -279.567260742188 10.421467781067
-105.341308593750 -62.105300903320 -194.981231689453 4.696572303772
-126.253890991211 -71.343376159668 -221.134063720703 3.601830244064
-139.065444946289 -60.027893066406 -229.616088867188 3.872046232224
-119.763526916504 -58.702526092529 -203.154602050781 4.996448040009
-138.358230590820 -57.316398620605 -222.571548461914 7.063963890076
-134.793960571289 -77.551513671875 -226.533691406250 2.577924966812
-63.134033203125 -84.141334533691 -278.854095458984 11.336929321289
-139.076812744141 -57.465610504150 -224.526138305664 5.409785747528
-118.016090393066 -85.913116455078 -296.660400390625 11.194618225098
-136.278015136719 -72.034347534180 -287.839874267578 2.615507125854
19.678499221802 -84.712913513184 -270.432891845703 5.007053852081
19.829181671143 -73.138969421387 -271.606933593750 2.007316350937
98.415130615234 -45.883010864258 -82.221694946289 3.281108856201
63.823371887207 -56.683067321777 -69.813407897949 1.834113836288
6.131200790405 -81.762329101563 -263.789611816406 3.755018234253
35.814495086670 -89.543357849121 -275.517974853516 20.302934646606
-103.033004760742 -52.333557128906 -165.992996215820 9.751195907593
14.038069725037 -45.675300598145 -2.216278076172 17.576402664185
-66.929023742676 -47.557369232178 -106.467819213867 3.384627819061
7.707911968231 -47.096435546875 -9.666796684265 17.431756973267
2.533757925034 -77.530822753906 -239.780624389648 1.248391985893
10.380011558533 -46.352157592773 -11.356262207031 14.602494239807
-77.489479064941 -50.930233001709 -42.269935607910 2.221317052841
107.273544311523 -66.372535705566 -90.583328247070 2.117878913879
24.649841308594 -42.100757598877 -19.359994888306 9.165303230286
115.627349853516 -59.998645782471 -93.320945739746 10.944306373596
17.260250091553 -42.308147430420 -11.050679206848 12.080184936523
105.546676635742 -63.287120819092 -97.468856811523 1.944472074509
20.324426651001 -50.107471466064 -20.487110137939 2.916193962097
106.465843200684 -59.214233398438 -86.718955993652 1.209335088730
-45.005855560303 -50.220676422119 -40.409904479980 7.982133388519
18.245038986206 -77.621223449707 -247.215545654297 2.214479446411
16.913963317871 -75.800643920898 -247.796936035156 1.484488964081
58.473388671875 -44.864727020264 -39.117733001709 13.359134674072
91.551483154297 -54.161033630371 -51.388996124268 7.000319004059
-52.644054412842 -54.894088745117 -72.700653076172 5.039407730103
100.192901611328 -57.834640502930 -65.361358642578 1.235898137093
-62.065818786621 -52.630027770996 -84.141944885254 3.514195680618
2.090719938278 -86.970214843750 -258.356597900391 1.234261512756
98.129714965820 -57.483947753906 -74.008056640625 5.482590198517
26.350307464600 -81.579925537109 -275.710296630859 8.329887390137
74.978454589844 -60.186035156250 -80.233802795410 5.556790351868
100.698989868164 -61.593727111816 -74.373237609863 2.901535034180
19.105060577393 -42.378509521484 -26.603528976440 8.610960960388
107.458717346191 -57.562107086182 -86.786544799805 2.150758743286
30.499895095825 -60.601966857910 -109.319404602051 11.825842857361
29.489065170288 -62.435272216797 -102.285148620605 13.008153915405
28.648292541504 -62.699207305908 -114.746635437012 10.070610046387
25.062040328979 -77.341140747070 -208.867980957031 6.330707073212
-80.117904663086 -59.253784179688 -124.278480529785 1.940352678299
21.095125198364 -77.011802673340 -201.024978637695 0.803963065147
-98.236495971680 -63.622085571289 -168.695831298828 4.189012050629
-64.030647277832 -64.763473510742 -128.727264404297 1.846557378769
8.573307991028 -75.254112243652 -206.117172241211 2.520249843597
-71.922088623047 -62.681488037109 -140.538452148438 4.414093017578
48.612850189209 -75.001800537109 -240.412292480469 5.076578140259
-72.398475646973 -61.924922943115 -132.227142333984 4.427415847778
-45.057487487793 -69.710189819336 -130.739639282227 3.697588682175
29.038898468018 -63.405467987061 -124.075790405273 4.865643978119
55.320053100586 -71.220222473145 -234.685531616211 6.089823246002
-0.913823008537 -70.416633605957 -193.631286621094 10.285361289978
-66.458656311035 -67.855361938477 -141.792312622070 2.159077644348
-0.537576973438 -73.889160156250 -196.042984008789 9.820132255554
15.332782745361 -62.091499328613 -135.855453491211 6.296239376068
26.535209655762 -63.175388336182 -149.050262451172 5.074419975281
8.908824920654 -57.442073822021 -135.264495849609 11.311950683594
30.450946807861 -69.384391784668 -154.842163085938 1.147129654884
66.389663696289 -52.373031616211 -67.332588195801 1.346299648285
109.252540588379 -74.951698303223 -135.625274658203 1.714682459831
111.052940368652 -70.705947875977 -138.770355224609 1.064815282822
115.059219360352 -69.010749816895 -145.523086547852 0.668460488319
-43.089763641357 -67.133583068848 -156.418365478516 1.770882248878
-18.120929718018 -63.843288421631 -176.152877807617 9.264665603638
-12.159926414490 -63.974372863770 -178.648483276367 11.500857353210
-40.469432830811 -67.040168762207 -162.267028808594 3.713699102402
-12.287183761597 -65.656562805176 -177.566986083984 9.720376968384
-42.756538391113 -64.604705810547 -155.153198242188 3.304248809814
33.035324096680 -75.447517395020 -150.735305786133 1.706697225571
114.851837158203 -73.615226745605 -151.896438598633 1.520612001419
26.657175064087 -70.996765136719 -150.977279663086 2.392155170441
29.184471130371 -64.303421020508 -169.769119262695 4.674201488495
29.445919036865 -71.235031127930 -161.550491333008 0.765666484833
27.895801544189 -69.281684875488 -158.584732055664 1.536253452301
18.712522506714 -75.099777221680 -160.057876586914 2.710081100464
-146.897094726563 -64.280570983887 -190.831726074219 1.949772000313
-138.130203247070 -62.920497894287 -197.688552856445 3.112338542938
-139.323776245117 -57.144317626953 -191.510070800781 6.149281024933
-145.100723266602 -70.115165710449 -196.127563476563 1.392334699631
-141.410110473633 -65.596801757813 -194.160858154297 1.400542855263
-33.820854187012 -45.690155029297 -67.211555480957 2.286266326904
-142.609405517578 -63.080833435059 -195.660079956055 2.625987052917
-138.768096923828 -54.864860534668 -194.600021362305 6.648658275604
-103.877853393555 -75.312606811523 -227.271560668945 2.535929441452
31.050827026367 -42.247653961182 -12.853331565857 7.801953792572
29.441480636597 -67.721710205078 -176.491119384766 3.808310270309
-128.505096435547 -67.839454650879 -197.259094238281 4.166207790375
-140.288742065430 -65.983573913574 -211.953552246094 4.357447624207
-142.656967163086 -66.126075744629 -207.833358764648 2.811151504517
-126.041130065918 -77.121498107910 -231.526733398438 1.858907222748
-155.348495483398 -67.819869995117 -210.587387084961 3.734376668930
-153.152130126953 -73.018669128418 -212.856613159180 3.106100559235
-156.586456298828 -73.244865417480 -229.908569335938 2.487731456757
-17.851161956787 -73.039825439453 -205.993194580078 1.948178768158
28.114723205566 -73.813529968262 -196.482696533203 5.131776809692
-74.844932556152 -60.241512298584 -138.624328613281 5.656372547150
16.661073684692 -72.204002380371 -205.242462158203 2.460823059082
32.984508514404 -45.097934722900 -109.731422424316 14.209683418274
-34.688999176025 -47.550045013428 -43.197616577148 8.381334304810
-153.422973632813 -74.082199096680 -222.253677368164 0.640897274017
-92.890403747559 -54.090480804443 -161.251586914063 10.101655006409
-2.759046077728 -73.250114440918 -203.119720458984 6.555379390717
-147.489349365234 -74.379516601563 -224.464126586914 3.249086856842
-141.936630249023 -64.301460266113 -219.933090209961 3.821293354034
-136.314178466797 -65.163604736328 -221.857406616211 4.620225906372
-3.185751914978 -77.393920898438 -214.069778442383 2.887632369995
27.264328002930 -65.847358703613 -175.172866821289 3.019052028656
-82.619850158691 -39.886802673340 -118.204200744629 6.677002429962
-105.788970947266 -74.973556518555 -223.077087402344 3.857992887497
-122.924484252930 -65.228973388672 -230.163116455078 1.601825952530
-152.489730834961 -70.068359375000 -196.084930419922 1.977574944496
31.032606124878 -74.298446655273 -220.782546997070 12.055015563965
4.249279022217 -86.593307495117 -227.922912597656 8.060542106628
-90.975349426270 -51.646804809570 -147.763992309570 11.231250762939
-49.828437805176 -73.489997863770 -244.219131469727 2.083843708038
4.764896869659 -73.490219116211 -234.442382812500 1.957226037979
91.264274597168 -74.942199707031 -195.389160156250 5.884892463684
31.349521636963 -81.017646789551 -270.069030761719 10.819851875305
-116.256034851074 -78.534698486328 -284.260528564453 3.563128471375
-117.236846923828 -78.920204162598 -294.251983642578 5.323027133942
-136.242523193359 -68.313499450684 -288.008483886719 0.725469589233
-58.530918121338 -83.037322998047 -271.469604492188 14.760534286499
-60.600452423096 -81.722785949707 -279.451446533203 8.165965080261
-134.716201782227 -67.209907531738 -216.974945068359 7.063908100128
-140.942977905273 -61.067260742188 -220.777160644531 4.669971466064
-50.467617034912 -86.382720947266 -278.630401611328 11.648464202881
-137.174560546875 -68.486640930176 -207.828048706055 5.482098102570
-132.758239746094 -56.878807067871 -214.242660522461 10.204083442688
-14.897001266479 -86.422096252441 -272.649047851563 8.934520721436
-12.157755851746 -85.493965148926 -274.874145507813 7.161097049713
-133.804870605469 -64.368614196777 -176.410842895508 7.804344654083
-144.936462402344 -57.102355957031 -181.818542480469 4.317967891693
-141.939941406250 -55.061454772949 -186.689437866211 7.053142070770
20.710449218750 -46.089248657227 7.458838939667 22.321033477783
18.038255691528 -47.122222900391 4.703851222992 20.976173400879
-57.639839172363 -50.302097320557 -116.318672180176 4.077763080597
101.411750793457 -50.544261932373 -73.753059387207 1.774500727654
28.598281860352 -47.917098999023 -0.183850005269 12.757225036621
100.600997924805 -44.478713989258 -64.593139648438 1.161007642746
26.878320693970 -47.425067901611 9.951109886169 22.655031204224
20.190610885620 -49.227008819580 3.698533058167 18.522142410278
-53.251144409180 -49.091400146484 -107.675979614258 8.465930938721
24.821001052856 -53.792491912842 -1.167894005775 11.695471763611
29.160089492798 -46.147060394287 -3.001319885254 11.197675704956
29.921937942505 -42.209316253662 -0.869147002697 14.856956481934
100.329750061035 -57.321472167969 -66.050918579102 1.502590060234
-66.573509216309 -55.275405883789 -113.700813293457 1.746012568474
34.755786895752 -49.730396270752 -16.080333709717 1.177604556084
32.269580841064 -46.189315795898 -13.530915260315 3.875357151031
36.399555206299 -52.215126037598 -18.608594894409 1.174495935440
-22.129146575928 -51.843090057373 -48.094791412354 4.361852645874
63.409336090088 -59.855876922607 -61.517471313477 5.476964473724
-57.338459014893 -57.723297119141 -80.927726745605 1.701299905777
12.480943679810 -44.706928253174 -25.052370071411 10.252001762390
101.166976928711 -60.075489044189 -75.036865234375 3.167587041855
-55.783042907715 -58.796405792236 -133.460861206055 1.669443011284
20.079282760620 -69.894073486328 -188.513534545898 2.501297473907
99.673095703125 -62.929946899414 -84.912918090820 4.472620010376
33.222816467285 -66.103843688965 -138.954498291016 3.341257572174
17.427433013916 -69.010589599609 -136.820877075195 5.508118152618
19.622480392456 -59.052371978760 -129.014694213867 6.740527629852
8.217512130737 -69.490150451660 -147.996520996094 2.423327684402
113.996467590332 -62.638385772705 -142.204849243164 6.090612888336
112.726524353027 -72.099517822266 -137.330978393555 1.568937659264
22.449569702148 -64.397308349609 -153.372680664063 2.603233337402
110.074691772461 -73.762664794922 -154.865509033203 2.545859575272
-147.192504882813 -71.122177124023 -183.834075927734 3.501867532730
-143.380310058594 -64.986770629883 -185.697296142578 1.960676074028
-89.166946411133 -53.830921173096 -141.273056030273 8.978650093079
-124.393585205078 -67.975212097168 -201.500259399414 2.703766822815
-113.766685485840 -70.383026123047 -190.055145263672 2.086736917496
-133.113220214844 -71.748069763184 -205.633163452148 1.244270682335
-150.312896728516 -63.213630676270 -208.723205566406 2.229544639587
-147.151718139648 -68.730529785156 -211.908538818359 3.930053234100
-137.737213134766 -61.376155853271 -209.603012084961 6.773704051971
-138.981185913086 -64.228622436523 -207.704391479492 5.013639926910
18.476394653320 -68.183593750000 -176.128646850586 1.396718621254
-69.384017944336 -64.124275207520 -142.367645263672 4.991151809692
5.201505184174 -71.403259277344 -209.095870971680 2.885176658630
-0.519281029701 -72.683113098145 -206.664566040039 6.278776645660
-45.162673950195 -54.916923522949 -140.831634521484 11.495547294617
-16.384361267090 -76.514122009277 -209.002182006836 1.038453340530
-126.488792419434 -70.456756591797 -226.910568237305 2.070784568787
43.646568298340 -69.573486328125 -239.601638793945 7.251409530640
-33.843952178955 -34.175083160400 -33.862094879150 22.215843200684
15.712173461914 -77.804084777832 -210.866973876953 0.993961811066
43.063301086426 -48.089088439941 -96.024551391602 14.941281318665
32.552093505859 -38.187526702881 -8.989022254944 11.855256080627
0.469660013914 -75.653701782227 -232.007858276367 2.764004945755
-130.413009643555 -80.771919250488 -280.587005615234 6.608446121216
-121.421539306641 -75.978881835938 -284.785583496094 3.447231531143
16.784439086914 -86.689018249512 -275.124114990234 6.747980594635
87.336013793945 -56.157947540283 -80.240722656250 2.746902227402
-81.773612976074 -80.386222839355 -286.877563476563 4.931815624237
-139.633041381836 -73.691574096680 -245.327880859375 4.932787418365
-60.446491241455 -50.960342407227 -41.256107330322 5.314423084259
-37.281860351563 -47.955074310303 -45.792377471924 6.162880897522
37.279861450195 -58.726261138916 -95.848869323730 11.088746070862
-32.914501190186 -57.021591186523 -45.682018280029 2.952629566193
-105.464141845703 -47.957504272461 -70.516113281250 5.437458992004
92.486213684082 -54.041507720947 -55.967922210693 3.296597242355
31.180341720581 -71.833457946777 -258.905731201172 1.858983993530
31.572044372559 -76.578941345215 -266.480041503906 7.997537136078
-48.352630615234 -53.255035400391 -69.242912292480 7.860703468323
-82.577934265137 -71.205612182617 -215.447219848633 1.455202341080
-102.821418762207 -44.067852020264 -88.033081054688 3.508237123489
97.419273376465 -56.886417388916 -73.251434326172 5.627560138702
104.375740051270 -55.097953796387 -76.093772888184 1.875154137611
34.758079528809 -41.747501373291 -13.321457862854 7.328826904297
63.228927612305 -56.843578338623 -79.590438842773 0.749108850956
-99.085670471191 -52.903614044189 -100.225326538086 2.242512464523
106.257392883301 -53.912902832031 -86.470497131348 2.135585069656
22.390964508057 -49.058254241943 -21.244855880737 3.483217000961
-139.415176391602 -57.850917816162 -186.140670776367 6.609200000763
-35.984069824219 -41.290523529053 -51.263359069824 4.077028751373
-32.894092559814 -42.560848236084 -56.175266265869 2.925838470459
-92.741889953613 -61.752578735352 -111.984237670898 5.358737945557
62.218845367432 -74.333824157715 -236.936721801758 3.133096456528
30.872091293335 -53.996467590332 -96.500068664551 18.863193511963
-84.591880798340 -56.401580810547 -117.940185546875 1.898409247398
-40.106876373291 -64.539123535156 -137.605468750000 7.223921298981
-78.403869628906 -61.634716033936 -111.073745727539 0.867195427418
-41.751045227051 -56.455154418945 -143.084686279297 10.820136070251
-80.038040161133 -53.444400787354 -118.032463073730 2.817740678787
-67.885353088379 -38.068939208984 -38.950664520264 9.607892036438
29.413578033447 -56.516109466553 -124.944671630859 3.845034360886
19.068771362305 -61.974430084229 -133.041778564453 3.438681602478
14.091319084167 -57.540611267090 -138.798629760742 6.648768424988
27.848899841309 -62.381072998047 -137.962875366211 1.923739433289
-36.419719696045 -66.991493225098 -150.484359741211 6.360036849976
23.747169494629 -67.926200866699 -139.075103759766 3.153029680252
110.187545776367 -72.132843017578 -157.595474243164 0.652026236057
-105.523643493652 -68.031036376953 -193.814270019531 1.983449578285
-156.910598754883 -70.004646301270 -200.145965576172 2.083246469498
16.579938888550 -72.816467285156 -193.283676147461 3.751386404037
-88.922187805176 -74.818168640137 -212.473419189453 1.461608648300
-61.165504455566 -75.983680725098 -236.948303222656 7.715160369873
113.581115722656 -68.866447448730 -138.159973144531 0.550313532352
95.893302917480 -48.637962341309 -51.233963012695 6.403104782104
0.470645010471 -79.381507873535 -210.151794433594 6.998758316040
5.964217185974 -78.287055969238 -213.307067871094 2.361258983612
21.048160552979 -74.727302551270 -266.656677246094 2.247151613235
16.104621887207 -74.280677795410 -272.434204101563 4.831584453583
85.400329589844 -85.108566284180 -203.115463256836 11.390532493591
-97.559120178223 -59.640594482422 -172.702835083008 7.557495117188
24.134786605835 -72.631599426270 -201.089523315430 3.797131061554
-74.431785583496 -54.085926055908 -128.506530761719 7.795646667480
0.138706997037 -74.899696350098 -219.948852539063 2.510401248932
29.752822875977 -72.401947021484 -226.659942626953 11.456998825073
-65.716964721680 -43.787082672119 -39.613567352295 6.649068355560
49.546833038330 -80.371498107910 -230.132644653320 15.577658653259
35.043121337891 -69.557876586914 -228.040664672852 17.282358169556
-80.862449645996 -76.917442321777 -258.609619140625 4.700193881989
-0.368845999241 -80.045524597168 -254.283615112305 2.619357109070
-93.866455078125 -60.892707824707 -170.583969116211 9.480681419373
19.659242630005 -79.404014587402 -275.418731689453 1.664563179016
9.012729644775 -65.765022277832 -224.884445190430 3.181918382645
-89.810661315918 -54.891410827637 -145.702514648438 8.276328086853
