-68.007705688477 -84.661209106445 -207.946411132813 1.594355583191
-89.440505981445 -75.985832214355 -82.312034606934 0.648444831371
-82.800598144531 -88.627845764160 -80.511817932129 7.812710285187
-103.945564270020 -71.690963745117 -219.606857299805 0.898127973080
-57.076515197754 -74.964874267578 -44.152145385742 5.636777400970
99.662666320801 -74.715698242188 -198.219345092773 1.593515396118
-119.062347412109 -63.607818603516 -197.689727783203 3.905410289764
-150.374771118164 -76.026390075684 -221.359878540039 2.438187122345
-148.718231201172 -75.268333435059 -213.052688598633 1.571446299553
10.481649398804 -82.078300476074 -186.147171020508 6.216864585876
-167.688812255859 -67.887702941895 -210.724899291992 2.000114679337
-13.735535621643 -63.942428588867 -243.463531494141 4.970040798187
-69.954742431641 -60.644466400146 -116.207962036133 2.362422466278
-149.816986083984 -79.655090332031 -211.912857055664 2.254012823105
21.369245529175 -71.564971923828 -197.323333740234 0.390888512135
-32.776309967041 -75.670204162598 -240.716842651367 2.058969020844
99.428352355957 -76.679512023926 -82.763595581055 3.256575822830
-6.497049808502 -72.165122985840 -240.129669189453 1.015013337135
-149.680450439453 -78.158317565918 -213.760238647461 2.778929710388
-115.700988769531 -62.597118377686 -195.311721801758 2.517763614655
-166.774032592773 -70.235237121582 -227.181503295898 1.040739297867
-157.260086059570 -78.953079223633 -227.536636352539 3.411391258240
-99.596542358398 -71.793663024902 -288.103668212891 1.789791941643
-156.604003906250 -70.160034179688 -244.538604736328 1.464057922363
-143.850067138672 -81.103401184082 -225.214019775391 1.701458096504
-155.181716918945 -68.199142456055 -243.552047729492 2.202310800552
2.359574079514 -79.229713439941 -243.430450439453 2.628459453583
9.483796119690 -77.269493103027 -240.054107666016 1.560567140579
6.401968955994 -80.854385375977 -235.979263305664 3.166319608688
-34.635646820068 -69.183189392090 -51.873844146729 2.059640884399
-28.156616210938 -85.015365600586 -215.169509887695 5.346214294434
-61.450798034668 -83.233779907227 -165.924072265625 2.905232667923
8.259000778198 -86.876899719238 -237.674957275391 5.588962554932
-16.955900192261 -74.274085998535 -203.921157836914 2.905066251755
32.954685211182 -86.978569030762 -116.042510986328 7.828654766083
34.786994934082 -79.511596679688 -107.715042114258 4.831584930420
4.758025169373 -84.541511535645 -243.592330932617 5.858284473419
11.297051429749 -85.371566772461 -235.942337036133 2.449236631393
-100.301643371582 -72.550285339355 -146.945724487305 5.189774513245
1.405895948410 -67.676765441895 -236.339141845703 2.127352237701
-146.752090454102 -81.372138977051 -206.342041015625 2.363823652267
-164.141250610352 -65.768516540527 -206.747375488281 0.577879786491
46.715782165527 -85.754211425781 -114.420913696289 5.034821987152
-136.978118896484 -69.679763793945 -221.337280273438 4.051448345184
32.737949371338 -85.830421447754 -121.031173706055 4.698943138123
-136.693557739258 -80.118659973145 -224.356826782227 3.259477376938
10.352299690247 -86.108383178711 -245.697830200195 3.366835117340
-98.325149536133 -69.658897399902 -138.931793212891 5.051073551178
1.632475018501 -66.790534973145 -233.324081420898 0.852364361286
-6.027056217194 -80.623573303223 -222.838516235352 2.607528448105
-70.898406982422 -75.666290283203 -155.557220458984 2.553227186203
-22.451372146606 -78.561592102051 -210.865966796875 3.348960399628
99.213058471680 -82.122718811035 -192.308059692383 5.982561111450
17.173721313477 -78.529800415039 -246.108001708984 2.892140388489
32.896656036377 -78.342323303223 -132.272232055664 1.184059262276
-80.146850585938 -64.674285888672 -108.517471313477 1.759597778320
16.359851837158 -86.283996582031 -237.074096679688 3.781018257141
-81.905120849609 -67.360061645508 -123.693252563477 2.902157545090
1.341174960136 -71.900482177734 -283.822418212891 4.716867923737
-5.706240177155 -80.624412536621 -256.725311279297 1.431012630463
-169.959197998047 -75.711967468262 -270.165740966797 3.878636837006
94.604324340820 -83.568923950195 -81.742774963379 7.525790691376
-148.569976806641 -71.053565979004 -252.428482055664 3.277915239334
79.652534484863 -79.355194091797 -98.392471313477 4.861535072327
80.573532104492 -78.879058837891 -102.638023376465 6.214984893799
-157.947616577148 -66.484123229980 -253.424575805664 3.339085578918
22.121303558350 -80.569412231445 -150.925567626953 3.160778999329
-143.919509887695 -78.643180847168 -256.784759521484 2.917164564133
35.641056060791 -79.667152404785 -149.291534423828 2.404615640640
85.834175109863 -85.367752075195 -89.832565307617 5.443953514099
-68.336738586426 -77.897377014160 -240.169494628906 6.797691345215
21.935850143433 -81.728363037109 -161.078414916992 3.600456476212
-151.469055175781 -79.952514648438 -256.317047119141 1.740022182465
-166.483703613281 -71.481430053711 -260.785369873047 1.546778202057
-153.102111816406 -77.903511047363 -257.758361816406 3.282078742981
-116.308845520020 -73.582527160645 -284.767913818359 2.811026811600
-158.252822875977 -61.934616088867 -257.749908447266 3.524243116379
-159.516799926758 -76.303123474121 -240.720275878906 2.310357332230
83.348297119141 -80.441780090332 -223.219894409180 4.025964736938
-153.939270019531 -83.582443237305 -251.362747192383 3.538068294525
-49.131187438965 -85.607109069824 -77.942565917969 1.425456762314
-10.614540100098 -87.843765258789 -258.740692138672 6.625357151031
21.363924026489 -67.491264343262 -37.949516296387 2.610613822937
-15.194451332092 -72.289390563965 -269.926483154297 1.721739053726
-5.658174037933 -72.729125976563 -265.446289062500 5.604971408844
-10.608959197998 -71.732635498047 -275.851135253906 2.239144802094
-3.755688905716 -67.199783325195 -276.523620605469 2.005944252014
-66.624534606934 -72.344711303711 -243.943466186523 2.454015970230
-6.332585811615 -83.558120727539 -265.077362060547 2.691981792450
-10.457054138184 -78.060173034668 -260.493469238281 0.578261733055
45.668926239014 -70.059288024902 -96.245773315430 0.575479090214
6.274377822876 -82.741493225098 -273.716339111328 1.140071392059
-70.482330322266 -66.127700805664 -99.102485656738 0.818082928658
48.518997192383 -80.977424621582 -103.485908508301 3.028640508652
-88.883056640625 -80.956466674805 -97.871253967285 4.166031360626
100.790222167969 -84.949592590332 -168.750030517578 11.360748291016
-67.826690673828 -69.022537231445 -41.632205963135 3.885004997253
-67.058792114258 -79.451011657715 -201.820617675781 3.937497377396
-54.706642150879 -84.231994628906 -182.932434082031 3.737824440002
6.113358974457 -80.099777221680 -274.291076660156 2.743358373642
11.389167785645 -80.021194458008 -273.975158691406 1.677628993988
65.796218872070 -70.658897399902 -241.959396362305 2.082457065582
23.360784530640 -73.305297851563 -272.198089599609 2.826824188232
-138.406265258789 -77.387023925781 -284.203704833984 3.290189743042
-149.716201782227 -78.567512512207 -278.916748046875 1.607761263847
15.572709083557 -76.401428222656 -178.148361206055 2.716371297836
2.858248949051 -78.971260070801 -158.882965087891 2.039591789246
18.826833724976 -84.217185974121 -166.412200927734 7.562977790833
21.999284744263 -81.817909240723 -165.022399902344 3.986572980881
-159.329071044922 -65.727653503418 -270.001251220703 4.456399917603
-155.741394042969 -75.465957641602 -273.795593261719 4.167441368103
-68.448425292969 -82.864906311035 -88.870071411133 3.040495872498
-156.022720336914 -78.452270507813 -275.715881347656 4.802224159241
-158.463027954102 -66.326248168945 -278.701538085938 5.046799659729
-60.364570617676 -86.495666503906 -64.420989990234 6.768259048462
36.082458496094 -75.170989990234 -138.410614013672 2.003352642059
48.906665802002 -76.069953918457 -91.910148620605 3.021681308746
-65.670814514160 -86.394203186035 -75.824813842773 2.883951425552
57.489810943604 -72.401145935059 -98.221359252930 2.201613903046
-83.424629211426 -67.073257446289 -108.883056640625 2.935080289841
24.518798828125 -71.157081604004 -140.250579833984 1.159055590630
90.812896728516 -72.820541381836 -64.281883239746 4.612375736237
-43.289974212646 -76.421470642090 -208.224624633789 3.945063591003
-49.542564392090 -80.635597229004 -155.138748168945 2.525616168976
-19.035245895386 -75.968605041504 -186.249038696289 0.925122618675
-51.687686920166 -66.376312255859 -35.807899475098 9.657107353210
29.951557159424 -81.028472900391 -141.242034912109 0.696229994297
-86.543090820313 -76.684959411621 -251.753662109375 1.596582055092
33.943191528320 -83.585350036621 -145.286834716797 4.166500568390
-35.164695739746 -87.483680725098 -73.734817504883 6.026774406433
-141.760620117188 -77.464126586914 -180.851501464844 4.422742843628
-78.929382324219 -85.955787658691 -73.213294982910 5.595136642456
88.671035766602 -81.077316284180 -89.182235717773 3.540266036987
-50.260040283203 -88.107788085938 -77.313995361328 4.195430755615
-54.166854858398 -84.684593200684 -89.481636047363 0.936054825783
108.587890625000 -75.490966796875 -161.084182739258 1.693367481232
-90.528869628906 -82.439460754395 -90.231506347656 4.516880035400
-49.044330596924 -87.942932128906 -57.564434051514 9.362072944641
49.807289123535 -62.082424163818 -248.328155517578 2.295663118362
-48.046806335449 -77.363410949707 -201.258026123047 3.003187894821
57.190288543701 -68.645790100098 -91.859107971191 2.392707109451
-73.094627380371 -88.215988159180 -98.214210510254 1.982298612595
-31.353082656860 -80.312721252441 -185.636978149414 0.976766824722
-24.768985748291 -80.242004394531 -196.174163818359 0.927812278271
-40.689674377441 -84.132507324219 -183.925491333008 7.711271286011
-24.950098037720 -82.020637512207 -192.396728515625 3.100745916367
3.070564985275 -79.909393310547 -220.989837646484 4.083876609802
-5.846312046051 -81.412101745605 -224.113983154297 3.131407260895
4.253559112549 -80.371559143066 -217.246292114258 5.048036575317
13.109695434570 -77.726806640625 -222.349777221680 2.489483356476
-7.180249214172 -76.361190795898 -226.626647949219 1.210696697235
0.538829028606 -76.154518127441 -223.900741577148 0.974379718304
-50.757854461670 -80.518005371094 -179.218536376953 1.289451956749
-30.219427108765 -86.023963928223 -190.107589721680 2.131138801575
-46.372795104980 -86.072151184082 -163.958557128906 7.438696861267
-93.504257202148 -71.415649414063 -216.392181396484 1.867629051208
-48.394989013672 -73.015144348145 -194.353958129883 2.999851703644
-49.958541870117 -78.716278076172 -42.959827423096 9.531241416931
-49.196395874023 -81.611152648926 -179.254699707031 2.360858201981
-43.074142456055 -82.406341552734 -196.913925170898 2.006385087967
-148.378311157227 -72.952796936035 -195.519287109375 2.505298852921
-57.866172790527 -66.225326538086 -285.185119628906 4.602789402008
-147.927993774414 -80.776908874512 -189.242996215820 2.242236852646
-142.965133666992 -65.101699829102 -197.208465576172 1.618502855301
-129.617599487305 -62.783306121826 -224.957061767578 3.633010149002
-152.447875976563 -62.244022369385 -198.297073364258 1.511974692345
-148.358749389648 -53.979709625244 -199.170822143555 5.997692584991
-92.563407897949 -71.095336914063 -253.354583740234 2.110146999359
29.816154479980 -87.642425537109 -137.351577758789 7.681218624115
-148.276321411133 -75.760589599609 -189.186172485352 1.974955081940
29.923730850220 -86.799331665039 -129.227310180664 5.621497631073
47.865329742432 -77.360328674316 -116.296485900879 1.843894243240
-22.931556701660 -80.420257568359 -221.119018554688 1.508887410164
-141.062347412109 -79.910247802734 -193.715621948242 0.987739861012
31.695510864258 -71.751861572266 -36.185222625732 2.183785200119
112.034225463867 -70.583457946777 -101.299354553223 3.110810279846
-55.456447601318 -77.675689697266 -185.560974121094 1.798766613007
-41.109722137451 -84.552925109863 -195.353988647461 2.265761613846
-0.840433001518 -63.876026153564 -276.142059326172 3.732605457306
-139.591491699219 -87.641159057617 -193.022872924805 6.426226615906
15.963502883911 -81.119110107422 -235.697967529297 0.619444966316
38.124843597412 -77.321426391602 -135.304718017578 1.256608247757
-109.574516296387 -74.793991088867 -223.091171264648 2.382194757462
-20.574712753296 -74.768348693848 -191.604064941406 1.830546855927
-43.639106750488 -73.068489074707 -158.946640014648 3.324540138245
-20.627670288086 -81.405265808105 -196.868713378906 2.483093500137
-84.300704956055 -72.379608154297 -116.477836608887 2.922171354294
-67.931083679199 -74.185310363770 -42.425159454346 4.937916278839
-39.849468231201 -76.230880737305 -208.327178955078 1.737227201462
-46.158744812012 -67.228546142578 -151.929000854492 2.243639945984
43.652477264404 -78.666717529297 -122.157569885254 1.551164507866
-150.222488403320 -82.003532409668 -196.211578369141 1.182901740074
-165.832397460938 -65.815078735352 -205.095825195313 2.549532175064
36.551021575928 -77.384979248047 -138.835067749023 2.725666761398
36.876888275146 -82.973693847656 -131.458786010742 2.733162879944
-31.571130752563 -73.983917236328 -211.157379150391 1.533571839333
40.173187255859 -83.104530334473 -118.285949707031 2.995249509811
45.455730438232 -80.630149841309 -119.353973388672 2.933997869492
-96.153625488281 -67.674491882324 -138.509323120117 2.931560039520
-4.068493843079 -72.576927185059 -237.688247680664 1.144559621811
-138.504180908203 -77.867523193359 -228.697982788086 2.027052402496
38.505569458008 -87.597991943359 -113.706703186035 7.656847000122
-136.864349365234 -63.049133300781 -224.713317871094 3.662627458572
-146.181472778320 -80.905502319336 -201.557983398438 2.003000497818
-161.982330322266 -63.926376342773 -206.036376953125 3.241405963898
30.603574752808 -76.945259094238 -133.930725097656 1.676005125046
-87.503707885742 -71.438934326172 -240.805358886719 8.894718170166
112.965789794922 -76.610275268555 -188.127578735352 3.719172239304
-148.012680053711 -74.959121704102 -204.835693359375 1.752248287201
-111.987892150879 -68.122535705566 -225.437652587891 1.328407764435
-169.363937377930 -69.127822875977 -207.758575439453 2.740168094635
38.417640686035 -83.771392822266 -111.709205627441 5.630397796631
44.143928527832 -85.451416015625 -118.576568603516 5.872222900391
-126.446960449219 -66.920104980469 -228.729980468750 2.848482131958
-30.423805236816 -74.242118835449 -193.679946899414 2.523506879807
-26.637163162231 -82.966781616211 -193.753143310547 4.368836879730
10.220275878906 -86.587348937988 -224.643875122070 5.156417369843
8.060185432434 -81.754142761230 -226.191009521484 3.769662141800
-23.692255020142 -76.916801452637 -197.154144287109 1.354138135910
-146.805953979492 -80.920112609863 -204.777465820313 2.338329553604
3.955120086670 -81.807647705078 -226.874633789063 3.796221494675
10.143098831177 -79.307579040527 -228.149627685547 1.941452383995
-26.051265716553 -79.133468627930 -191.173461914063 1.856806755066
3.167012929916 -61.407180786133 -233.079940795898 4.042635917664
-94.689315795898 -68.919692993164 -138.363739013672 2.052158355713
-3.435106039047 -79.685882568359 -221.305389404297 1.112898111343
13.020744323730 -88.613204956055 -202.326110839844 8.687417030334
-5.054872035980 -77.223365783691 -243.394515991211 2.671947956085
-154.813446044922 -81.852951049805 -230.637741088867 1.482969045639
-111.402915954590 -69.491249084473 -177.754653930664 2.654266119003
14.171392440796 -86.664489746094 -236.519165039063 3.658768892288
1.402204990387 -79.038291931152 -232.313751220703 1.880952596664
32.082584381104 -75.174789428711 -115.637458801270 2.757868528366
-24.026485443115 -84.455917358398 -69.278518676758 6.373219966888
-68.947326660156 -80.648689270020 -158.162368774414 3.309734106064
7.962482929230 -82.892555236816 -238.563766479492 3.170783758163
3.459131002426 -77.032264709473 -243.060577392578 1.927663207054
-57.624511718750 -78.314750671387 -147.618301391602 3.184810400009
-49.289371490479 -89.746971130371 -143.500198364258 12.105333328247
-55.956451416016 -82.611434936523 -172.731109619141 3.197181224823
13.878318786621 -81.234924316406 -243.333084106445 2.500052928925
5.379342079163 -80.002929687500 -241.619598388672 2.687025785446
-88.996330261230 -59.783077239990 -128.714630126953 4.390931129456
33.459377288818 -73.032043457031 -259.464355468750 3.038346529007
-43.914653778076 -88.622917175293 -77.609283447266 5.440635204315
-1.105095028877 -83.462821960449 -247.005447387695 3.278571844101
-1.338232994080 -62.156692504883 -268.977355957031 3.353534698486
-84.562225341797 -79.056236267090 -106.267738342285 3.396819591522
-26.360305786133 -80.031974792480 -279.183593750000 7.756118774414
7.100009918213 -79.895156860352 -245.238311767578 2.140102624893
-31.942668914795 -78.021301269531 -286.436431884766 0.907801926136
-41.126556396484 -84.966285705566 -60.966678619385 6.208016872406
-70.150299072266 -84.576354980469 -53.445049285889 9.834388732910
85.548400878906 -80.814033508301 -211.002273559570 5.830329895020
-137.005554199219 -75.071334838867 -250.487823486328 5.029863834381
-96.284210205078 -59.498844146729 -96.543441772461 3.926824808121
116.374298095703 -80.018463134766 -123.175697326660 6.473914146423
19.572931289673 -80.743080139160 -26.878433227539 8.481717109680
-10.358344078064 -76.975509643555 -251.900680541992 1.563605427742
-70.423164367676 -80.505828857422 -46.277744293213 8.635379791260
92.390083312988 -80.822799682617 -210.260162353516 4.237406253815
47.946662902832 -74.197784423828 -100.729110717773 2.353459119797
-73.363281250000 -61.115924835205 -101.994239807129 0.806136250496
-170.113433837891 -66.777740478516 -287.548004150391 4.093204975128
-32.108631134033 -82.133934020996 -179.220840454102 2.910780906677
-37.797100067139 -83.924667358398 -171.502288818359 4.736307621002
-159.021133422852 -79.551902770996 -286.770538330078 4.401364803314
-139.566146850586 -81.327667236328 -289.651885986328 2.404065132141
-152.419952392578 -79.074325561523 -276.400787353516 1.480843663216
-158.469940185547 -75.003990173340 -298.593627929688 3.554595708847
-153.050704956055 -59.665489196777 -299.838134765625 6.125956058502
-95.006111145020 -74.288742065430 -86.509948730469 2.771736621857
-85.884986877441 -77.907203674316 -100.816780090332 3.702542781830
-55.384941101074 -85.588569641113 -67.821601867676 4.236049652100
-81.173728942871 -82.368667602539 -103.349899291992 2.656030893326
-48.622005462646 -88.766914367676 -67.754882812500 8.241806983948
-94.367271423340 -76.859519958496 -108.579246520996 3.873015880585
-73.485450744629 -85.981979370117 -67.261604309082 5.746757030487
-45.654869079590 -77.843208312988 -236.372756958008 5.010868072510
72.262611389160 -69.680343627930 -106.658241271973 2.630906105042
-5.563886165619 -74.350563049316 -284.662322998047 2.290295600891
70.567962646484 -67.614318847656 -103.380378723145 0.652798175812
-146.345306396484 -71.306938171387 -284.316070556641 0.957112848759
-132.001541137695 -75.213539123535 -247.962860107422 6.609596729279
-154.513442993164 -77.579940795898 -278.149566650391 3.602309703827
-155.411865234375 -66.938308715820 -282.092895507813 2.730150461197
-143.741714477539 -71.599388122559 -293.386230468750 1.218284368515
-148.129653930664 -61.826427459717 -283.407379150391 1.966890454292
-161.267150878906 -59.226020812988 -287.190856933594 6.623333454132
65.800827026367 -66.635520935059 -80.478309631348 1.485042929649
-40.661361694336 -83.353416442871 -64.938522338867 4.002152919769
-74.254806518555 -82.264297485352 -91.810264587402 3.524302005768
-93.670127868652 -75.207176208496 -210.771148681641 3.145991086960
-114.227470397949 -66.204101562500 -258.737915039063 0.683209061623
-46.860095977783 -74.393814086914 -203.940979003906 4.343166828156
-46.998378753662 -82.258018493652 -156.361022949219 2.750753641129
-54.357761383057 -72.497299194336 -150.913009643555 1.670026063919
-61.629116058350 -80.976379394531 -169.619888305664 1.323650956154
-148.432800292969 -71.752693176270 -204.524032592773 0.954161167145
35.885055541992 -87.047775268555 -125.552429199219 6.432550907135
32.290786743164 -81.221954345703 -142.049789428711 2.523117065430
-57.381420135498 -78.118057250977 -289.871246337891 1.898202300072
-149.441833496094 -65.765510559082 -212.324203491211 1.784327626228
-128.162261962891 -67.279296875000 -231.124603271484 3.205481767654
36.762813568115 -76.250648498535 -116.560173034668 1.158439636230
-111.778274536133 -66.025947570801 -258.656372070313 0.655918598175
-91.029571533203 -69.928596496582 -117.906623840332 0.589039266109
34.065097808838 -80.190460205078 -143.973846435547 2.094822406769
15.608797073364 -71.090110778809 -228.344696044922 1.929742097855
-38.268306732178 -80.722259521484 -207.156875610352 2.270617246628
-18.675264358521 -74.909751892090 -197.748855590820 3.075359344482
-20.922082901001 -79.484878540039 -189.967086791992 1.940630078316
-144.621429443359 -75.522903442383 -174.912033081055 2.125807285309
-41.657527923584 -79.275901794434 -285.763122558594 2.168649196625
-15.551927566528 -74.043579101563 -65.127449035645 2.372624874115
42.132915496826 -80.633483886719 -119.351554870605 1.930625319481
-34.503692626953 -79.776931762695 -78.567756652832 1.972355604172
-156.586303710938 -70.480453491211 -199.282333374023 3.085143566132
-147.249374389648 -56.365348815918 -196.725952148438 3.664094448090
32.363010406494 -80.094772338867 -141.700057983398 2.205051660538
26.393102645874 -83.705749511719 -144.421646118164 5.492481708527
30.713146209717 -83.103324890137 -143.418014526367 3.377099514008
27.114898681641 -77.812110900879 -137.758163452148 2.131486892700
32.739513397217 -88.469459533691 -135.867568969727 7.140307903290
-17.803379058838 -83.847145080566 -170.407333374023 5.174839973450
-10.718639373779 -79.712799072266 -173.097335815430 1.906528472900
-93.212677001953 -75.184684753418 -96.161361694336 3.018474102020
-34.970256805420 -86.477874755859 -66.199897766113 8.341083526611
-64.318199157715 -74.117454528809 -156.070480346680 0.912750422955
-31.449848175049 -71.022682189941 -187.999786376953 0.375838875771
-64.633872985840 -82.803871154785 -172.063735961914 3.835213422775
35.175327301025 -68.715904235840 -244.739410400391 7.362518787384
-1.822069048882 -73.007591247559 -226.440734863281 2.094969034195
-19.827419281006 -74.935195922852 -204.247940063477 1.917853951454
-63.840633392334 -71.061103820801 -156.624008178711 2.545510768890
32.529838562012 -64.818534851074 -254.042541503906 2.467787981033
0.317393988371 -77.838302612305 -226.669418334961 1.640769124031
-35.278057098389 -79.416198730469 -203.121459960938 0.984088361263
-61.500133514404 -87.983047485352 -178.226028442383 8.585344314575
-13.614769935608 -67.505386352539 -208.689971923828 1.672519922256
-41.960533142090 -80.405990600586 -169.568298339844 1.894297957420
-34.207878112793 -80.538497924805 -180.330352783203 2.044260978699
-92.640350341797 -61.388935089111 -128.346542358398 5.043151855469
-20.795440673828 -68.241752624512 -63.725807189941 5.353725433350
-40.306018829346 -84.177650451660 -174.484939575195 6.823058605194
-32.006622314453 -84.411155700684 -174.686126708984 4.206412315369
-27.326402664185 -70.276611328125 -64.054740905762 5.355792522430
-47.183620452881 -86.490638732910 -191.994781494141 4.629570960999
-54.248573303223 -86.511787414551 -181.687896728516 5.221491813660
-61.953121185303 -74.341300964355 -46.775630950928 3.981544256210
55.787063598633 -70.422828674316 -232.493957519531 6.795073509216
-28.871952056885 -82.857948303223 -174.212387084961 4.568829059601
-34.438774108887 -82.044799804688 -169.147109985352 3.267039060593
43.708713531494 -86.711700439453 -103.337135314941 8.274381637573
49.302192687988 -73.141151428223 -241.149322509766 3.162750005722
26.765247344971 -82.187980651855 -130.605316162109 3.734077215195
32.083950042725 -77.350891113281 -126.997985839844 1.602315306664
-59.672191619873 -74.109962463379 -178.260330200195 2.396681070328
-36.996879577637 -77.784629821777 -187.213531494141 4.558414459229
-19.846054077148 -82.692543029785 -212.549514770508 5.514532566071
-65.914474487305 -84.179267883301 -159.945510864258 4.474001884460
-166.588027954102 -69.718254089355 -205.819290161133 2.452174425125
-34.712699890137 -84.113357543945 -57.658630371094 7.574783802032
33.562885284424 -87.073364257813 -124.598815917969 6.554995536804
-149.804382324219 -73.994567871094 -188.044815063477 1.850437164307
-50.311664581299 -72.926307678223 -285.564483642578 2.766890525818
-149.685913085938 -78.477935791016 -199.922409057617 0.803779840469
-147.247558593750 -67.495368957520 -191.469635009766 2.954076290131
-81.762054443359 -68.226921081543 -248.526824951172 2.814925909042
-112.698303222656 -63.449459075928 -224.331634521484 2.794865608215
-156.654159545898 -66.739036560059 -186.673416137695 3.693283319473
-49.645961761475 -78.825942993164 -199.246566772461 1.333945155144
-145.512481689453 -77.049270629883 -201.186874389648 2.917298078537
-78.803581237793 -73.459091186523 -43.886482238770 7.100425720215
78.678382873535 -68.841171264648 -102.239639282227 2.605648040771
-76.827774047852 -85.309600830078 -212.240768432617 4.445198059082
-80.741256713867 -72.378837585449 -54.249183654785 3.624289989471
8.825697898865 -84.582923889160 -218.140075683594 3.862919330597
9.058730125427 -78.069099426270 -215.422729492188 1.133068561554
-25.186449050903 -68.464836120605 -67.360717773438 4.311083316803
-28.248403549194 -84.380928039551 -180.867736816406 3.477227449417
-42.843299865723 -80.136360168457 -165.738067626953 1.716695785522
8.427947044373 -80.912940979004 -225.859741210938 3.517991065979
2.895179033279 -80.098182678223 -223.557174682617 3.459877490997
-4.590569019318 -75.912277221680 -227.034835815430 1.761247634888
-46.070121765137 -86.447471618652 -156.755050659180 6.688518047333
-85.445198059082 -75.037216186523 -107.309127807617 3.550634384155
35.467166900635 -70.350410461426 -255.223144531250 1.804013252258
-90.330688476563 -66.848754882813 -250.185241699219 4.439668178558
9.988677024841 -81.460273742676 -221.844009399414 1.039212346077
-138.458099365234 -79.448425292969 -224.550506591797 2.682740926743
21.737419128418 -79.644309997559 -185.710098266602 2.451534509659
38.035888671875 -67.127700805664 -22.149765014648 4.162089347839
7.355010986328 -77.140434265137 -208.105773925781 0.250575929880
8.976090431213 -84.489784240723 -207.196456909180 5.667470455170
-153.622253417969 -71.733421325684 -249.105911254883 1.733645200729
-145.819259643555 -80.104133605957 -226.804412841797 1.219995617867
-149.269027709961 -80.981170654297 -225.443939208984 1.964393258095
-110.883651733398 -66.069595336914 -174.165237426758 2.167268753052
20.219888687134 -72.070755004883 -188.908065795898 2.956608295441
-20.806625366211 -81.810615539551 -205.244689941406 3.721212148666
-63.707664489746 -78.552978515625 -161.890289306641 0.650261104107
11.270893096924 -82.552886962891 -239.871520996094 1.877546191216
7.301941871643 -79.377067565918 -247.013671875000 1.760469317436
-51.234573364258 -80.062316894531 -147.077194213867 2.988577604294
-147.153091430664 -73.981666564941 -216.718032836914 1.144736170769
-154.577651977539 -83.882064819336 -242.669326782227 4.713143825531
-113.269371032715 -69.590736389160 -190.107055664063 1.423343539238
-92.654701232910 -75.969169616699 -283.255249023438 3.897955894470
-163.316619873047 -69.934318542480 -237.030792236328 2.763092756271
-159.165496826172 -63.565700531006 -222.649139404297 3.314537525177
-154.655197143555 -69.331459045410 -222.567382812500 2.006306886673
-5.530317783356 -77.987068176270 -238.273071289063 3.971389293671
-3.510591983795 -74.045082092285 -215.171264648438 1.477827310562
-75.542877197266 -76.809860229492 -144.878387451172 3.440947294235
-157.142318725586 -74.724166870117 -223.559570312500 4.109371185303
-156.020095825195 -81.464050292969 -240.804458618164 6.344836711884
-15.833623886108 -71.927391052246 -220.521789550781 1.851364374161
-147.973266601563 -63.977409362793 -224.939239501953 2.165461778641
-113.409355163574 -67.160140991211 -192.691360473633 1.176016211510
-142.080902099609 -61.740715026855 -220.672348022461 3.633508443832
5.605954170227 -77.815811157227 -237.049484252930 0.776048958302
-29.421724319458 -79.193832397461 -210.729049682617 0.807528138161
2.356923103333 -81.388381958008 -245.725952148438 2.521508693695
-59.576541900635 -84.918457031250 -170.090240478516 3.753751516342
8.988733291626 -78.924407958984 -248.180725097656 1.924463510513
-31.423601150513 -76.174606323242 -205.967193603516 0.882553279400
31.264385223389 -63.126602172852 -249.238189697266 5.776254177094
36.645606994629 -71.391716003418 -130.896087646484 1.177546620369
-128.168792724609 -70.741500854492 -278.429016113281 6.668569087982
-147.485366821289 -74.906936645508 -266.910430908203 0.881311893463
-86.660270690918 -73.168441772461 -208.616027832031 3.506802320480
-157.690750122070 -78.426483154297 -251.680938720703 4.458228111267
-154.218246459961 -77.278755187988 -254.026458740234 2.789855718613
85.953628540039 -72.762809753418 -214.690322875977 2.161778450012
-71.918235778809 -81.502281188965 -54.450946807861 6.189839363098
-160.272171020508 -71.563850402832 -253.003158569336 2.588520765305
-169.541336059570 -68.016288757324 -245.335449218750 3.293741226196
-147.933044433594 -70.725250244141 -268.718200683594 3.890439033508
-132.378982543945 -64.703247070313 -283.218261718750 3.699618577957
-127.563278198242 -67.709144592285 -283.900878906250 2.907279968262
-152.851760864258 -62.266128540039 -266.245025634766 2.466231584549
-152.038589477539 -66.233093261719 -262.761383056641 2.556137323380
-144.918762207031 -82.156829833984 -256.850006103516 1.980337262154
-140.563705444336 -77.454399108887 -255.481124877930 2.967952966690
-155.352600097656 -84.156509399414 -256.236633300781 1.657145023346
-157.097473144531 -73.865730285645 -248.079940795898 2.033778429031
-162.131027221680 -64.134262084961 -243.143295288086 3.571049690247
94.452949523926 -70.749244689941 -103.714782714844 1.032781004906
-172.727020263672 -66.054939270020 -243.688903808594 6.665719985962
-51.652553558350 -74.880966186523 -180.301910400391 1.552448749542
-44.158222198486 -81.335693359375 -185.510208129883 3.212556123734
56.304359436035 -78.858604431152 -235.746154785156 7.573966026306
-97.159004211426 -77.549514770508 -82.828628540039 5.960844516754
18.713527679443 -82.815322875977 -250.626068115234 3.084846258163
20.197530746460 -77.015388488770 -247.039520263672 1.528206586838
-130.111007690430 -66.123168945313 -293.307525634766 2.314777135849
22.226575851440 -81.407791137695 -163.034347534180 3.444305896759
28.575160980225 -94.092590332031 -147.586776733398 13.826918601990
25.366172790527 -82.095977783203 -149.021743774414 3.160629987717
84.197814941406 -81.797172546387 -97.863677978516 5.084993839264
-157.192077636719 -68.196273803711 -266.249298095703 1.387937188148
-151.005325317383 -59.321914672852 -269.227996826172 4.945015907288
-54.971412658691 -69.214035034180 -83.419700622559 4.487183570862
-165.121704101563 -66.832336425781 -257.404052734375 3.374163866043
-157.177368164063 -77.874343872070 -256.764404296875 3.462481737137
-163.955108642578 -69.637443542480 -257.923217773438 1.623823761940
-110.155601501465 -72.258178710938 -287.873474121094 1.444150328636
-167.898086547852 -68.686149597168 -259.423767089844 1.489340305328
-152.573348999023 -75.668670654297 -249.537567138672 3.214270353317
-147.928070068359 -80.914535522461 -250.558013916016 2.007334232330
23.570594787598 -87.255714416504 -151.551727294922 7.571482181549
23.626495361328 -81.099754333496 -153.668411254883 1.785535931587
22.208541870117 -79.703697204590 -163.158508300781 1.888518452644
-155.461227416992 -81.157035827637 -253.313598632813 2.297382831573
7.811797142029 -79.269882202148 -263.626708984375 5.729863643646
70.650161743164 -76.128273010254 -77.113189697266 1.886640667915
-56.093376159668 -81.739059448242 -64.018745422363 2.686968088150
-79.534652709961 -77.016586303711 -97.348541259766 4.664417266846
-46.740795135498 -78.159149169922 -78.666084289551 5.090539932251
-159.948837280273 -75.484062194824 -246.039184570313 3.516551971436
-67.941101074219 -82.600685119629 -62.676544189453 4.363953590393
-52.913364410400 -77.193244934082 -249.461425781250 1.966381669044
82.208404541016 -74.503135681152 -221.623107910156 1.122976899147
70.192344665527 -68.750228881836 -104.384803771973 1.663334846497
-118.299629211426 -70.172912597656 -289.970275878906 2.330683231354
-141.446807861328 -64.989898681641 -255.031082153320 0.730865299702
-151.393524169922 -60.509994506836 -252.866333007813 2.429725646973
-44.814636230469 -78.842086791992 -235.639816284180 5.534842491150
-130.840927124023 -72.312011718750 -217.323028564453 7.163031101227
-159.979995727539 -69.077468872070 -193.737823486328 1.754129767418
-33.996692657471 -86.478935241699 -72.914466857910 5.342013835907
-158.359344482422 -66.488113403320 -189.701385498047 4.810742855072
-126.483627319336 -68.599014282227 -224.491287231445 1.271796107292
-144.891220092773 -62.111263275146 -188.872512817383 1.537023425102
-147.250793457031 -59.230087280273 -196.160537719727 1.007770061493
-30.631595611572 -88.359008789063 -73.360618591309 7.080807685852
11.222719192505 -81.271636962891 -226.844223022461 0.759803175926
-168.534408569336 -76.942947387695 -257.540130615234 5.149024963379
-155.413421630859 -75.470199584961 -279.479339599609 4.647499084473
-138.562469482422 -75.468681335449 -289.694671630859 2.034357786179
84.624946594238 -86.591056823730 -82.132049560547 8.422961235046
69.660034179688 -86.930358886719 -88.865898132324 11.903968811035
22.145610809326 -80.546234130859 -166.524093627930 2.742184638977
-84.062065124512 -79.516014099121 -204.055999755859 7.775975704193
-1.158905029297 -81.887969970703 -155.575119018555 7.161004543304
14.336161613464 -76.562477111816 -171.540023803711 3.712918996811
-46.271434783936 -79.653366088867 -245.108932495117 2.057123899460
-86.532516479492 -86.845199584961 -78.965515136719 9.028540611267
-64.039413452148 -75.648521423340 -128.721237182617 6.434654712677
-38.882816314697 -85.503089904785 -81.585289001465 3.736078977585
1.269180059433 -72.687507629395 -194.757156372070 8.104117393494
-20.511293411255 -74.301856994629 -241.734344482422 1.315754175186
-82.492385864258 -87.879562377930 -94.586036682129 3.675851345062
44.018161773682 -65.188003540039 -242.369812011719 5.437188148499
-76.178886413574 -82.663513183594 -103.055152893066 1.343388319016
-50.985439300537 -75.342018127441 -44.550834655762 5.938220500946
-112.510086059570 -64.528564453125 -252.953216552734 5.567839145660
-165.531433105469 -69.391380310059 -284.157379150391 1.992519378662
40.944141387939 -83.626258850098 -116.445922851563 3.491042375565
25.049543380737 -74.263351440430 -134.052001953125 2.883112430573
-86.276191711426 -67.689025878906 -254.346969604492 0.903670608997
-23.076164245605 -74.550086975098 -71.830596923828 2.685476064682
-141.588485717773 -65.770408630371 -191.037521362305 2.618970870972
-157.724853515625 -66.208847045898 -201.324371337891 2.571300745010
-151.411087036133 -60.982101440430 -190.703994750977 4.140300273895
44.569355010986 -84.538742065430 -120.310012817383 5.645105838776
40.149181365967 -87.046875000000 -116.466209411621 6.663909435272
52.600685119629 -81.627685546875 -95.716827392578 5.545007228851
30.639554977417 -87.356338500977 -144.137908935547 7.428197860718
24.196603775024 -77.927825927734 -144.355178833008 2.335017919540
-91.947738647461 -69.484878540039 -245.881622314453 7.079582691193
41.638740539551 -67.901062011719 -257.866607666016 1.043865442276
-51.902626037598 -80.285186767578 -148.866455078125 2.959381341934
-43.189983367920 -81.160400390625 -156.692581176758 3.734593868256
-19.164409637451 -72.309906005859 -203.183761596680 2.048769235611
-36.857776641846 -81.345428466797 -206.204284667969 3.098829030991
-57.620391845703 -88.503517150879 -158.379211425781 10.354335784912
-61.240810394287 -79.287307739258 -170.903625488281 1.619974732399
-151.820083618164 -75.811096191406 -185.089279174805 4.104775428772
-15.779662132263 -69.594070434570 -68.240173339844 1.099911212921
-44.119346618652 -88.375953674316 -159.539260864258 8.405678749084
21.952144622803 -84.956436157227 -159.294876098633 6.665068149567
30.239435195923 -81.900749206543 -160.989700317383 3.522486448288
31.098703384399 -83.112747192383 -145.741668701172 3.018261909485
-62.611015319824 -75.574218750000 -248.891693115234 1.656352281570
-96.437538146973 -76.346366882324 -212.516479492188 2.819422483444
24.471700668335 -81.062553405762 -164.469314575195 2.178419113159
25.472068786621 -84.409248352051 -165.644927978516 5.286033153534
20.647222518921 -84.030723571777 -151.341278076172 6.351828098297
-7.047813892365 -83.592308044434 -171.311111450195 1.618852138519
26.714509963989 -81.937385559082 -163.575119018555 2.516356229782
21.264186859131 -83.480957031250 -161.165908813477 5.385434150696
-30.248708724976 -84.485618591309 -182.630310058594 3.167410135269
-45.150577545166 -82.551956176758 -163.909149169922 4.206314563751
-26.740335464478 -86.435859680176 -170.300155639648 7.918806076050
-32.975360870361 -81.610733032227 -157.914978027344 5.311435222626
-24.653982162476 -76.959953308105 -178.618362426758 1.189515829086
56.918708801270 -76.749877929688 -236.671051025391 5.591633796692
88.445022583008 -79.520233154297 -206.916488647461 5.915148735046
-96.694580078125 -76.441711425781 -73.110588073730 6.535664558411
-35.140678405762 -72.084671020508 -47.374416351318 2.885333061218
-61.601089477539 -79.051246643066 -164.342498779297 0.803911089897
6.203354835510 -84.222564697266 -232.831130981445 4.990700721741
-131.023437500000 -64.490325927734 -226.967773437500 1.798146367073
34.204032897949 -77.842620849609 -112.592788696289 4.181386947632
-25.932767868042 -75.905883789063 -187.610931396484 2.526293754578
-57.900695800781 -81.073562622070 -166.042480468750 3.011064529419
-27.278776168823 -70.434196472168 -189.346511840820 1.082184791565
8.716816902161 -71.712005615234 -217.498626708984 2.105197191238
-81.572227478027 -68.196273803711 -131.270736694336 1.017931103706
-31.467359542847 -74.467422485352 -195.851898193359 3.279788017273
-59.437320709229 -75.713508605957 -164.501464843750 1.156798362732
-24.580490112305 -82.279075622559 -192.982330322266 3.342560291290
-29.787319183350 -65.960891723633 -201.033233642578 5.381667613983
-12.229789733887 -77.903205871582 -205.715148925781 0.888032913208
-136.604751586914 -77.933517456055 -196.414413452148 2.236457109451
14.103962898254 -72.268295288086 -181.149444580078 0.902004897594
-18.000494003296 -87.731193542480 -218.148620605469 8.706365585327
-138.340988159180 -77.594375610352 -195.963638305664 2.975322723389
14.584761619568 -79.951774597168 -226.531997680664 1.690487980843
-19.784957885742 -82.072998046875 -195.414672851563 2.305381774902
-40.226676940918 -80.955993652344 -150.766265869141 1.991329669952
-46.704971313477 -78.743736267090 -154.163055419922 1.051127195358
-92.552909851074 -71.765159606934 -114.306922912598 2.809585332870
-103.499504089355 -73.491737365723 -252.001602172852 4.136964797974
-154.028869628906 -81.803863525391 -197.399520874023 1.622822284698
-163.619186401367 -72.457328796387 -193.847793579102 4.283452033997
95.373168945313 -69.338119506836 -58.387859344482 7.346830368042
57.301544189453 -78.280975341797 -82.586128234863 7.663982868195
73.314933776855 -81.228652954102 -60.159622192383 13.067037582397
-26.485893249512 -67.310890197754 -176.301223754883 3.450659275055
74.991294860840 -79.165824890137 -67.219375610352 7.298590183258
-122.224014282227 -73.722572326660 -256.063476562500 2.107731580734
-31.296936035156 -75.733367919922 -172.637863159180 2.626050710678
45.734188079834 -75.299934387207 -98.255775451660 1.422307491302
-160.883316040039 -75.505485534668 -294.307128906250 3.914472579956
37.432056427002 -83.023002624512 -108.643859863281 5.641224384308
51.135368347168 -84.702919006348 -97.300872802734 7.830471992493
70.325614929199 -76.148200988770 -73.518074035645 3.695843935013
-141.168838500977 -71.221961975098 -281.330322265625 3.613529920578
-36.418025970459 -72.954864501953 -174.625610351563 2.254925727844
45.056617736816 -82.056716918945 -104.701034545898 3.484041213989
52.523647308350 -75.321899414063 -85.306190490723 3.614123582840
-52.198261260986 -79.760566711426 -196.959259033203 3.249169588089
-157.994720458984 -72.775054931641 -292.679962158203 0.260508567095
-156.340667724609 -68.333732604980 -286.695068359375 2.452808380127
69.385154724121 -80.124778747559 -76.464927673340 6.003134727478
-152.935989379883 -65.883560180664 -288.038787841797 2.489805698395
-36.144748687744 -72.738716125488 -171.272979736328 2.401125669479
-26.210416793823 -74.321350097656 -183.003280639648 2.138257026672
-141.410552978516 -69.500526428223 -279.872924804688 4.496743679047
-152.949081420898 -64.516082763672 -280.955505371094 1.747813940048
-158.965225219727 -64.558937072754 -289.846893310547 3.823667287827
-158.330764770508 -61.557292938232 -278.647338867188 7.697724342346
24.126159667969 -67.752639770508 -264.019836425781 2.641846656799
-56.168212890625 -85.535957336426 -204.146774291992 1.205718636513
-161.109741210938 -70.360549926758 -234.674957275391 2.569700479507
19.154249191284 -85.934127807617 -200.680068969727 7.665301799774
17.652957916260 -85.405357360840 -237.421447753906 2.931636333466
-15.189090728760 -80.830902099609 -207.196960449219 3.110984086990
29.577646255493 -76.281715393066 -259.361083984375 6.453499317169
47.790660858154 -76.939231872559 -115.556991577148 1.035722970963
-35.869945526123 -82.209091186523 -207.795974731445 3.073368072510
97.627777099609 -82.755279541016 -203.376846313477 6.230574607849
16.356760025024 -87.430267333984 -241.976821899414 5.646447658539
-88.453338623047 -72.984199523926 -117.496231079102 2.619865655899
-14.286787033081 -84.434883117676 -216.083328247070 6.316596031189
9.506254196167 -79.788444519043 -209.177307128906 2.334744453430
-10.376453399658 -81.514717102051 -222.428054809570 3.147788763046
16.291728973389 -82.928459167480 -184.323791503906 4.931662082672
-145.874450683594 -73.133842468262 -211.542739868164 0.359865486622
-159.564331054688 -66.613868713379 -214.440460205078 2.186002969742
-68.037292480469 -59.646610260010 -116.063079833984 1.537845015526
-98.046867370605 -70.835166931152 -281.525207519531 5.366014003754
-143.442886352539 -68.318382263184 -233.191528320313 1.774241924286
-147.998428344727 -64.216644287109 -233.119537353516 1.550419330597
-121.671012878418 -67.855766296387 -203.177841186523 1.313131570816
11.917896270752 -85.796569824219 -183.819213867188 9.467895507813
18.507400512695 -79.672325134277 -182.223449707031 0.950562715530
-16.800563812256 -76.820808410645 -214.086441040039 2.288250207901
-156.529434204102 -83.608276367188 -221.737701416016 6.015068531036
-166.339614868164 -64.464088439941 -219.674484252930 3.251989603043
-7.338644027710 -80.482559204102 -218.805450439453 1.626074671745
-161.351119995117 -72.950813293457 -213.968063354492 2.885810136795
-9.688168525696 -79.221771240234 -224.909988403320 1.948372364044
-13.117670059204 -65.078109741211 -243.799972534180 4.060559749603
-149.629470825195 -80.961585998535 -223.172775268555 2.080235481262
-154.279617309570 -76.569511413574 -218.086303710938 4.480669498444
-165.524673461914 -64.814834594727 -219.911239624023 2.523693799973
-120.289848327637 -74.247604370117 -202.434555053711 2.739443540573
33.009876251221 -83.056610107422 -183.253860473633 8.540609359741
-164.178756713867 -74.334991455078 -227.367797851563 2.308662891388
-103.851669311523 -66.923866271973 -289.220947265625 1.902435541153
-150.772613525391 -67.468193054199 -244.627166748047 1.889679431915
-155.480056762695 -72.388725280762 -224.974502563477 1.670724034309
-154.326202392578 -82.172569274902 -230.382369995117 1.015650033951
-170.131225585938 -68.953910827637 -233.897903442383 2.109020709991
-132.826675415039 -69.182739257813 -204.482482910156 1.102574110031
-153.510253906250 -72.827278137207 -195.217697143555 1.889581680298
-154.825408935547 -77.126655578613 -193.959182739258 2.683140993118
16.664102554321 -77.329917907715 -233.799392700195 0.797404527664
6.665301799774 -82.721679687500 -234.551895141602 3.297088861465
-64.853645324707 -80.010360717773 -171.447631835938 2.859344720840
-30.476062774658 -81.639709472656 -208.559951782227 3.139943838120
-21.523237228394 -82.514137268066 -207.162521362305 5.055108547211
-51.067420959473 -83.977218627930 -237.113815307617 7.111334800720
96.827026367188 -75.839431762695 -81.891319274902 1.933162927628
-39.321464538574 -80.679016113281 -237.082214355469 4.166530132294
13.349591255188 -74.929855346680 -198.814773559570 1.958840966225
-56.180709838867 -69.158981323242 -119.537628173828 3.657536029816
-160.227188110352 -73.090621948242 -277.496856689453 2.941642522812
-130.524887084961 -74.480911254883 -254.367340087891 3.400541067123
-158.791183471680 -71.487953186035 -283.616882324219 2.349720239639
-159.112197875977 -73.406806945801 -275.827911376953 2.156025409698
-154.282562255859 -71.465789794922 -289.300476074219 1.994163274765
-154.821472167969 -60.791481018066 -281.127197265625 4.448179721832
-151.056900024414 -62.272010803223 -301.939422607422 3.326052427292
-124.667800903320 -68.956993103027 -251.988662719727 3.315472364426
77.861198425293 -72.513839721680 -59.201534271240 6.166394233704
95.618362426758 -80.361732482910 -65.367065429688 9.936718940735
-119.229476928711 -68.654403686523 -263.106567382813 1.394528865814
-60.746551513672 -80.470726013184 -59.448986053467 3.034645318985
-118.786773681641 -69.753974914551 -256.250427246094 2.896835327148
-45.948802947998 -83.290771484375 -54.384563446045 7.233682632446
-85.099113464355 -87.340103149414 -66.836296081543 10.439311027527
-64.241638183594 -71.393119812012 -99.678153991699 3.323597192764
-86.279022216797 -81.815429687500 -73.011932373047 4.891244888306
9.544258117676 -73.176376342773 -289.498413085938 1.039584279060
-25.880531311035 -86.813598632813 -66.987731933594 8.709609031677
-38.897342681885 -79.167663574219 -81.738380432129 2.312053918839
45.675765991211 -89.206268310547 -106.168579101563 10.510033607483
52.066486358643 -69.892669677734 -245.997756958008 1.873809933662
13.297275543213 -68.249610900879 -237.183013916016 2.863462924957
-92.583053588867 -68.687545776367 -130.999572753906 2.656444549561
29.951726913452 -84.405715942383 -120.527976989746 5.343013763428
40.516654968262 -80.990478515625 -116.409561157227 1.091530203819
-20.077594757080 -84.086021423340 -198.997589111328 4.978393077850
-85.003181457520 -68.590774536133 -253.863967895508 0.448104798794
37.695842742920 -87.321868896484 -124.736213684082 7.010511875153
13.094884872437 -77.947570800781 -228.968627929688 1.384891748428
33.736049652100 -73.848564147949 -145.044906616211 2.774141311646
-33.103179931641 -79.372177124023 -166.721496582031 2.011085510254
-37.122249603271 -76.755928039551 -161.919036865234 0.895725905895
-29.587474822998 -84.349388122559 -170.493041992188 4.708225727081
-20.139787673950 -76.936660766602 -179.746704101563 1.121785879135
0.708845019341 -83.296379089355 -164.909454345703 3.416000127792
16.787332534790 -74.417533874512 -167.546478271484 1.512195706367
26.152652740479 -78.376647949219 -175.481216430664 1.045159101486
23.469261169434 -83.527793884277 -178.590866088867 3.324110269547
-159.873596191406 -70.305595397949 -215.132156372070 2.619835138321
-153.815139770508 -81.773200988770 -221.290084838867 3.760355710983
18.055257797241 -83.518013000488 -181.561965942383 4.869062423706
17.333177566528 -71.536605834961 -192.510147094727 2.440053939819
-58.736286163330 -74.171554565430 -129.413726806641 2.516107320786
9.709360122681 -81.704589843750 -188.466003417969 6.295253753662
14.013474464417 -82.316070556641 -193.762466430664 4.688194751740
-7.359094142914 -85.063697814941 -217.892501831055 4.685998916626
42.164722442627 -77.712287902832 -115.288482666016 1.291832566261
