2.797307014465 -84.134574890137 -276.488098144531 1.775055885315
4.363670825958 -80.141456604004 -278.643341064453 1.414482235909
-71.349365234375 -84.069366455078 -208.786087036133 2.203893899918
-93.213745117188 -70.087005615234 -83.705894470215 2.531757831573
-86.850181579590 -82.785308837891 -81.380424499512 4.750670909882
-106.948547363281 -70.815071105957 -221.145050048828 2.865698099136
-61.023880004883 -68.262214660645 -45.428897857666 1.842357516289
96.443092346191 -77.248733520508 -198.488693237305 1.697556614876
-121.999771118164 -61.575496673584 -199.643768310547 2.482726097107
-153.449462890625 -74.247215270996 -222.995620727539 1.304850459099
-151.818298339844 -73.202445983887 -214.714569091797 2.499073743820
7.068559169769 -82.278892517090 -186.652938842773 8.785897254944
-170.640670776367 -65.343635559082 -212.782623291016 6.239885330200
-16.479059219360 -65.877494812012 -244.765335083008 4.615436553955
-73.242820739746 -56.479984283447 -118.056968688965 3.222986221313
-153.014694213867 -77.517898559570 -213.412384033203 4.273683071136
18.229824066162 -72.435646057129 -198.164367675781 2.255309820175
-35.775604248047 -77.090888977051 -241.676788330078 2.026800394058
95.598609924316 -74.731262207031 -83.046585083008 2.261580705643
-9.431653022766 -74.113777160645 -241.074707031250 2.288891792297
-152.837585449219 -76.097015380859 -215.315414428711 3.573334693909
-118.629653930664 -60.543628692627 -197.287353515625 3.933698654175
-169.694396972656 -68.345718383789 -229.130676269531 3.324594497681
-160.364288330078 -77.267044067383 -229.094070434570 4.005464076996
-102.265182495117 -73.662857055664 -289.560638427734 1.260299205780
-159.439636230469 -69.155090332031 -246.419082641602 0.815928637981
-147.014083862305 -79.604576110840 -226.613189697266 0.224043890834
-157.981292724609 -67.187492370605 -245.500885009766 2.186043977737
-0.709433972836 -81.483924865723 -244.049163818359 4.748024463654
6.437718868256 -79.543128967285 -240.710266113281 2.348531246185
3.261126995087 -82.902442932129 -236.517684936523 3.469190835953
-38.428592681885 -63.252780914307 -53.239356994629 6.770031452179
-31.479448318481 -85.533126831055 -215.761322021484 5.516056060791
-64.971031188965 -81.151298522949 -166.813385009766 2.218387126923
4.999400138855 -89.023521423340 -237.968704223633 9.003876686096
-20.110839843750 -74.599601745605 -204.872375488281 1.448926687241
29.087823867798 -84.925567626953 -116.283515930176 8.088727951050
31.035737991333 -77.181259155273 -108.240432739258 6.447947025299
1.577523946762 -86.846801757813 -243.991882324219 7.525030136108
8.059866905212 -87.515777587891 -236.278137207031 6.025814533234
-103.681594848633 -68.933464050293 -148.485305786133 5.719822883606
-1.454820990562 -69.647468566895 -237.415176391602 1.454869627953
-150.014068603516 -79.081222534180 -207.761886596680 2.590228319168
-167.068954467773 -63.146236419678 -208.869659423828 3.991431951523
42.863468170166 -83.926162719727 -114.631507873535 2.283674478531
-139.922561645508 -68.184883117676 -223.141418457031 2.082985162735
28.919872283936 -83.967346191406 -121.313980102539 5.951154708862
-139.842773437500 -78.736625671387 -225.753631591797 1.152739286423
7.147908210754 -88.610275268555 -246.003128051758 7.393567085266
-101.684234619141 -65.775459289551 -140.577880859375 5.618685245514
-1.224511027336 -68.649971008301 -234.435363769531 1.706997275352
-9.224890708923 -81.903709411621 -223.467208862305 3.639269113541
-74.308341979980 -72.992599487305 -156.801101684570 2.615659475327
-25.660991668701 -79.037643432617 -211.677734375000 1.436587095261
95.808654785156 -84.410118103027 -192.298278808594 9.787931442261
14.129169464111 -81.197006225586 -246.666702270508 0.532509684563
29.291440963745 -76.925460815430 -132.834915161133 1.491799354553
-83.555198669434 -59.995574951172 -110.275108337402 2.741557359695
13.107869148254 -88.576629638672 -237.344726562500 5.245854854584
-85.294776916504 -63.230266571045 -125.345603942871 0.831413924694
-1.374395012856 -75.705970764160 -284.699371337891 1.731397509575
-8.737188339233 -83.224525451660 -257.326263427734 2.825284242630
-172.782211303711 -75.416671752930 -271.888732910156 6.193011760712
90.625762939453 -81.473960876465 -81.787986755371 5.104916572571
-151.387390136719 -70.520858764648 -254.222305297852 1.161071658134
75.848144531250 -77.598159790039 -98.673591613770 2.634124517441
76.799865722656 -77.306205749512 -102.929023742676 5.205090045929
-160.661819458008 -65.799133300781 -255.448013305664 4.410024166107
18.563674926758 -79.648872375488 -151.449768066406 5.821016788483
-146.876205444336 -78.368812561035 -258.255279541016 2.220254659653
32.091197967529 -78.965751647949 -149.774261474609 1.511933922768
81.859687805176 -83.401901245117 -89.852409362793 3.926685810089
-71.377265930176 -78.554039001465 -241.247833251953 6.484407901764
18.403917312622 -81.196319580078 -161.551132202148 5.461441040039
-154.453826904297 -79.501518249512 -257.780639648438 1.677816033363
-169.264755249023 -70.899085998535 -262.659088134766 2.194238901138
-156.036300659180 -77.476341247559 -259.309417724609 3.248391151428
-119.027648925781 -74.972625732422 -286.254180908203 1.247133731842
-160.849945068359 -61.415302276611 -259.947631835938 6.205969333649
-162.499786376953 -75.083587646484 -242.382995605469 2.204962491989
80.135284423828 -83.598373413086 -223.342483520508 7.630746841431
-157.024230957031 -82.884475708008 -252.704040527344 3.509584188461
-53.137760162354 -80.369186401367 -78.736663818359 2.523369789124
-13.786266326904 -90.412765502930 -259.089294433594 10.200572013855
17.524871826172 -62.189212799072 -39.069721221924 5.561607360840
-17.982810974121 -75.211563110352 -270.893859863281 4.015264511108
-8.480087280273 -75.675865173340 -266.345367431641 3.755483627319
-13.357485771179 -74.980461120605 -276.809204101563 1.461029648781
-6.407155990601 -70.620803833008 -277.617034912109 3.662798404694
-69.530075073242 -73.188674926758 -245.223678588867 1.065784335136
-9.383941650391 -86.466026306152 -265.562133789063 4.356954097748
-13.414387702942 -80.709854125977 -261.217895507813 3.693420171738
42.057434082031 -67.520256042480 -97.082763671875 2.229449510574
3.279822111130 -86.247573852539 -274.153747558594 3.429535388947
-73.969909667969 -61.284000396729 -100.755691528320 1.406735658646
44.712856292725 -78.767776489258 -103.879096984863 1.140819191933
-92.684318542480 -75.667442321777 -99.057952880859 2.938699483871
97.209907531738 -86.354118347168 -168.639953613281 14.763033866882
-71.658966064453 -62.004070281982 -43.202198028564 1.407787084579
-70.321266174316 -78.646568298340 -202.860870361328 3.135158777237
-58.165641784668 -82.948181152344 -183.731491088867 4.877653121948
3.177239894867 -83.627342224121 -274.831054687500 0.826792836189
8.451911926270 -83.646469116211 -274.488128662109 1.037838459015
62.885421752930 -74.185646057129 -242.546447753906 0.918648302555
20.553239822388 -77.117553710938 -272.903259277344 2.523394823074
-141.202713012695 -78.291328430176 -285.670196533203 2.115060091019
-152.560882568359 -79.030220031738 -280.406555175781 2.589281558990
12.238425254822 -76.403556823730 -178.850402832031 3.714021444321
-0.622051000595 -77.959457397461 -159.573364257813 3.182379961014
15.269557952881 -83.824691772461 -166.802505493164 8.000539779663
18.484886169434 -81.439949035645 -165.488281250000 6.228118896484
-161.945358276367 -65.657058715820 -272.049194335938 3.597316026688
-158.544677734375 -75.607704162598 -275.443725585938 1.270809888840
-72.338958740234 -77.650802612305 -89.872634887695 7.487227439880
-158.879287719727 -78.659683227539 -277.248748779297 4.000205516815
-161.049240112305 -66.610282897949 -280.714752197266 2.968138694763
-64.453834533691 -80.498886108398 -65.255538940430 1.816150903702
32.573455810547 -74.061447143555 -139.072875976563 2.380339622498
45.146621704102 -73.424507141113 -92.499595642090 3.435537815094
-69.700515747070 -80.728958129883 -76.685020446777 1.587072014809
53.836032867432 -70.182609558105 -98.898506164551 2.685878038406
-86.880874633789 -62.338119506836 -110.566513061523 2.886199951172
21.105993270874 -69.881881713867 -141.132888793945 3.772309780121
86.975273132324 -69.980316162109 -64.777542114258 1.416424512863
-46.462722778320 -76.363212585449 -209.240676879883 7.260379791260
-53.064075469971 -78.385673522949 -156.068374633789 3.304051637650
-22.312423706055 -75.564285278320 -187.160202026367 1.457121014595
-55.496768951416 -59.470829010010 -37.391994476318 5.538984298706
26.334726333618 -79.895294189453 -141.710952758789 2.356604099274
-89.496788024902 -77.412544250488 -252.974487304688 2.788067340851
30.291580200195 -82.689590454102 -145.630950927734 2.898338079453
-39.234737396240 -82.371757507324 -74.379478454590 0.917405068874
-145.067169189453 -74.293067932129 -182.413192749023 0.731871962547
-82.959632873535 -79.913612365723 -74.168518066406 2.665894508362
84.782928466797 -79.149505615234 -89.352088928223 1.283890247345
-54.322044372559 -82.819572448730 -78.018424987793 2.089823007584
-58.095985412598 -79.789878845215 -90.331474304199 3.455377101898
105.166938781738 -76.769966125488 -161.300720214844 3.908484697342
-94.398582458496 -76.818641662598 -91.376174926758 2.529271125793
-53.200466156006 -81.914802551270 -58.283340454102 3.378110647202
47.112010955811 -65.531280517578 -249.333496093750 1.177478790283
-51.272586822510 -76.935165405273 -202.270309448242 3.204402446747
53.584220886230 -66.178077697754 -92.687957763672 2.575151443481
-77.050582885742 -83.262062072754 -99.029510498047 3.009844303131
-34.721775054932 -79.623924255371 -186.451416015625 2.582954406738
-28.085805892944 -80.098777770996 -196.945510864258 3.882011175156
-44.144962310791 -83.179214477539 -184.647201538086 4.161489486694
-28.322902679443 -81.725524902344 -193.103256225586 3.136734008789
-0.123483002186 -81.308059692383 -221.595336914063 1.555279374123
-9.054490089417 -82.744674682617 -224.710189819336 5.087290763855
1.031067013741 -81.649337768555 -217.830001831055 3.815330028534
9.965912818909 -79.389389038086 -222.980972290039 2.152210712433
-10.269491195679 -77.768249511719 -227.423782348633 1.210418939590
-2.561300992966 -77.616905212402 -224.663650512695 2.048389673233
-54.157955169678 -79.176101684570 -180.141281127930 1.033184170723
-33.686485290527 -85.526504516602 -190.691406250000 0.782726883888
-49.965946197510 -84.224800109863 -164.653167724609 7.185176372528
-96.519737243652 -70.632904052734 -217.883575439453 1.553750395775
-51.563243865967 -72.316291809082 -195.541534423828 5.581209659576
-53.992355346680 -72.112037658691 -44.051681518555 4.751750946045
-52.619678497314 -80.302116394043 -180.126220703125 1.314895510674
-46.428565979004 -81.908424377441 -197.706100463867 1.451093792915
-151.516159057617 -70.216720581055 -197.282073974609 2.496861457825
-60.441822052002 -68.855957031250 -286.620056152344 2.563950538635
-151.261444091797 -77.799400329590 -190.705642700195 3.553362607956
-145.930770874023 -62.551437377930 -199.242309570313 1.012215852737
-132.400848388672 -61.588691711426 -226.982696533203 2.671698808670
-155.345825195313 -59.541210174561 -200.494918823242 1.481096029282
-151.079513549805 -51.403926849365 -201.663894653320 8.044072151184
-95.390228271484 -71.764991760254 -254.824707031250 2.032637834549
26.041067123413 -86.349250793457 -137.568664550781 7.040870666504
-151.504440307617 -72.778480529785 -190.844711303711 2.235505104065
26.126317977905 -85.194351196289 -129.482574462891 5.864082813263
44.198551177979 -75.637031555176 -116.823417663574 0.552741348743
-26.129638671875 -81.281867980957 -221.853881835938 4.593262195587
-144.357131958008 -77.249916076660 -195.168960571289 1.098081350327
27.755729675293 -66.592498779297 -37.082847595215 2.424677610397
108.421104431152 -69.622016906738 -101.731422424316 1.528358936310
-58.764411926270 -76.484474182129 -186.615676879883 4.092238426208
-44.517440795898 -84.033393859863 -196.053146362305 1.822618126869
-3.424547910690 -67.346191406250 -277.347442626953 1.235756397247
-143.052642822266 -84.977127075195 -194.169540405273 3.190494298935
12.813471794128 -83.355163574219 -236.171508789063 0.615428328514
34.554824829102 -76.131965637207 -135.874526977539 2.637522220612
-112.624282836914 -73.932891845703 -224.539108276367 2.965458154678
-23.799896240234 -74.540657043457 -192.566360473633 2.968956708908
-46.984066009521 -71.096420288086 -160.131896972656 2.205430269241
-23.966503143311 -81.374084472656 -197.570816040039 2.637240886688
-87.830940246582 -67.915428161621 -117.955467224121 2.083961248398
-71.868026733398 -67.190399169922 -43.795639038086 3.140782117844
-43.018508911133 -76.248435974121 -209.330780029297 4.285778522491
-49.414855957031 -64.937683105469 -153.359756469727 3.697753667831
39.988086700439 -77.081565856934 -122.653709411621 1.567147374153
-153.546859741211 -79.247116088867 -197.634674072266 1.752365708351
-168.768829345703 -63.093521118164 -207.227279663086 4.871717453003
32.997428894043 -76.299499511719 -139.408752441406 2.298040390015
33.169319152832 -81.603713989258 -131.820266723633 1.632440567017
-34.680892944336 -74.285751342773 -212.198150634766 1.840846180916
36.397186279297 -81.292564392090 -118.633522033691 1.728319525719
41.735801696777 -78.972000122070 -119.766036987305 2.279516696930
-99.473556518555 -63.821826934814 -140.219970703125 3.703099012375
-7.024356842041 -74.481155395508 -238.605300903320 1.951185941696
-141.584228515625 -76.618186950684 -230.188858032227 1.407278895378
34.612873077393 -85.569480895996 -113.893699645996 7.572510719299
-139.652694702148 -61.693881988525 -226.770462036133 2.030060052872
-149.457336425781 -78.441513061523 -202.996231079102 1.760834097862
-164.875305175781 -61.323287963867 -208.218002319336 4.474586486816
27.036455154419 -75.546264648438 -134.559280395508 2.260959148407
-90.400772094727 -71.727287292480 -242.242782592773 8.828699111938
109.653526306152 -79.027442932129 -188.255096435547 2.618082046509
-151.146911621094 -72.589775085449 -206.511749267578 0.293397784233
-114.885208129883 -67.308563232422 -227.155441284180 1.763259768486
-172.356109619141 -66.432701110840 -209.780258178711 6.009453296661
34.595611572266 -81.667343139648 -112.046104431152 6.254619598389
40.319065093994 -83.731147766113 -118.810447692871 3.254038095474
-129.299377441406 -65.933738708496 -230.574691772461 2.520878076553
-33.625389099121 -73.890258789063 -194.717498779297 5.379407882690
-30.022789001465 -82.688179016113 -194.431762695313 3.739736557007
6.902095794678 -88.270080566406 -224.947509765625 7.261258602142
4.851798057556 -83.456520080566 -226.692611694336 4.998312950134
-26.934553146362 -76.837196350098 -198.047058105469 2.378987550735
-150.066116333008 -78.567878723145 -206.216278076172 1.814855575562
0.749934971333 -83.450965881348 -227.397216796875 4.117288112640
6.995337009430 -81.131614685059 -228.732345581055 2.931395053864
-29.369110107422 -78.770797729492 -191.998809814453 2.549101591110
0.421701997519 -63.294322967529 -234.390655517578 2.260855674744
-98.036506652832 -65.090682983398 -140.017959594727 1.975262284279
-6.621376991272 -80.961502075195 -221.956619262695 2.807111024857
9.549325942993 -89.487373352051 -202.552429199219 9.781551361084
-8.080121994019 -79.323699951172 -244.133331298828 4.455277919769
-157.963943481445 -80.335258483887 -232.066711425781 4.325771808624
-114.564117431641 -66.840179443359 -179.452621459961 3.817379474640
10.909182548523 -88.889663696289 -236.788070678711 5.723235607147
-1.717331051826 -80.841918945313 -232.953842163086 2.921653747559
28.462217330933 -73.099349975586 -116.339912414551 4.051730632782
-28.057399749756 -79.406219482422 -69.979675292969 2.238945007324
-72.449684143066 -78.111770629883 -159.200515747070 2.809632778168
4.791140079498 -85.071304321289 -239.012496948242 6.340521335602
0.434266000986 -79.297172546387 -243.758178710938 3.575545072556
-61.132373809814 -75.607284545898 -148.689727783203 5.761258602142
-53.059944152832 -87.042449951172 -144.085159301758 9.032450675964
-59.431339263916 -80.907798767090 -173.607742309570 1.607595324516
10.763960838318 -83.723327636719 -243.808288574219 1.886902213097
2.284440994263 -82.249107360840 -242.192489624023 4.663614273071
-92.200210571289 -55.707530975342 -130.696640014648 8.449470520020
30.592477798462 -76.561393737793 -260.131866455078 6.429315567017
-47.987522125244 -83.477806091309 -78.257171630859 1.108817696571
-4.244718074799 -85.779319763184 -247.477722167969 4.370976924896
-3.921370983124 -65.340492248535 -270.257537841797 1.640124559402
-88.283149719238 -74.184448242188 -107.496665954590 3.800461769104
-29.263301849365 -83.072853088379 -279.908782958984 9.119343757629
4.024806022644 -82.317512512207 -245.802734375000 3.207579374313
-34.766326904297 -81.228935241699 -287.265838623047 2.853757381439
-45.205169677734 -79.237800598145 -61.752578735352 2.590919256210
-74.250991821289 -77.952239990234 -54.418300628662 3.075542211533
82.266838073730 -83.542594909668 -211.107177734375 8.858499526978
-139.919754028320 -74.700401306152 -252.061508178711 4.063372135162
-99.638931274414 -54.024982452393 -98.602821350098 0.797572433949
112.669502258301 -79.986099243164 -123.201553344727 5.110017776489
15.400997161865 -74.961830139160 -27.505273818970 5.911738872528
-13.335227012634 -79.295272827148 -252.673004150391 3.572869539261
-74.473487854004 -73.602203369141 -47.415332794189 3.960374593735
89.103080749512 -83.665092468262 -210.326049804688 7.241215705872
44.269680023193 -71.875938415527 -101.389678955078 1.621410965919
-76.730514526367 -56.329135894775 -103.855438232422 4.510018348694
-172.662826538086 -67.161537170410 -289.603851318359 6.513214588165
-35.547069549561 -81.178977966309 -179.974136352539 3.497263908386
-41.309909820557 -82.550369262695 -172.224929809570 4.128976345062
-161.845642089844 -80.124229431152 -288.269714355469 5.058163642883
-142.418365478516 -82.415153503418 -290.968597412109 2.259250879288
-155.287063598633 -79.382720947266 -277.888458251953 3.790256261826
-161.140655517578 -76.050407409668 -300.256347656250 6.041061878204
-155.393920898438 -60.887855529785 -302.061553955078 6.892107486725
-98.721672058105 -68.438331604004 -87.998123168945 3.483515739441
-89.608291625977 -72.797721862793 -102.101860046387 4.607555389404
-59.439533233643 -79.828170776367 -68.660034179688 1.719967007637
-84.979499816895 -77.451164245605 -104.433601379395 4.384661674500
-52.745357513428 -83.141716003418 -68.431739807129 2.501784086227
-98.028305053711 -71.875228881836 -109.947555541992 2.984173059464
-77.546844482422 -79.822509765625 -68.189125061035 0.766046762466
-48.718269348145 -78.825202941895 -237.325942993164 5.083502292633
68.704185485840 -68.099105834961 -107.349319458008 4.701559543610
-8.325239181519 -78.042419433594 -285.483551025391 3.707010507584
67.037239074707 -65.872741699219 -104.163528442383 3.239586591721
-149.011459350586 -72.056137084961 -286.062988281250 3.206257581711
-134.932342529297 -74.848831176758 -249.504272460938 5.409164428711
-157.340011596680 -77.913955688477 -279.705657958984 5.740226745605
-157.994949340820 -67.416740417480 -284.062347412109 3.239017963409
-146.369918823242 -72.754043579102 -295.099975585938 1.247408509254
-150.600448608398 -62.512420654297 -285.531585693359 1.370838165283
-163.661514282227 -59.787536621094 -289.488067626953 8.723626136780
62.178951263428 -63.908035278320 -81.344123840332 1.194190144539
-44.686584472656 -77.790115356445 -65.781044006348 1.732011198997
-78.116859436035 -77.043785095215 -92.867111206055 6.204310894012
-96.793014526367 -74.199470520020 -212.121261596680 3.637271642685
-116.919822692871 -66.635902404785 -260.517272949219 0.916018068790
-50.010467529297 -74.097145080566 -205.059143066406 6.536675930023
-50.548591613770 -80.106880187988 -157.212417602539 3.279167413712
-57.727790832520 -69.991195678711 -152.187988281250 4.885907173157
-65.083618164063 -79.035606384277 -170.594635009766 2.770083189011
-151.501007080078 -69.365631103516 -206.326629638672 2.286610841751
32.062915802002 -85.424293518066 -125.766677856445 5.997611045837
28.673322677612 -80.168609619141 -142.497192382813 1.459703803062
-60.184242248535 -80.928878784180 -290.840240478516 4.090456485748
-152.345443725586 -63.665519714355 -214.358001708984 2.490760326385
-131.010040283203 -66.349662780762 -232.963439941406 1.977285861969
33.123271942139 -74.307403564453 -117.193489074707 1.389119505882
-114.467857360840 -66.505775451660 -260.428619384766 1.376695752144
-94.499641418457 -65.382011413574 -119.516494750977 1.646119356155
30.478397369385 -79.249641418457 -144.449462890625 2.089051723480
12.633569717407 -73.043502807617 -229.213439941406 1.794484138489
-41.537956237793 -80.723037719727 -207.978729248047 4.112177371979
-21.873588562012 -74.959632873535 -198.690093994141 0.898838758469
-24.254461288452 -79.181945800781 -190.750350952148 1.336995720863
-147.915756225586 -72.063949584961 -176.569686889648 1.744787216187
-44.508625030518 -82.253890991211 -286.600280761719 4.968762874603
-19.386259078979 -69.019584655762 -66.185516357422 3.222500562668
38.413684844971 -78.906028747559 -119.782554626465 1.932134151459
-38.387966156006 -74.873542785645 -79.502754211426 1.055747866631
-159.651672363281 -67.721656799316 -201.184890747070 2.498281002045
-150.032623291016 -53.715610504150 -199.122344970703 5.807652473450
28.767517089844 -79.030471801758 -142.190887451172 1.837411880493
22.736455917358 -82.619087219238 -144.805099487305 5.671424388885
27.063217163086 -82.068328857422 -143.800720214844 3.864129543304
23.549221038818 -76.487945556641 -138.370315551758 2.051164865494
28.939031600952 -87.178855895996 -136.037048339844 7.404133319855
-21.324625015259 -82.846908569336 -171.019073486328 6.366677761078
-14.141322135925 -78.968376159668 -173.826141357422 1.229586243629
-96.899940490723 -69.744796752930 -97.597251892090 1.370347380638
-39.056312561035 -81.078964233398 -66.888069152832 2.634616851807
-67.694564819336 -71.602203369141 -157.336059570313 1.535989284515
-34.611461639404 -70.432426452637 -189.171966552734 3.163517713547
-68.114067077637 -80.893455505371 -172.983245849609 5.563388347626
32.326251983643 -71.714500427246 -245.575103759766 8.801508903503
-4.842937946320 -74.522293090820 -227.336853027344 3.155671119690
-22.993982315063 -75.212928771973 -205.189834594727 2.438570737839
-67.150093078613 -68.580215454102 -158.004531860352 1.594444870949
29.809202194214 -68.126350402832 -255.036941528320 2.436216592789
-2.804460048676 -79.401748657227 -227.366424560547 1.616201996803
-38.540817260742 -79.324134826660 -203.979721069336 1.223821640015
-65.059638977051 -86.371711730957 -178.922698974609 9.146805763245
-16.604616165161 -68.091857910156 -209.879943847656 2.446234226227
-45.407886505127 -78.873420715332 -170.452270507813 3.555630683899
-37.606800079346 -79.584358215332 -181.156509399414 4.268609046936
-95.878967285156 -57.221672058105 -130.287689208984 7.459598541260
-24.513414382935 -63.059844970703 -65.039237976074 2.315856695175
-43.808864593506 -82.866439819336 -175.209915161133 6.465008735657
-35.515327453613 -83.280372619629 -175.354309082031 3.929936885834
-31.084032058716 -64.969459533691 -65.326759338379 5.701773643494
-50.647232055664 -85.712539672852 -192.656463623047 5.524396419525
-57.761768341064 -85.187072753906 -182.397186279297 5.815673828125
-65.873298645020 -67.639350891113 -48.102458953857 2.054354190826
52.836929321289 -73.374496459961 -233.154785156250 9.160996437073
-32.351055145264 -81.775604248047 -174.922958374023 3.024375438690
-37.924430847168 -80.650985717773 -169.924911499023 2.394701480865
39.782348632813 -84.390541076660 -103.536453247070 7.104620456696
46.339046478271 -76.290565490723 -241.735702514648 6.770740032196
23.072359085083 -80.575088500977 -131.055831909180 6.605308532715
28.473793029785 -75.713661193848 -127.607666015625 1.619294643402
-62.940143585205 -72.551460266113 -179.482604980469 4.913712978363
-40.303306579590 -77.041831970215 -188.156845092773 3.902395009995
-23.134878158569 -83.284103393555 -213.185409545898 4.387041568756
-69.483016967773 -81.771202087402 -160.828475952148 4.906676292419
-169.602828979492 -67.005218505859 -207.803695678711 2.657273769379
-38.791172027588 -78.391082763672 -58.443214416504 3.121899843216
29.736051559448 -85.364540100098 -124.826126098633 6.948499679565
-153.000625610352 -70.938110351563 -189.781250000000 1.678056597710
-53.028156280518 -75.722496032715 -286.696838378906 1.269490480423
-152.917968750000 -75.879920959473 -201.475830078125 1.913275480270
-150.290817260742 -64.631187438965 -193.439926147461 1.603100180626
-84.554855346680 -68.937210083008 -250.049514770508 2.807674646378
-115.502609252930 -62.582351684570 -226.234924316406 3.526827812195
-159.702941894531 -63.493789672852 -188.730575561523 7.319229125977
-52.912044525146 -78.285018920898 -200.213027954102 2.051667213440
-148.709228515625 -74.588569641113 -202.770584106445 2.892135381699
-82.715499877930 -66.295066833496 -45.346294403076 2.676672935486
75.114334106445 -67.223129272461 -102.929710388184 2.069039344788
-80.159858703613 -84.699851989746 -213.102722167969 4.793810367584
-84.578941345215 -65.577110290527 -55.753944396973 1.947746276855
5.517958164215 -85.986488342285 -218.534133911133 6.795744895935
5.874560832977 -79.378517150879 -216.069244384766 3.036921262741
-28.890178680420 -63.332134246826 -68.687942504883 1.826177000999
-31.726894378662 -83.568016052246 -181.510787963867 4.477161884308
-46.303649902344 -78.437225341797 -166.640441894531 2.036956310272
5.235535144806 -82.610954284668 -226.392013549805 4.180196285248
-0.290147989988 -81.592506408691 -224.154418945313 2.159322738647
-7.668962001801 -77.389526367188 -227.834152221680 2.462578058243
-49.706733703613 -84.326881408691 -157.438919067383 6.007750034332
-89.076248168945 -70.191291809082 -108.697624206543 3.844520568848
32.635303497314 -73.759803771973 -255.986007690430 3.188594579697
-93.084327697754 -67.446189880371 -251.809082031250 3.081985712051
6.764599800110 -83.034637451172 -222.349227905273 2.975489616394
-141.591842651367 -78.037788391113 -225.983200073242 0.895819246769
18.370742797852 -80.064758300781 -186.245681762695 2.591893196106
34.122734069824 -61.560920715332 -23.200424194336 5.240644454956
4.154719829559 -78.131690979004 -208.803527832031 3.268354654312
5.616349220276 -85.472457885742 -207.601593017578 7.985243797302
-156.469177246094 -70.966064453125 -250.904998779297 1.974002003670
-148.953964233398 -78.626899719238 -228.252273559570 1.170570254326
-152.428085327148 -79.378509521484 -226.878753662109 1.602487802505
-113.990684509277 -63.293537139893 -175.995178222656 4.202229976654
17.028629302979 -72.590866088867 -189.742568969727 2.200974225998
-24.112668991089 -82.099929809570 -205.925750732422 5.462275981903
-67.148796081543 -76.271697998047 -162.976516723633 0.498898595572
8.112364768982 -84.851554870605 -240.313400268555 4.871256351471
4.246336936951 -81.872940063477 -247.595596313477 1.839616060257
-54.783355712891 -77.465278625488 -148.044830322266 1.258384585381
-150.208404541016 -72.091674804688 -218.417846679688 2.783418893814
-157.711593627930 -82.833595275879 -244.009338378906 7.663120746613
-116.371368408203 -67.379417419434 -191.802444458008 2.429933547974
-95.436691284180 -77.791000366211 -284.514739990234 4.898283004761
-166.182922363281 -68.498817443848 -238.964248657227 1.490556836128
-161.969680786133 -61.665462493896 -224.815856933594 3.876748323441
-157.582122802734 -67.516410827637 -224.485473632813 0.775459229946
-8.596755981445 -79.878273010254 -238.989013671875 6.783730030060
-6.608419895172 -75.086853027344 -216.045593261719 1.827618122101
-79.028404235840 -73.624465942383 -146.112869262695 3.205123901367
-160.177200317383 -72.890548706055 -225.282791137695 1.992821097374
-159.112030029297 -80.315612792969 -242.247619628906 6.202184677124
-18.857664108276 -72.921920776367 -221.544570922852 1.396017670631
-150.777435302734 -62.398635864258 -227.024078369141 2.217177152634
-116.447456359863 -65.048408508301 -194.479522705078 2.492447853088
-144.860427856445 -60.121471405029 -222.813064575195 2.115493535995
2.534486055374 -79.891700744629 -237.709075927734 1.583256483078
-32.643688201904 -79.518783569336 -211.556488037109 1.959132432938
-0.746178984642 -83.729408264160 -246.259506225586 4.040571212769
-63.112125396729 -83.034851074219 -170.900512695313 2.618988752365
5.948006153107 -81.501083374023 -248.769561767578 1.781209230423
-34.605056762695 -76.276245117188 -206.926422119141 1.115564942360
28.555961608887 -66.223503112793 -250.308883666992 5.870528221130
33.178936004639 -70.006332397461 -131.706893920898 1.921137452126
-130.856307983398 -71.641662597656 -280.097961425781 4.705858707428
-150.312728881836 -74.954345703125 -268.538055419922 1.089025616646
-89.752525329590 -72.225189208984 -210.006347656250 3.881788969040
-160.664810180664 -77.667709350586 -253.242752075195 3.652464866638
-157.157409667969 -76.684318542480 -255.610900878906 3.577211618423
82.859497070313 -75.650535583496 -215.101226806641 1.477300882339
-75.948898315430 -74.883308410645 -55.552368164063 2.751786708832
-163.094772338867 -70.809196472168 -254.843963623047 2.071335792542
-172.324920654297 -66.774848937988 -247.372390747070 6.209841251373
-150.663436889648 -70.837440490723 -270.508605957031 3.775926113129
-134.914886474609 -65.707176208496 -285.141052246094 2.890824317932
-130.160171508789 -68.836921691895 -285.679382324219 2.548183679581
-155.415252685547 -62.188217163086 -268.392456054688 4.793621540070
-154.702880859375 -66.033271789551 -264.753509521484 2.016403436661
-147.948791503906 -81.860786437988 -258.190429687500 1.685088157654
-143.502593994141 -77.200561523438 -256.979339599609 2.528296709061
-158.425277709961 -83.617439270020 -257.560119628906 4.550539970398
-159.993484497070 -72.984161376953 -249.817352294922 1.885416030884
-164.845489501953 -62.965961456299 -245.289413452148 4.846289157867
90.852348327637 -69.515075683594 -104.239479064941 1.707191705704
-175.476715087891 -64.685226440430 -245.821182250977 9.644845008850
-54.928535461426 -73.567863464355 -181.446807861328 1.476935625076
-47.546062469482 -80.374282836914 -186.358688354492 1.671633243561
53.192687988281 -81.938919067383 -236.075546264648 10.614124298096
-100.960792541504 -71.508430480957 -84.205955505371 5.532508373260
15.600734710693 -85.685546875000 -251.006881713867 3.842779159546
17.188716888428 -79.783134460449 -247.638687133789 1.610103130341
-132.627593994141 -67.563980102539 -295.154724121094 3.094949960709
18.710956573486 -80.957908630371 -163.516296386719 5.185624122620
24.715120315552 -93.163986206055 -147.553909301758 13.815072059631
21.766296386719 -81.167762756348 -149.469772338867 3.968061685562
80.338394165039 -80.111946105957 -98.024757385254 5.332162857056
-159.879287719727 -68.022384643555 -268.192474365234 2.873685836792
-153.492630004883 -59.400917053223 -271.476318359375 7.309915542603
-58.604808807373 -64.082611083984 -84.876617431641 1.579039812088
-167.821945190430 -66.151809692383 -259.452178955078 3.698636770248
-160.114883422852 -77.323799133301 -258.340728759766 3.186213731766
-166.712081909180 -68.998619079590 -259.855865478516 1.460062980652
-112.832679748535 -73.898078918457 -289.373229980469 0.719712197781
-170.626724243164 -68.024284362793 -261.414642333984 2.797348022461
-155.501159667969 -74.936080932617 -251.178222656250 3.057505130768
-150.962280273438 -80.313171386719 -251.968521118164 1.986930727959
19.875072479248 -86.383155822754 -151.808731079102 8.368360519409
20.070877075195 -80.316352844238 -154.161376953125 4.398073196411
18.729381561279 -79.259910583496 -163.706314086914 4.118370532990
-158.485198974609 -80.505325317383 -254.755859375000 3.925233364105
4.840188980103 -82.420318603516 -264.197143554688 3.614257812500
66.810897827148 -73.362182617188 -77.586921691895 3.218971490860
-60.085567474365 -75.820251464844 -65.012901306152 2.881603956223
-83.257797241211 -71.905822753906 -98.634246826172 4.121120452881
-50.587692260742 -73.006271362305 -79.733734130859 5.549158096313
-162.888275146484 -74.462455749512 -247.731979370117 1.459261894226
-71.955261230469 -76.382263183594 -63.706413269043 4.014973640442
-55.896903991699 -78.531936645508 -250.471374511719 2.577712774277
79.112701416016 -77.579856872559 -221.982955932617 2.477476358414
66.642761230469 -67.038658142090 -105.125450134277 4.560565948486
-120.920608520508 -71.726470947266 -291.595794677734 1.906714200974
-144.125518798828 -64.712287902832 -257.016357421875 1.398527383804
-153.986343383789 -59.945663452148 -255.083465576172 2.970238447189
-47.902854919434 -79.812202453613 -236.550140380859 5.987369537354
-133.861953735352 -70.786834716797 -218.993301391602 5.320930957794
-163.042388916016 -66.034461975098 -195.718307495117 3.430135250092
-38.049915313721 -81.360527038574 -73.591873168945 2.007016420364
-161.387527465820 -63.324935913086 -191.775711059570 6.328556060791
-129.392242431641 -67.445983886719 -226.274566650391 1.583333492279
-147.834579467773 -59.200714111328 -191.039321899414 3.474561214447
-150.097091674805 -56.555633544922 -198.446655273438 3.452393531799
-34.722949981689 -83.326156616211 -73.945724487305 2.845927715302
8.026960372925 -83.065666198730 -227.345840454102 3.898481130600
-171.445861816406 -76.186836242676 -259.217041015625 6.365263938904
-158.188842773438 -75.839050292969 -281.121093750000 4.633963108063
-141.291473388672 -76.584396362305 -291.231994628906 0.856039047241
80.587066650391 -84.300407409668 -82.117439270020 5.629348278046
65.651702880859 -84.588668823242 -88.918907165527 11.356537818909
18.665327072144 -80.230751037598 -167.037124633789 4.918407440186
-87.310920715332 -78.444000244141 -205.189605712891 6.877810478210
-4.715917110443 -80.661476135254 -156.178390502930 8.648953437805
10.966216087341 -76.282592773438 -172.247985839844 6.574392795563
-49.329719543457 -80.959327697754 -245.989044189453 1.396174669266
-90.551353454590 -80.866729736328 -79.925598144531 4.145212650299
-67.582809448242 -72.077674865723 -129.946929931641 5.423955917358
-42.871643066406 -80.619895935059 -82.321823120117 2.162556171417
-1.901800990105 -73.039001464844 -195.672103881836 10.892765045166
-23.479660034180 -76.018753051758 -242.676010131836 1.481871008873
-86.456954956055 -82.589622497559 -95.471038818359 2.639176368713
41.229553222656 -68.282363891602 -243.292922973633 5.976943492889
-79.993476867676 -77.838340759277 -104.099029541016 2.115362167358
-54.940193176270 -68.781311035156 -45.777755737305 1.952461838722
-115.196090698242 -64.773567199707 -254.791870117188 4.053366661072
-168.153579711914 -69.736671447754 -286.088500976563 0.287628769875
37.147914886475 -81.758544921875 -116.770317077637 2.456857442856
21.540729522705 -72.755973815918 -134.815963745117 5.419454097748
-89.027946472168 -68.531387329102 -255.911895751953 2.362368822098
-26.886362075806 -69.628669738770 -72.907142639160 2.497597932816
-144.598907470703 -63.009010314941 -193.042327880859 1.496618032455
-160.690048217773 -63.509609222412 -203.396972656250 3.010417699814
-154.320144653320 -58.007831573486 -192.950454711914 3.985518932343
40.772129058838 -82.895401000977 -120.575393676758 2.211893558502
36.281291961670 -85.160072326660 -116.662963867188 5.409778594971
48.741630554199 -79.201324462891 -96.067398071289 3.941873073578
26.903730392456 -86.343589782715 -144.356140136719 7.126802444458
20.661680221558 -76.798439025879 -144.974563598633 2.654920816422
-94.777648925781 -69.879295349121 -247.416168212891 5.140861511230
38.869983673096 -71.543815612793 -258.686676025391 2.207251071930
-55.447124481201 -77.743354797363 -149.827957153320 2.340260505676
-46.716361999512 -79.102493286133 -157.564285278320 2.322864770889
-22.281152725220 -72.562744140625 -204.224105834961 1.428827643394
-40.145557403564 -81.338066101074 -206.994705200195 3.642628669739
-61.289546966553 -86.203315734863 -159.048675537109 6.839779853821
-64.653549194336 -77.406013488770 -171.940444946289 1.582996845245
-155.068634033203 -72.596359252930 -186.769332885742 4.185425758362
-19.505008697510 -64.690277099609 -69.469116210938 4.629670619965
-47.783256530762 -86.402030944824 -160.135299682617 8.386398315430
18.343517303467 -84.352485656738 -159.644119262695 7.418551445007
26.701499938965 -81.538047790527 -161.408172607422 2.912793874741
27.459938049316 -82.175827026367 -146.120025634766 3.286975860596
-65.561042785645 -76.690414428711 -250.020294189453 2.180837869644
-99.575141906738 -75.347557067871 -213.837112426758 4.338281631470
20.969888687134 -80.715385437012 -164.950622558594 3.851999521255
21.905420303345 -84.125236511230 -165.990280151367 5.599515914917
17.019180297852 -83.092247009277 -151.739852905273 8.537731170654
-10.561759948730 -82.851356506348 -171.870300292969 1.134272694588
23.189367294312 -81.601425170898 -164.010437011719 3.152424335480
17.695976257324 -82.936614990234 -161.574691772461 7.109920978546
-33.720249176025 -83.699256896973 -183.279449462891 4.159082889557
-48.670207977295 -80.731552124023 -164.732818603516 3.749619960785
-30.314474105835 -85.242828369141 -170.863220214844 5.359808444977
-36.507575988770 -79.812515258789 -158.709747314453 3.101858139038
-27.988300323486 -76.141921997070 -179.529281616211 2.740739345551
53.855808258057 -79.880874633789 -237.077697753906 8.329212188721
85.169860839844 -82.152030944824 -207.057891845703 8.977079391479
-100.521057128906 -70.034751892090 -74.535484313965 5.448390483856
-39.016704559326 -65.966560363770 -48.634140014648 2.793372154236
-65.041107177734 -76.908393859863 -165.395507812500 1.432381391525
2.976198911667 -86.141220092773 -233.242935180664 7.227941989899
-133.832366943359 -63.342704772949 -228.933975219727 0.905774176121
30.512050628662 -75.690788269043 -113.182296752930 4.051555633545
-29.200302124023 -75.410743713379 -188.563049316406 1.531019330025
-61.375740051270 -79.071708679199 -166.994812011719 1.151305913925
-30.422349929810 -69.983589172363 -190.516479492188 2.159271717072
5.676674842834 -73.100906372070 -218.391174316406 2.615072965622
-84.942207336426 -64.366271972656 -132.883071899414 2.423981904984
-34.662734985352 -74.177780151367 -196.885086059570 4.087549209595
-62.806854248047 -73.625114440918 -165.670928955078 1.754414319992
-27.955930709839 -82.014099121094 -193.676315307617 3.653525829315
-32.778625488281 -65.915283203125 -202.381530761719 7.786413669586
-15.453329086304 -78.393165588379 -206.497634887695 1.986450672150
-139.845687866211 -75.472526550293 -197.916488647461 1.108922839165
10.871747970581 -72.360137939453 -182.017349243164 3.956444978714
-21.368146896362 -88.573310852051 -218.574935913086 8.664716720581
-141.576614379883 -75.080085754395 -197.489135742188 0.911708474159
11.414441108704 -81.805007934570 -227.065567016602 0.310178071260
-23.145198822021 -82.002372741699 -196.087234497070 2.751241445541
-43.778652191162 -78.730339050293 -151.633392333984 1.621649265289
-50.192161560059 -76.516929626465 -155.150253295898 1.222627878189
-96.078994750977 -67.045562744141 -115.857307434082 3.045969724655
-106.380844116211 -73.878852844238 -253.442932128906 3.500033617020
-157.342300415039 -79.014404296875 -198.851257324219 3.907981634140
-166.751281738281 -69.339523315430 -195.718460083008 3.582262277603
91.578681945801 -66.367828369141 -58.996425628662 3.817254304886
53.447086334229 -75.446876525879 -83.049079895020 5.358150482178
69.284225463867 -77.856086730957 -60.433914184570 11.935869216919
-29.628236770630 -66.374244689941 -177.597305297852 2.640831708908
71.038368225098 -76.103767395020 -67.558372497559 5.542298793793
-125.085815429688 -73.876892089844 -257.600189208984 1.225216150284
-34.633369445801 -74.546394348145 -173.638870239258 3.206156730652
42.022354125977 -72.835083007813 -98.888336181641 2.789720773697
-163.585144042969 -76.335029602051 -295.967590332031 4.923773288727
33.610897064209 -80.780342102051 -109.017677307129 6.087303638458
47.219779968262 -82.304450988770 -97.539802551270 4.953376770020
66.468292236328 -73.236007690430 -73.995643615723 5.087193489075
-143.849121093750 -71.963340759277 -283.053100585938 1.871487975121
-39.685020446777 -71.740951538086 -175.761856079102 2.792079925537
41.234573364258 -79.820991516113 -105.071456909180 2.896075725555
48.745952606201 -72.496566772461 -85.908828735352 4.309545040131
-55.494678497314 -79.076934814453 -197.905990600586 4.381433486938
-160.647811889648 -73.604347229004 -294.430603027344 2.161229372025
-158.930206298828 -68.969825744629 -288.612396240234 2.309092521667
65.458930969238 -77.303352355957 -76.791969299316 6.616693496704
-155.468170166016 -66.645011901855 -290.030273437500 2.618385314941
-39.423786163330 -71.400772094727 -172.418579101563 1.107291698456
-29.467262268066 -73.643394470215 -184.021743774414 2.708162307739
-144.061752319336 -70.182060241699 -281.664733886719 2.178115367889
-155.487396240234 -65.004066467285 -283.005310058594 1.915365576744
-161.459228515625 -65.266174316406 -291.922760009766 4.251931667328
-160.816955566406 -61.846603393555 -280.844116210938 7.096717357635
21.394935607910 -71.269256591797 -264.941436767578 3.471007585526
-59.549762725830 -85.042610168457 -204.887634277344 1.616235733032
-163.997131347656 -68.879302978516 -236.581069946289 1.692542791367
15.729638099670 -86.874847412109 -200.975982666016 8.022743225098
14.420866012573 -87.739234924316 -237.718338012695 4.837957859039
-18.466220855713 -81.313827514648 -207.882171630859 4.470356941223
26.642787933350 -79.723068237305 -259.925354003906 6.525370121002
44.129116058350 -75.186134338379 -116.101188659668 0.866937339306
-39.168281555176 -82.283157348633 -208.546127319336 4.253589153290
94.264984130859 -85.438034057617 -203.343246459961 8.550555229187
13.104825019836 -89.911727905273 -242.199432373047 6.919495105743
-91.990303039551 -68.472412109375 -118.973548889160 2.369835138321
-17.596147537231 -85.277496337891 -216.617294311523 6.998049736023
6.255040168762 -80.863479614258 -209.759582519531 3.982496500015
-13.594038963318 -82.687500000000 -223.047576904297 5.672486782074
12.850414276123 -83.178573608398 -184.764755249023 6.608867168427
-148.937728881836 -71.070739746094 -213.271926879883 1.231279253960
-162.472991943359 -64.384246826172 -216.497940063477 2.850960969925
-71.305541992188 -55.517414093018 -117.939750671387 2.107591152191
-100.728126525879 -72.482612609863 -283.015350341797 3.695267915726
-146.298767089844 -67.149581909180 -235.076324462891 1.119579672813
-150.767318725586 -62.954143524170 -235.189025878906 0.977360069752
-124.670143127441 -65.977691650391 -204.978500366211 1.081619858742
8.414788246155 -85.933258056641 -184.174850463867 10.930241584778
15.123708724976 -79.890342712402 -182.779144287109 3.508240699768
-19.959018707275 -77.541046142578 -214.930603027344 1.845824360847
-159.760314941406 -81.708213806152 -223.115478515625 6.620504856110
-169.175674438477 -62.298274993896 -221.849914550781 6.306664466858
-10.553078651428 -81.579216003418 -219.450210571289 2.247313976288
-164.394973754883 -70.659530639648 -215.791275024414 2.737756490707
-12.845454216003 -80.507293701172 -225.612274169922 3.123947858810
-15.883568763733 -67.037979125977 -245.054077148438 3.525826931000
-152.799209594727 -79.263420104980 -224.612136840820 1.779637217522
-157.380966186523 -74.581611633301 -219.725967407227 4.488984584808
-168.367141723633 -62.674831390381 -222.068267822266 5.501580238342
-123.427406311035 -72.363296508789 -203.980850219727 1.330296754837
29.556686401367 -83.613342285156 -183.594772338867 6.990449428558
-167.185043334961 -72.502784729004 -229.143508911133 2.088264703751
-106.411376953125 -68.752449035645 -290.889678955078 1.083189964294
-153.552551269531 -66.590744018555 -246.578140258789 3.010543107986
-158.459228515625 -70.646827697754 -226.777343750000 2.313987731934
-157.484786987305 -80.654815673828 -231.796386718750 4.197607517242
-172.990753173828 -67.256004333496 -235.910736083984 4.846652984619
-135.844680786133 -67.121589660645 -206.294891357422 4.179113388062
-156.645736694336 -69.972747802734 -197.015029907227 2.590666770935
-158.057220458984 -74.191802978516 -195.598861694336 2.914304494858
13.584256172180 -79.510643005371 -234.416793823242 1.365113377571
3.478086948395 -84.718101501465 -235.017745971680 5.394155502319
-68.278068542480 -78.074195861816 -172.476806640625 4.291596412659
-33.759918212891 -81.856269836426 -209.300567626953 3.318627357483
-24.834463119507 -82.862167358398 -207.819046020508 4.746578693390
-54.254932403564 -84.869255065918 -237.860458374023 6.149462699890
93.011268615723 -73.804000854492 -82.222358703613 2.598559856415
-42.442497253418 -81.817665100098 -237.888931274414 4.251461982727
10.148614883423 -75.688034057617 -199.570663452148 1.804923415184
-59.634696960449 -65.402175903320 -120.976028442383 2.063001155853
-162.961212158203 -73.284683227539 -279.259704589844 4.364848136902
-133.409057617188 -74.395874023438 -255.923690795898 0.210415795445
-161.461669921875 -71.950653076172 -285.428741455078 2.311991930008
-161.861358642578 -73.559104919434 -277.573425292969 3.343688249588
-156.925628662109 -72.242691040039 -291.082977294922 1.167118430138
-157.280166625977 -61.250732421875 -283.331542968750 3.999801158905
-153.445053100586 -63.614814758301 -304.049041748047 3.989493608475
-127.448875427246 -68.907112121582 -253.726684570313 1.792125463486
74.008010864258 -69.207267761230 -59.787239074707 4.173408031464
91.626342773438 -77.656356811523 -65.542900085449 6.237811565399
-121.950668334961 -69.148956298828 -264.816589355469 3.086829900742
-64.733497619629 -74.279136657715 -60.522350311279 3.525984287262
-121.564987182617 -69.990974426270 -257.920654296875 2.052216529846
-50.023475646973 -77.208381652832 -55.267906188965 2.463243246078
-89.188461303711 -80.920944213867 -67.778297424316 7.985134124756
-67.838592529297 -66.696609497070 -101.091644287109 2.016960144043
-90.221450805664 -75.616386413574 -74.169479370117 1.987149477005
6.827901840210 -77.371459960938 -290.274627685547 1.189960718155
-29.971893310547 -81.634216308594 -67.610168457031 2.836919307709
-42.752151489258 -74.296234130859 -82.719703674316 1.833029866219
41.710422515869 -87.033393859863 -106.258041381836 8.045946121216
49.194915771484 -73.290710449219 -246.690109252930 2.078735351563
10.425889015198 -70.500137329102 -238.168045043945 1.863056302071
-95.962135314941 -64.617233276367 -132.656311035156 3.949323654175
26.161790847778 -82.466491699219 -120.882202148438 7.240257263184
36.775794982910 -79.114997863770 -116.838294982910 2.118304967880
-23.462455749512 -84.146209716797 -199.591323852539 5.254041194916
-87.776580810547 -69.440055847168 -255.387130737305 1.469182848930
33.863491058350 -85.704208374023 -124.930107116699 5.420835018158
9.979076385498 -79.866149902344 -229.586334228516 0.585300385952
30.288103103638 -72.948539733887 -145.766662597656 3.065176010132
-36.544883728027 -77.914764404297 -167.596771240234 1.827243566513
-40.531650543213 -75.031219482422 -162.922134399414 3.252760887146
-33.116111755371 -83.106544494629 -171.152923583984 2.129969835281
-23.469110488892 -76.256401062012 -180.631759643555 1.742159128189
-2.832232952118 -82.469169616699 -165.440460205078 3.263974905014
13.442254066467 -74.036003112793 -168.326309204102 4.240057945251
22.761205673218 -78.493858337402 -176.048263549805 1.232080698013
19.985414505005 -83.704643249512 -178.971878051758 5.550301074982
-162.856414794922 -68.092765808105 -217.048233032227 1.352436542511
-157.010253906250 -79.914100646973 -222.723541259766 4.064928531647
14.587520599365 -83.697257995605 -181.972152709961 6.404550075531
14.171580314636 -72.136703491211 -193.379119873047 2.098779201508
-62.246444702148 -70.739425659180 -130.665542602539 1.084280371666
6.315736770630 -81.979324340820 -188.988876342773 9.106427192688
10.632081031799 -82.885124206543 -194.232971191406 5.787604331970
