-157.881622314453 -71.448997497559 -198.589736938477 3.616208076477
-27.127830505371 -78.653854370117 -79.481010437012 3.448933362961
-154.826873779297 -81.211296081543 -195.625381469727 3.230197906494
-32.627296447754 -75.574310302734 -74.252487182617 4.619897842407
-77.863647460938 -72.504188537598 -121.150573730469 2.985578060150
-75.796989440918 -64.460998535156 -119.737510681152 1.507609605789
-65.436576843262 -77.479240417480 -286.976470947266 2.508137941360
-149.906021118164 -77.358421325684 -198.946090698242 1.813259720802
112.533309936523 -74.204849243164 -135.617279052734 1.615674614906
114.419578552246 -75.543029785156 -135.367279052734 2.612271070480
-76.147102355957 -77.492256164551 -208.292327880859 1.487292766571
96.011184692383 -77.288444519043 -215.534210205078 4.029966354370
16.040447235107 -67.129234313965 -148.889099121094 1.691582679749
-55.217163085938 -74.037216186523 -88.326568603516 3.133641719818
-80.002021789551 -75.958076477051 -208.711547851563 2.657791376114
-128.385971069336 -75.955146789551 -223.402328491211 2.922327041626
-76.020309448242 -86.085823059082 -287.279724121094 8.832491874695
-149.146987915039 -79.926269531250 -216.463790893555 0.854201018810
-153.934188842773 -69.867584228516 -188.863693237305 2.850642919540
-145.444778442383 -61.783039093018 -191.862442016602 1.940634369850
-152.216461181641 -60.951961517334 -187.197509765625 3.217435598373
-6.615776062012 -61.503261566162 -51.376422882080 5.134180545807
10.889509201050 -78.928375244141 -216.126464843750 0.856565296650
-77.137580871582 -73.603370666504 -51.917762756348 3.084599971771
85.008369445801 -75.212638854980 -218.067581176758 1.539774298668
-19.000612258911 -79.307556152344 -215.901168823242 3.208730697632
-17.691423416138 -76.223518371582 -229.081695556641 1.869489073753
52.504058837891 -73.561752319336 -30.811573028564 4.033898830414
13.375144004822 -82.919876098633 -228.206237792969 2.282592773438
-136.061782836914 -80.326629638672 -217.760665893555 8.762219429016
-9.957553863525 -74.910079956055 -228.984695434570 2.407112121582
-152.072708129883 -72.647193908691 -210.694290161133 2.283360719681
-10.414428710938 -71.400985717773 -234.182342529297 1.012849569321
-157.732482910156 -77.013412475586 -208.145446777344 6.336648941040
-92.238433837891 -76.220657348633 -284.208923339844 3.006928920746
-148.857925415039 -77.840850830078 -231.457824707031 0.728886306286
-100.169219970703 -76.026695251465 -282.904876708984 3.007006883621
-149.490493774414 -77.521835327148 -230.556655883789 1.058930516243
-65.888328552246 -73.272163391113 -245.536972045898 1.160360574722
-48.896987915039 -81.564758300781 -241.359817504883 3.734719038010
-47.223648071289 -76.860137939453 -77.933334350586 5.954916000366
-82.121299743652 -78.765174865723 -215.678085327148 0.077913507819
-55.003974914551 -76.897552490234 -244.975433349609 1.598612785339
-9.000721931458 -70.392715454102 -260.055053710938 2.646831750870
-14.884632110596 -74.719535827637 -251.101119995117 3.045691251755
-20.332521438599 -75.744003295898 -254.894790649414 6.434183120728
116.107833862305 -72.429397583008 -119.126991271973 2.070675611496
30.787988662720 -66.572845458984 -31.909061431885 2.589695215225
-149.528564453125 -70.956352233887 -263.142944335938 2.884903669357
-142.970458984375 -69.798072814941 -256.861511230469 1.584015011787
-84.817733764648 -69.289878845215 -46.610683441162 4.620528221130
-18.596170425415 -71.670387268066 -271.938934326172 4.918912887573
26.412580490112 -60.990894317627 -25.404314041138 1.679757952690
-137.624053955078 -75.702545166016 -283.013153076172 4.180661678314
-155.133636474609 -79.891204833984 -272.921478271484 2.270688056946
35.657749176025 -76.579040527344 -13.378473281860 4.504636287689
25.508214950562 -70.993247985840 -18.258100509644 1.712238550186
3.615731000900 -81.079475402832 -286.443176269531 3.889208078384
-114.354995727539 -72.871437072754 -227.283370971680 1.706231474876
-83.916259765625 -75.198844909668 -252.439743041992 2.577111244202
-141.687927246094 -80.666618347168 -200.782714843750 1.509618639946
-62.869152069092 -77.561553955078 -285.395721435547 2.390942811966
-125.716972351074 -76.858543395996 -225.228729248047 2.556970119476
-156.305404663086 -76.589958190918 -190.098770141602 6.776926040649
-71.698890686035 -74.486801147461 -283.903137207031 2.155094861984
-7.495366096497 -66.664085388184 -56.303134918213 4.748330593109
-125.379096984863 -75.332305908203 -246.305664062500 7.596628665924
-147.968338012695 -75.509986877441 -296.143066406250 1.065376043320
-155.235061645508 -77.273017883301 -294.232788085938 2.966713428497
-154.548660278320 -78.449645996094 -280.156341552734 4.114529132843
-134.024719238281 -68.032752990723 -254.712432861328 0.845919549465
-159.162017822266 -69.681488037109 -278.959991455078 2.926562786102
100.069274902344 -69.867393493652 -68.407768249512 3.752278804779
-4.079157829285 -78.160079956055 -294.598846435547 3.542258024216
73.314002990723 -74.658813476563 -103.743568420410 4.602579116821
76.314697265625 -70.398345947266 -108.760467529297 4.375372409821
-154.510452270508 -76.685798645020 -303.410705566406 1.959454059601
69.372589111328 -63.195621490479 -69.913154602051 2.347394466400
-1.402240037918 -77.015060424805 -169.401275634766 1.229587793350
-158.348251342773 -76.850738525391 -309.439117431641 4.392258644104
-160.841659545898 -72.460693359375 -304.440307617188 4.774201869965
87.784172058105 -73.942741394043 -209.825286865234 2.208945035934
-68.481567382813 -81.095611572266 -59.155204772949 4.253451347351
-2.836354970932 -70.163825988770 -239.672714233398 1.967690467834
-34.554683685303 -75.022590637207 -55.708587646484 2.795566320419
-85.119239807129 -84.357162475586 -73.271934509277 6.450752258301
71.508689880371 -78.109130859375 -93.078430175781 3.909491539001
-138.334701538086 -72.852699279785 -246.835403442383 6.312122821808
-30.212514877319 -72.543762207031 -78.137901306152 1.906403422356
26.389940261841 -77.117233276367 -18.746467590332 4.405645370483
31.736831665039 -73.629096984863 -11.091146469116 3.400884151459
75.858680725098 -75.435791015625 -85.813194274902 1.469848275185
66.850860595703 -66.080543518066 -72.851562500000 1.957777857780
-5.988269805908 -66.770713806152 -274.331390380859 1.730083942413
91.396125793457 -66.122520446777 -65.568214416504 2.980238199234
-82.536460876465 -80.896171569824 -95.674514770508 2.604012966156
15.934285163879 -73.404830932617 -139.880142211914 7.838388442993
-92.955749511719 -81.669853210449 -99.500625610352 5.531655788422
-83.756660461426 -81.668357849121 -102.045669555664 3.342085123062
106.233734130859 -68.626121520996 -172.441116333008 1.872856497765
-97.032249450684 -78.276466369629 -107.207054138184 6.084526538849
-94.950309753418 -72.854240417480 -116.537887573242 3.098364353180
8.800711631775 -72.088386535645 -189.834945678711 3.354489803314
111.712364196777 -78.421661376953 -114.649314880371 5.312530517578
112.649276733398 -78.866302490234 -125.653526306152 3.074816942215
-17.937099456787 -70.099411010742 -249.042465209961 2.466049194336
-96.740348815918 -62.857273101807 -61.091835021973 2.336336135864
111.239425659180 -78.951965332031 -133.888473510742 2.255882740021
9.377433776855 -76.778503417969 -199.697357177734 2.020790576935
-52.984493255615 -77.391899108887 -130.022415161133 4.283336162567
-46.294124603271 -73.511009216309 -138.299011230469 1.366761922836
109.546043395996 -77.517189025879 -147.394378662109 2.478328943253
-51.731887817383 -78.010063171387 -138.421966552734 1.846815109253
-0.895959973335 -60.485183715820 -283.453979492188 3.826655387878
-18.827438354492 -76.426383972168 -282.160156250000 5.491582393646
16.460897445679 -71.707374572754 -249.936904907227 3.069585323334
-96.646697998047 -62.525478363037 -106.140609741211 2.042177438736
-23.072572708130 -78.017730712891 -285.941131591797 1.060639500618
116.636650085449 -75.382827758789 -158.133804321289 0.868538498878
17.166776657104 -70.336387634277 -170.525238037109 1.274111509323
91.195549011230 -76.616401672363 -200.829940795898 4.166182994843
-125.641593933105 -75.537658691406 -250.654510498047 3.383308410645
-51.532012939453 -79.649162292480 -182.618301391602 1.603047251701
98.060981750488 -77.590591430664 -190.107086181641 3.743651151657
-48.707221984863 -72.682075500488 -154.401153564453 0.424696058035
-22.519227981567 -73.190704345703 -194.766662597656 2.287567377090
-45.548759460449 -72.208183288574 -148.151809692383 1.626132965088
2.101994037628 -55.628520965576 -241.176605224609 1.494380235672
92.855102539063 -78.132896423340 -200.223922729492 4.439834594727
-81.325073242188 -58.206604003906 -118.736305236816 1.554183721542
-76.545211791992 -79.367378234863 -287.929931640625 2.190329790115
-147.666320800781 -70.593551635742 -206.226074218750 1.419867634773
-150.124374389648 -79.796562194824 -192.628509521484 1.097753524780
-156.551040649414 -69.847099304199 -189.074188232422 4.074867725372
-151.387313842773 -61.185375213623 -206.418395996094 0.809546172619
-137.713455200195 -75.826187133789 -195.300643920898 2.080864906311
103.606140136719 -75.925895690918 -202.363861083984 3.455246210098
-14.115443229675 -74.266990661621 -216.409301757813 2.329938411713
-43.633697509766 -74.342498779297 -159.823226928711 3.329442262650
-53.310523986816 -75.437637329102 -154.024215698242 3.057597875595
-19.314619064331 -73.933486938477 -187.049407958984 1.501516222954
-83.914840698242 -75.165336608887 -117.352188110352 4.018986701965
-54.358070373535 -68.248497009277 -145.309097290039 1.475305914879
-72.069030761719 -75.089630126953 -126.311431884766 6.047392368317
-94.672401428223 -79.742477416992 -245.178237915039 9.297071456909
13.897260665894 -73.223648071289 -216.578689575195 1.669712424278
-7.745145797729 -76.774787902832 -218.401336669922 2.515420436859
-74.109458923340 -66.713836669922 -142.014343261719 0.804734170437
-7.708907127380 -70.060218811035 -217.928466796875 2.006386280060
-49.866542816162 -71.152854919434 -121.343841552734 7.662159919739
-54.854114532471 -70.287796020508 -119.136413574219 4.907393932343
13.715592384338 -78.568870544434 -206.374862670898 2.755117416382
-158.379409790039 -77.203880310059 -221.913223266602 5.444916725159
-153.951232910156 -76.444450378418 -222.863601684570 3.049336910248
-161.147857666016 -72.850761413574 -245.461883544922 2.179533958435
-85.970695495605 -76.034164428711 -282.485687255859 4.491569042206
-148.713882446289 -83.239692687988 -226.469680786133 0.786335647106
-129.191986083984 -65.758682250977 -187.819030761719 7.144265651703
-10.973809242249 -70.566818237305 -234.718750000000 1.493112444878
-6.148876190186 -76.008476257324 -232.548553466797 1.279213547707
-0.787383973598 -80.031646728516 -230.070693969727 2.624107599258
-30.826416015625 -68.532157897949 -44.922782897949 3.778406620026
-60.969921112061 -65.822929382324 -123.530570983887 1.574720621109
-18.820262908936 -71.479576110840 -234.955307006836 2.992704629898
-41.328552246094 -73.902168273926 -232.900863647461 8.416853904724
-18.565601348877 -74.376586914063 -242.285308837891 1.883857488632
-21.945405960083 -75.248527526855 -267.583740234375 7.983304500580
-80.813308715820 -75.017341613770 -283.721221923828 2.379631280899
-119.235275268555 -73.403869628906 -195.113876342773 2.512583255768
-158.872039794922 -75.190437316895 -229.086364746094 3.170598030090
-157.132400512695 -75.157531738281 -228.411376953125 3.322834968567
-145.828140258789 -70.842781066895 -228.617309570313 2.063963174820
-81.085128784180 -74.075935363770 -284.527587890625 2.174936056137
-3.649507045746 -72.801651000977 -230.542312622070 0.714134752750
-155.434768676758 -76.167884826660 -207.380996704102 4.308386802673
-157.871368408203 -70.279319763184 -212.776519775391 1.957103013992
-148.437011718750 -66.682884216309 -213.273040771484 1.937925577164
-91.789634704590 -75.026893615723 -282.111236572266 4.947354793549
-61.813365936279 -66.947021484375 -128.808135986328 1.080371975899
-152.936859130859 -80.656524658203 -220.338500976563 3.969662427902
-83.159202575684 -77.894485473633 -280.004608154297 5.847279548645
-107.394256591797 -71.440345764160 -195.868026733398 2.940430641174
90.154464721680 -73.088417053223 -201.824279785156 3.306378364563
-56.799629211426 -76.880500793457 -43.341503143311 7.504296779633
20.807167053223 -58.715923309326 -243.193267822266 1.395183324814
24.848758697510 -75.688285827637 -259.026611328125 2.808714628220
-36.965373992920 -71.218452453613 -50.225524902344 1.341920137405
-42.640224456787 -78.471878051758 -49.614646911621 4.638457775116
86.279075622559 -78.296653747559 -69.788108825684 4.122890472412
57.090469360352 -76.484222412109 -102.650138854980 2.269924640656
-71.878341674805 -66.505050659180 -96.899940490723 2.361340284348
78.369087219238 -78.950851440430 -76.508132934570 4.029236793518
102.460464477539 -76.076972961426 -84.943397521973 3.954594612122
-77.537605285645 -62.259346008301 -44.087802886963 1.891241312027
102.525154113770 -73.146324157715 -89.050834655762 2.826985836029
66.106918334961 -74.688064575195 -97.655288696289 4.906383991241
73.648735046387 -82.891120910645 -95.538536071777 7.512980461121
67.851448059082 -75.478210449219 -88.723098754883 3.654088735580
4.057594776154 -69.655838012695 -292.269805908203 0.995226740837
70.109977722168 -69.695526123047 -76.004089355469 2.326993942261
5.036231040955 -64.562911987305 -287.767852783203 4.217670440674
76.281982421875 -71.874038696289 -97.226875305176 2.641288518906
21.730400085449 -70.907943725586 -168.510787963867 2.628133535385
-167.632919311523 -74.907424926758 -264.455596923828 1.381662487984
9.140110969543 -76.581695556641 -149.314285278320 5.635616302490
-66.892898559570 -80.827751159668 -97.269035339355 2.773388147354
24.442604064941 -67.947410583496 -168.529403686523 1.173385143280
-160.731094360352 -80.061614990234 -268.786560058594 5.302987575531
65.490768432617 -74.963844299316 -235.155166625977 2.373693227768
67.354797363281 -74.552375793457 -74.262580871582 4.723368167877
92.015365600586 -78.497718811035 -99.417778015137 3.891091585159
41.235137939453 -74.830535888672 -38.004283905029 3.390586376190
109.022537231445 -77.559524536133 -105.504570007324 2.137993335724
111.611381530762 -79.463378906250 -117.058990478516 4.219518661499
33.330535888672 -72.625862121582 -21.393850326538 4.244524955750
-56.919273376465 -70.668617248535 -139.341140747070 1.609613180161
116.767448425293 -76.001762390137 -143.312698364258 2.306504726410
-14.896864891052 -74.254570007324 -236.810714721680 1.635888576508
-102.927909851074 -70.214469909668 -156.243515014648 3.523905277252
-44.443397521973 -77.485374450684 -137.425338745117 2.929177761078
-104.076141357422 -72.563056945801 -282.847625732422 2.730323314667
-99.459320068359 -67.490028381348 -284.508483886719 3.710267543793
-150.406890869141 -60.553714752197 -236.774612426758 1.600859522820
-43.980960845947 -76.851799011230 -145.709686279297 2.827379465103
107.950828552246 -71.758338928223 -149.606201171875 2.623931646347
-59.158542633057 -76.084190368652 -139.230575561523 2.438105344772
106.181030273438 -66.419868469238 -99.523124694824 1.630800127983
46.670391082764 -66.755828857422 -31.220674514771 1.810206055641
109.953193664551 -80.749000549316 -148.928497314453 4.166455745697
38.103282928467 -77.364273071289 -165.084533691406 5.393313407898
-3.270555973053 -70.757469177246 -240.173233032227 1.889183759689
-28.945774078369 -75.179641723633 -208.416046142578 1.400894880295
-45.342933654785 -73.542266845703 -153.360748291016 2.766620159149
107.677597045898 -81.962249755859 -160.849731445313 6.055481433868
-44.879787445068 -73.923385620117 -152.940277099609 2.885552883148
-59.455986022949 -72.818473815918 -173.570022583008 1.782288908958
-70.218780517578 -72.983978271484 -161.296035766602 1.906307578087
111.885795593262 -76.054290771484 -172.139785766602 1.505106329918
-35.016128540039 -78.714317321777 -166.827423095703 1.933435201645
-40.177394866943 -72.308601379395 -164.939071655273 2.293025016785
-31.112234115601 -76.603202819824 -169.977844238281 1.813746690750
-30.926702499390 -70.207191467285 -174.439819335938 1.721758008003
-38.269374847412 -74.211822509766 -168.199157714844 3.099816560745
105.383941650391 -75.985404968262 -177.746505737305 2.614272832870
-78.988708496094 -67.417274475098 -111.108322143555 1.551798939705
44.583713531494 -68.012626647949 -248.901611328125 1.195554614067
-38.494419097900 -67.440872192383 -289.143432617188 4.690912723541
-145.447174072266 -79.914260864258 -175.368881225586 6.274899482727
-147.736648559570 -69.416931152344 -181.052978515625 1.969289541245
-153.835113525391 -69.996185302734 -178.086776733398 1.483780264854
23.400691986084 -61.127052307129 -256.739898681641 2.883966684341
14.687653541565 -72.003837585449 -255.681625366211 6.637638092041
-55.795417785645 -81.755699157715 -178.488311767578 2.974881649017
-151.356704711914 -71.089935302734 -240.009963989258 3.932074785233
-117.358901977539 -75.940330505371 -194.345108032227 3.903617382050
23.112983703613 -76.894874572754 -181.676086425781 0.300078094006
-35.592510223389 -71.304924011230 -179.465942382813 1.668761491776
-15.662906646729 -70.151626586914 -224.494689941406 2.277028083801
19.124612808228 -74.013168334961 -187.097732543945 2.864059925079
64.437606811523 -67.728820800781 -85.752845764160 2.750133037567
-42.885803222656 -76.020561218262 -45.953109741211 6.049124240875
15.940134048462 -74.669212341309 -258.054931640625 4.894808769226
93.779144287109 -79.876251220703 -194.084960937500 7.159541606903
-55.571887969971 -69.227874755859 -283.171661376953 4.060074329376
-140.640899658203 -72.708694458008 -194.140991210938 2.203258752823
-150.342315673828 -69.804130554199 -191.946701049805 2.882784843445
-154.149063110352 -64.025352478027 -189.303390502930 3.155246019363
-98.406898498535 -81.694976806641 -214.489151000977 7.387930393219
-36.321472167969 -77.195526123047 -199.877227783203 2.272938013077
-63.377410888672 -74.265907287598 -43.406021118164 5.789420127869
89.375152587891 -71.990173339844 -206.740570068359 3.400730133057
-31.189188003540 -82.193252563477 -211.263626098633 1.375628113747
-60.685462951660 -73.583404541016 -164.205673217773 2.484866857529
-21.611143112183 -79.976829528809 -200.261154174805 0.905689358711
7.035277843475 -79.131271362305 -238.025619506836 2.068798303604
59.353538513184 -71.097351074219 -244.720397949219 1.418221116066
97.567726135254 -71.225044250488 -210.642547607422 1.701735854149
9.202615737915 -76.784507751465 -208.537704467773 2.006257772446
-57.776561737061 -73.280372619629 -164.885742187500 2.144995689392
-33.103954315186 -75.441482543945 -207.865707397461 1.446811079979
-26.399148941040 -74.062210083008 -205.216842651367 3.350724935532
6.522170066833 -66.028808593750 -238.364181518555 1.575356602669
50.836345672607 -76.764045715332 -242.836059570313 5.178911685944
-33.848636627197 -65.603416442871 -80.752517700195 3.204231739044
13.569640159607 -73.859863281250 -277.612182617188 4.089992523193
17.778762817383 -71.265335083008 -275.185333251953 2.936657905579
87.945350646973 -74.359169006348 -211.097808837891 1.657689332962
49.973800659180 -73.999267578125 -252.621719360352 3.245167255402
84.725173950195 -76.868682861328 -216.635269165039 1.262561440468
16.587226867676 -74.959808349609 -179.831436157227 1.107751011848
-18.213987350464 -73.771118164063 -216.115585327148 2.779786825180
-33.830207824707 -76.204887390137 -217.293136596680 3.559199094772
-153.109329223633 -78.881675720215 -215.384811401367 3.619269132614
-153.474258422852 -67.166534423828 -215.545516967773 1.795926094055
77.764595031738 -78.755081176758 -220.796569824219 4.352007865906
100.290000915527 -58.806594848633 -104.826889038086 2.253393888474
69.161819458008 -72.843704223633 -226.084945678711 4.144338607788
-71.978424072266 -75.512527465820 -143.672668457031 0.707163095474
-155.164154052734 -73.236694335938 -225.625396728516 1.333093285561
-11.753419876099 -72.859413146973 -214.834045410156 3.483433485031
-155.116317749023 -71.008911132813 -227.525695800781 1.211173653603
-10.430956840515 -76.350372314453 -213.048171997070 1.402927517891
-144.318008422852 -62.491630554199 -223.002822875977 1.037784934044
-16.946128845215 -72.486450195313 -225.520797729492 1.735735893250
50.981571197510 -75.471015930176 -27.958349227905 4.449283599854
-112.340652465820 -75.582366943359 -190.615066528320 5.114123821259
-146.627410888672 -66.982658386230 -223.366058349609 1.635424375534
-156.814926147461 -69.534751892090 -224.518142700195 1.375006198883
-19.644586563110 -71.958702087402 -234.502014160156 3.463734388351
-12.644569396973 -64.422027587891 -200.712661743164 3.566106081009
-14.614414215088 -67.249092102051 -202.612564086914 2.470446109772
11.942671775818 -73.764343261719 -237.059860229492 1.412802577019
-43.645290374756 -69.110397338867 -131.838592529297 4.825387477875
-36.897373199463 -73.111656188965 -236.234664916992 3.997086524963
64.012405395508 -71.152114868164 -241.414596557617 1.565418601036
-1.884467959404 -67.300498962402 -292.138000488281 1.184002757072
0.857654988766 -59.781051635742 -290.821044921875 2.392565965652
-109.991828918457 -60.777770996094 -177.321563720703 2.247535467148
-57.801292419434 -76.822906494141 -242.895339965820 2.227185010910
-50.408363342285 -73.047988891602 -48.718494415283 2.825979232788
-87.138954162598 -74.754463195801 -244.835083007813 5.318491458893
-105.408164978027 -71.743354797363 -223.202453613281 1.341830372810
-14.608137130737 -75.801979064941 -249.395706176758 3.054898738861
-100.151382446289 -75.488746643066 -253.490066528320 2.943018674850
-25.521579742432 -77.955551147461 -255.260162353516 11.358966827393
-127.007781982422 -79.593009948730 -254.282546997070 4.661599159241
-128.432800292969 -70.143905639648 -254.578048706055 1.980236053467
-133.012924194336 -75.440666198730 -260.749450683594 1.937509775162
19.231243133545 -78.159439086914 -265.319915771484 1.877412438393
-16.586700439453 -76.050880432129 -266.284820556641 3.318564653397
-18.941425323486 -64.459892272949 -269.762481689453 6.479650974274
27.291772842407 -61.058414459229 -33.007286071777 1.198109269142
-172.926773071289 -84.305038452148 -276.390960693359 11.452727317810
66.890228271484 -74.563339233398 -241.223648071289 0.697266578674
-176.219848632813 -74.729263305664 -274.614776611328 9.132933616638
-151.522262573242 -71.392349243164 -273.993225097656 1.614094018936
-159.265548706055 -78.914260864258 -272.962921142578 4.217815399170
-149.718841552734 -70.296844482422 -274.882263183594 3.497621536255
-1.692242026329 -75.682945251465 -166.087295532227 1.886397242546
-162.559265136719 -76.911781311035 -206.482849121094 5.940711021423
-146.736648559570 -72.751434326172 -191.268524169922 1.488646864891
-56.190799713135 -71.202117919922 -286.394073486328 1.188620924950
25.196535110474 -74.151084899902 -134.073486328125 2.806006193161
-50.989929199219 -69.303512573242 -284.775299072266 3.837830066681
-118.620529174805 -68.683029174805 -226.186523437500 2.965365171432
-150.778991699219 -61.049362182617 -193.927322387695 1.370831608772
-152.235122680664 -61.547664642334 -191.552001953125 3.117389202118
-87.080329895020 -77.408096313477 -108.917137145996 2.695321798325
-26.708980560303 -68.823211669922 -285.112182617188 4.609482765198
-21.421552658081 -73.280334472656 -280.576110839844 6.845583438873
-102.449234008789 -76.120292663574 -282.773620605469 3.550435304642
-113.570579528809 -66.591438293457 -191.925582885742 1.054426312447
81.474296569824 -69.029632568359 -223.243392944336 2.330745220184
15.305633544922 -77.077728271484 -289.653228759766 1.336878657341
15.501643180847 -72.120742797852 -280.124420166016 3.208466053009
-146.065765380859 -74.148826599121 -198.046859741211 1.895639896393
-64.456283569336 -76.623260498047 -286.232604980469 2.362947463989
-142.518890380859 -72.728683471680 -197.710617065430 2.001356601715
-156.267120361328 -73.156486511230 -196.348068237305 2.455162286758
-154.488342285156 -62.947391510010 -197.251922607422 0.503200232983
-143.793457031250 -71.845481872559 -239.405792236328 2.435282230377
-104.731903076172 -76.292411804199 -290.051269531250 3.239805698395
-105.843551635742 -75.995552062988 -281.195892333984 6.036642551422
-46.315395355225 -74.104911804199 -140.560806274414 1.245371341705
104.775260925293 -75.311195373535 -176.863708496094 1.722591996193
-28.981708526611 -70.384391784668 -288.824096679688 1.512374281883
-5.168787002563 -77.491012573242 -294.470489501953 3.764275312424
67.956420898438 -67.639839172363 -241.607421875000 2.283143043518
30.958911895752 -64.591033935547 -12.202915191650 1.456801295280
31.606439590454 -60.777736663818 -17.033447265625 1.501099944115
-28.198383331299 -75.861709594727 -49.078216552734 6.649208068848
-135.309005737305 -79.435386657715 -224.047073364258 3.704743623734
-20.483747482300 -77.711784362793 -66.099571228027 2.395901203156
81.585281372070 -73.216484069824 -64.530158996582 2.979395627975
82.572158813477 -68.033401489258 -65.726898193359 2.842529773712
63.908248901367 -79.412925720215 -237.468139648438 5.358789443970
-88.672912597656 -76.241271972656 -62.949100494385 5.020197868347
69.381446838379 -74.781715393066 -88.630004882813 2.341196060181
82.241340637207 -73.007827758789 -70.713844299316 1.637432694435
79.990005493164 -75.649284362793 -76.608489990234 0.670020759106
67.001411437988 -77.649520874023 -72.596855163574 6.779352664948
41.612087249756 -75.407066345215 -102.945182800293 2.663341283798
98.295150756836 -74.076728820801 -78.188621520996 1.276818394661
29.383554458618 -65.349067687988 -134.021575927734 1.786718010902
28.307853698730 -60.974666595459 -135.416839599609 1.781792521477
-138.276229858398 -81.742103576660 -248.066589355469 7.214907646179
-41.012565612793 -74.154808044434 -78.075202941895 2.206063508987
-66.455429077148 -75.832015991211 -88.051643371582 5.654035091400
-68.718696594238 -74.610130310059 -87.230323791504 7.094762802124
54.766483306885 -75.892837524414 -96.532516479492 0.790144026279
95.840187072754 -73.298103332520 -67.612792968750 3.641910552979
99.689292907715 -74.697288513184 -76.036231994629 1.992235779762
24.115722656250 -76.294006347656 -143.191635131836 2.143871545792
65.363059997559 -70.038330078125 -232.857955932617 2.648243904114
4.739513874054 -72.047584533691 -294.918975830078 2.342839717865
66.688674926758 -62.927684783936 -74.656715393066 2.595232725143
-2.094633102417 -66.704818725586 -286.251129150391 2.348414659500
91.960777282715 -74.949951171875 -103.528045654297 2.892806529999
-89.335708618164 -73.987770080566 -99.797653198242 3.683655500412
4.375809192657 -61.781116485596 -264.070861816406 2.487236022949
54.570114135742 -72.209083557129 -102.909660339355 0.850015223026
-60.329010009766 -65.452987670898 -82.688461303711 2.387184143066
93.294815063477 -77.405586242676 -101.692016601563 3.844208240509
41.684246063232 -72.776611328125 -34.664440155029 1.621689319611
110.286666870117 -77.233711242676 -108.222679138184 4.577802658081
53.869720458984 -71.835884094238 -19.149293899536 4.694947242737
-17.593839645386 -70.589637756348 -228.149032592773 2.109191417694
26.457176208496 -69.493011474609 -190.342086791992 3.239525556564
-98.754943847656 -74.487876892090 -104.180335998535 4.941668033600
38.325099945068 -70.651100158691 -34.701389312744 1.306223630905
111.378776550293 -75.677543640137 -110.147407531738 2.739739179611
-60.546112060547 -70.239120483398 -134.328704833984 2.335293769836
105.739051818848 -76.572807312012 -110.077033996582 2.465391635895
34.315326690674 -75.863601684570 -32.716514587402 5.311446666718
105.056648254395 -73.301750183105 -117.868499755859 2.680786848068
-50.163055419922 -69.933624267578 -83.426498413086 2.320236682892
108.672706604004 -75.076843261719 -126.014335632324 1.286717653275
111.852302551270 -76.538825988770 -123.301856994629 2.872943878174
108.687263488770 -80.578788757324 -130.506774902344 5.306160449982
109.639404296875 -76.051986694336 -131.897918701172 2.490094661713
-20.852411270142 -73.646842956543 -73.541404724121 2.178551435471
37.523132324219 -75.455345153809 -135.228790283203 2.308747291565
-20.225528717041 -71.845497131348 -71.286109924316 1.398644924164
-77.525245666504 -64.811126708984 -115.400810241699 0.805703163147
31.404953002930 -74.785583496094 -131.697875976563 1.665442109108
-166.662612915039 -78.992767333984 -217.433807373047 6.123556137085
5.901607036591 -73.721778869629 -197.220886230469 3.862766981125
-53.973659515381 -72.920005798340 -129.786697387695 2.639494657516
7.590556144714 -80.440620422363 -221.854598999023 1.064910292625
-78.359695434570 -67.913139343262 -134.881698608398 1.824830055237
-45.962100982666 -75.647064208984 -141.841690063477 1.399345040321
6.736536026001 -69.287826538086 -225.956268310547 1.304319500923
-33.093276977539 -79.329040527344 -195.816101074219 3.986922502518
29.479707717896 -67.073966979980 -251.594680786133 5.141332626343
-26.399621963501 -74.016082763672 -192.863815307617 2.135110855103
-74.241035461426 -72.501083374023 -148.903945922852 2.145379304886
-0.149232000113 -68.735534667969 -220.230697631836 2.294938564301
28.183214187622 -76.008445739746 -156.086807250977 2.977149248123
23.006296157837 -70.385581970215 -152.078994750977 1.464824795723
28.206733703613 -67.509452819824 -159.393600463867 2.564099311829
-14.567237854004 -73.702903747559 -206.878036499023 3.746478796005
-66.518768310547 -74.068222045898 -151.432067871094 1.407204031944
-36.826316833496 -73.854553222656 -154.554016113281 1.427933216095
110.287582397461 -73.707687377930 -157.637573242188 1.245233178139
-50.054420471191 -71.218307495117 -151.678771972656 1.499618530273
-46.990474700928 -62.833423614502 -150.963256835938 5.391791820526
-79.404182434082 -71.708526611328 -116.867561340332 0.938476324081
17.030195236206 -71.300689697266 -244.693695068359 1.354099750519
99.206085205078 -73.395217895508 -190.714553833008 0.693937063217
-17.941833496094 -72.803230285645 -209.530899047852 1.567327737808
106.177330017090 -80.014602661133 -187.317031860352 3.464899301529
-72.579528808594 -71.748847961426 -155.343185424805 0.544864237309
-22.535963058472 -71.845230102539 -212.578292846680 2.828381061554
30.480436325073 -76.915481567383 -153.624191284180 1.642416715622
20.234550476074 -79.328010559082 -168.000473022461 2.970400094986
13.175603866577 -72.050254821777 -152.591537475586 1.035387516022
-66.860603332520 -82.245384216309 -159.361495971680 3.726196765900
-66.743461608887 -70.889633178711 -162.254333496094 2.896049261093
-14.205210685730 -79.742950439453 -209.147247314453 1.831912398338
16.436393737793 -71.298988342285 -244.448348999023 1.891714334488
-41.909851074219 -75.607414245605 -161.421203613281 2.697194814682
16.988494873047 -64.828948974609 -178.745605468750 3.357776165009
-0.019279999658 -81.797470092773 -163.539916992188 1.586762547493
-23.039819717407 -80.835098266602 -177.792770385742 2.711690902710
-26.345888137817 -69.569595336914 -163.066955566406 6.493636608124
-36.256397247314 -76.779251098633 -168.833282470703 2.023739337921
-33.008197784424 -73.069007873535 -168.501022338867 2.907887458801
12.328720092773 -76.087928771973 -152.861251831055 3.300210952759
0.172486007214 -72.970726013184 -163.072647094727 1.144720077515
14.813266754150 -73.144973754883 -149.415420532227 2.708384275436
108.054946899414 -75.867149353027 -175.660064697266 1.523884057999
106.699813842773 -71.769630432129 -170.788543701172 2.090007066727
111.218940734863 -72.639678955078 -170.312332153320 1.066974759102
44.635353088379 -67.890686035156 -253.102111816406 1.609531521797
12.649501800537 -69.286918640137 -213.263336181641 1.657861232758
-30.054044723511 -73.321769714355 -180.051513671875 2.622700214386
-37.984683990479 -78.680267333984 -170.950241088867 1.377166986465
-29.437992095947 -68.820747375488 -184.290649414063 1.388164639473
-40.314037322998 -70.332389831543 -162.313980102539 2.804900169373
20.708755493164 -67.567222595215 -171.077697753906 2.624106645584
16.726314544678 -70.256523132324 -163.379760742188 3.095305681229
112.878349304199 -74.243659973145 -174.927688598633 0.575384020805
-36.349754333496 -71.271583557129 -184.817413330078 2.991197586060
-39.883602142334 -79.010932922363 -175.533538818359 2.604683876038
-42.217781066895 -68.352890014648 -166.679519653320 3.221237897873
-67.375564575195 -73.661140441895 -140.170700073242 2.376520633698
-33.748268127441 -64.649818420410 -176.534011840820 4.244826316833
-41.382438659668 -76.484619140625 -283.047332763672 3.740047454834
-35.443569183350 -77.843627929688 -280.763427734375 6.403348445892
-144.551803588867 -77.092758178711 -171.535217285156 5.603681087494
-138.994537353516 -72.181358337402 -170.343780517578 6.901296138763
-155.207275390625 -69.769844055176 -171.120285034180 5.996359825134
-154.098876953125 -66.309280395508 -172.330459594727 4.556016445160
-79.408988952637 -70.016113281250 -97.736488342285 2.124460697174
-151.481323242188 -62.731410980225 -163.750167846680 11.552843093872
0.817773997784 -70.118270874023 -259.824890136719 4.952999114990
-23.023488998413 -73.920860290527 -183.250015258789 1.848530173302
-45.623760223389 -70.863327026367 -160.396362304688 2.314740896225
-30.062053680420 -77.519073486328 -181.296279907227 0.895246982574
39.104900360107 -72.762573242188 -255.138702392578 2.721945762634
9.004678726196 -75.796012878418 -215.862167358398 2.311289072037
-74.320655822754 -72.757682800293 -129.221557617188 2.730632066727
-82.315124511719 -74.387695312500 -133.909774780273 3.948680877686
-33.120788574219 -73.486175537109 -186.370742797852 1.574974417686
-43.968124389648 -74.106864929199 -170.926773071289 2.343607425690
-146.313613891602 -77.153778076172 -176.155029296875 4.026221752167
-152.636871337891 -64.378120422363 -176.098571777344 0.576602160931
-144.112030029297 -65.449256896973 -176.087890625000 1.958801507950
-13.228549957275 -73.287132263184 -59.190132141113 5.413689613342
47.937667846680 -71.694747924805 -251.288314819336 1.637256860733
-32.426025390625 -75.450607299805 -185.125671386719 0.987994313240
-32.262317657471 -76.176528930664 -180.698074340820 2.885369539261
95.998291015625 -74.756805419922 -192.477813720703 3.238107442856
-52.093616485596 -76.340209960938 -134.388778686523 1.960649132729
3.961683988571 -71.211006164551 -189.049179077148 8.275426864624
26.691959381104 -75.173515319824 -183.723678588867 2.022262334824
101.883155822754 -72.079872131348 -198.032424926758 1.594886898994
-133.638854980469 -76.200767517090 -191.473632812500 4.607124328613
-126.528297424316 -77.140350341797 -194.368026733398 3.619974374771
-155.734970092773 -68.424102783203 -215.921905517578 2.730853080750
-106.343315124512 -72.679199218750 -190.677291870117 4.443784236908
-22.902854919434 -75.537467956543 -207.789535522461 3.102782011032
-70.452507019043 -72.550895690918 -167.455963134766 4.002606391907
11.189227104187 -77.305603027344 -242.874237060547 1.838739037514
97.937316894531 -71.056526184082 -205.379348754883 0.760089576244
-66.985534667969 -70.737464904785 -285.187469482422 2.118291139603
-147.469406127930 -75.844116210938 -205.520248413086 1.422310948372
-151.065444946289 -61.759513854980 -199.337951660156 1.643856287003
19.079383850098 -74.998329162598 -212.120971679688 2.094390153885
84.569534301758 -71.046516418457 -218.638824462891 0.746289610863
12.036310195923 -77.942291259766 -206.341903686523 1.673220515251
104.206787109375 -64.989723205566 -83.583038330078 0.799187123775
-68.770462036133 -74.792861938477 -150.850814819336 0.723505139351
-13.230607032776 -76.490158081055 -215.084579467773 1.840213179588
-98.956390380859 -72.427368164063 -210.895599365234 5.966701030731
-143.271057128906 -71.346679687500 -246.583770751953 3.068106889725
-79.524551391602 -67.506088256836 -134.390045166016 1.559673547745
-0.453956007957 -75.952308654785 -224.395324707031 0.982678532600
-26.645875930786 -74.563163757324 -222.366851806641 2.302129030228
-122.365249633789 -73.456939697266 -286.101287841797 2.489455223083
-153.926956176758 -66.708969116211 -256.673156738281 2.359702587128
80.382545471191 -70.137718200684 -228.118164062500 1.958821177483
-26.244579315186 -75.435096740723 -216.520446777344 1.844163060188
10.096882820129 -71.758796691895 -187.683227539063 2.955240011215
-119.483291625977 -66.269683837891 -191.361694335938 5.108901977539
-4.719967842102 -76.922752380371 -223.763320922852 2.243982076645
-8.284914970398 -66.415138244629 -227.108489990234 2.404578447342
80.023826599121 -73.221817016602 -228.350540161133 0.858052194118
-142.256240844727 -68.856674194336 -224.181045532227 1.760018587112
6.830769062042 -71.833702087402 -236.909957885742 2.167292594910
13.771635055542 -75.108879089355 -227.805572509766 3.022568702698
-80.879264831543 -70.938369750977 -282.597442626953 5.566632747650
-144.461196899414 -69.149757385254 -210.682128906250 2.203010320663
-151.420959472656 -67.004791259766 -213.520111083984 1.578393578529
-160.085510253906 -72.032722473145 -228.750015258789 2.273350000381
50.806808471680 -70.516586303711 -17.740135192871 2.783364295959
-144.820983886719 -69.510879516602 -228.794525146484 3.027581691742
-18.886960983276 -75.680603027344 -232.441970825195 3.001258850098
-165.846191406250 -77.353134155273 -230.376571655273 4.135382175446
4.924182891846 -74.528503417969 -215.710250854492 1.251762390137
-95.172790527344 -74.032661437988 -284.596588134766 4.091689586639
-163.496414184570 -78.086334228516 -236.551483154297 4.454321861267
-158.983001708984 -67.051963806152 -230.143600463867 1.012043714523
48.747871398926 -67.983825683594 -13.918339729309 4.042864799500
26.032878875732 -63.141124725342 -140.456207275391 1.890082120895
53.736255645752 -79.245552062988 -242.218460083008 5.647437572479
11.768331527710 -71.651756286621 -203.117752075195 1.993472099304
-58.268459320068 -69.756629943848 -132.064056396484 2.017987966537
-25.724500656128 -68.545097351074 -233.788208007813 7.544795989990
26.251808166504 -72.199493408203 -13.186822891235 2.300946474075
32.802043914795 -70.083160400391 -12.243789672852 2.205432415009
-93.009925842285 -75.108345031738 -69.425163269043 4.330643653870
62.225875854492 -75.308052062988 -239.661346435547 1.590382456779
-154.378067016602 -74.530105590820 -238.807540893555 3.542750120163
-10.141985893250 -78.281845092773 -233.768981933594 3.723469972610
-12.663445472717 -62.216590881348 -238.016937255859 4.616476535797
-23.142436981201 -78.552062988281 -240.926391601563 1.493150234222
-132.759078979492 -68.214996337891 -197.648254394531 1.938342213631
-170.316543579102 -73.948356628418 -226.013336181641 3.956912040710
-165.394195556641 -68.887458801270 -239.770278930664 0.801088988781
1.782042026520 -80.196769714355 -242.005874633789 2.707904100418
-170.573974609375 -74.342941284180 -235.105163574219 4.749691009521
-47.532600402832 -76.509033203125 -286.269531250000 2.151993989944
-144.354476928711 -71.496482849121 -185.149368286133 3.297868013382
-149.133316040039 -64.638755798340 -181.671691894531 2.846491336823
-4.652153015137 -71.572906494141 -239.577621459961 0.741243600845
19.934894561768 -73.323951721191 -242.683074951172 1.881790161133
-8.824721336365 -75.514877319336 -239.729919433594 2.897004127502
-100.430419921875 -71.174697875977 -143.776565551758 6.493759155273
-9.706603050232 -75.425231933594 -240.689285278320 3.266179323196
-145.871398925781 -67.471130371094 -188.404159545898 2.122380733490
-153.975280761719 -69.850967407227 -240.152786254883 1.991050124168
-148.705551147461 -65.630577087402 -237.939224243164 3.424925088882
-152.723602294922 -56.996067047119 -235.247817993164 4.428588390350
-163.709243774414 -72.659889221191 -236.546585083008 1.861838340759
-83.097442626953 -78.819122314453 -243.903793334961 8.037854194641
-62.654857635498 -76.892341613770 -242.412033081055 3.726670265198
-104.787300109863 -68.373817443848 -210.024490356445 9.396087646484
-99.795082092285 -71.594505310059 -253.019943237305 2.249530553818
-14.568666458130 -79.364997863770 -254.320785522461 3.090770006180
-62.930774688721 -79.751029968262 -281.529357910156 6.385908603668
-146.527313232422 -75.323051452637 -192.896469116211 1.521070480347
-143.500457763672 -66.911270141602 -200.806747436523 2.633916139603
-157.805038452148 -67.064300537109 -200.849899291992 2.490123510361
-93.853790283203 -74.267189025879 -246.265457153320 5.996057033539
-86.628959655762 -73.932960510254 -280.903961181641 5.939010620117
-150.894897460938 -67.840698242188 -217.651641845703 3.263735771179
-130.016754150391 -60.221588134766 -198.579925537109 2.338307619095
-102.678627014160 -74.561737060547 -281.250122070313 4.867318153381
-96.618705749512 -70.153549194336 -286.418060302734 2.355449914932
-147.316238403320 -72.672241210938 -232.819778442383 2.578208446503
-117.158073425293 -64.763183593750 -200.056686401367 1.086195826530
-148.651367187500 -62.650470733643 -227.331497192383 1.680215120316
47.907402038574 -75.341934204102 -19.057577133179 2.946057319641
12.670339584351 -77.354148864746 -281.510498046875 1.531955122948
-104.803344726563 -74.442687988281 -163.397949218750 5.706731319427
7.405644893646 -67.994178771973 -285.241363525391 4.717103004456
-88.175239562988 -75.680755615234 -283.323974609375 3.649299144745
-114.858695983887 -67.437667846680 -191.786117553711 1.452068448067
-139.117477416992 -73.522125244141 -215.892944335938 5.901487350464
-153.200073242188 -61.582611083984 -220.714691162109 2.999648571014
-130.354217529297 -63.426116943359 -197.279708862305 0.459197640419
-151.544494628906 -59.912757873535 -213.507171630859 3.371114730835
-148.230239868164 -79.191566467285 -220.937225341797 3.542945384979
-84.643547058105 -75.242675781250 -283.043029785156 3.120224714279
-152.531265258789 -59.800086975098 -215.343627929688 4.662903308868
-141.462219238281 -76.484207153320 -293.159332275391 1.685948848724
-158.520553588867 -64.768760681152 -279.904846191406 5.796688556671
-1.478219032288 -73.860313415527 -286.325103759766 1.524800181389
-1.696820020676 -62.242527008057 -285.745086669922 2.350661754608
102.560554504395 -60.165527343750 -107.107215881348 5.083763122559
70.279571533203 -73.998184204102 -91.816963195801 1.454135417938
-13.991106987000 -72.443695068359 -277.505279541016 2.966101408005
13.850990295410 -77.264701843262 -294.261535644531 1.293293356895
-108.617622375488 -61.959289550781 -162.253616333008 5.242062091827
30.439271926880 -74.988113403320 -17.111627578735 1.931962847710
-64.497055053711 -64.613967895508 -108.254699707031 2.613628864288
23.138700485229 -75.539268493652 -23.744768142700 2.702493429184
-14.207434654236 -71.935142517090 -252.868453979492 0.867541790009
25.529817581177 -74.452056884766 -25.654970169067 2.284292221069
-65.752395629883 -77.806800842285 -44.468803405762 7.219713211060
110.492446899414 -78.844215393066 -119.613235473633 2.739155530930
38.439296722412 -68.522460937500 -34.817245483398 1.438689351082
118.259796142578 -71.819961547852 -122.482940673828 2.675241947174
32.312355041504 -70.235351562500 -25.694725036621 5.290738582611
107.749900817871 -74.847351074219 -125.647781372070 2.185950756073
34.136940002441 -76.436408996582 -36.533657073975 3.436498403549
110.119041442871 -72.369400024414 -114.636856079102 1.584577322006
-33.351985931396 -76.129173278809 -47.027664184570 6.932259559631
0.284823000431 -70.325050354004 -262.329559326172 4.518408298492
-1.146808981895 -68.491294860840 -262.439514160156 2.878885507584
69.149047851563 -67.043212890625 -59.245967864990 4.587658405304
100.299858093262 -73.151245117188 -77.231628417969 1.697122931480
-45.426315307617 -76.287475585938 -78.285629272461 4.280558586121
106.926918029785 -74.392105102539 -92.656883239746 5.337005615234
-56.418453216553 -72.727729797363 -87.840736389160 3.066395998001
-17.126262664795 -78.546409606934 -272.416778564453 5.199805736542
103.648254394531 -72.851722717285 -100.782325744629 2.033334493637
4.319188117981 -69.729965209961 -291.938476562500 1.308867454529
79.896934509277 -75.496658325195 -104.086936950684 4.608585357666
106.210243225098 -76.760971069336 -102.116043090820 2.821550130844
31.925624847412 -67.943809509277 -41.183387756348 1.815918445587
111.063400268555 -70.688354492188 -114.590347290039 0.599558651447
31.745325088501 -73.336914062500 -126.475433349609 3.192348718643
31.777933120728 -76.223526000977 -119.727844238281 1.022427558899
29.176731109619 -74.681854248047 -131.848983764648 0.705122113228
12.484684944153 -75.432342529297 -225.694000244141 3.275127649307
-79.881973266602 -74.059204101563 -125.634681701660 4.124958038330
9.669375419617 -76.414360046387 -217.419509887695 1.886437058449
-104.059707641602 -72.533729553223 -167.268508911133 3.467921495438
-64.498657226563 -78.230484008789 -133.044296264648 8.559257507324
-3.478307008743 -74.409286499023 -220.408447265625 0.840178251266
-74.025772094727 -74.737342834473 -143.200347900391 1.714611530304
31.261760711670 -67.569099426270 -259.468963623047 1.305710554123
-73.327369689941 -75.231719970703 -134.884994506836 3.675557374954
-45.922237396240 -82.093032836914 -138.382598876953 5.824501037598
28.247688293457 -73.991180419922 -141.141159057617 1.226114392281
38.649215698242 -64.416671752930 -254.218215942383 1.537546396255
-11.174093246460 -71.831779479980 -206.145370483398 0.302965015173
-68.707588195801 -79.456047058105 -145.964553833008 4.666899681091
-11.084807395935 -74.894264221191 -209.082962036133 2.413145542145
12.983782768250 -71.485534667969 -150.579345703125 2.720779180527
22.211170196533 -70.182777404785 -165.205688476563 1.075954914093
6.629725933075 -67.224533081055 -148.410614013672 4.520754337311
25.369686126709 -75.315910339355 -172.354507446289 2.458075046539
73.097732543945 -70.004875183105 -89.091514587402 4.476767539978
106.188713073730 -80.615066528320 -165.271057128906 5.268986225128
107.449264526367 -75.886390686035 -167.956192016602 2.067574262619
110.423614501953 -73.062438964844 -174.862838745117 2.009738445282
-47.674461364746 -75.689651489258 -163.399276733398 1.788653254509
-25.829563140869 -68.570877075195 -185.666809082031 1.843444347382
-20.283094406128 -68.103546142578 -188.952697753906 2.842830419540
-45.915290832520 -74.635276794434 -169.471786499023 2.954859495163
-20.225944519043 -69.930282592773 -188.130889892578 1.637477993965
-47.208442687988 -73.363693237305 -161.824584960938 1.232246398926
28.617002487183 -81.813652038574 -169.608398437500 3.036658763885
109.391044616699 -76.682815551758 -181.768676757813 2.232540845871
22.193170547485 -77.624603271484 -168.291336059570 0.979092419147
21.903612136841 -68.144958496094 -186.021911621094 1.417580485344
23.452301025391 -76.195907592773 -179.061660766602 2.788726329803
22.306470870972 -74.761672973633 -175.649291992188 2.569504737854
13.109258651733 -80.648521423340 -176.702499389648 5.788849830627
-155.356750488281 -71.797973632813 -182.313644409180 3.314317464828
-147.679977416992 -69.106689453125 -190.030410766602 3.393109798431
-148.081939697266 -64.353492736816 -182.944641113281 3.329566478729
-154.231582641602 -76.715675354004 -188.627548217773 5.407087326050
-150.377502441406 -72.397491455078 -186.529113769531 0.904181122780
-26.175878524780 -67.274536132813 -74.121154785156 0.827249109745
-151.821411132813 -69.736236572266 -187.450485229492 2.194825649261
-148.011322021484 -61.624221801758 -185.701202392578 2.102967500687
-117.777435302734 -75.680198669434 -225.591171264648 3.344751358032
45.702804565430 -69.379356384277 -29.354827880859 2.722805023193
21.260452270508 -70.523750305176 -193.153778076172 1.111261010170
-138.007949829102 -73.661132812500 -191.683258056641 5.672776222229
-151.793518066406 -70.116714477539 -204.158050537109 1.891615033150
-153.548355102539 -70.955383300781 -199.819625854492 0.917770087719
-140.285995483398 -77.694480895996 -226.968399047852 1.522171854973
-166.471374511719 -72.712394714355 -201.018402099609 1.215914249420
-164.530578613281 -77.431961059570 -204.328948974609 6.391097068787
