-90.646148681641 -76.938766479492 -110.380256652832 1.309854626656
-26.740867614746 -69.194458007813 -285.363800048828 4.214910984039
-21.571727752686 -73.671211242676 -280.712188720703 6.537699699402
-102.555725097656 -76.027099609375 -284.510284423828 2.384431123734
-115.418388366699 -66.186111450195 -193.925765991211 1.701365947723
80.190818786621 -69.888107299805 -221.359481811523 2.257705450058
15.304431915283 -77.715095520020 -289.048675537109 1.043217420578
15.341643333435 -72.733688354492 -279.530670166016 3.482285022736
-147.831268310547 -73.563354492188 -200.671340942383 1.244875192642
-64.505409240723 -76.769111633301 -287.213165283203 2.724102258682
-144.283157348633 -72.163787841797 -200.268432617188 2.341268777847
-158.058074951172 -72.504776000977 -199.177963256836 3.988206863403
-156.199493408203 -62.309101104736 -200.072631835938 1.570852994919
-144.725112915039 -71.385383605957 -241.982833862305 1.009802222252
-104.694610595703 -76.205039978027 -291.831329345703 3.285600185394
-105.979843139648 -75.877571105957 -283.000549316406 4.904461860657
-49.242233276367 -73.967514038086 -141.216934204102 2.573807477951
102.528587341309 -76.185302734375 -174.510391235352 3.836806535721
-28.949010848999 -70.751869201660 -289.116027832031 1.342848539352
-5.072564125061 -78.017555236816 -294.270324707031 3.427207231522
67.048545837402 -68.466156005859 -239.991744995117 0.906379580498
25.527702331543 -64.574806213379 -11.375429153442 3.948488950729
26.294153213501 -60.778541564941 -16.201969146729 2.259144783020
-32.954246520996 -75.587013244629 -49.388538360596 5.918702602386
-136.593399047852 -78.984985351563 -226.439224243164 1.527424693108
-24.914962768555 -77.529609680176 -66.248580932617 2.812888383865
77.128410339355 -73.647354125977 -62.665054321289 5.897422790527
78.170425415039 -68.473579406738 -63.855319976807 1.493626475334
62.847339630127 -80.203330993652 -235.903289794922 6.955349922180
-93.142982482910 -75.638320922852 -64.456054687500 5.771304607391
65.395637512207 -75.203773498535 -86.998275756836 4.273548603058
77.908241271973 -73.459350585938 -68.835014343262 2.915668725967
75.758193969727 -76.103042602539 -74.766357421875 2.781440258026
62.680625915527 -78.013870239258 -71.008193969727 10.990121841431
37.912353515625 -75.699821472168 -101.860176086426 4.544568061829
94.100334167480 -74.645462036133 -75.986885070801 0.886338770390
26.364145278931 -65.651939392090 -133.198989868164 1.488878011703
25.343027114868 -61.274898529053 -134.626617431641 1.320699095726
-139.097671508789 -81.338508605957 -250.506866455078 5.618347167969
-45.180152893066 -73.880897521973 -78.638465881348 4.106004238129
-70.429908752441 -75.431137084961 -89.113616943359 6.777165412903
-72.701530456543 -74.193374633789 -88.340530395508 9.009163856506
50.933773040771 -76.247817993164 -95.186439514160 1.115803599358
91.440887451172 -73.823478698730 -65.463905334473 4.197983741760
95.447700500488 -75.268630981445 -73.805648803711 2.891814231873
21.212566375732 -76.589523315430 -142.443572998047 3.869935512543
64.267585754395 -70.825302124023 -231.289306640625 4.561357021332
4.875700950623 -72.635375976563 -294.536071777344 1.918788194656
62.498603820801 -63.296028137207 -73.111785888672 2.856058120728
-2.096303939819 -67.228019714355 -286.019378662109 2.805356979370
88.264564514160 -75.548728942871 -101.444709777832 2.775679111481
-93.061058044434 -73.480278015137 -101.316184997559 3.396472930908
3.962865114212 -62.283710479736 -263.727813720703 1.922384262085
50.886394500732 -72.580162048340 -101.575698852539 3.672319412231
-64.347877502441 -65.074913024902 -83.656646728516 3.329474687576
89.546928405762 -78.007415771484 -99.576240539551 3.367977619171
36.646297454834 -72.885650634766 -33.598464965820 3.522054910660
106.665695190430 -77.955917358398 -105.768760681152 2.427790880203
48.527168273926 -71.976768493652 -17.846977233887 2.038014888763
-18.768236160278 -70.862281799316 -228.226577758789 2.279781341553
24.530151367188 -69.930046081543 -189.555633544922 1.675950765610
-102.394393920898 -73.935234069824 -105.883666992188 7.770017623901
33.301570892334 -70.739974975586 -33.707561492920 3.294414281845
107.805236816406 -76.411575317383 -107.675430297852 2.918987512589
-63.569915771484 -69.998939514160 -135.278518676758 1.015677690506
102.159866333008 -77.272521972656 -107.714714050293 4.287251472473
29.221498489380 -75.922760009766 -31.789243698120 3.775521993637
101.652091979980 -74.018432617188 -115.526596069336 3.759852886200
-54.196796417236 -69.618911743164 -84.181198120117 4.688727855682
105.418106079102 -75.837333679199 -123.594444274902 4.752951145172
108.534309387207 -77.311187744141 -120.815628051758 2.398072481155
105.488204956055 -81.351364135742 -128.071517944336 6.824701309204
106.495346069336 -76.834167480469 -129.455139160156 4.295053005219
-25.111156463623 -73.482612609863 -73.706718444824 3.182222843170
34.464279174805 -75.810462951660 -134.218353271484 2.709903478622
-24.518154144287 -71.679016113281 -71.444076538086 3.535457134247
-80.887702941895 -64.417343139648 -116.705436706543 1.197293519974
28.281469345093 -75.094200134277 -130.811325073242 0.896515488625
-168.068725585938 -78.334953308105 -220.450775146484 6.407459735870
4.089643001556 -74.052986145020 -196.830184936523 5.502817153931
-57.105312347412 -72.707252502441 -130.600051879883 0.426583498716
6.225821018219 -80.848342895508 -221.408111572266 1.514535427094
-81.354515075684 -67.566795349121 -136.190979003906 2.151734828949
-48.873020172119 -75.515220642090 -142.486572265625 0.772225201130
5.521356105804 -69.701705932617 -225.554641723633 0.750008106232
-34.958919525146 -79.420539855957 -196.185241699219 3.035550594330
28.781637191772 -67.694580078125 -250.742202758789 5.809861183167
-28.292852401733 -74.140213012695 -193.114379882813 1.808728337288
-76.986618041992 -72.217369079590 -150.116851806641 3.160866260529
-1.473119974136 -69.092338562012 -219.968338012695 1.802028417587
25.536682128906 -76.363357543945 -155.256164550781 1.767522573471
20.315681457520 -70.698501586914 -151.366409301758 3.080101966858
25.677616119385 -67.873611450195 -158.583724975586 2.256123304367
-16.183151245117 -73.936401367188 -206.891738891602 3.194337129593
-69.225425720215 -73.837989807129 -152.487136840820 1.056250810623
-39.476135253906 -73.812286376953 -155.019638061523 2.052678823471
107.668182373047 -74.563285827637 -155.182815551758 3.275728464127
-52.742343902588 -71.088356018066 -152.414337158203 1.144816040993
-49.642105102539 -62.720256805420 -151.659759521484 4.990503787994
-82.779205322266 -71.307182312012 -118.191406250000 0.522476494312
16.172153472900 -71.827316284180 -244.078826904297 2.098493337631
97.247001647949 -74.273056030273 -188.473937988281 3.623873472214
-19.498920440674 -73.023490905762 -209.613372802734 1.099998593330
104.108993530273 -80.925277709961 -184.921676635742 4.637149333954
-75.193168640137 -71.492568969727 -156.523757934570 3.116496324539
-24.025777816772 -72.045959472656 -212.753814697266 3.334956884384
27.779035568237 -77.277618408203 -152.746109008789 2.073161602020
17.805768966675 -79.666923522949 -167.316665649414 4.327603340149
10.487115859985 -72.305076599121 -152.069686889648 2.273022413254
-69.459793090820 -82.034294128418 -160.400695800781 5.082854270935
-69.216033935547 -70.687309265137 -163.319885253906 2.923348665237
-15.813034057617 -79.984619140625 -209.137741088867 2.379588127136
15.573624610901 -71.821357727051 -243.845306396484 2.734466791153
-44.433067321777 -75.552894592285 -161.981842041016 1.668241620064
14.861954689026 -65.177551269531 -178.161437988281 4.586075305939
-2.547235965729 -82.001823425293 -163.252670288086 2.700679779053
-25.274271011353 -80.938735961914 -177.962081909180 1.965631246567
-28.802986145020 -69.613761901855 -163.333877563477 4.637680530548
-38.640968322754 -76.778884887695 -169.277191162109 1.468737244606
-35.377429962158 -73.087471008301 -168.890090942383 3.496836423874
9.621137619019 -76.338272094727 -152.345748901367 3.176969051361
-2.310944080353 -73.175178527832 -162.804428100586 1.837228536606
12.054756164551 -73.401107788086 -148.858886718750 2.366902828217
105.780303955078 -76.757820129395 -173.240447998047 1.753363490105
104.353836059570 -72.639060974121 -168.407363891602 2.678207874298
108.857238769531 -73.535125732422 -167.839309692383 2.004740238190
43.958942413330 -68.606986999512 -251.946395874023 1.182656764984
11.181311607361 -69.702301025391 -212.746902465820 1.586127400398
-32.196365356445 -73.389251708984 -180.378982543945 0.999107062817
-40.338493347168 -78.675125122070 -171.423126220703 1.742412209511
-31.468917846680 -68.903488159180 -184.616638183594 2.708112001419
-42.787715911865 -70.290046691895 -162.856353759766 1.702644228935
18.412633895874 -67.917572021484 -170.414169311523 2.534682512283
14.261971473694 -70.561958312988 -162.789901733398 3.091493844986
110.598052978516 -75.161552429199 -172.416671752930 1.251131296158
-38.383693695068 -71.313903808594 -185.274169921875 4.634677886963
-42.148117065430 -79.006668090820 -176.042358398438 3.654189825058
-44.592395782471 -68.310859680176 -167.263916015625 4.089154243469
-70.302909851074 -73.395355224609 -141.246078491211 1.952524781227
-35.906669616699 -64.685668945313 -176.957855224609 4.953428268433
-41.498851776123 -76.761398315430 -283.570861816406 3.162296772003
-35.614845275879 -78.150123596191 -281.166046142578 6.209064960480
-146.861404418945 -76.444862365723 -174.127380371094 3.642336130142
-141.299011230469 -71.563957214355 -172.838531494141 3.559026718140
-157.478164672852 -69.056556701660 -173.942901611328 6.218713283539
-156.324890136719 -65.606040954590 -175.139770507813 4.289193153381
-83.153129577637 -69.563171386719 -99.068626403809 4.134420394897
-153.856262207031 -62.020923614502 -166.518463134766 9.603799819946
0.270534008741 -70.587707519531 -259.531860351563 5.432067394257
-25.107538223267 -74.039474487305 -183.435745239258 2.419284105301
-48.137569427490 -70.783699035645 -161.043136596680 1.711008429527
-32.205284118652 -77.589775085449 -181.612823486328 1.932112097740
38.440357208252 -73.450820922852 -254.079788208008 2.295583724976
7.549117088318 -76.196228027344 -215.400787353516 1.714039802551
-77.458152770996 -72.420387268066 -130.439331054688 2.015524864197
-85.367858886719 -74.014663696289 -135.281082153320 3.382262706757
-35.138122558594 -73.552162170410 -186.757385253906 1.844452738762
-46.293216705322 -74.065574645996 -171.530212402344 4.027014255524
-148.531585693359 -76.507690429688 -178.781097412109 3.293951988220
-154.776687622070 -63.693923950195 -178.883087158203 2.454151630402
-146.260421752930 -64.816551208496 -178.700424194336 3.194519042969
-17.771377563477 -73.130287170410 -59.207920074463 4.507574081421
47.201370239258 -72.426040649414 -250.057601928711 1.528764128685
-34.480182647705 -75.517387390137 -185.493713378906 1.897938966751
-34.408752441406 -76.232337951660 -181.061874389648 2.797724485397
94.066574096680 -75.619972229004 -190.297012329102 5.873830318451
-55.155258178711 -76.151176452637 -135.155075073242 2.009832382202
2.003376960754 -71.508491516113 -188.705078125000 10.193154335022
24.598972320557 -75.593986511230 -182.919250488281 1.065719842911
100.076660156250 -72.993667602539 -195.740600585938 1.887664914131
-135.549911499023 -75.672660827637 -193.847488403320 2.788009881973
-128.389221191406 -76.663024902344 -196.597732543945 3.780712604523
-157.108963012695 -67.828521728516 -218.749511718750 1.817065954208
-108.254562377930 -72.314071655273 -192.518585205078 3.192882061005
-24.510087966919 -75.722976684570 -207.963790893555 3.693917751312
-72.831253051758 -72.340141296387 -168.589828491211 6.577209472656
10.259731292725 -77.791862487793 -242.360183715820 0.996983051300
96.283622741699 -71.966308593750 -203.167007446289 2.255579233170
-67.018943786621 -70.865333557129 -286.233581542969 2.021360874176
-149.096725463867 -75.270286560059 -208.166748046875 2.077084064484
-152.728713989258 -61.147571563721 -202.093368530273 2.039603471756
17.552320480347 -75.449378967285 -211.462417602539 1.815277338028
83.181762695313 -71.911239624023 -216.689208984375 2.333328723907
10.378187179565 -78.335105895996 -205.816711425781 1.421302080154
100.173110961914 -65.608963012695 -81.286293029785 3.582914829254
-71.492584228516 -74.547431945801 -151.948822021484 0.954504609108
-14.701044082642 -76.753814697266 -215.062911987305 2.364506721497
-100.466697692871 -72.161460876465 -212.586868286133 4.847357749939
-144.057418823242 -70.909118652344 -249.150283813477 0.642697811127
-82.526390075684 -67.151382446289 -135.723602294922 2.242380380630
-1.739194989204 -76.318351745605 -224.119583129883 0.747207939625
-27.957242965698 -74.765388488770 -222.614990234375 2.108458518982
-122.385215759277 -73.252357482910 -288.239471435547 2.495160102844
-154.482635498047 -66.234298706055 -259.461120605469 2.061963558197
79.189224243164 -71.002716064453 -226.252090454102 1.114799976349
-27.677303314209 -75.623954772949 -216.759536743164 1.689357995987
8.106822967529 -72.089683532715 -187.216217041016 4.787281990051
-121.339057922363 -65.827087402344 -193.480194091797 3.377213478088
-6.022743225098 -77.261268615723 -223.569869995117 1.726474761963
-9.456491470337 -66.741355895996 -227.012222290039 1.338886499405
78.816383361816 -74.085205078125 -226.483596801758 1.968125104904
-143.471969604492 -68.364868164063 -226.738327026367 1.126693010330
5.817290782928 -72.277641296387 -236.497726440430 1.995407581329
12.556118011475 -75.570152282715 -227.248947143555 3.543374776840
-80.962287902832 -70.975242614746 -283.919342041016 4.409052371979
-145.945953369141 -68.608192443848 -213.285125732422 2.316757440567
-152.834869384766 -66.428848266602 -216.266204833984 2.598910570145
-161.226150512695 -71.445365905762 -231.652084350586 2.796553134918
45.445014953613 -70.635177612305 -16.502298355103 1.405399084091
-145.948638916016 -69.015991210938 -231.400100708008 3.549598932266
-20.006986618042 -75.956893920898 -232.531204223633 3.040095329285
-166.985778808594 -76.735214233398 -233.378952026367 2.502524375916
3.474215984344 -74.903663635254 -215.333160400391 2.772801876068
-95.231948852539 -73.988426208496 -286.193847656250 3.432099580765
-164.518524169922 -77.499267578125 -239.504104614258 4.074595928192
-160.065872192383 -66.475143432617 -233.036346435547 3.889835119247
43.326168060303 -68.079711914063 -12.728665351868 3.050370216370
23.155279159546 -63.441146850586 -139.704544067383 2.375896930695
52.772773742676 -79.987274169922 -240.854995727539 7.009850502014
10.084686279297 -72.034385681152 -202.614746093750 1.372105836868
-61.334728240967 -69.524131774902 -132.970352172852 2.547593593597
-26.772834777832 -68.783843994141 -234.031280517578 7.025783061981
20.794721603394 -72.157287597656 -12.432964324951 5.875313282013
27.337753295898 -70.078063964844 -11.365555763245 2.370558500290
-97.343704223633 -74.496665954590 -71.019821166992 5.809101104736
61.233863830566 -76.094291687012 -238.140029907227 3.448931217194
-155.335693359375 -74.004333496094 -241.587890625000 3.224529027939
-11.253437995911 -78.614540100098 -233.677658081055 3.913498640060
-13.592120170593 -62.545856475830 -238.016204833984 4.510116100311
-24.110786437988 -78.825454711914 -241.090988159180 0.956853270531
-134.499160766602 -67.709053039551 -200.023986816406 2.779818534851
-171.520935058594 -73.291709899902 -229.114105224609 5.442706584930
-166.295944213867 -68.297798156738 -242.783630371094 1.766988396645
0.819712996483 -80.623741149902 -241.671264648438 3.404251098633
-171.600402832031 -73.709259033203 -238.208206176758 4.416189193726
-47.583930969238 -76.757316589355 -286.914428710938 2.230171680450
-146.359985351563 -70.886627197266 -187.749313354492 2.501489162445
-151.164947509766 -63.990772247314 -184.384857177734 1.966653227806
-5.608662128448 -71.954612731934 -239.393447875977 1.225774765015
19.024011611938 -73.862670898438 -242.005737304688 0.997866928577
-9.801354408264 -75.871681213379 -239.618392944336 3.613129377365
-103.263977050781 -70.718826293945 -145.513748168945 7.355704784393
-10.663472175598 -75.779296875000 -240.595291137695 3.638358354568
-147.787475585938 -66.860969543457 -191.043930053711 2.778633594513
-154.877761840820 -69.331367492676 -242.936920166016 2.347731828690
-149.627334594727 -65.136962890625 -240.630081176758 3.130530357361
-153.645248413086 -56.471088409424 -238.041213989258 6.545952796936
-164.698303222656 -72.071640014648 -239.517425537109 1.715474128723
-83.995475769043 -78.738014221191 -245.257171630859 7.141869544983
-63.575119018555 -76.930862426758 -243.364913940430 2.837477445602
-106.288902282715 -68.070388793945 -211.842102050781 8.765748977661
-100.464660644531 -71.437187194824 -254.721557617188 1.560437440872
-15.278158187866 -79.726348876953 -254.310409545898 3.732907295227
-63.092582702637 -79.893348693848 -282.472503662109 5.874827861786
-148.402023315430 -74.720870971680 -195.528121948242 2.545438289642
-145.167633056641 -66.348922729492 -203.398422241211 2.766868591309
-159.469223022461 -66.415565490723 -203.725112915039 3.094846010208
-94.674903869629 -74.127510070801 -247.843612670898 4.668290138245
-86.762588500977 -73.930427551270 -282.332611083984 4.530678749084
-152.232070922852 -67.279060363770 -220.384323120117 3.005512237549
-131.690200805664 -59.734909057617 -200.921646118164 2.839778423309
-102.805778503418 -74.463081359863 -282.995666503906 3.444119453430
-96.617774963379 -70.105575561523 -288.053649902344 1.078509926796
-148.382812500000 -72.173057556152 -235.465927124023 2.207673788071
-118.832695007324 -64.358139038086 -202.131164550781 1.935382723808
-149.765365600586 -62.128631591797 -230.031082153320 0.405447006226
42.542930603027 -75.446441650391 -17.864591598511 2.982566356659
12.506519317627 -77.953605651855 -280.959167480469 1.592954993248
-107.266731262207 -74.013236999512 -165.209594726563 5.655566692352
7.374040126801 -68.572074890137 -284.817901611328 4.721543788910
-88.271194458008 -75.675361633301 -284.778350830078 2.387301206589
-116.714157104492 -67.024154663086 -193.809722900391 2.736427068710
-140.526718139648 -73.026832580566 -218.377548217773 4.129409790039
-154.437820434570 -61.015438079834 -223.508651733398 3.015597105026
-132.072921752930 -62.933822631836 -199.620132446289 1.512766003609
-152.915374755859 -59.336189270020 -216.274017333984 5.610643863678
-149.572052001953 -78.654647827148 -223.587097167969 1.811771392822
-84.743171691895 -75.257888793945 -284.428466796875 2.409500598907
-153.864822387695 -59.222507476807 -218.129974365234 5.373187541962
-141.356552124023 -76.183120727539 -295.667358398438 4.162462234497
-158.602645874023 -64.329032897949 -282.784332275391 3.722682237625
-1.522197008133 -74.387283325195 -286.062683105469 1.592105627060
-1.681398034096 -62.766864776611 -285.517028808594 1.850542902946
99.023216247559 -60.838382720947 -104.850868225098 1.971810221672
66.361557006836 -74.434288024902 -90.168792724609 4.869795322418
-14.198682785034 -72.871238708496 -277.496643066406 3.400419235229
13.940359115601 -77.905693054199 -293.684448242188 0.650290429592
-111.026748657227 -61.503963470459 -164.173370361328 5.454576015472
25.042118072510 -74.981750488281 -16.266675949097 2.919835567474
-68.002845764160 -64.279678344727 -109.302658081055 2.482755184174
17.871313095093 -75.506645202637 -23.041980743408 4.707408905029
-14.900494575500 -72.294921875000 -252.870361328125 1.244431614876
20.306432723999 -74.439071655273 -24.907138824463 2.458469152451
-70.603469848633 -77.292549133301 -45.520462036133 6.905448436737
107.087524414063 -79.598350524902 -117.148796081543 4.763686180115
33.431018829346 -68.612380981445 -33.826614379883 2.962311267853
114.952957153320 -72.628959655762 -119.881851196289 0.954765975475
27.114019393921 -70.263572692871 -24.823123931885 1.753006100655
104.489631652832 -75.601272583008 -123.246871948242 4.784731388092
29.115362167358 -76.504776000977 -35.607685089111 4.654194831848
106.654991149902 -73.108001708984 -112.197517395020 1.945336222649
-38.149044036865 -75.817779541016 -47.440002441406 4.435364246368
-0.213887006044 -70.798019409180 -262.046051025391 4.972016811371
-1.631845951080 -68.955947875977 -262.189117431641 3.483250379562
64.627700805664 -67.384765625000 -57.644683837891 8.403090476990
96.091270446777 -73.729537963867 -74.992668151855 1.538515806198
-49.601787567139 -75.987388610840 -78.930969238281 6.130501747131
103.015274047852 -75.052062988281 -90.280097961426 4.041956424713
-60.380340576172 -72.387039184570 -88.711517333984 3.293747186661
-17.471307754517 -78.941131591797 -272.455657958984 5.590614318848
99.907867431641 -73.513809204102 -98.472953796387 0.827631056309
4.410486221313 -70.307228088379 -291.570465087891 1.256812572479
76.211067199707 -76.023986816406 -102.241539001465 4.245923995972
102.471916198730 -77.442062377930 -99.745475769043 4.201431751251
27.048542022705 -68.011528015137 -40.322265625000 3.187780141830
107.608474731445 -71.432571411133 -112.136604309082 0.493421405554
28.527025222778 -73.633529663086 -125.586906433105 3.068196058273
28.408191680908 -76.502075195313 -118.832580566406 4.069570064545
26.057355880737 -74.977409362793 -131.006896972656 2.961818456650
11.225592613220 -75.880134582520 -225.162490844727 1.962763428688
-83.097351074219 -73.678573608398 -126.960205078125 3.330072164536
8.240788459778 -76.822776794434 -216.943023681641 1.502297401428
-106.434844970703 -72.119255065918 -169.069534301758 3.638673543930
-67.595825195313 -77.962768554688 -134.052230834961 7.680662631989
-4.832559108734 -74.746315002441 -220.197509765625 1.978630065918
-76.898155212402 -74.439491271973 -144.404357910156 2.058762550354
30.716461181641 -68.221717834473 -258.578247070313 1.476810693741
-76.367843627930 -74.915649414063 -136.075531005859 3.080522775650
-48.941082000732 -81.951957702637 -139.010787963867 5.413468360901
25.317020416260 -74.306205749512 -140.317428588867 1.663747310638
38.017414093018 -65.099861145020 -253.190032958984 1.125692009926
-12.793855667114 -72.083854675293 -206.096679687500 1.377401471138
-71.555068969727 -79.197708129883 -147.050292968750 3.331550359726
-12.665003776550 -75.154739379883 -209.024032592773 3.057180881500
10.258871078491 -71.733787536621 -150.063156127930 1.647150516510
19.782310485840 -70.526306152344 -164.506774902344 1.959301233292
3.889154911041 -67.428604125977 -148.031967163086 6.328798294067
23.050626754761 -75.697715759277 -171.578231811523 2.218116521835
69.149414062500 -70.450759887695 -87.398239135742 2.616363286972
103.679466247559 -81.466323852539 -162.878326416016 7.850890636444
105.021835327148 -76.752616882324 -165.550094604492 4.087566852570
108.149757385254 -73.965347290039 -172.403594970703 0.555280625820
-50.157707214355 -75.605613708496 -164.073715209961 3.627638578415
-27.832447052002 -68.679161071777 -185.921524047852 1.743921756744
-22.219150543213 -68.254241943359 -189.097869873047 1.479661703110
-48.272045135498 -74.578285217285 -170.112808227539 5.106723785400
-22.189453125000 -70.079063415527 -188.270385742188 1.919305562973
-49.708831787109 -73.278274536133 -162.496078491211 2.390138626099
26.203149795532 -82.207534790039 -168.751480102539 3.228204488754
107.232299804688 -77.598030090332 -179.319213867188 2.252630710602
19.780126571655 -77.976181030273 -167.572982788086 2.769130229950
19.900106430054 -68.542831420898 -185.330184936523 1.644033312798
21.261312484741 -76.584190368652 -178.319839477539 2.891208648682
20.056797027588 -75.133850097656 -174.934585571289 1.566661953926
10.846547126770 -80.967796325684 -176.154968261719 7.834620952606
-157.417968750000 -71.113929748535 -185.131774902344 5.051888942719
-149.573379516602 -68.489952087402 -192.701538085938 1.573249459267
-150.086807250977 -63.715309143066 -185.637420654297 1.804285049438
-156.197799682617 -76.055366516113 -191.409408569336 5.665852546692
-152.359848022461 -71.754920959473 -189.246002197266 0.937325358391
-30.383117675781 -67.079818725586 -74.408439636230 1.281485676765
-153.768936157227 -69.087478637695 -190.202713012695 2.286572933197
-149.944885253906 -60.993961334229 -188.399063110352 2.241995573044
-119.012069702148 -75.340057373047 -227.644683837891 3.517762184143
40.579399108887 -69.498451232910 -28.218906402588 3.614176034927
19.384023666382 -70.936927795410 -192.467269897461 2.414406776428
-139.898437500000 -73.107231140137 -194.150329589844 2.582683801651
-153.412002563477 -69.513191223145 -206.905410766602 2.472160100937
-155.257629394531 -70.329528808594 -202.600524902344 2.609488487244
-141.500762939453 -77.221908569336 -229.463226318359 1.591053724289
-168.164810180664 -72.011589050293 -204.051040649414 3.373740196228
-166.187545776367 -76.751724243164 -207.310241699219 4.891970634460
-171.672836303711 -74.605331420898 -223.678497314453 5.331560611725
-31.073486328125 -73.423789978027 -216.614807128906 0.368113994598
15.715617179871 -74.095390319824 -212.841293334961 1.533947587013
-79.600257873535 -72.399085998535 -141.816726684570 2.877829313278
3.257055044174 -71.597618103027 -219.845245361328 2.491714477539
30.720840454102 -58.162742614746 -123.987045288086 2.202081680298
-28.288578033447 -72.439964294434 -51.004085540771 3.571546316147
-167.587493896484 -76.445175170898 -216.662017822266 4.646069526672
-100.357406616211 -63.605091094971 -160.981124877930 2.194303512573
-15.742097854614 -73.564804077148 -215.613967895508 1.254564404488
-161.964202880859 -76.226989746094 -219.579772949219 4.363502025604
-156.044906616211 -66.742073059082 -214.295043945313 1.911795973778
-150.687454223633 -67.134033203125 -216.978759765625 2.527502775192
-17.442132949829 -76.083259582520 -226.928741455078 2.343950986862
17.357368469238 -69.345191955566 -190.636962890625 1.100754141808
-85.116310119629 -55.491661071777 -117.828056335449 1.849318504333
-120.401870727539 -75.676330566406 -223.249664306641 4.633129119873
-138.411437988281 -65.560302734375 -226.730468750000 2.980485916138
-163.526336669922 -76.252693176270 -190.484634399414 8.224345207214
15.653952598572 -70.946441650391 -237.117034912109 1.402889490128
-11.621811866760 -82.926010131836 -242.775451660156 8.695867538452
-96.846420288086 -63.089080810547 -147.603500366211 1.044016599655
-67.465454101563 -69.335960388184 -250.421386718750 3.123188972473
-12.092810630798 -69.004234313965 -247.294555664063 1.114667057991
78.536544799805 -73.341537475586 -219.421417236328 3.605454206467
10.051995277405 -70.411186218262 -286.541076660156 2.129652738571
-138.202651977539 -70.634193420410 -282.607604980469 2.321208953857
-140.389404296875 -69.593544006348 -292.358215332031 2.084954738617
-158.641189575195 -60.624027252197 -282.402374267578 5.425318241119
-79.289848327637 -75.092453002930 -277.560272216797 8.402743339539
-82.336227416992 -72.698028564453 -284.956695556641 2.846587419510
-148.476699829102 -69.816375732422 -212.677963256836 2.086729049683
-155.207992553711 -63.389259338379 -214.762008666992 4.535357952118
-72.113319396973 -77.099830627441 -286.042816162109 3.536672830582
-149.782318115234 -72.488372802734 -203.595275878906 2.254275321960
-146.347991943359 -59.935085296631 -208.695587158203 2.242879152298
-36.081798553467 -76.865936279297 -284.392974853516 3.472475051880
-33.648014068604 -75.536491394043 -286.764739990234 0.895003914833
-142.664398193359 -72.878028869629 -172.538284301758 2.992851495743
-154.475296020508 -65.263900756836 -175.450546264648 2.469865798950
-152.124862670898 -62.440959930420 -180.285476684570 1.825142741203
32.850181579590 -76.584053039551 -7.619905948639 7.596061229706
29.876909255981 -77.290618896484 -10.161170959473 6.188383102417
-59.946472167969 -65.262397766113 -120.482589721680 2.350222349167
103.096916198730 -66.583206176758 -97.582656860352 1.036943674088
39.772083282471 -77.026351928711 -16.329746246338 4.036290645599
103.322990417480 -61.943801879883 -87.593811035156 1.661677718163
39.294494628906 -78.069320678711 -6.102241039276 8.989530563354
31.920427322388 -79.156524658203 -11.715465545654 6.923552036285
-54.553981781006 -65.181388854980 -112.337837219238 6.155728340149
35.987380981445 -82.814407348633 -17.719297409058 10.081564903259
39.960613250732 -74.848182678223 -18.900119781494 2.262719631195
40.920486450195 -71.240051269531 -16.313150405884 2.296530723572
103.059623718262 -74.439918518066 -90.897247314453 4.407734394073
-68.422012329102 -70.848045349121 -117.590698242188 6.857522487640
43.969650268555 -76.309249877930 -32.935985565186 3.967832088470
41.762634277344 -73.258399963379 -29.613121032715 2.649628400803
45.328075408936 -78.345672607422 -35.981575012207 5.215463638306
-16.359851837158 -75.569198608398 -57.937751770020 6.322716712952
67.008064270020 -78.791740417480 -82.445106506348 6.009213924408
-55.223827362061 -77.739135742188 -86.871414184570 4.320564746857
20.697111129761 -70.752433776855 -38.359279632568 3.480561733246
102.833686828613 -75.829193115234 -100.227394104004 2.725545167923
-60.073471069336 -71.108734130859 -138.792678833008 1.139065027237
8.657144546509 -71.637054443359 -203.483261108398 2.364038228989
100.187141418457 -77.263214111328 -110.169998168945 5.748827457428
27.692762374878 -74.675758361816 -155.821685791016 3.629931688309
12.318838119507 -78.367935180664 -152.285308837891 5.613587856293
15.307143211365 -69.585807800293 -143.404708862305 2.864714384079
1.822170972824 -77.512435913086 -162.236984252930 2.276470184326
107.408721923828 -68.180908203125 -168.074829101563 2.766991376877
106.878273010254 -78.286239624023 -164.541931152344 3.340381383896
15.217781066895 -71.237121582031 -168.447433471680 3.273074626923
102.131225585938 -77.465423583984 -181.689819335938 1.496857047081
-156.759643554688 -78.906578063965 -179.240829467773 8.907153129578
-153.291351318359 -72.446121215820 -180.612350463867 2.467507600784
-94.228622436523 -66.134910583496 -141.768844604492 1.771531343460
-136.333496093750 -72.492446899414 -198.821914672852 1.782149314880
-124.356414794922 -76.196777343750 -189.201812744141 7.566809177399
-145.437332153320 -75.902191162109 -202.405395507813 2.526722192764
-163.005783081055 -67.566123962402 -202.134704589844 2.353753566742
-160.178237915039 -72.456550598145 -206.454925537109 3.131091117859
-150.658935546875 -65.217117309570 -204.216918945313 2.807929039001
-151.621078491211 -68.353897094727 -202.628326416016 1.666608095169
8.552790641785 -71.798690795898 -190.879959106445 3.782351493835
-74.581817626953 -75.518554687500 -146.715118408203 1.949668884277
-8.597279548645 -70.613479614258 -222.151306152344 1.941714763641
-13.959843635559 -72.416519165039 -219.275787353516 1.382684350014
-50.488174438477 -65.859138488770 -146.713226318359 2.724011182785
-29.935178756714 -76.374496459961 -220.258132934570 2.863816738129
-141.477218627930 -71.317398071289 -223.889694213867 1.135600447655
25.809045791626 -63.131462097168 -256.388671875000 2.096389770508
-26.502344131470 -60.545051574707 -39.955280303955 7.837487220764
1.709280014038 -76.347549438477 -226.085357666016 1.733106136322
42.438220977783 -62.790508270264 -112.167823791504 3.688794851303
42.482650756836 -65.997497558594 -24.000814437866 0.713373005390
-16.027591705322 -71.635711669922 -244.715911865234 3.357405900955
-151.772293090820 -73.835670471191 -277.654296875000 2.003963947296
-143.429656982422 -68.196495056152 -282.131744384766 2.394326925278
-4.938374996185 -75.751930236816 -290.618499755859 2.189979076385
88.416595458984 -71.642791748047 -103.116050720215 2.178409576416
-104.274108886719 -70.976455688477 -289.539489746094 2.509707927704
-156.722427368164 -72.259422302246 -240.893478393555 2.602317810059
-53.565414428711 -76.922203063965 -46.549995422363 6.396380901337
-31.172554016113 -72.546340942383 -53.304328918457 1.402209281921
36.872127532959 -73.520362854004 -112.886978149414 2.039004087448
-26.695142745972 -81.387420654297 -55.058113098145 7.168430805206
-101.854629516602 -71.143081665039 -69.495742797852 7.671588420868
96.458625793457 -72.915252685547 -79.581413269043 1.545308351517
11.114585876465 -62.958747863770 -274.198913574219 4.460898876190
10.647184371948 -66.536926269531 -282.385559082031 6.112147808075
-44.944484710693 -74.731712341309 -75.801818847656 5.952064037323
-96.489700317383 -72.314514160156 -217.951522827148 1.945199251175
-101.424476623535 -64.663879394531 -86.430686950684 3.001090764999
99.286567687988 -73.055831909180 -97.557258605957 0.939444005489
105.818031311035 -70.650367736816 -100.907409667969 1.586730241776
44.194320678711 -68.816665649414 -29.043853759766 2.943629503250
64.581184387207 -73.189926147461 -99.721351623535 5.898251533508
-99.078010559082 -71.507507324219 -100.154243469238 4.724101066589
106.402618408203 -67.908660888672 -111.142776489258 1.169178843498
31.058809280396 -75.290649414063 -36.441062927246 4.147395610809
-149.512390136719 -65.197998046875 -180.459625244141 2.334526538849
-30.647319793701 -65.118644714355 -57.841449737549 6.885539054871
-28.161785125732 -65.561012268066 -63.218711853027 6.025377273560
-94.090209960938 -78.343437194824 -113.763488769531 4.709707260132
44.633872985840 -67.629600524902 -256.679840087891 1.688086986542
30.365797042847 -68.954505920410 -112.065361022949 4.585120677948
-86.805015563965 -71.923919677734 -119.783866882324 3.190220355988
-44.939483642578 -75.680816650391 -145.571868896484 1.561588644981
-79.751373291016 -77.898643493652 -114.551856994629 5.584229946136
-47.355236053467 -66.942855834961 -149.557846069336 1.692613601685
-82.339202880859 -68.840003967285 -119.975830078125 2.611399173737
-60.851066589355 -64.749015808105 -41.493061065674 3.674361944199
25.484342575073 -67.355293273926 -140.193374633789 2.215739488602
14.308142662048 -71.907264709473 -147.726196289063 1.019577026367
8.602680206299 -66.845451354980 -152.130828857422 2.039136886597
22.427268981934 -71.311431884766 -153.658996582031 1.501382350922
-42.816299438477 -76.113967895508 -159.017303466797 1.768236160278
18.300214767456 -76.764686584473 -155.086959838867 3.221991300583
101.886886596680 -75.453056335449 -184.141830444336 2.576971769333
-116.668006896973 -73.059371948242 -193.521026611328 2.329633235931
-168.410049438477 -75.741004943848 -193.938262939453 8.044557571411
4.644172191620 -73.945404052734 -208.185134887695 2.281733751297
-102.371467590332 -76.523170471191 -214.815368652344 6.167340278625
-77.794029235840 -73.223693847656 -242.308532714844 4.906294822693
107.579025268555 -74.941200256348 -164.977767944336 2.363519906998
100.340141296387 -68.151145935059 -74.536216735840 1.933272480965
-13.307033538818 -78.501113891602 -223.810195922852 2.357940196991
-8.255629539490 -76.783386230469 -227.397064208984 1.731226444244
0.154957994819 -65.018386840820 -281.036834716797 1.273767590523
-5.462347984314 -63.895168304443 -286.057006835938 2.974048614502
71.919845581055 -82.458992004395 -227.819503784180 8.719963073730
-106.308357238770 -67.577560424805 -172.493606567383 2.203196525574
11.186919212341 -72.384407043457 -216.717239379883 3.181241273880
-78.043975830078 -67.770668029785 -131.019165039063 1.300909042358
-14.895716667175 -72.654884338379 -232.725158691406 1.426028013229
13.639740943909 -68.257286071777 -242.454620361328 1.328990578651
-58.698192596436 -70.237258911133 -43.248855590820 3.737509489059
32.974201202393 -74.996788024902 -249.392471313477 6.774824619293
18.680870056152 -65.074134826660 -244.015670776367 1.070349097252
-99.970993041992 -71.629013061523 -261.379302978516 2.183103799820
-19.514406204224 -72.765197753906 -267.138366699219 6.093069553375
-102.367263793945 -69.005271911621 -171.036697387695 1.155318140984
-2.225462913513 -68.412994384766 -290.168334960938 3.133457422256
-6.821628093719 -62.619071960449 -237.268539428711 1.977652072906
-95.392662048340 -66.559928894043 -146.198699951172 2.407326936722
35.586517333984 -73.613304138184 -18.284011840820 2.366864442825
-60.255538940430 -69.965660095215 -113.908599853516 5.725217819214
41.634372711182 -70.294380187988 -29.678924560547 2.443194627762
-81.920555114746 -72.316726684570 -52.510444641113 4.342914104462
17.767509460449 -61.668258666992 -278.463134765625 3.707424402237
-91.876731872559 -72.473281860352 -52.345306396484 8.148432731628
-15.584787368774 -71.096702575684 -59.809856414795 3.312536716461
79.334556579590 -68.500823974609 -60.620456695557 2.454620599747
4.837749004364 -59.678394317627 -258.051757812500 1.658245086670
89.917076110840 -66.652648925781 -65.081954956055 2.166977405548
-11.324433326721 -66.587890625000 -63.590953826904 1.521510362625
-105.063697814941 -69.915893554688 -76.971534729004 8.875882148743
63.191684722900 -72.663475036621 -243.131317138672 1.230825662613
22.638618469238 -65.977546691895 -263.967498779297 3.679778575897
58.476436614990 -74.728248596191 -84.809028625488 3.529723882675
-7.370164871216 -73.449066162109 -290.754730224609 1.444011569023
1.646213054657 -68.759490966797 -289.511627197266 3.390383958817
88.425071716309 -61.321529388428 -110.241722106934 2.011709451675
61.281566619873 -70.473945617676 -88.693382263184 2.312804937363
81.995918273926 -71.022598266602 -105.454132080078 1.729284286499
-101.382400512695 -68.202987670898 -86.249839782715 5.140483856201
47.214706420898 -68.326713562012 -238.689147949219 5.246810436249
-65.358207702637 -69.158370971680 -92.785034179688 2.172276973724
102.075210571289 -70.084854125977 -103.598899841309 2.161960124969
34.945953369141 -67.128654479980 -43.155704498291 2.982842206955
41.919788360596 -67.615074157715 -99.562347412109 2.586975812912
74.437141418457 -70.385887145996 -63.486129760742 2.978804111481
37.764972686768 -72.061241149902 -99.279975891113 5.288971424103
-104.660820007324 -70.994583129883 -106.696861267090 9.031793594360
43.516590118408 -77.678749084473 -105.200584411621 1.256816983223
59.281318664551 -68.610588073730 -94.779899597168 1.349202871323
102.206115722656 -69.030273437500 -107.347267150879 1.587927341461
36.553863525391 -71.735610961914 -107.318817138672 3.167682647705
49.050636291504 -71.225959777832 -88.595306396484 1.341532707214
54.743278503418 -72.370590209961 -93.040390014648 2.535100936890
-86.176788330078 -75.128768920898 -109.117248535156 1.955357909203
-93.505447387695 -68.910469055176 -117.136329650879 2.527826786041
34.998538970947 -76.450088500977 -116.202842712402 1.846021413803
47.744640350342 -75.378036499023 -113.174293518066 1.725086092949
58.165290832520 -66.453590393066 -95.032470703125 1.356753945351
16.878423690796 -63.986236572266 -251.942535400391 5.366509437561
-9.577378273010 -65.320793151855 -285.364318847656 4.212800979614
24.167291641235 -72.834884643555 -260.197021484375 1.557382106781
-81.593704223633 -73.809249877930 -131.024658203125 4.102743148804
-138.626068115234 -71.335540771484 -228.364730834961 3.003909349442
-86.771919250488 -74.326652526855 -112.935203552246 1.967463016510
-44.229003906250 -76.458091735840 -156.808471679688 1.806420564651
-118.938102722168 -65.979393005371 -229.595642089844 2.017015218735
-82.222015380859 -75.619346618652 -120.538475036621 4.746264934540
29.944597244263 -69.728767395020 -129.404800415039 2.127340793610
-106.614753723145 -74.895889282227 -252.134902954102 5.119443893433
41.315078735352 -72.930122375488 -126.911827087402 2.094668388367
113.936294555664 -75.154991149902 -126.340339660645 2.208868503571
17.237545013428 -69.661026000977 -27.310485839844 2.985709428787
-68.517868041992 -65.996841430664 -127.214004516602 4.847385406494
9.754957199097 -73.424346923828 -216.277038574219 2.231839418411
-59.610187530518 -70.409400939941 -122.730728149414 2.362658500671
6.848590850830 -68.789878845215 -198.666229248047 2.115560054779
112.446632385254 -73.419456481934 -127.081520080566 1.227620840073
105.048034667969 -69.733619689941 -130.702911376953 4.130789756775
-164.970016479492 -67.725753784180 -215.083511352539 1.958100438118
-18.115474700928 -73.872024536133 -67.624511718750 1.836576223373
-97.827514648438 -72.313865661621 -134.716461181641 7.704369068146
1.098845958710 -71.827224731445 -229.685317993164 2.844229459763
-43.741958618164 -60.209953308105 -78.481735229492 1.929958462715
29.934036254883 -72.794639587402 -132.428375244141 1.331578493118
-78.744316101074 -68.395660400391 -130.050552368164 1.507768630981
39.926002502441 -66.678962707520 -120.023086547852 3.651204109192
-2.856030941010 -67.848640441895 -227.609893798828 2.305803537369
-24.854084014893 -69.165969848633 -54.169368743896 3.532651901245
-74.557174682617 -75.073776245117 -132.971679687500 4.120357036591
4.564618110657 -70.647010803223 -218.787368774414 3.302558660507
43.338489532471 -76.356422424316 -252.211456298828 4.997288227081
105.796554565430 -70.498199462891 -135.187515258789 3.829704284668
106.408279418945 -72.280601501465 -142.547409057617 3.262730121613
105.379699707031 -67.606376647949 -147.187835693359 6.786079883575
-57.430114746094 -74.763717651367 -141.906890869141 1.629514694214
-59.891593933105 -73.359848022461 -145.157745361328 3.244329214096
-72.703330993652 -75.911628723145 -149.183166503906 0.678873240948
111.572296142578 -68.908355712891 -166.675338745117 0.940688133240
2.041790008545 -73.266830444336 -160.463958740234 1.980144500732
12.709653854370 -73.545127868652 -156.441665649414 1.184935927391
9.202692985535 -73.538436889648 -154.899063110352 0.744338810444
18.151580810547 -71.728385925293 -164.153945922852 1.330955505371
-45.187332153320 -64.567504882813 -73.184616088867 5.678727626801
3.871486902237 -66.442123413086 -292.905944824219 1.662157773972
-115.191787719727 -71.537681579590 -181.439834594727 5.891323566437
10.215317726135 -71.312698364258 -186.853378295898 3.388361215591
-120.632362365723 -70.254714965820 -184.105636596680 8.078027725220
34.156875610352 -66.471969604492 -123.108917236328 2.303530454636
-26.424144744873 -72.276702880859 -192.463882446289 1.161481022835
-90.456718444824 -68.024406433105 -128.409210205078 1.648406863213
-26.985160827637 -74.294845581055 -194.703826904297 1.313144683838
30.579984664917 -73.231773376465 -251.485946655273 4.667410373688
9.684909820557 -72.632987976074 -199.016387939453 2.481153726578
-56.306694030762 -66.013984680176 -127.605690002441 1.094930410385
15.364151000977 -72.273254394531 -193.805938720703 2.862554788589
10.647217750549 -65.209213256836 -201.246536254883 3.542336225510
-22.451688766479 -63.381237030029 -203.711776733398 5.354856014252
86.296440124512 -76.435676574707 -205.724822998047 6.680795192719
6.174365043640 -64.839439392090 -211.754562377930 5.013159275055
-66.792846679688 -73.753242492676 -129.750396728516 6.545933246613
80.533325195313 -73.177612304688 -224.953369140625 2.198265075684
-16.737598419189 -75.116676330566 -214.578979492188 1.251730680466
8.144973754883 -67.824615478516 -212.460952758789 1.611799836159
96.998771667480 -64.867683410645 -87.716629028320 6.169107437134
-168.681152343750 -66.887641906738 -214.751190185547 3.456578731537
-52.207530975342 -69.812599182129 -134.631896972656 1.954668879509
-171.176834106445 -73.637580871582 -219.632843017578 4.376038551331
-105.655029296875 -73.100891113281 -227.452926635742 1.106618165970
-90.440330505371 -71.208503723145 -250.346664428711 2.802031278610
-17.929450988770 -72.115631103516 -237.816970825195 1.504649400711
54.535030364990 -65.343322753906 -247.850860595703 1.518786311150
-169.225357055664 -69.591766357422 -244.907806396484 3.484277486801
31.876321792603 -72.590255737305 -250.708236694336 4.828942298889
-105.040985107422 -71.077896118164 -248.210205078125 7.290861606598
-142.325485229492 -72.710067749023 -250.837341308594 2.390490770340
-44.676826477051 -75.913887023926 -74.054725646973 5.554981708527
25.613054275513 -64.292770385742 -127.349037170410 6.270705223083
58.103115081787 -71.239280700684 -91.267837524414 1.254169940948
-120.074325561523 -69.558357238770 -256.334381103516 2.688117027283
-15.351564407349 -67.931579589844 -258.458709716797 2.880209207535
15.937785148621 -68.560638427734 -285.239349365234 2.864407300949
18.708938598633 -73.023490905762 -275.415618896484 2.138737678528
-104.143539428711 -69.114440917969 -83.434257507324 7.667159080505
48.215095520020 -72.480964660645 -242.364288330078 2.762416124344
30.796958923340 -70.165336608887 -9.831400871277 2.661952257156
19.306509017944 -77.436950683594 -18.038606643677 6.140732765198
28.551483154297 -66.869285583496 -13.002481460571 3.091405868530
-114.196144104004 -69.754936218262 -158.320861816406 10.022989273071
43.720054626465 -67.982574462891 -26.148399353027 0.985438644886
17.564489364624 -63.197006225586 -24.322881698608 2.470686435699
23.474382400513 -77.210197448730 -23.384895324707 4.324741363525
-17.992719650269 -69.889282226563 -256.671661376953 3.346827507019
43.576934814453 -72.624053955078 -24.353969573975 2.523624897003
38.524536132813 -72.469520568848 -30.301826477051 4.040637969971
29.815874099731 -73.058021545410 -39.368572235107 1.922562241554
103.654991149902 -74.865516662598 -119.205314636230 3.624494314194
-19.922117233276 -69.443862915039 -61.168399810791 3.487194299698
98.132438659668 -67.218315124512 -72.697677612305 2.205290317535
53.003929138184 -72.899909973145 -82.246276855469 5.637719154358
60.472087860107 -67.362449645996 -93.274978637695 2.590176582336
-6.558350086212 -66.827682495117 -276.771087646484 2.028911590576
30.890695571899 -64.993774414063 -7.449560165405 5.541897773743
-58.478870391846 -73.300231933594 -115.190902709961 8.278202056885
102.405502319336 -75.199615478516 -101.732048034668 2.519637823105
98.529190063477 -72.905632019043 -103.265197753906 3.762118101120
106.056686401367 -72.020706176758 -120.538101196289 0.464497089386
-97.307334899902 -77.190666198730 -117.190605163574 7.011900901794
-90.997985839844 -71.414215087891 -123.396072387695 2.274607419968
-60.817638397217 -56.792366027832 -38.555793762207 5.501245021820
114.738136291504 -70.800743103027 -134.178009033203 2.083379030228
-12.215352058411 -59.454311370850 -61.503536224365 3.017419099808
-88.310615539551 -70.848655700684 -125.281547546387 2.224299907684
30.142982482910 -74.411621093750 -245.409057617188 7.513128280640
-51.179409027100 -72.107475280762 -139.174514770508 1.917698264122
-64.738876342773 -73.007827758789 -139.519699096680 4.609040737152
-109.342544555664 -72.643218994141 -164.814132690430 6.146143913269
11.920452117920 -76.977195739746 -210.713958740234 1.865855455399
32.719635009766 -70.456375122070 -140.546585083008 1.829923868179
21.225168228149 -64.791961669922 -143.316421508789 2.613672733307
-45.334190368652 -70.449188232422 -141.736907958984 1.540217757225
30.706491470337 -73.163734436035 -146.548797607422 2.444235324860
-96.159027099609 -66.957183837891 -152.692443847656 2.028899431229
16.802198410034 -70.944496154785 -153.913619995117 0.794640541077
-98.906044006348 -70.181755065918 -154.832427978516 1.935190320015
-16.221389770508 -74.055175781250 -240.914489746094 0.938525855541
-71.833648681641 -70.495918273926 -119.730018615723 6.146582603455
-102.020217895508 -71.939750671387 -148.917694091797 5.317506790161
-13.047554969788 -73.277244567871 -243.951797485352 1.802180051804
-42.565006256104 -66.551696777344 -157.813583374023 1.678263068199
21.094209671021 -68.605133056641 -159.773529052734 2.219856262207
-106.292633056641 -76.806091308594 -153.503234863281 9.617530822754
38.743144989014 -67.253471374512 -23.197381973267 4.048784732819
-41.587993621826 -75.465385437012 -156.514129638672 2.395788431168
-100.623382568359 -66.768066406250 -82.007926940918 4.638920307159
-142.734420776367 -70.093994140625 -258.580871582031 3.106571912766
16.345014572144 -65.618118286133 -137.938781738281 4.791456699371
-111.652397155762 -72.376106262207 -169.647903442383 5.547101974487
-114.044906616211 -68.470779418945 -179.375640869141 3.817785024643
-112.639328002930 -67.877784729004 -185.453781127930 1.690474987030
19.283388137817 -69.121475219727 -189.363708496094 1.479368209839
4.957170963287 -72.543617248535 -192.491394042969 5.413396835327
