-142.873596191406 -69.645561218262 -192.793518066406 2.005682945251
-108.112579345703 -69.737777709961 -195.658096313477 1.872972369194
22.845909118652 -70.298721313477 -193.215820312500 0.616627931595
-119.944862365723 -60.808933258057 -193.665420532227 6.073556900024
10.819857597351 -69.587493896484 -199.319915771484 0.996843338013
-132.071090698242 -65.123229980469 -197.117858886719 1.496308445930
-155.913162231445 -67.280807495117 -193.318206787109 1.104341864586
-166.951934814453 -70.294242858887 -197.941345214844 2.211245536804
-161.183990478516 -68.020324707031 -195.551666259766 2.141112327576
-16.161134719849 -66.593299865723 -198.917129516602 1.845141410828
-167.192657470703 -68.568153381348 -199.596359252930 1.104695677757
-23.621957778931 -65.061050415039 -189.310913085938 3.034956693649
-14.188743591309 -67.907592773438 -198.900711059570 0.681280970573
14.026463508606 -63.488636016846 -197.621368408203 3.519446611404
-157.872131347656 -67.822631835938 -197.942642211914 3.460330486298
-109.804100036621 -64.050758361816 -197.998397827148 1.967852711678
-19.008909225464 -70.747169494629 -205.115325927734 1.522927284241
-161.622940063477 -66.990585327148 -204.217742919922 1.227924585342
18.125888824463 -64.585609436035 -198.429733276367 2.969494819641
-162.591934204102 -65.823806762695 -205.250946044922 2.111131668091
-121.170547485352 -71.250625610352 -203.143005371094 1.040000200272
-114.793746948242 -66.878173828125 -205.087341308594 1.561390995979
-121.258499145508 -67.569328308105 -205.698486328125 1.808042764664
-12.238957405090 -71.654403686523 -205.284988403320 0.713795006275
-11.860283851624 -65.317855834961 -205.622222900391 2.746462583542
-165.223693847656 -70.082649230957 -209.174163818359 1.712272524834
-160.303527832031 -66.985511779785 -210.568023681641 1.330536603928
-163.956466674805 -64.947311401367 -220.616195678711 3.848973989487
-147.141662597656 -69.770339965820 -214.424484252930 2.688216686249
-144.588882446289 -67.147705078125 -221.441116333008 1.251608848572
-7.211777210236 -63.518245697021 -220.674545288086 3.598306894302
-9.370578765869 -66.927093505859 -216.703414916992 2.134993314743
-98.660652160645 -65.058502197266 -220.800415039063 2.276633501053
-5.825335502625 -65.155418395996 -231.493713378906 2.771154165268
-164.867645263672 -66.264945983887 -227.148956298828 1.474028348923
-110.383491516113 -65.940666198730 -230.541625976563 1.501805901527
-0.140280529857 -68.124107360840 -229.422698974609 1.409348130226
6.588263988495 -63.472232818604 -231.964202880859 2.657167196274
-115.187355041504 -69.430534362793 -232.863830566406 0.944358408451
-4.271756649017 -67.404418945313 -228.700714111328 0.926452338696
-117.038970947266 -66.704246520996 -232.987899780273 2.103542327881
-7.908542633057 -62.045696258545 -235.958877563477 3.522864580154
-2.390661239624 -65.816268920898 -232.245529174805 1.150504827499
-1.429102897644 -67.672080993652 -233.996063232422 1.858950018883
71.455291748047 -67.832344055176 -234.518936157227 2.291813850403
-10.471674919128 -68.578781127930 -238.337432861328 1.353250026703
1.405499935150 -68.625000000000 -241.156875610352 1.586843132973
10.977149963379 -68.438247680664 -242.000793457031 1.566024661064
5.784102439880 -69.092315673828 -237.557479858398 1.524995803833
0.002154432237 -69.974594116211 -235.814208984375 1.595212936401
64.047187805176 -66.714561462402 -235.228973388672 2.183891057968
70.546478271484 -65.794860839844 -236.470870971680 3.017371177673
11.279850006104 -70.368942260742 -244.080673217773 2.144382715225
59.494052886963 -70.640632629395 -241.170867919922 0.654003858566
58.126869201660 -67.305541992188 -241.175598144531 0.203930288553
45.011123657227 -68.549957275391 -244.504653930664 3.219741582870
40.710494995117 -65.467559814453 -249.646392822266 0.909188926220
42.212421417236 -70.036422729492 -252.829559326172 1.349240779877
-134.731262207031 -69.403297424316 -252.699401855469 2.277405738831
-11.878417015076 -70.297119140625 -254.232635498047 2.961814641953
25.395795822144 -70.538810729980 -258.570495605469 1.262790203094
46.247310638428 -70.718673706055 -248.539276123047 0.850107669830
26.957187652588 -66.599456787109 -256.582489013672 1.145817041397
-99.655189514160 -67.046417236328 -255.046875000000 1.990955948830
33.121925354004 -66.765068054199 -256.512268066406 1.368018150330
-150.580703735352 -63.938453674316 -260.305999755859 1.290260314941
-115.199180603027 -68.114738464355 -258.838226318359 1.879092454910
-104.307350158691 -65.788124084473 -257.798858642578 2.250109434128
-10.524950981140 -68.352416992188 -259.416442871094 2.332732915878
-147.099060058594 -70.164611816406 -255.752746582031 2.212687969208
32.314857482910 -67.059722900391 -259.729431152344 0.650997161865
-111.603546142578 -66.639854431152 -258.525756835938 1.244799613953
24.275014877319 -65.501029968262 -259.286224365234 0.646470010281
-135.095046997070 -69.020820617676 -258.628631591797 2.211016178131
-116.813247680664 -65.328163146973 -259.028564453125 1.492731213570
-107.343894958496 -64.418502807617 -260.271270751953 2.434969902039
-118.997337341309 -64.600387573242 -261.645446777344 1.042344093323
-140.264175415039 -66.931808471680 -262.989257812500 2.158432960510
26.796030044556 -68.223503112793 -264.476257324219 1.815205693245
-118.268692016602 -67.490013122559 -264.840087890625 2.376063108444
-140.958526611328 -68.506813049316 -263.801177978516 2.714141607285
-5.567351818085 -68.154769897461 -273.976074218750 2.000586032867
-151.118164062500 -72.392875671387 -279.927032470703 2.229827880859
-6.678272724152 -66.307853698730 -280.998077392578 3.373988389969
-5.392424583435 -65.727355957031 -283.231964111328 2.086142301559
-131.376327514648 -65.625549316406 -281.648742675781 4.066126346588
-124.672058105469 -65.855125427246 -287.537231445313 0.780680954456
-134.845764160156 -67.584495544434 -292.293365478516 1.086215496063
-126.971427917480 -68.603431701660 -297.196105957031 3.990006685257
-153.857681274414 -72.018753051758 -295.617858886719 1.459165096283
-155.110000610352 -66.802482604980 -301.085357666016 2.933717489243
-147.424377441406 -71.237030029297 -300.589385986328 1.210127949715
-149.061477661133 -66.541465759277 -302.686767578125 1.585798144341
-143.023941040039 -67.710205078125 -301.602722167969 3.031440734863
-146.258300781250 -63.968280792236 -304.842407226563 3.654975891113
-146.964996337891 -68.801940917969 -314.139770507813 2.941910028458
21.129791259766 -70.405197143555 -30.108301162720 1.159059882164
44.941364288330 -71.720031738281 -32.923988342285 0.647094368935
26.235157012939 -69.815132141113 -39.871604919434 1.839587926865
34.740425109863 -71.321762084961 -43.016143798828 1.340855002403
-40.328422546387 -68.498641967773 -46.607139587402 1.168588876724
-77.966415405273 -67.724937438965 -49.730377197266 1.139956235886
82.061355590820 -65.599624633789 -60.635581970215 1.226721763611
76.771194458008 -66.559318542480 -62.881080627441 1.291760921478
68.943893432617 -65.707733154297 -70.578582763672 0.751958072186
-100.223030090332 -65.081649780273 -72.168388366699 4.039300441742
99.930969238281 -68.902992248535 -72.648590087891 0.889441311359
-35.032794952393 -66.280807495117 -78.862510681152 1.682239174843
66.964187622070 -66.839546203613 -83.467712402344 0.923715770245
-46.758728027344 -66.749015808105 -79.945205688477 2.543030261993
-48.533195495605 -67.431488037109 -82.717033386230 1.883477687836
49.371646881104 -70.637390136719 -91.359329223633 1.900506496429
101.381088256836 -68.650512695313 -88.975746154785 1.271306157112
66.692001342773 -63.198005676270 -96.157890319824 1.515515089035
56.213191986084 -65.799789428711 -94.683143615723 1.553023815155
50.609127044678 -64.813522338867 -102.063011169434 1.243199229240
55.873771667480 -65.283485412598 -97.867103576660 1.647979378700
106.388175964355 -65.391227722168 -99.802543640137 2.560919523239
74.214202880859 -65.206466674805 -102.771308898926 2.570311307907
50.362255096436 -65.160202026367 -101.490539550781 1.332246541977
79.264854431152 -66.545471191406 -107.862556457520 1.494864463806
89.382118225098 -64.078063964844 -103.091773986816 5.213778018951
-78.231712341309 -67.568145751953 -105.291984558105 0.914819896221
-90.415962219238 -68.868606567383 -110.444984436035 3.763475179672
-82.604507446289 -65.036979675293 -113.421737670898 1.475387096405
-57.047084808350 -69.869590759277 -122.565551757813 2.775306940079
-56.900604248047 -68.779754638672 -122.525512695313 2.808188676834
-94.980972290039 -68.869049072266 -123.062454223633 2.270117759705
-73.517311096191 -64.612319946289 -119.527114868164 2.195391654968
-75.259384155273 -70.352111816406 -131.559844970703 0.463802337646
-60.067409515381 -64.742790222168 -129.742248535156 2.395493268967
-88.655769348145 -63.622783660889 -130.947204589844 1.728086233139
-90.275352478027 -70.326736450195 -128.834960937500 1.997803211212
-46.594638824463 -70.439506530762 -132.905654907227 3.019942283630
-50.897514343262 -67.772468566895 -134.516296386719 0.903323411942
-78.981857299805 -65.184494018555 -141.890792846680 2.387496709824
-51.357975006104 -66.050651550293 -141.352569580078 0.798950135708
-75.107307434082 -66.395759582520 -140.715209960938 0.757713437080
21.620718002319 -63.824394226074 -138.478240966797 0.876195609570
-53.627243041992 -69.077285766602 -142.172149658203 2.300080776215
-53.661739349365 -64.281150817871 -147.378585815430 3.058351039886
10.517675399780 -65.689399719238 -155.437194824219 1.859607219696
16.029804229736 -64.702720642090 -152.511856079102 1.208195686340
-143.484710693359 -67.791320800781 -171.530578613281 3.772122383118
-106.529899597168 -65.188262939453 -181.844131469727 1.469889044762
-109.201805114746 -69.827415466309 -189.700820922852 1.051466107368
-150.742935180664 -68.634536743164 -193.780410766602 0.979056537151
-111.459442138672 -62.701755523682 -183.425430297852 2.555248498917
-157.158920288086 -67.008079528809 -193.521392822266 1.232145190239
-114.375991821289 -67.718055725098 -195.381698608398 0.672332763672
-150.178939819336 -65.075286865234 -200.860610961914 1.804052472115
-150.659729003906 -68.084945678711 -205.745803833008 1.876200795174
-150.951614379883 -67.796493530273 -210.978042602539 2.841495275497
-144.519622802734 -66.073616027832 -225.251281738281 2.062516689301
-153.429504394531 -69.087303161621 -225.657348632813 0.491578459740
-103.006965637207 -69.532112121582 -224.160171508789 3.064476728439
-106.522087097168 -65.998046875000 -224.547058105469 1.424205183983
-125.735458374023 -64.626060485840 -230.328140258789 1.356343030930
-110.431678771973 -66.006332397461 -226.906173706055 1.944849133492
-157.448516845703 -68.737281799316 -229.503036499023 0.607417464256
1.743042945862 -69.200958251953 -230.543670654297 1.197905063629
-130.791305541992 -64.622550964355 -229.796035766602 2.211169958115
-152.057769775391 -67.527404785156 -236.748153686523 1.882188200951
-134.913742065430 -66.692955017090 -234.468139648438 1.318620324135
-14.970366477966 -68.289764404297 -237.676925659180 2.164045333862
8.691984176636 -65.486213684082 -240.716720581055 0.775238573551
65.128234863281 -64.054473876953 -245.939971923828 4.747481346130
17.894062042236 -66.066589355469 -247.048339843750 1.989595651627
56.251483917236 -65.030403137207 -243.411895751953 2.026562213898
44.460220336914 -65.402908325195 -244.460739135742 4.049537658691
52.913002014160 -68.240020751953 -249.412109375000 1.121221899986
-151.034942626953 -66.509269714355 -251.434844970703 2.605590820313
-148.979293823242 -70.462661743164 -252.637481689453 3.645211219788
42.928596496582 -65.629554748535 -255.860229492188 0.913281440735
32.487487792969 -63.100444793701 -257.873809814453 2.603986978531
46.997123718262 -69.710716247559 -250.440246582031 1.895158052444
-145.576477050781 -70.091079711914 -253.712280273438 1.317232608795
-135.388565063477 -67.180473327637 -257.683227539063 0.489781051874
-125.579574584961 -65.037002563477 -257.088867187500 0.715184569359
-133.816284179688 -66.692970275879 -256.279144287109 1.711443305016
-140.124496459961 -67.254875183105 -257.455841064453 1.729879260063
-125.280761718750 -68.885192871094 -259.019561767578 2.195182323456
-140.180709838867 -65.895256042480 -261.712371826172 2.362394332886
-123.327438354492 -66.495597839355 -257.873840332031 1.037982940674
-121.575981140137 -64.442337036133 -263.367858886719 2.344801425934
-125.780059814453 -63.374000549316 -262.710906982422 2.726968050003
-117.697257995605 -67.108047485352 -263.008392333984 1.794914603233
-5.391954421997 -65.392349243164 -262.271026611328 2.443976402283
27.489767074585 -67.109138488770 -263.833221435547 0.567338645458
-145.258285522461 -64.972564697266 -267.947509765625 3.060097455978
26.862171173096 -66.225227355957 -263.613311767578 0.672611832619
-0.050961077213 -64.644683837891 -270.585418701172 1.700567126274
15.277935981750 -70.241683959961 -285.399688720703 1.961230754852
-143.081405639648 -69.063644409180 -285.886779785156 1.342501401901
-127.516609191895 -66.353073120117 -288.119384765625 0.690308034420
-135.416549682617 -66.896614074707 -287.067138671875 0.858697116375
-156.755889892578 -65.344902038574 -289.647705078125 1.994163274765
-121.068595886230 -67.514526367188 -288.871643066406 2.596462488174
-118.398727416992 -65.935218811035 -290.390045166016 1.338996410370
-124.174385070801 -67.235969543457 -290.028778076172 1.037838697433
-146.034439086914 -69.496215820313 -296.755645751953 2.920665264130
25.913801193237 -71.294464111328 -13.151157379150 1.994518399239
33.870262145996 -68.710899353027 -16.893449783325 0.823000192642
40.721878051758 -70.603988647461 -19.273666381836 1.317006349564
46.427577972412 -65.134529113770 -24.406568527222 3.365699052811
27.154754638672 -71.210243225098 -27.030111312866 1.066362738609
21.036384582520 -71.726669311523 -36.414215087891 2.798311233521
-37.038696289063 -62.829650878906 -46.216201782227 1.922901391983
-84.197639465332 -65.612365722656 -54.060729980469 2.987402200699
-12.196355819702 -67.106613159180 -56.347778320313 2.997423410416
73.099555969238 -67.903244018555 -63.132698059082 1.803918361664
97.893974304199 -62.866550445557 -68.385498046875 2.649146556854
65.854110717773 -68.128677368164 -81.948829650879 1.922185301781
62.237888336182 -62.044589996338 -81.273391723633 1.200230956078
102.175514221191 -62.585426330566 -81.740287780762 1.465433597565
-62.075237274170 -65.448890686035 -89.492103576660 1.034332633018
-63.716686248779 -64.826751708984 -93.604141235352 0.911394834518
44.163532257080 -67.391792297363 -92.229476928711 4.634468078613
-66.155342102051 -67.633300781250 -97.171592712402 1.466143727303
-72.806533813477 -64.683128356934 -97.366348266602 2.777634620667
-99.818847656250 -62.905204772949 -95.893928527832 2.328060865402
-74.697509765625 -65.500617980957 -102.307495117188 1.763050556183
47.429752349854 -65.582809448242 -102.976058959961 0.876278936863
-69.491172790527 -67.120590209961 -104.139671325684 1.860821127892
50.791957855225 -66.108718872070 -98.520515441895 1.068903207779
101.174179077148 -63.342945098877 -102.586700439453 1.445168614388
93.250808715820 -63.086925506592 -106.982574462891 3.142936944962
-72.286132812500 -62.853115081787 -112.219398498535 3.602892875671
-81.200798034668 -63.018920898438 -111.593856811523 1.357446908951
-59.164524078369 -66.255676269531 -116.194938659668 3.192491769791
-94.777252197266 -66.789581298828 -118.886596679688 2.625599384308
-76.005889892578 -65.216323852539 -130.036575317383 1.887712597847
-89.658645629883 -62.007183074951 -123.778396606445 3.124525070190
-57.939254760742 -62.642833709717 -118.284881591797 1.927375555038
-58.000267028809 -60.239685058594 -119.743911743164 0.878824830055
-86.475364685059 -65.025527954102 -126.664184570313 1.688515663147
-62.362483978271 -68.442710876465 -129.742965698242 1.712502241135
-86.784538269043 -64.646987915039 -129.747756958008 1.598991751671
-73.954116821289 -69.426994323730 -128.799377441406 1.697974801064
-63.040756225586 -62.186523437500 -130.569290161133 1.340307712555
-63.401470184326 -62.240745544434 -134.465347290039 2.138140439987
-56.117904663086 -65.869041442871 -138.428497314453 0.777951419353
-88.909851074219 -65.814216613770 -132.578399658203 2.400031566620
-94.564888000488 -68.124412536621 -143.858413696289 2.355403900146
-86.554977416992 -63.810504913330 -135.373672485352 1.970800995827
19.873847961426 -66.481216430664 -146.515869140625 1.770917534828
-51.707050323486 -67.639732360840 -140.667007446289 1.550917744637
15.909206390381 -65.652496337891 -149.593505859375 1.656129479408
-95.302444458008 -64.097000122070 -159.843856811523 2.010012149811
-103.107528686523 -65.882827758789 -172.953155517578 2.492858171463
-98.304222106934 -64.409233093262 -169.405426025391 3.944671154022
-106.514213562012 -63.435253143311 -165.917007446289 1.203822970390
-105.566574096680 -67.094192504883 -179.188796997070 1.152333974838
-106.675788879395 -67.072326660156 -178.241744995117 1.310294389725
-142.444808959961 -62.935234069824 -190.823242187500 3.462354421616
-112.740318298340 -63.511688232422 -188.956466674805 1.634513139725
-134.777908325195 -67.475891113281 -194.775863647461 2.009216308594
-144.220550537109 -66.249458312988 -198.276046752930 2.785922527313
-118.996429443359 -65.376396179199 -192.932327270508 4.011341571808
-152.479888916016 -67.418518066406 -200.013015747070 1.253872156143
-146.706390380859 -67.861183166504 -201.956741333008 2.274659395218
-123.884094238281 -63.928607940674 -201.089431762695 1.553040623665
-132.857620239258 -64.777305603027 -201.030731201172 1.476843953133
-144.642700195313 -63.195381164551 -208.153091430664 2.381717920303
-131.066680908203 -69.430023193359 -226.863861083984 2.934505224228
-115.556037902832 -64.794059753418 -230.477661132813 1.291499972343
-148.119125366211 -68.560623168945 -230.438659667969 1.884801626205
-116.435295104980 -66.864112854004 -231.448089599609 2.780532598495
-111.908317565918 -61.468063354492 -229.328536987305 3.807273864746
-126.788246154785 -63.485126495361 -235.715789794922 3.016344785690
-125.788146972656 -65.774009704590 -232.185806274414 1.734986066818
-118.412277221680 -65.042869567871 -233.966156005859 1.185568094254
1.346618175507 -66.602615356445 -234.470245361328 1.753673076630
-150.570236206055 -65.516983032227 -238.711517333984 3.168646335602
7.402002334595 -64.888717651367 -233.103958129883 2.382572650909
7.638047695160 -64.997039794922 -236.814804077148 1.392305254936
0.016963951290 -65.161140441895 -239.779907226563 2.026820182800
15.000211715698 -65.636260986328 -242.465316772461 2.407780170441
-145.926010131836 -65.121231079102 -235.255523681641 2.210563659668
-5.628512859344 -64.407775878906 -243.266281127930 1.807840943336
19.439361572266 -65.619369506836 -245.049041748047 2.380864858627
46.699451446533 -66.089569091797 -250.075103759766 1.081245064735
52.413394927979 -66.929962158203 -248.531433105469 2.142228841782
-149.979553222656 -65.274589538574 -250.493225097656 3.440729856491
-7.403429508209 -66.987831115723 -250.879302978516 2.717302560806
29.192853927612 -61.551273345947 -258.655029296875 2.394691705704
-135.235671997070 -67.497299194336 -259.968658447266 2.197753667831
-126.947120666504 -67.564781188965 -258.548034667969 2.153780937195
-125.781425476074 -66.198631286621 -258.082122802734 1.208032488823
25.839532852173 -66.586875915527 -257.963104248047 1.169915676117
-135.256729125977 -66.637863159180 -263.810516357422 1.771016001701
27.452547073364 -71.223709106445 -264.806823730469 1.763612031937
28.190067291260 -67.104850769043 -263.092254638672 0.647990286350
-149.058212280273 -65.076080322266 -265.375152587891 0.898390114307
-147.879394531250 -66.340835571289 -290.588867187500 1.444345355034
-150.408813476563 -64.691749572754 -289.771575927734 1.612075805664
-143.385742187500 -64.237525939941 -290.834564208984 0.738408446312
7.087253093719 -68.876129150391 -292.501098632813 1.801904082298
-152.997772216797 -63.494461059570 -295.828674316406 1.148149251938
46.198551177979 -71.900634765625 -25.710577011108 0.742250919342
38.367759704590 -68.503639221191 -37.788856506348 1.263370633125
-66.377227783203 -69.679153442383 -45.018539428711 1.916591048241
-72.655769348145 -61.213294982910 -43.161224365234 2.304722309113
-26.430206298828 -68.223190307617 -49.493934631348 3.493279933929
-21.485874176025 -66.731781005859 -54.548820495605 2.259736299515
-16.239871978760 -63.224498748779 -62.666320800781 3.938139677048
-23.361671447754 -63.862586975098 -67.166549682617 1.452718496323
65.851333618164 -65.864044189453 -74.504112243652 2.079838275909
-96.004829406738 -62.770385742188 -75.006164550781 1.942118883133
-46.145065307617 -68.037223815918 -83.747245788574 1.958582997322
55.806613922119 -67.878868103027 -86.210556030273 2.303550958633
54.086662292480 -66.229156494141 -88.460784912109 1.635044336319
66.275413513184 -64.605995178223 -90.029373168945 2.112658739090
105.050727844238 -64.495231628418 -90.152297973633 0.736332118511
50.840301513672 -61.380577087402 -92.350296020508 2.022694349289
97.755134582520 -67.241401672363 -99.167808532715 2.061046123505
-79.402587890625 -65.386726379395 -102.557548522949 2.246800422668
-95.478073120117 -65.256240844727 -102.856536865234 1.996522784233
78.751853942871 -67.618591308594 -108.195632934570 2.359648704529
-72.305610656738 -65.348037719727 -103.720848083496 2.754133701324
-76.039253234863 -67.572288513184 -118.135726928711 2.136000394821
-81.284965515137 -66.810195922852 -117.678306579590 2.424892902374
-54.650779724121 -68.181205749512 -127.965118408203 1.788660764694
-79.211341857910 -64.335449218750 -125.644821166992 0.654578804970
-60.822582244873 -63.666362762451 -131.517562866211 1.311134219170
-80.494514465332 -65.521759033203 -134.123504638672 1.485274672508
-75.452972412109 -62.068424224854 -132.596191406250 2.279744625092
-82.712600708008 -61.368255615234 -124.397842407227 1.427876591682
-86.001037597656 -65.807861328125 -129.941665649414 1.319598317146
-65.032424926758 -63.019493103027 -133.077880859375 1.410149097443
-86.926223754883 -64.378715515137 -131.328613281250 2.075329542160
-51.074268341064 -66.584220886230 -134.411331176758 0.722780764103
-57.324783325195 -66.407051086426 -137.680938720703 0.828028976917
24.773694992065 -66.192970275879 -138.091522216797 1.421564936638
-56.618885040283 -61.790615081787 -138.884140014648 1.359986901283
16.682106018066 -66.310585021973 -145.258148193359 1.550492882729
18.728111267090 -66.817352294922 -146.198303222656 2.721832036972
18.529888153076 -66.461990356445 -153.435943603516 1.400722384453
-94.915885925293 -66.242279052734 -144.445022583008 1.835773825645
-92.106719970703 -69.302009582520 -151.319671630859 3.023191690445
-95.154022216797 -62.310848236084 -151.250228881836 1.763063788414
-104.470954895020 -64.260597229004 -159.513778686523 2.259633779526
-94.608161926270 -63.714710235596 -156.550964355469 1.466827154160
-151.324279785156 -68.520294189453 -174.817581176758 2.370970249176
-154.017730712891 -64.874130249023 -177.840133666992 2.441259622574
-105.890220642090 -65.858459472656 -182.133209228516 2.158106088638
-142.767150878906 -62.411014556885 -179.147323608398 2.535658359528
-107.635780334473 -62.841766357422 -180.143524169922 1.773688554764
-148.385757446289 -62.988735198975 -189.653305053711 2.968269586563
-110.436820983887 -66.299041748047 -193.269332885742 2.664130210876
-108.373336791992 -61.925472259521 -187.800872802734 2.762120246887
-139.382766723633 -64.190216064453 -194.723526000977 3.158699035645
-134.001419067383 -65.592964172363 -198.679183959961 2.516279935837
-106.521476745605 -63.721920013428 -197.961013793945 3.201546907425
-116.383758544922 -66.162490844727 -198.659988403320 2.376927614212
-111.160011291504 -61.274299621582 -198.461456298828 2.645967960358
-112.294647216797 -60.949642181396 -201.942199707031 3.299716711044
-132.501678466797 -63.102756500244 -196.970214843750 1.313967943192
-132.975097656250 -64.185989379883 -202.732513427734 1.568158864975
-132.740646362305 -64.185058593750 -203.655227661133 1.518764376640
-123.666656494141 -62.820838928223 -204.590469360352 0.790472030640
-128.660339355469 -62.018821716309 -205.089736938477 2.480691432953
-112.726715087891 -64.693809509277 -203.487655639648 1.319235324860
-144.203292846680 -64.168960571289 -215.818771362305 2.917278528214
-148.360977172852 -67.227272033691 -223.283905029297 2.504639863968
-153.300857543945 -63.695976257324 -222.202575683594 1.551053285599
-144.201583862305 -68.357444763184 -225.620330810547 1.869095087051
-132.870880126953 -69.372459411621 -226.406646728516 1.341753482819
-125.480041503906 -69.845611572266 -221.309295654297 2.065551280975
-146.186660766602 -66.165359497070 -229.616210937500 1.368613839149
-148.737991333008 -69.475471496582 -227.852691650391 1.725548982620
-134.545166015625 -61.848556518555 -226.805633544922 3.439924955368
-131.302642822266 -64.320739746094 -227.092346191406 1.248780488968
-151.479995727539 -65.849868774414 -231.387664794922 2.475316047668
-134.587234497070 -64.911476135254 -232.539825439453 0.795315980911
-125.529914855957 -63.893360137939 -225.694244384766 2.298414945602
-6.100370407104 -68.034889221191 -235.774047851563 0.840671837330
3.006685733795 -65.689193725586 -235.911239624023 1.166563749313
13.061595916748 -63.598964691162 -241.913711547852 1.429681897163
11.883275032043 -65.495101928711 -246.630310058594 2.025082588196
-7.881598472595 -64.589927673340 -242.294342041016 1.506088137627
-11.820461273193 -68.843925476074 -246.604827880859 2.180391550064
42.162036895752 -59.736515045166 -249.917114257813 4.913121700287
49.100692749023 -66.537887573242 -251.944824218750 2.112042188644
-140.813125610352 -59.858055114746 -254.490203857422 4.076407432556
43.816387176514 -63.798057556152 -257.605041503906 2.873178005219
31.509490966797 -67.498878479004 -252.507415771484 2.034385919571
-156.946182250977 -66.621604919434 -258.210723876953 2.422721624374
-151.734542846680 -64.069061279297 -259.093994140625 2.222745656967
-148.934448242188 -70.650100708008 -259.354644775391 1.759706616402
1.277231335640 -67.198974609375 -260.864868164063 2.548037290573
-148.098846435547 -62.324497222900 -263.342102050781 1.166235566139
2.108123540878 -67.219161987305 -273.768585205078 3.591260910034
-147.708679199219 -65.860023498535 -277.481658935547 0.814817190170
-150.586822509766 -63.091491699219 -282.699707031250 1.761338472366
-149.448959350586 -63.482952117920 -282.448486328125 2.159793615341
-149.556167602539 -65.820869445801 -284.130584716797 1.749569892883
-144.471984863281 -65.013671875000 -282.332977294922 2.292866706848
-154.644805908203 -65.125061035156 -283.928558349609 1.035214304924
-152.511322021484 -61.101264953613 -287.797729492188 1.883540391922
-148.408370971680 -64.215744018555 -285.503143310547 1.602191448212
-147.446548461914 -64.463912963867 -285.322998046875 1.456365108490
-144.291229248047 -62.215484619141 -287.169281005859 1.516978859901
12.017379760742 -60.961418151855 -285.427703857422 2.798498630524
-145.868133544922 -65.939140319824 -288.817077636719 1.608617305756
-157.538421630859 -66.570396423340 -288.879486083984 2.602321624756
-149.136474609375 -64.602294921875 -291.774780273438 1.956959128380
-150.156356811523 -63.983020782471 -294.249694824219 0.939658522606
-151.894973754883 -64.065948486328 -289.526855468750 2.202854633331
-145.273406982422 -61.781368255615 -294.707885742188 2.498281478882
0.763311684132 -66.374740600586 -293.246063232422 2.565058469772
-143.057754516602 -64.684204101563 -290.631866455078 0.953031122684
-143.572433471680 -64.721519470215 -293.186889648438 1.541604161263
27.603538513184 -58.363101959229 -17.651849746704 2.595703125000
41.671890258789 -67.034355163574 -18.521156311035 2.053913593292
46.728218078613 -66.542755126953 -20.588701248169 2.896264791489
20.245660781860 -69.642570495605 -31.021184921265 1.644795417786
31.353128433228 -64.391807556152 -37.719581604004 2.659678936005
39.518245697021 -68.156745910645 -34.780685424805 2.040315151215
-57.503616333008 -61.268207550049 -44.076545715332 2.459054946899
-48.907821655273 -65.073135375977 -43.446166992188 2.539830684662
92.040443420410 -59.741741180420 -63.811340332031 3.155467033386
-94.936729431152 -63.581283569336 -69.528274536133 2.624041557312
93.610839843750 -67.875976562500 -65.812553405762 1.640249967575
64.990905761719 -62.525810241699 -67.445915222168 2.757286310196
103.701034545898 -67.581611633301 -76.924018859863 2.308288574219
67.444900512695 -66.477821350098 -76.699142456055 2.039471149445
-38.317398071289 -67.119552612305 -77.142471313477 2.746797800064
57.753578186035 -64.380485534668 -82.186981201172 2.381906270981
-58.328022003174 -62.389999389648 -79.039520263672 1.562229275703
65.015342712402 -65.040710449219 -87.006858825684 2.285145282745
60.301151275635 -65.801078796387 -82.866508483887 1.206655263901
-101.528068542480 -60.403293609619 -83.348983764648 1.886399388313
53.700191497803 -62.980815887451 -89.066780090332 0.665773808956
52.773391723633 -67.007888793945 -88.481124877930 0.611617684364
64.682411193848 -63.579845428467 -94.026611328125 2.155692338943
54.009403228760 -61.425357818604 -95.767906188965 1.380998134613
-82.551322937012 -59.604629516602 -106.046257019043 4.009809017181
81.029289245605 -66.615081787109 -106.390136718750 2.225437402725
-75.948463439941 -64.198265075684 -114.212821960449 1.887333273888
-73.892990112305 -60.983821868896 -108.257667541504 2.472213029861
-80.277320861816 -64.657722473145 -120.438461303711 1.395228862762
-86.482086181641 -64.740913391113 -114.773117065430 2.626107692719
-92.609390258789 -66.386642456055 -115.968788146973 3.665334939957
-77.666954040527 -65.553466796875 -127.463317871094 1.096590518951
-54.949882507324 -60.591728210449 -127.108688354492 1.856333732605
-80.197486877441 -64.691406250000 -137.602355957031 2.464316129684
-56.614395141602 -59.714500427246 -135.643600463867 0.853820800781
-90.689773559570 -63.549884796143 -133.120559692383 0.742049634457
29.892791748047 -63.469768524170 -136.462829589844 1.944841265678
21.293212890625 -63.104625701904 -141.325912475586 0.952384710312
-91.589302062988 -64.139984130859 -142.591262817383 2.082097530365
19.618829727173 -63.155563354492 -149.581832885742 2.052621126175
-88.747566223145 -64.208824157715 -145.123718261719 2.045270442963
-92.640243530273 -62.625034332275 -145.495422363281 1.307024002075
17.527969360352 -62.274463653564 -153.797042846680 2.279748439789
-95.842468261719 -65.495803833008 -145.345306396484 1.345705509186
-93.279182434082 -62.111217498779 -150.152755737305 2.218162775040
-102.947685241699 -61.006698608398 -159.367233276367 3.866523265839
-98.160942077637 -61.274375915527 -159.446380615234 1.713209033012
-106.275344848633 -61.486797332764 -175.414215087891 2.341303348541
-109.570617675781 -63.946834564209 -168.139083862305 3.320190906525
-102.016586303711 -64.662628173828 -163.631530761719 2.573815107346
-106.958091735840 -58.399326324463 -167.408355712891 5.061172485352
-144.804809570313 -67.318168640137 -174.982818603516 1.622476935387
-108.643569946289 -63.897712707520 -178.979965209961 1.260915279388
-143.676025390625 -65.545700073242 -185.271911621094 2.022260427475
-148.413314819336 -63.002582550049 -190.775054931641 2.508682250977
-148.817596435547 -64.769355773926 -194.669189453125 2.606640338898
-125.153869628906 -66.076072692871 -194.124938964844 1.808323264122
-130.925521850586 -63.241119384766 -200.692687988281 2.104038953781
-122.033973693848 -63.945175170898 -201.725372314453 1.807193994522
-141.125885009766 -63.956748962402 -206.652664184570 2.804299592972
-125.344207763672 -63.741718292236 -204.861648559570 1.641873121262
-145.596115112305 -66.134284973145 -204.564422607422 1.304449915886
-148.112579345703 -64.338668823242 -203.764404296875 1.190972566605
-156.204208374023 -59.945446014404 -228.496185302734 2.492147207260
-145.241317749023 -66.170692443848 -234.734451293945 1.486317873001
-125.109497070313 -65.261528015137 -232.693054199219 1.199361801147
-157.046325683594 -61.030673980713 -235.843765258789 4.479190349579
-2.981082439423 -67.067863464355 -237.217742919922 0.487481296062
14.676763534546 -61.616950988770 -241.609191894531 2.256607294083
-3.954283475876 -66.651000976563 -245.400604248047 2.907700061798
-148.601974487305 -64.474769592285 -245.579330444336 1.132636427879
-2.522848844528 -62.948379516602 -245.048522949219 1.183839321136
-144.753570556641 -60.614494323730 -253.610473632813 2.443187236786
-7.596024990082 -60.909423828125 -245.825698852539 2.984977483749
-148.168746948242 -59.534877777100 -251.963928222656 2.287111043930
24.290536880493 -68.933792114258 -254.986694335938 1.187006115913
-151.803100585938 -62.659587860107 -256.897064208984 1.599216699600
-148.623687744141 -60.270282745361 -258.197845458984 1.790320634842
-156.623977661133 -65.520530700684 -253.261657714844 3.570468187332
-147.276275634766 -60.124958038330 -259.860198974609 1.946502804756
36.868671417236 -62.822296142578 -259.372711181641 1.606503009796
32.578060150146 -63.701702117920 -260.356628417969 2.169355630875
-147.344360351563 -62.863285064697 -258.511474609375 1.398545622826
-151.170928955078 -64.082267761230 -258.899719238281 2.094115495682
-153.011779785156 -62.863029479980 -262.464782714844 1.207751393318
-145.999328613281 -60.594806671143 -262.607513427734 2.608073234558
27.894155502319 -60.329002380371 -263.540252685547 1.943772673607
27.343896865845 -67.615928649902 -261.516113281250 0.915763914585
-149.692642211914 -65.039962768555 -266.443481445313 0.717411875725
-142.905563354492 -62.199630737305 -261.792205810547 0.757694721222
-150.745285034180 -61.952789306641 -262.140045166016 1.459414482117
-145.886291503906 -66.349853515625 -261.637603759766 2.149446964264
-148.326934814453 -66.962074279785 -267.397827148438 3.095473766327
-148.914703369141 -65.951034545898 -265.879577636719 1.527715682983
-150.832809448242 -59.598194122314 -268.285858154297 5.237531185150
-148.762756347656 -64.621017456055 -284.941345214844 2.198333501816
-149.414215087891 -64.415626525879 -281.434326171875 1.938349604607
-149.436828613281 -63.070617675781 -282.637878417969 2.082727432251
17.339118957520 -64.484725952148 -281.783966064453 1.885081052780
-152.146591186523 -65.181129455566 -285.370513916016 2.250553369522
-149.837387084961 -63.691574096680 -284.672088623047 0.897211492062
-1.393078446388 -63.412578582764 -289.407379150391 2.168393373489
7.999087810516 -63.442165374756 -295.947631835938 4.193840503693
-151.487442016602 -67.522979736328 -295.112792968750 1.615531802177
28.780544281006 -69.970581054688 -21.997808456421 0.890861272812
46.758193969727 -66.388877868652 -28.144109725952 3.595402240753
51.245410919189 -67.974487304688 -31.667631149292 1.930907726288
43.266815185547 -59.482078552246 -31.808576583862 2.928322315216
24.800148010254 -73.374832153320 -36.958747863770 2.476251602173
42.243564605713 -71.480865478516 -37.936157226563 1.370085120201
84.236671447754 -62.125179290771 -58.003334045410 1.871919155121
73.828330993652 -65.192962646484 -62.019805908203 1.687662124634
-10.703284263611 -64.650718688965 -63.821670532227 0.567300915718
68.655357360840 -61.983078002930 -71.434387207031 2.400019645691
-27.306701660156 -65.877502441406 -75.007781982422 2.054035186768
-27.176044464111 -68.244659423828 -78.653305053711 1.933864355087
-55.268325805664 -61.690994262695 -78.160705566406 1.943986058235
-52.310535430908 -61.358455657959 -79.733116149902 1.227741479874
65.947013854980 -63.697750091553 -81.753860473633 2.140734910965
100.755485534668 -65.281753540039 -87.523849487305 2.977248668671
-62.277175903320 -66.482391357422 -88.259185791016 0.879747807980
54.263156890869 -65.211517333984 -93.529136657715 1.660901188850
63.393169403076 -63.467140197754 -90.538383483887 2.070924520493
105.539947509766 -67.467803955078 -96.276184082031 2.047187328339
-63.323875427246 -61.749038696289 -95.215560913086 2.583136320114
54.864482879639 -62.646892547607 -94.205642700195 1.024492263794
-71.389160156250 -63.740753173828 -103.484252929688 2.378508090973
71.487243652344 -64.941955566406 -93.585800170898 4.832045078278
67.093299865723 -65.085990905762 -101.634315490723 1.646181941032
-71.316192626953 -65.722793579102 -108.737709045410 1.070782899857
-96.970542907715 -63.641036987305 -108.697402954102 2.516095638275
-69.547416687012 -60.178859710693 -108.805908203125 1.685379505157
-83.461654663086 -64.695159912109 -111.246025085449 1.484055161476
-67.789527893066 -60.590507507324 -116.963661193848 1.800924539566
-82.076873779297 -62.485443115234 -110.587303161621 1.150336980820
-75.563034057617 -66.179069519043 -114.786468505859 1.403114199638
-75.856483459473 -63.154800415039 -116.905143737793 1.101318120956
-65.058258056641 -64.664314270020 -117.470664978027 1.341316819191
-81.155387878418 -62.895496368408 -128.038131713867 1.661542177200
33.657512664795 -62.097537994385 -124.722076416016 2.112508535385
-51.691596984863 -64.447235107422 -129.996368408203 2.565482139587
32.580875396729 -64.211753845215 -128.064025878906 2.002809762955
30.765010833740 -63.821659088135 -133.374511718750 1.643384814262
33.003505706787 -62.518600463867 -131.721817016602 1.289646148682
-51.176902770996 -59.057502746582 -135.305480957031 4.070279121399
21.931810379028 -61.264465332031 -144.864166259766 3.021744489670
26.450094223022 -62.972030639648 -141.385299682617 0.912021219730
-145.408187866211 -63.033428192139 -174.396575927734 1.871561050415
-148.360656738281 -62.551933288574 -174.091079711914 1.596119880676
-151.830520629883 -66.734924316406 -178.601074218750 2.171625375748
-149.466644287109 -64.744316101074 -184.478210449219 2.498663902283
-145.807739257813 -62.285003662109 -188.433547973633 0.968301534653
-148.168029785156 -68.755416870117 -193.358947753906 3.174167633057
-143.112670898438 -69.042663574219 -192.222564697266 2.143151521683
-148.483901977539 -60.533134460449 -196.822738647461 0.287161439657
-124.725669860840 -60.705112457275 -199.404998779297 2.655986547470
-130.830215454102 -61.775714874268 -202.657211303711 2.398722171783
-145.157653808594 -62.084011077881 -211.485916137695 0.995887100697
-146.884323120117 -59.343875885010 -223.573944091797 1.585834264755
-151.325469970703 -60.609752655029 -226.087341308594 1.158238887787
-147.574188232422 -60.275512695313 -229.360214233398 2.109559535980
-153.319427490234 -58.716384887695 -227.462829589844 2.848430871964
-147.484085083008 -61.583717346191 -228.056076049805 0.613791406155
-150.628097534180 -62.252105712891 -227.312393188477 1.318314433098
-148.383911132813 -66.467872619629 -229.870132446289 0.490910530090
-142.553512573242 -61.790695190430 -231.762496948242 1.888402819633
-145.369613647461 -61.359584808350 -237.168975830078 2.446038484573
-151.416442871094 -64.692253112793 -231.403671264648 1.966194152832
7.229518413544 -66.002845764160 -240.342468261719 2.209548234940
-11.260811805725 -67.288772583008 -240.186386108398 1.441993474960
-146.015228271484 -61.297351837158 -237.561294555664 2.432914018631
-149.791397094727 -64.972427368164 -236.684585571289 2.183160781860
-151.453857421875 -61.959396362305 -234.295440673828 1.189547777176
9.522837638855 -64.348152160645 -246.482757568359 2.835843801498
-153.626663208008 -61.560009002686 -241.780899047852 3.650724887848
-146.839187622070 -61.052291870117 -254.683929443359 1.805617928505
-4.015113830566 -63.449398040771 -249.419097900391 2.108139276505
-150.354888916016 -58.736892700195 -253.257812500000 3.083705186844
-148.236602783203 -61.456165313721 -255.538330078125 1.307372093201
-145.538345336914 -61.624317169189 -257.182830810547 1.248223304749
-141.194488525391 -60.871135711670 -255.681396484375 2.793168306351
28.388305664063 -62.942203521729 -259.227630615234 1.959051370621
-148.191818237305 -62.496456146240 -267.144195556641 2.512963056564
22.753171920776 -64.565742492676 -272.438262939453 2.851588010788
16.294713973999 -67.194274902344 -288.238342285156 2.568476676941
5.500801563263 -61.700149536133 -291.176635742188 2.083166122437
11.147287368774 -61.687206268311 -291.512939453125 2.678415060043
31.976005554199 -60.615463256836 -17.235891342163 1.487442612648
46.339969635010 -68.502906799316 -36.343994140625 1.513562083244
33.528793334961 -68.514572143555 -37.565803527832 1.450976133347
-42.368362426758 -58.763851165771 -45.252891540527 2.297570705414
-88.417984008789 -60.852935791016 -53.243652343750 2.221791028976
-95.992897033691 -63.369476318359 -57.507301330566 2.815594673157
-18.412008285522 -62.069377899170 -64.992591857910 4.036141872406
99.778396606445 -60.514450073242 -71.988914489746 2.829587221146
106.383193969727 -58.169406890869 -72.585952758789 3.163082838058
104.118316650391 -63.473247528076 -75.502029418945 1.566402792931
-50.477306365967 -65.218757629395 -83.435844421387 1.653451561928
-62.643352508545 -61.732532501221 -85.438056945801 1.702253222466
59.275386810303 -58.831054687500 -86.309616088867 0.758436977863
53.997493743896 -57.790252685547 -86.582115173340 3.195300817490
-65.463600158691 -59.842544555664 -96.272880554199 1.888089656830
-96.398513793945 -60.632221221924 -103.640029907227 2.810796976089
81.347099304199 -66.062355041504 -104.741645812988 1.137611627579
-78.746520996094 -63.375312805176 -111.135841369629 1.379841446877
-67.215209960938 -55.582519531250 -111.508842468262 3.029130220413
-78.375198364258 -61.161800384521 -114.685737609863 1.415762186050
-84.779876708984 -63.076370239258 -112.877479553223 1.128993868828
-79.976829528809 -62.677867889404 -117.687011718750 0.873420596123
-69.522644042969 -64.477325439453 -117.162315368652 2.723714113235
-63.713199615479 -62.106693267822 -119.614242553711 2.472136974335
-81.011192321777 -65.581886291504 -117.275955200195 2.103188514709
-77.504508972168 -61.505836486816 -115.656944274902 1.065709233284
-62.639602661133 -60.835945129395 -120.979583740234 2.754590511322
-83.767074584961 -61.821872711182 -119.971832275391 1.575096726418
-77.981300354004 -61.193374633789 -123.685729980469 1.810283303261
-75.417465209961 -63.440277099609 -124.153305053711 1.271631360054
-77.475769042969 -63.331165313721 -132.510803222656 1.991472363472
27.022111892700 -60.326850891113 -127.118560791016 2.970847606659
-55.400905609131 -62.152183532715 -132.584289550781 1.358089447021
26.988992691040 -59.539245605469 -133.543655395508 1.342008113861
24.462392807007 -63.198715209961 -138.469390869141 2.323534488678
-146.574707031250 -57.992324829102 -194.087768554688 2.523668050766
-139.232177734375 -62.764301300049 -198.986206054688 1.878591775894
-156.170730590820 -59.040428161621 -204.425262451172 4.147603511810
-151.234313964844 -61.286922454834 -199.872573852539 1.367142081261
-155.204544067383 -64.884216308594 -202.733917236328 2.307339429855
-154.525085449219 -61.062015533447 -202.111907958984 1.996655106544
-141.917388916016 -62.302932739258 -202.766754150391 1.710875034332
-150.551071166992 -67.715209960938 -205.721267700195 1.705676198006
-151.081604003906 -62.315029144287 -225.549560546875 0.815724432468
-151.805908203125 -56.778446197510 -222.691696166992 4.049523353577
-146.778549194336 -61.362926483154 -223.096817016602 0.906394600868
-147.204742431641 -64.716804504395 -227.027999877930 2.036015748978
-149.371795654297 -62.169933319092 -227.860382080078 1.640556931496
-142.086364746094 -64.073432922363 -224.580749511719 1.706070303917
-143.620681762695 -62.604282379150 -227.677368164063 1.054513692856
-143.256561279297 -60.888748168945 -224.851181030273 1.895120978355
-140.732391357422 -63.451747894287 -227.156021118164 1.893091797829
-144.062255859375 -58.968551635742 -230.107879638672 2.285405635834
-147.320007324219 -61.105457305908 -235.352157592773 1.092856645584
-147.069808959961 -60.419731140137 -236.643707275391 2.529805421829
3.878982543945 -60.945682525635 -238.299591064453 0.993050813675
15.698551177979 -60.307826995850 -241.448577880859 1.527336835861
26.595155715942 -62.476280212402 -254.055236816406 2.517175674438
26.006574630737 -61.049938201904 -260.513336181641 1.526740908623
7.063138484955 -63.346416473389 -264.054229736328 3.032741546631
19.561475753784 -63.546310424805 -276.748687744141 3.030661344528
-0.381673395634 -61.153018951416 -280.657928466797 3.402025938034
8.919939994812 -58.892978668213 -291.590942382813 0.578130364418
7.369160175323 -60.945056915283 -289.478271484375 1.560354232788
48.953247070313 -67.662368774414 -16.716344833374 3.300114870071
28.871078491211 -58.739002227783 -37.932426452637 2.894973516464
-27.758171081543 -63.570518493652 -49.080741882324 1.010712146759
-16.033882141113 -58.250984191895 -50.297767639160 1.388269662857
-12.462977409363 -63.881244659424 -54.191589355469 3.289504289627
92.522819519043 -63.106479644775 -63.483222961426 3.087823867798
-98.371482849121 -60.668441772461 -70.398406982422 1.807268738747
103.765098571777 -63.425304412842 -73.919410705566 1.359898686409
56.507312774658 -59.543758392334 -83.785568237305 1.952458262444
63.849475860596 -62.984981536865 -87.349197387695 2.386706352234
-65.497909545898 -62.714073181152 -88.426498413086 2.800118207932
54.677032470703 -63.787033081055 -92.631019592285 1.729953646660
60.575740814209 -60.525032043457 -95.159011840820 2.542726516724
104.970153808594 -61.099361419678 -99.249504089355 2.580430030823
-66.223434448242 -58.387428283691 -93.594413757324 3.231121063232
-67.656394958496 -59.819496154785 -103.856437683105 1.165832996368
73.566802978516 -62.433799743652 -106.991638183594 0.849241912365
-76.112312316895 -59.494060516357 -107.739173889160 1.761678695679
-59.335323333740 -58.849296569824 -112.283180236816 2.255569934845
37.662929534912 -59.215843200684 -115.252853393555 2.466489553452
-82.649818420410 -62.138690948486 -125.094253540039 0.760112583637
38.942733764648 -61.174324035645 -118.381469726563 2.218531131744
-92.392608642578 -61.837463378906 -117.569305419922 3.496611595154
-95.212379455566 -64.293144226074 -123.285964965820 2.829558372498
-66.561576843262 -62.757530212402 -124.716049194336 0.987903118134
36.483299255371 -62.493152618408 -124.135742187500 1.897180318832
-60.640430450439 -63.730297088623 -127.647781372070 2.192559957504
-60.138507843018 -62.771148681641 -133.434432983398 1.942336678505
-54.024635314941 -62.154743194580 -139.902679443359 2.374177694321
-147.288955688477 -57.836933135986 -197.039672851563 2.902710914612
-147.806945800781 -59.420345306396 -192.987838745117 2.644846916199
-146.874801635742 -63.517196655273 -194.996688842773 2.192731380463
-153.989532470703 -60.609527587891 -195.344802856445 1.106903672218
-152.161026000977 -61.559471130371 -198.672470092773 0.564865112305
-140.128738403320 -61.451499938965 -195.484115600586 2.588449478149
-140.633087158203 -61.670978546143 -202.374938964844 1.747171163559
-145.027023315430 -59.709617614746 -201.231796264648 2.010572910309
-147.196151733398 -62.077171325684 -201.760192871094 0.872972786427
-152.478439331055 -57.235401153564 -201.795227050781 2.730357885361
-141.946792602539 -61.194435119629 -205.117950439453 1.762407660484
-144.359237670898 -60.183677673340 -203.620117187500 1.310994625092
-147.843109130859 -57.850299835205 -206.705886840820 2.225419998169
-150.625885009766 -60.097881317139 -205.459960937500 0.461892604828
-144.618957519531 -59.995971679688 -223.915374755859 2.048389911652
-8.114421844482 -63.952213287354 -240.217285156250 1.963332891464
5.694257259369 -60.618320465088 -238.742004394531 2.582271575928
14.706272125244 -61.648872375488 -244.901336669922 2.551195859909
5.773171424866 -60.024383544922 -244.689422607422 1.295068144798
22.838737487793 -65.110778808594 -247.977233886719 3.132673978806
0.061314333230 -63.120616912842 -258.098022460938 1.231246829033
7.442151069641 -61.605590820313 -271.215148925781 2.100658655167
26.903142929077 -61.099388122559 -270.918914794922 2.392128705978
18.211458206177 -61.407829284668 -282.315551757813 3.024929761887
