-121.155258178711 -63.693405151367 -290.664581298828 2.694407939911
-74.600326538086 -71.845909118652 -103.601715087891 2.381585597992
-0.327692985535 -75.274520874023 -242.508041381836 2.540502786636
1.979778051376 -61.477329254150 -279.386230468750 2.890843629837
11.505374908447 -75.708160400391 -235.699035644531 2.273574590683
-144.667984008789 -70.208679199219 -193.435485839844 1.185510754585
-95.914741516113 -70.173553466797 -106.797439575195 2.111010789871
107.320655822754 -75.983009338379 -190.109634399414 1.334476709366
-35.936000823975 -67.055679321289 -78.158843994141 0.667981445789
106.805496215820 -72.923995971680 -103.727210998535 1.825403690338
13.736906051636 -68.503128051758 -216.250839233398 0.967824280262
-145.181732177734 -70.069770812988 -199.923522949219 2.594813108444
59.543441772461 -61.657211303711 -89.676208496094 2.414808273315
-157.828598022461 -71.980987548828 -196.756118774414 1.904447197914
89.070861816406 -78.794509887695 -80.853897094727 2.220135450363
-106.407943725586 -71.606048583984 -224.329086303711 0.816993117332
42.746078491211 -74.503623962402 -116.333312988281 2.159091711044
-124.856361389160 -67.799125671387 -268.778594970703 3.753194570541
-68.360610961914 -71.101158142090 -248.526519775391 1.450910568237
23.716455459595 -80.301246643066 -167.383560180664 1.348228454590
5.905825138092 -82.592849731445 -250.303268432617 1.756981849670
18.944295883179 -72.286010742188 -160.621124267578 1.821880221367
26.669555664063 -77.477134704590 -156.188247680664 1.263234972954
-147.165527343750 -78.137199401855 -225.757095336914 1.142757296562
82.445678710938 -73.198661804199 -230.351974487305 0.904200732708
-5.918869018555 -76.785812377930 -170.998901367188 1.640430808067
-74.083686828613 -74.767807006836 -51.313735961914 3.065000057220
-64.351524353027 -68.681838989258 -41.948989868164 2.339188098907
-155.279510498047 -81.139396667480 -277.305023193359 4.119463443756
-98.699020385742 -64.429824829102 -147.442123413086 1.013009428978
-0.177999004722 -69.195198059082 -234.298995971680 1.340897560120
104.261711120605 -74.642745971680 -175.071228027344 1.569820165634
9.809640884399 -81.592369079590 -240.851470947266 2.197807550430
-29.035034179688 -66.848144531250 -183.547775268555 1.409562468529
2.904509067535 -75.861228942871 -158.043441772461 1.921545982361
-90.363128662109 -76.878486633301 -92.241233825684 1.805905222893
-61.023418426514 -71.595916748047 -139.771560668945 2.572409391403
36.680416107178 -82.013313293457 -152.725250244141 5.740643024445
30.133539199829 -67.840034484863 -253.805847167969 3.503743886948
-146.055740356445 -69.859268188477 -312.019653320313 1.827205777168
87.378334045410 -72.665275573730 -211.749176025391 1.079543590546
45.550643920898 -71.903259277344 -108.370513916016 3.109648227692
99.589210510254 -56.431034088135 -71.045539855957 2.744804620743
21.770103454590 -74.001121520996 -212.549880981445 3.338262796402
-138.654891967773 -74.751983642578 -258.646270751953 1.822880506516
-92.396423339844 -71.669563293457 -222.869659423828 2.709711313248
-96.141082763672 -74.296867370605 -93.378753662109 3.285046339035
-113.587684631348 -68.508041381836 -230.690582275391 2.289523601532
-162.613616943359 -66.702362060547 -197.098358154297 2.078750371933
18.130311965942 -81.871269226074 -249.225250244141 1.915163516998
-19.350130081177 -72.896774291992 -293.312500000000 3.038542270660
107.943916320801 -77.164627075195 -151.289093017578 2.419427871704
96.478584289551 -67.249938964844 -75.779701232910 5.031814575195
26.068548202515 -79.171897888184 -184.162658691406 2.463224411011
-54.963607788086 -74.800521850586 -132.485946655273 2.190610408783
-17.321668624878 -66.126197814941 -68.384933471680 2.699828624725
106.861557006836 -60.156799316406 -91.326980590820 2.535004854202
-62.827133178711 -60.420089721680 -116.682785034180 2.869789838791
23.885015487671 -67.762107849121 -35.280914306641 2.351215600967
-24.223834991455 -75.147827148438 -193.720657348633 2.130881786346
-99.501937866211 -71.112030029297 -75.057006835938 5.176980018616
20.702495574951 -70.355796813965 -153.337051391602 2.253205537796
-44.459205627441 -77.223060607910 -192.845214843750 1.395906567574
112.958366394043 -76.195281982422 -149.250762939453 2.022277832031
-128.166244506836 -67.916175842285 -235.878311157227 3.046853542328
-92.941001892090 -68.909454345703 -152.223892211914 1.823863625526
10.943010330200 -71.808349609375 -240.348220825195 1.141709566116
18.334909439087 -84.295669555664 -251.902999877930 3.993404626846
-40.549549102783 -88.788185119629 -76.782424926758 5.799953460693
-29.408840179443 -81.912033081055 -192.003540039063 1.825043082237
-82.306282043457 -64.680747985840 -120.793518066406 2.037288665771
-145.982986450195 -62.637035369873 -250.119445800781 2.555116176605
7.760999202728 -74.616050720215 -293.981964111328 1.872689485550
-65.532691955566 -77.797126770020 -164.384674072266 1.478857517242
-138.489669799805 -86.669242858887 -260.741607666016 2.023759365082
-145.958938598633 -63.625904083252 -188.365844726563 1.080973625183
-121.856140136719 -72.628097534180 -268.031036376953 4.247698783875
1.366374015808 -76.800422668457 -245.460418701172 0.949633181095
26.132200241089 -57.890899658203 -274.084411621094 3.014128446579
-68.445106506348 -70.754508972168 -158.943740844727 1.962274909019
109.481712341309 -76.166137695313 -155.619964599609 2.906546831131
18.314659118652 -75.259223937988 -239.771484375000 1.303107380867
18.447629928589 -67.707473754883 -286.895874023438 3.475373506546
-104.697906494141 -62.427215576172 -172.836456298828 2.547454357147
-160.634201049805 -72.382499694824 -214.023468017578 3.106900691986
28.493776321411 -70.996315002441 -156.414657592773 2.334622383118
-72.258026123047 -77.195510864258 -103.001579284668 2.959028005600
-148.805572509766 -81.573699951172 -299.015075683594 1.623942613602
108.991828918457 -73.402519226074 -181.622299194336 2.295856714249
-72.028549194336 -74.730644226074 -287.283966064453 2.886301279068
112.571792602539 -75.731193542480 -136.575515747070 2.075486898422
-94.402915954590 -67.303108215332 -143.234863281250 1.359521746635
-49.358772277832 -77.033096313477 -195.768768310547 1.002182602882
-21.496866226196 -77.185226440430 -75.214012145996 3.075143337250
42.679450988770 -62.515308380127 -251.346725463867 1.895305395126
22.197175979614 -68.460769653320 -25.735002517700 2.305458545685
-44.123168945313 -73.673622131348 -149.618865966797 0.751363337040
23.332376480103 -75.845085144043 -159.403793334961 2.505831956863
-146.311370849609 -62.651672363281 -235.837951660156 0.533774375916
45.861785888672 -79.440361022949 -119.366271972656 2.022864103317
-77.936950683594 -80.227523803711 -98.324920654297 2.702720165253
111.242012023926 -72.599792480469 -121.663436889648 1.458546876907
-98.594604492188 -76.997856140137 -221.005676269531 3.289639472961
-88.804573059082 -68.796325683594 -123.342437744141 2.974298238754
-69.532218933105 -73.038459777832 -151.024597167969 1.469159841537
93.003204345703 -69.282608032227 -69.957572937012 2.579558372498
38.927173614502 -63.115203857422 -35.078800201416 1.549607872963
-141.736312866211 -66.634399414063 -200.657913208008 2.108818292618
-145.774902343750 -67.961662292480 -197.560440063477 1.856644392014
-69.220848083496 -81.430961608887 -214.992843627930 2.505356550217
-164.862503051758 -70.071258544922 -208.063903808594 2.413360834122
-10.550217628479 -72.695274353027 -245.297546386719 1.430353641510
-166.390029907227 -69.612548828125 -227.889556884766 0.995391666889
-130.709121704102 -68.987152099609 -263.311370849609 2.364191055298
-55.975238800049 -64.244110107422 -134.878128051758 2.682745218277
22.974622726440 -71.355194091797 -205.486740112305 3.763811588287
-36.321506500244 -78.347656250000 -241.689880371094 0.931146979332
31.530605316162 -69.464134216309 -139.926971435547 2.175370693207
-73.883819580078 -62.431518554688 -100.830169677734 1.336471319199
-79.931838989258 -88.008644104004 -101.722404479980 2.596526861191
78.188735961914 -70.682273864746 -102.657524108887 1.723544597626
-153.115356445313 -76.656723022461 -274.020690917969 3.290877819061
-93.848236083984 -68.105613708496 -66.518287658691 2.089783191681
20.408750534058 -79.499717712402 -230.994583129883 2.614319324493
88.742126464844 -67.909538269043 -62.986320495605 1.881781578064
-139.360839843750 -74.737792968750 -200.511093139648 0.264113038778
46.669078826904 -73.899925231934 -119.347122192383 0.870312631130
-3.510072946548 -63.211757659912 -242.052337646484 1.080229640007
26.837116241455 -70.440010070801 -266.487457275391 2.192095518112
-14.963643074036 -72.525962829590 -67.156112670898 2.359714269638
-141.916793823242 -78.941215515137 -218.270050048828 3.558071851730
-94.243125915527 -73.185661315918 -112.559700012207 1.494977355003
-2.938513040543 -72.865074157715 -292.097869873047 2.687680006027
-169.047988891602 -71.325218200684 -221.681579589844 3.804360389709
36.182548522949 -73.353775024414 -117.612968444824 2.390954017639
14.542008399963 -72.292198181152 -247.819702148438 2.179139852524
37.928726196289 -62.314056396484 -260.180053710938 3.096339941025
-50.767650604248 -82.379730224609 -245.999038696289 3.371683120728
-13.983394622803 -78.069595336914 -211.098373413086 1.935365200043
-69.038162231445 -72.556243896484 -97.457519531250 2.581104278564
-41.061817169189 -78.777832031250 -156.722015380859 2.389616012573
-99.217742919922 -66.358200073242 -172.602584838867 2.549847126007
-28.893598556519 -69.718307495117 -175.342239379883 0.773833811283
43.442325592041 -70.483627319336 -253.369842529297 1.803823947906
-66.462181091309 -72.922935485840 -167.793594360352 1.758808612823
24.157983779907 -65.890136718750 -139.504608154297 1.610781192780
-143.407012939453 -81.938438415527 -260.330078125000 0.992592871189
-48.520168304443 -76.299880981445 -180.024459838867 2.799157619476
-24.195663452148 -73.400962829590 -222.399536132813 1.897331476212
-67.344818115234 -83.226722717285 -209.425033569336 0.555097103119
14.456945419312 -80.226402282715 -231.190994262695 1.910889744759
7.641006946564 -79.780616760254 -201.777511596680 2.751803874969
-148.235000610352 -75.021736145020 -233.706848144531 1.976222515106
29.889720916748 -72.041992187500 -156.663146972656 1.580703854561
35.132385253906 -67.067123413086 -130.970794677734 2.302601814270
-152.623962402344 -87.302955627441 -232.498672485352 4.639644145966
-8.480607986450 -70.845268249512 -281.605621337891 1.069628596306
73.106857299805 -70.066818237305 -233.871536254883 0.735895574093
-119.993583679199 -70.043006896973 -291.118804931641 1.958862423897
40.476932525635 -72.350349426270 -263.913848876953 6.559779167175
-104.883277893066 -69.427444458008 -191.519683837891 2.678205251694
-143.381896972656 -65.295768737793 -254.421005249023 1.754633903503
-60.232849121094 -63.395671844482 -122.993148803711 3.013168096542
-63.799026489258 -77.279228210449 -95.263694763184 1.407883286476
106.748359680176 -66.886589050293 -83.581710815430 3.104945182800
-143.384475708008 -77.774627685547 -187.251235961914 1.091518044472
-136.660766601563 -70.339721679688 -237.934448242188 3.855808734894
6.431112766266 -75.654251098633 -235.245254516602 1.845321178436
13.457627296448 -68.604949951172 -239.230178833008 2.785726547241
-8.932564735413 -72.064041137695 -203.393814086914 2.282754421234
-47.268501281738 -87.142028808594 -93.417037963867 7.549382686615
14.024485588074 -68.445922851563 -207.407119750977 2.836047887802
24.832361221313 -76.022377014160 -180.615951538086 1.517550826073
43.232833862305 -60.343692779541 -23.740854263306 2.686467885971
-23.489143371582 -70.644104003906 -224.023269653320 0.976530373096
21.273172378540 -70.064537048340 -161.915802001953 0.728757441044
11.604843139648 -81.563377380371 -224.205688476563 2.641746282578
-25.326778411865 -80.039695739746 -185.521652221680 1.581422328949
-93.717521667480 -63.612892150879 -144.476425170898 1.927419185638
109.707931518555 -67.630447387695 -166.296401977539 1.737993836403
-48.521282196045 -67.125396728516 -84.504112243652 1.638787746429
87.169425964355 -79.106971740723 -223.101058959961 2.890380144119
-94.449722290039 -68.685089111328 -69.453636169434 1.928133726120
-82.520286560059 -63.537639617920 -118.817138671875 0.529852807522
-2.720530033112 -75.794105529785 -218.091827392578 1.566589117050
-53.142169952393 -89.620262145996 -86.637741088867 3.397140741348
-77.863151550293 -79.000205993652 -107.014793395996 2.006530761719
25.038530349731 -62.715709686279 -145.353088378906 2.795494318008
-1.142650008202 -80.026145935059 -161.925857543945 1.986239314079
-151.010528564453 -74.423278808594 -209.375000000000 2.398422002792
61.464107513428 -67.796325683594 -244.620635986328 2.547795057297
-41.168899536133 -65.489273071289 -160.446853637695 3.733685255051
-36.788440704346 -66.207763671875 -178.487365722656 4.826082229614
7.944600105286 -73.101020812988 -227.010635375977 2.518539667130
27.162256240845 -83.477386474609 -158.087387084961 4.228368759155
111.293426513672 -74.886993408203 -132.227752685547 2.159080266953
21.519540786743 -74.682044982910 -198.481185913086 1.696377158165
35.237415313721 -72.946289062500 -251.244949340820 3.375556230545
-57.445449829102 -72.688568115234 -89.724563598633 2.520633459091
-56.396068572998 -83.479118347168 -205.572982788086 1.598865509033
-100.722640991211 -68.304840087891 -224.180755615234 1.875637888908
11.628898620605 -72.552902221680 -202.195449829102 0.996292889118
52.496974945068 -77.640579223633 -101.288368225098 0.461763799191
-39.946659088135 -72.366355895996 -55.574935913086 2.462379217148
-15.380492210388 -72.929092407227 -65.944755554199 1.747328042984
-85.690994262695 -74.166168212891 -217.447082519531 1.012823939323
46.430786132813 -66.867561340332 -25.655065536499 2.683326244354
-157.728271484375 -65.341186523438 -296.104675292969 3.790599107742
-44.380928039551 -77.815589904785 -168.462493896484 3.438241720200
1.687425971031 -65.423591613770 -290.034454345703 2.880090951920
-119.784027099609 -72.239387512207 -205.950531005859 4.240841865540
-154.783142089844 -72.195198059082 -177.987197875977 2.469131708145
1.035840988159 -74.184020996094 -239.468154907227 1.507895827293
65.678123474121 -63.601921081543 -90.909034729004 0.891679048538
17.452836990356 -79.104576110840 -258.552612304688 2.665829658508
-95.746505737305 -66.832672119141 -113.074279785156 3.756176471710
96.353759765625 -75.044242858887 -212.763839721680 2.424110174179
-75.457061767578 -72.167907714844 -143.975387573242 1.292764782906
-57.236946105957 -79.379981994629 -179.821182250977 1.754067063332
-40.321197509766 -66.036697387695 -49.828872680664 3.393683433533
-46.143020629883 -84.718444824219 -153.740310668945 4.809885025024
-49.169471740723 -75.433944702148 -190.738861083984 0.520673036575
23.114299774170 -69.260650634766 -142.052703857422 2.172542572021
45.480392456055 -72.010841369629 -36.038345336914 1.990452647209
14.168730735779 -77.371589660645 -209.619201660156 1.211816310883
-44.452548980713 -87.740646362305 -201.889526367188 2.937155723572
-144.479080200195 -84.301437377930 -222.646865844727 1.931285858154
83.181106567383 -63.038887023926 -56.531913757324 3.000227451324
-46.373798370361 -76.022392272949 -285.398498535156 2.562222003937
17.370584487915 -73.489288330078 -214.492523193359 1.870788693428
73.354728698730 -76.682624816895 -88.985229492188 2.361502885818
-129.048156738281 -70.152069091797 -257.287841796875 3.418536901474
-147.885742187500 -67.292274475098 -195.201507568359 2.671988248825
44.579772949219 -72.691711425781 -22.147325515747 2.115425825119
-137.951339721680 -64.102462768555 -257.246520996094 3.948740482330
-152.898040771484 -60.469387054443 -249.787078857422 3.815896034241
-158.261215209961 -72.432647705078 -264.004241943359 2.107254981995
-139.820236206055 -68.843246459961 -256.914184570313 2.260123252869
29.242509841919 -65.991073608398 -20.351696014404 1.174410223961
-147.448135375977 -73.892250061035 -190.432632446289 2.513442277908
98.647506713867 -71.603706359863 -205.902450561523 0.879265844822
-148.200256347656 -66.660644531250 -298.880310058594 2.119276046753
14.832272529602 -69.368797302246 -177.160644531250 1.806882858276
-6.872616767883 -66.004287719727 -216.262176513672 2.407589912415
-140.245223999023 -72.436248779297 -202.007949829102 0.725522637367
-61.426105499268 -76.299598693848 -140.942184448242 3.207297563553
-150.162765502930 -83.017715454102 -231.971191406250 0.749222457409
-101.182907104492 -64.533897399902 -82.849479675293 3.380289316177
103.618598937988 -76.012474060059 -165.145431518555 4.598120689392
-69.728942871094 -88.907882690430 -91.162986755371 1.392816305161
-133.564132690430 -73.842590332031 -254.639526367188 1.368637561798
-63.919948577881 -64.220924377441 -124.752006530762 1.088383436203
94.330940246582 -73.018783569336 -198.865783691406 1.293446063995
-68.731620788574 -71.601646423340 -146.546722412109 2.456016063690
-73.933731079102 -71.665855407715 -105.083465576172 3.309615850449
5.257684230804 -75.187866210938 -216.492309570313 1.152056217194
-76.695785522461 -65.480438232422 -116.231422424316 1.453411221504
-132.542068481445 -71.543632507324 -226.379776000977 0.513203501701
-143.251358032227 -79.430297851563 -301.855651855469 3.754702091217
-75.481002807617 -61.586612701416 -47.527217864990 2.719490528107
-52.650039672852 -61.841236114502 -126.494857788086 2.563176155090
38.602115631104 -68.938308715820 -14.039648056030 2.643894195557
-107.201995849609 -67.428535461426 -187.113449096680 1.411316275597
-126.373062133789 -61.608261108398 -199.967117309570 1.713870286942
-147.690704345703 -65.601623535156 -193.436828613281 1.893232822418
-51.330364227295 -79.292213439941 -90.747879028320 1.132868766785
-144.813034057617 -86.784797668457 -252.781463623047 3.115442037582
-62.596496582031 -58.787403106689 -132.074447631836 0.847785949707
-90.599723815918 -71.502479553223 -139.232101440430 3.809232950211
34.607971191406 -61.497951507568 -12.903768539429 1.845851659775
110.881271362305 -74.359260559082 -128.736343383789 1.653178811073
-31.792955398560 -75.737174987793 -213.600051879883 0.879374861717
49.045738220215 -74.808197021484 -107.835838317871 1.071856737137
115.333869934082 -72.303375244141 -131.688339233398 1.136596083641
-50.672966003418 -71.450248718262 -136.071243286133 0.806927740574
-149.315383911133 -77.228897094727 -218.079650878906 1.398877859116
-137.614288330078 -71.468765258789 -201.901931762695 1.595013856888
-88.862831115723 -73.403839111328 -83.716415405273 1.536114215851
-32.159339904785 -78.584983825684 -207.626724243164 1.742404580116
-24.911903381348 -65.094223022461 -74.250747680664 3.117822408676
87.671569824219 -77.942771911621 -88.900695800781 1.195414066315
-152.804519653320 -66.661376953125 -280.307800292969 2.351921796799
47.014102935791 -69.566139221191 -107.947608947754 1.191082477570
-35.329780578613 -68.736160278320 -47.363388061523 2.883329391479
37.776706695557 -76.738937377930 -121.775054931641 2.338802576065
106.727478027344 -65.092521667480 -76.645500183105 3.386894702911
-105.342597961426 -66.727134704590 -196.636337280273 3.308924674988
-141.704284667969 -83.601394653320 -238.498092651367 2.589684009552
-78.251510620117 -73.859077453613 -63.187870025635 3.232925653458
-71.433280944824 -77.764480590820 -63.909271240234 3.116696596146
114.671607971191 -76.970252990723 -141.733139038086 0.743345201015
78.459930419922 -74.942962646484 -97.860954284668 1.527227640152
105.355476379395 -71.384712219238 -122.233642578125 2.355879545212
-142.567718505859 -79.356773376465 -205.436050415039 1.752186655998
79.780693054199 -78.444549560547 -222.693054199219 2.803270101547
26.696397781372 -77.725685119629 -155.710098266602 0.770849227905
-26.447738647461 -72.236770629883 -182.021896362305 2.614256858826
-145.465789794922 -73.389999389648 -289.900024414063 2.258871793747
4.054534912109 -72.771995544434 -241.690109252930 1.070521473885
17.827716827393 -72.865509033203 -250.365371704102 1.631383299828
111.096969604492 -66.272346496582 -117.656150817871 3.384058952332
-164.475540161133 -79.109222412109 -271.421173095703 3.829593896866
-8.837704658508 -67.701965332031 -243.552154541016 2.265150785446
31.300342559814 -72.752754211426 -164.402816772461 1.247390985489
-34.190372467041 -78.800109863281 -207.731475830078 1.900634407997
-45.393241882324 -67.927307128906 -85.936134338379 2.798588514328
-162.115631103516 -66.434097290039 -210.937942504883 1.546375393867
-133.773925781250 -73.578048706055 -297.621704101563 3.652621984482
-163.759796142578 -67.085784912109 -208.237304687500 1.871175765991
-95.005310058594 -71.347419738770 -62.647418975830 5.237340927124
-42.962085723877 -75.235137939453 -242.399078369141 1.731626391411
-146.417953491211 -83.625778198242 -278.288787841797 0.465330421925
-168.164184570313 -74.987648010254 -248.213882446289 2.574579000473
-141.323623657227 -74.223335266113 -292.587768554688 2.086094141006
-115.979766845703 -69.951782226563 -227.708480834961 0.788127303123
102.114624023438 -65.986564636230 -67.809936523438 2.127115011215
88.019905090332 -67.355804443359 -228.356460571289 6.454003334045
39.769466400146 -77.858787536621 -111.396118164063 1.624836325645
-47.247005462646 -76.650184631348 -91.479728698730 4.352222442627
-108.823120117188 -69.798377990723 -226.015472412109 2.541879415512
-93.658149719238 -71.383087158203 -76.972923278809 2.102337598801
59.868179321289 -66.210411071777 -238.109756469727 3.610200405121
45.837417602539 -73.208702087402 -35.796054840088 1.164785385132
-5.203382015228 -63.517684936523 -258.776580810547 3.154268741608
-80.816261291504 -68.628288269043 -116.983947753906 3.106092929840
20.318788528442 -74.726974487305 -275.382293701172 2.792483806610
-11.273879051208 -76.530441284180 -278.188690185547 2.503125429153
34.562046051025 -70.272041320801 -126.001388549805 2.772205352783
-154.149536132813 -64.217765808105 -287.108764648438 2.220334529877
4.792665004730 -78.094352722168 -246.924362182617 1.523685693741
-126.561035156250 -71.758995056152 -239.308822631836 4.356152534485
-8.344430923462 -71.117134094238 -269.302764892578 4.158513545990
31.979103088379 -59.211521148682 -37.512573242188 0.763768553734
7.400884151459 -84.029182434082 -248.855606079102 2.450081825256
22.134971618652 -77.456642150879 -140.130493164063 2.304298877716
69.450035095215 -68.514457702637 -242.238967895508 3.337623834610
-55.257362365723 -70.823379516602 -281.276763916016 5.721179008484
70.171821594238 -67.381599426270 -233.657180786133 1.344824671745
-143.102188110352 -62.936203002930 -183.109237670898 2.186409711838
36.313980102539 -74.366737365723 -117.642921447754 2.574006557465
-146.257995605469 -70.400550842285 -249.956420898438 2.059704303741
98.968132019043 -67.356697082520 -73.556167602539 2.212001085281
20.853302001953 -81.239601135254 -243.108306884766 1.795812726021
-49.546943664551 -84.201515197754 -87.962638854980 2.412113904953
-140.824356079102 -65.548530578613 -291.334747314453 2.991686105728
-144.327987670898 -67.163063049316 -180.196319580078 3.063491344452
-95.422126770020 -67.060890197754 -219.174285888672 1.687067151070
-22.179899215698 -81.012191772461 -197.923919677734 3.448646068573
-69.895362854004 -84.825111389160 -208.566848754883 1.209020256996
15.459112167358 -81.802787780762 -255.624343872070 1.274432063103
-9.095797538757 -69.459022521973 -238.296447753906 2.199093103409
-102.867752075195 -63.669754028320 -77.694763183594 3.912698030472
-34.700485229492 -62.987018585205 -48.026786804199 2.093393325806
-5.022918224335 -66.354675292969 -258.956085205078 1.592815041542
-145.187591552734 -76.412834167480 -301.363677978516 1.340288043022
-33.223617553711 -77.567825317383 -185.027297973633 2.051192522049
-158.376129150391 -67.712791442871 -209.090835571289 1.621087074280
-17.079019546509 -74.009513854980 -229.921997070313 1.945032954216
-76.670867919922 -65.992851257324 -140.348861694336 1.401508450508
-33.588672637939 -74.821807861328 -174.413330078125 3.547619581223
-146.455657958984 -65.390335083008 -201.655380249023 2.019623279572
0.277321010828 -75.467063903809 -222.011901855469 2.518218517303
-158.412963867188 -74.402732849121 -252.831039428711 3.682624578476
24.733798980713 -74.003028869629 -265.836334228516 2.173222780228
-4.113974094391 -78.581352233887 -218.996200561523 2.072577953339
4.336287975311 -81.415596008301 -273.633483886719 2.631623983383
16.372014999390 -77.200721740723 -288.772888183594 1.794638991356
15.868621826172 -82.767082214355 -259.179046630859 1.858085155487
-59.809604644775 -73.987876892090 -245.521163940430 1.431474804878
0.021680999547 -71.753654479980 -237.322128295898 1.814399480820
97.003562927246 -74.691398620605 -204.493179321289 2.922277927399
-34.809597015381 -82.576210021973 -210.226303100586 4.223666667938
109.600807189941 -61.092979431152 -76.972694396973 5.120682239532
-137.239410400391 -68.911766052246 -205.788391113281 4.459785938263
-114.837722778320 -69.750289916992 -292.928314208984 1.373342037201
-13.374579429626 -77.073150634766 -221.422927856445 1.927502036095
52.567909240723 -65.360076904297 -100.257843017578 1.794650912285
-147.124298095703 -67.118438720703 -280.373596191406 1.968997597694
-55.449153900146 -72.048042297363 -147.845367431641 2.730442047119
-43.219356536865 -75.281959533691 -285.150451660156 2.312400817871
-16.462833404541 -80.787963867188 -177.394714355469 1.539937376976
-16.034969329834 -74.164741516113 -227.143554687500 1.194495201111
36.550132751465 -73.037376403809 -131.462646484375 0.901306688786
104.139938354492 -72.777854919434 -177.572006225586 2.209669589996
9.474309921265 -73.887474060059 -193.215774536133 2.392919301987
117.608192443848 -71.480491638184 -137.937057495117 1.890656232834
101.812248229980 -71.286170959473 -106.074226379395 2.116798639297
-85.661857604980 -87.685440063477 -109.801223754883 5.892246246338
74.892349243164 -72.194946289063 -68.549301147461 1.145777940750
94.840576171875 -71.862815856934 -74.555351257324 1.692687749863
100.275344848633 -76.494529724121 -92.612411499023 4.642091751099
71.888687133789 -69.583602905273 -69.021881103516 0.536920726299
-27.242692947388 -69.757621765137 -183.625579833984 0.900481522083
-58.330707550049 -62.838897705078 -121.158729553223 2.074685096741
1.439615964890 -77.992828369141 -246.547943115234 1.235534429550
-143.502044677734 -63.366912841797 -229.231750488281 1.981818675995
-154.666580200195 -76.428695678711 -222.139770507813 3.059946775436
24.915859222412 -81.292335510254 -140.351272583008 3.350923538208
56.595703125000 -76.663352966309 -90.149024963379 4.364477157593
38.121006011963 -65.497772216797 -114.737724304199 3.566439151764
-7.186995029449 -68.208480834961 -286.080932617188 0.613061666489
-31.662588119507 -77.893211364746 -210.016311645508 0.995979845524
-17.208812713623 -80.806533813477 -179.204971313477 1.594188690186
98.550125122070 -73.251945495605 -70.915695190430 2.377644538879
20.166427612305 -65.988647460938 -181.806015014648 1.793109893799
11.080965995789 -76.237472534180 -212.433746337891 2.258826732635
95.071708679199 -70.792098999023 -209.454589843750 2.846273422241
-46.731464385986 -64.365768432617 -49.152828216553 3.928734540939
-20.036018371582 -77.265319824219 -246.128906250000 3.362612962723
81.936874389648 -77.863716125488 -75.163848876953 2.477135419846
93.029502868652 -70.281761169434 -94.069320678711 4.467504024506
93.274925231934 -72.080574035645 -93.955451965332 3.282857656479
-43.475280761719 -73.703819274902 -165.148162841797 1.918527722359
71.302070617676 -63.260299682617 -67.953727722168 2.234364509583
-18.491510391235 -65.956535339355 -250.685333251953 4.431585788727
41.644416809082 -62.200149536133 -15.370759010315 1.671615481377
-53.559429168701 -76.855857849121 -53.975540161133 3.499451637268
-14.175275802612 -65.096824645996 -65.133621215820 1.453969001770
74.045524597168 -72.270706176758 -80.506736755371 3.043856859207
14.630263328552 -76.226852416992 -198.843292236328 1.910961389542
23.818914413452 -65.476837158203 -274.402191162109 2.019594669342
4.498126983643 -75.637130737305 -206.817947387695 2.126996755600
-8.310759544373 -66.609458923340 -270.661132812500 2.153302431107
5.511290073395 -73.653137207031 -160.562515258789 1.952274560928
-95.847862243652 -67.006271362305 -103.798416137695 2.339603900909
-141.343429565430 -66.296958923340 -188.557479858398 1.746347904205
-61.794929504395 -64.872718811035 -126.210166931152 2.023419380188
-146.204849243164 -82.197700500488 -231.011093139648 1.076287865639
46.941692352295 -74.981285095215 -113.398147583008 1.535399556160
-67.981414794922 -60.840175628662 -115.305847167969 0.491568833590
40.638164520264 -66.277984619141 -12.096062660217 2.189625024796
-37.698490142822 -74.491630554199 -170.716079711914 1.716910481453
-159.536621093750 -70.331985473633 -210.765823364258 2.355601549149
5.458047866821 -72.651824951172 -225.161605834961 1.305106997490
-106.403900146484 -68.181999206543 -219.472625732422 2.797422647476
-55.026657104492 -81.640609741211 -207.073455810547 1.498742341995
-56.667591094971 -80.334556579590 -67.400535583496 1.630814909935
-160.214614868164 -72.393394470215 -255.519470214844 2.782132863998
-14.904460906982 -72.892044067383 -235.509963989258 1.606259584427
-2.593209028244 -76.199508666992 -291.147216796875 0.575523614883
23.075078964233 -69.708335876465 -189.664276123047 1.235138773918
-87.261444091797 -67.136604309082 -143.990249633789 2.612149000168
-144.480819702148 -74.338241577148 -306.664916992188 2.769807577133
-149.024581909180 -79.895126342773 -189.408813476563 1.748832225800
-9.223050117493 -75.578659057617 -203.571594238281 1.658086061478
-67.753082275391 -74.825233459473 -164.412033081055 2.253551483154
-33.454872131348 -77.202003479004 -210.043869018555 1.481290459633
-71.431709289551 -60.034881591797 -103.310508728027 0.959718406200
41.118675231934 -80.440017700195 -123.792831420898 1.474910140038
-87.596076965332 -70.012954711914 -257.185546875000 0.607961714268
16.922140121460 -62.720966339111 -237.023651123047 2.516867637634
-15.298273086548 -72.147300720215 -261.389801025391 1.280199885368
-147.994949340820 -74.742904663086 -183.803817749023 2.041430950165
-3.946212053299 -71.219940185547 -167.626586914063 3.101556062698
-154.120727539063 -68.575424194336 -275.784667968750 3.701316595078
-1.217064023018 -65.661514282227 -225.074234008789 2.211539745331
-82.871406555176 -74.833999633789 -291.071380615234 0.898649334908
-81.647872924805 -63.969623565674 -118.851188659668 0.790723443031
-98.885108947754 -73.131324768066 -93.857452392578 5.205855369568
-66.192825317383 -77.367630004883 -212.995315551758 2.992028713226
19.498098373413 -67.172012329102 -154.614395141602 2.767595291138
14.914242744446 -78.611213684082 -246.119232177734 3.260158777237
-86.908103942871 -74.890243530273 -290.775390625000 2.817360401154
-40.922264099121 -59.830360412598 -48.913116455078 3.402095317841
14.120789527893 -68.047218322754 -184.998321533203 1.610984444618
-11.099463462830 -68.768722534180 -238.632995605469 2.009484767914
-60.278175354004 -58.445308685303 -45.232902526855 2.709086656570
-16.836936950684 -71.393196105957 -198.231704711914 2.301630735397
-92.005455017090 -66.036308288574 -70.983245849609 4.240437984467
-113.089172363281 -69.635604858398 -287.704864501953 1.623155593872
73.098731994629 -75.486404418945 -231.748504638672 2.145170927048
-35.637638092041 -80.521110534668 -81.454727172852 1.480579018593
-66.962059020996 -72.028221130371 -255.021499633789 4.764400005341
11.588328361511 -63.825019836426 -149.102416992188 1.789821863174
45.817123413086 -67.034324645996 -99.833511352539 1.296947598457
-77.896286010742 -72.260452270508 -212.358489990234 1.271352887154
17.233060836792 -79.926483154297 -213.588821411133 3.513607978821
50.780746459961 -67.997932434082 -95.713790893555 2.407132863998
-32.223773956299 -75.646873474121 -165.253036499023 2.190244197845
-6.789688110352 -75.459655761719 -288.851318359375 2.254134654999
-148.759979248047 -66.989509582520 -304.309875488281 1.846656918526
-24.157281875610 -63.423786163330 -65.894325256348 1.333076596260
-147.802261352539 -64.357910156250 -196.848114013672 2.571053028107
64.510406494141 -61.939777374268 -83.229660034180 0.577113211155
-99.184928894043 -59.468456268311 -78.153404235840 1.804612517357
-139.563537597656 -80.681304931641 -192.645050048828 2.926749706268
-16.629592895508 -72.538230895996 -203.185073852539 3.236340761185
-108.971855163574 -67.794548034668 -198.032180786133 1.675162076950
-150.580032348633 -67.071067810059 -186.937698364258 1.517956376076
90.573806762695 -75.572753906250 -99.372062683105 1.467071652412
-146.082794189453 -80.621978759766 -192.536849975586 1.962631225586
95.525917053223 -70.814071655273 -90.364219665527 3.358268499374
12.482442855835 -77.532363891602 -230.744613647461 1.158512830734
-115.868186950684 -62.739372253418 -202.271652221680 1.422240138054
-163.342941284180 -69.591781616211 -248.283248901367 0.850264012814
-65.606460571289 -68.619735717773 -122.197547912598 4.194462776184
-30.185455322266 -78.215065002441 -293.536834716797 4.265533924103
-140.237411499023 -81.354377746582 -199.406219482422 1.230596780777
2.125881910324 -77.430450439453 -165.469177246094 1.406104803085
47.558975219727 -82.342559814453 -105.495483398438 3.814284563065
-155.398849487305 -69.742736816406 -206.911163330078 3.099405765533
-141.423721313477 -66.597068786621 -204.367523193359 1.237589120865
-150.281936645508 -79.169166564941 -219.411270141602 2.520511627197
122.058731079102 -70.000495910645 -145.331069946289 5.391680240631
33.760578155518 -70.200866699219 -259.903015136719 1.501064896584
63.569347381592 -70.715133666992 -86.500587463379 0.597966611385
-6.123269081116 -60.851646423340 -291.557403564453 4.124780178070
-142.750793457031 -61.758033752441 -186.427581787109 2.279774427414
-140.502929687500 -70.591247558594 -191.893142700195 2.823252916336
58.274707794189 -68.823707580566 -85.959838867188 1.798364996910
-66.986412048340 -65.692817687988 -122.256515502930 2.650837182999
37.222724914551 -81.311050415039 -125.217353820801 1.308928012848
-151.558822631836 -63.543361663818 -182.786468505859 1.090315818787
-51.465518951416 -72.048477172852 -146.526535034180 3.656618595123
-45.562675476074 -75.631286621094 -181.406539916992 4.386237144470
-43.573497772217 -75.096122741699 -147.383392333984 1.862901806831
-138.823989868164 -70.911911010742 -185.124557495117 4.301537990570
6.876057147980 -72.196365356445 -242.737319946289 1.292382717133
42.642738342285 -72.184173583984 -121.943687438965 1.608736991882
-147.435073852539 -64.179534912109 -276.638580322266 2.593033552170
104.201385498047 -60.136005401611 -88.316688537598 1.624280214310
-74.685615539551 -65.601646423340 -145.069412231445 2.735482454300
-149.122467041016 -72.096961975098 -281.182067871094 3.607926368713
-119.861663818359 -65.349983215332 -200.793151855469 2.765400886536
-124.165817260742 -69.528930664063 -205.702514648438 1.474168300629
-158.677307128906 -68.636566162109 -216.802520751953 1.320113778114
-147.527130126953 -80.893630981445 -261.494720458984 1.755205750465
-29.208953857422 -73.812355041504 -161.759674072266 2.437086820602
-146.808685302734 -72.155197143555 -199.223815917969 1.186394691467
89.618957519531 -75.363258361816 -67.895072937012 2.712949037552
54.815948486328 -67.752700805664 -90.688133239746 1.716557145119
63.969295501709 -67.414199829102 -70.972724914551 3.848784685135
-61.680320739746 -69.505836486816 -135.460220336914 1.002455592155
-69.216423034668 -64.337226867676 -108.011253356934 1.217908501625
-73.600097656250 -84.812919616699 -208.734817504883 2.119207859039
-58.609493255615 -75.716369628906 -288.247711181641 1.375843763351
-146.309234619141 -69.045921325684 -175.047363281250 2.085046052933
-149.919418334961 -62.430210113525 -262.098632812500 1.377605080605
-78.559242248535 -68.488464355469 -110.952194213867 1.052170157433
-14.521627426147 -68.071769714355 -66.795234680176 1.798470258713
77.553527832031 -74.199676513672 -90.143363952637 3.045036792755
-143.970108032227 -80.203353881836 -222.082183837891 2.207596540451
11.168664932251 -78.204132080078 -191.199279785156 3.111093997955
1.820194959641 -69.362838745117 -264.806854248047 4.581150054932
68.579208374023 -69.152519226074 -77.421096801758 0.755650162697
19.786241531372 -63.709125518799 -247.801940917969 0.713561654091
86.377807617188 -68.543632507324 -107.418556213379 1.484798789024
-142.651184082031 -86.352500915527 -221.672103881836 4.605140209198
-63.825435638428 -83.502441406250 -204.695831298828 1.639321923256
-94.635856628418 -71.733749389648 -87.250518798828 1.582347393036
-69.775375366211 -74.148513793945 -44.378589630127 4.408694744110
-73.647628784180 -68.799987792969 -139.321472167969 1.732247948647
-163.959808349609 -68.344375610352 -204.722320556641 2.450253725052
-91.727928161621 -68.586685180664 -69.999305725098 3.216378927231
-152.531982421875 -72.420623779297 -280.213500976563 1.980702400208
-63.762821197510 -72.861694335938 -134.430603027344 3.512268781662
-11.903684616089 -74.608398437500 -209.072479248047 3.003551244736
-65.170906066895 -74.797897338867 -147.323028564453 2.863449335098
-151.002044677734 -67.081459045410 -187.088821411133 1.273621201515
-164.097244262695 -67.290725708008 -249.957458496094 1.737760066986
-152.341354370117 -84.781486511230 -287.115051269531 0.957834124565
78.243675231934 -63.044261932373 -61.264461517334 2.577143907547
84.438346862793 -64.668319702148 -65.070480346680 2.934031009674
-22.864051818848 -76.496406555176 -239.161544799805 2.334838867188
34.430683135986 -63.432125091553 -41.203731536865 2.696615934372
58.018737792969 -68.932144165039 -98.344299316406 1.090095400810
30.757854461670 -74.768959045410 -131.208953857422 1.541536927223
-148.728973388672 -69.048690795898 -259.666107177734 1.311927914619
-56.400444030762 -71.974021911621 -88.614837646484 2.003659963608
-9.476786613464 -79.089454650879 -239.177368164063 6.280750274658
-154.457702636719 -73.770576477051 -241.779922485352 4.062684535980
-109.633720397949 -60.256500244141 -174.916336059570 3.035843610764
-83.919952392578 -71.416709899902 -113.897430419922 3.647069692612
-31.846710205078 -65.618255615234 -47.133644104004 2.513658285141
95.211898803711 -75.682800292969 -80.972572326660 1.775469541550
-149.541046142578 -81.261909484863 -267.853881835938 3.792422056198
-82.329589843750 -79.920005798340 -110.282897949219 2.402201652527
-55.683807373047 -81.685523986816 -247.061935424805 2.309921503067
-46.490848541260 -72.904167175293 -166.012084960938 2.610667943954
-99.773506164551 -66.441589355469 -221.037185668945 1.964767336845
-151.859176635742 -69.125404357910 -196.787200927734 2.454249620438
1.506297945976 -74.084060668945 -227.662902832031 1.862955331802
18.554336547852 -76.812217712402 -173.442001342773 1.536249995232
-148.780487060547 -65.670104980469 -176.966552734375 2.226037025452
-149.318176269531 -87.913841247559 -257.950622558594 3.567799329758
-42.939788818359 -87.848907470703 -197.834152221680 1.905838370323
-133.271652221680 -64.817413330078 -259.495452880859 1.121725678444
-4.565289020538 -68.439338684082 -234.227020263672 1.421397805214
-142.118408203125 -71.496215820313 -197.031524658203 1.812307238579
-27.300096511841 -79.795799255371 -185.098999023438 1.241362333298
-71.607940673828 -77.370063781738 -207.212524414063 1.544751524925
-132.288848876953 -62.959918975830 -204.876144409180 1.012801885605
-15.390771865845 -74.272415161133 -214.386535644531 0.566961169243
-23.432647705078 -71.128067016602 -221.200485229492 0.797240495682
-26.616239547729 -73.923477172852 -198.706817626953 0.617512106895
24.641057968140 -77.643150329590 -184.744934082031 1.872790455818
-154.639770507813 -76.987953186035 -260.907226562500 2.864676713943
-12.607066154480 -69.359306335449 -290.337249755859 1.964489102364
27.192638397217 -80.219673156738 -148.539916992188 1.754685044289
-135.754165649414 -78.108856201172 -229.843627929688 0.902907490730
-124.567550659180 -66.311637878418 -206.764297485352 1.958764314651
106.231575012207 -72.122817993164 -96.825523376465 1.246134638786
-16.488868713379 -72.869163513184 -211.247772216797 1.654701471329
-154.804077148438 -73.438957214355 -260.715148925781 2.130599975586
-42.742240905762 -69.441741943359 -145.984588623047 1.587788820267
40.848590850830 -76.007667541504 -127.788772583008 1.914128899574
-90.357810974121 -67.577941894531 -112.266448974609 2.846409082413
-156.333312988281 -65.309638977051 -195.362411499023 1.381650805473
4.838280200958 -67.501403808594 -237.117111206055 1.676653504372
-37.978160858154 -59.384460449219 -44.149875640869 2.559637069702
28.484895706177 -72.454971313477 -172.890701293945 1.231170773506
84.646209716797 -74.532287597656 -92.747016906738 2.244400501251
-5.507146835327 -79.320350646973 -166.078201293945 2.069912910461
-148.414443969727 -67.396011352539 -285.343658447266 1.828929901123
15.517729759216 -74.718193054199 -204.681365966797 2.355304718018
-149.357406616211 -74.681854248047 -314.628692626953 1.968788385391
14.959197998047 -66.891174316406 -154.634338378906 1.095766901970
-103.021507263184 -70.875335693359 -291.487792968750 2.713475704193
20.493343353271 -74.380287170410 -193.981719970703 2.888592958450
10.227667808533 -70.943778991699 -162.207946777344 2.423644781113
20.697269439697 -66.045051574707 -30.574892044067 5.038031101227
-40.735034942627 -72.108428955078 -138.774383544922 4.796665191650
-2.820260047913 -65.964965820313 -219.474517822266 3.442084789276
-168.662811279297 -69.801567077637 -278.783264160156 3.211169958115
-99.464828491211 -62.466060638428 -152.669128417969 2.912426948547
-34.165447235107 -75.437171936035 -243.273529052734 1.161549091339
-64.601272583008 -79.843193054199 -101.285003662109 3.467702388763
100.837364196777 -75.921249389648 -87.603424072266 2.046910762787
104.498619079590 -64.505371093750 -84.601181030273 0.606786429882
-146.212661743164 -68.051940917969 -311.559356689453 0.966641187668
5.769486904144 -85.422958374023 -273.458496093750 2.378941774368
-12.259793281555 -76.536895751953 -261.806030273438 2.261264324188
-144.959762573242 -77.571357727051 -188.025161743164 0.976230919361
-28.397693634033 -76.931167602539 -193.393051147461 0.771644771099
-63.037883758545 -78.911407470703 -177.479553222656 3.328963518143
-49.623519897461 -69.041366577148 -157.655120849609 1.343999624252
21.655529022217 -69.760108947754 -211.105209350586 3.791537523270
21.883922576904 -74.075614929199 -169.917678833008 3.186989784241
93.568824768066 -74.978477478027 -204.845352172852 1.438308238983
22.375963211060 -72.392662048340 -241.691635131836 2.158866167068
-58.105541229248 -73.581726074219 -293.429504394531 3.013475418091
-151.983627319336 -75.756820678711 -209.231109619141 3.171972751617
-13.303093910217 -62.549839019775 -208.931060791016 5.174323081970
-132.499404907227 -71.488883972168 -255.407806396484 1.839794635773
89.853225708008 -77.188491821289 -205.859848022461 3.582951068878
58.541336059570 -66.697875976563 -240.214126586914 2.375810146332
-93.758255004883 -59.781036376953 -56.335990905762 1.447731494904
-82.324638366699 -76.708183288574 -66.019424438477 1.225904703140
-35.916877746582 -72.559066772461 -171.986846923828 1.913969874382
-3.235755920410 -75.724990844727 -286.815948486328 1.494572877884
-169.241592407227 -69.287742614746 -206.149703979492 2.799720287323
-68.010337829590 -72.903083801270 -255.401473999023 4.189283847809
-83.063835144043 -65.931724548340 -59.062614440918 5.259986877441
25.217475891113 -65.454040527344 -159.141723632813 2.127766370773
15.456173896790 -74.000045776367 -212.511520385742 1.823030948639
16.013881683350 -84.857406616211 -217.430603027344 4.388361454010
-0.381332993507 -65.574493408203 -279.157806396484 1.074011206627
7.255926132202 -63.205780029297 -233.854721069336 1.989581465721
-162.687942504883 -67.218925476074 -258.768341064453 2.095893621445
-119.430183410645 -67.780708312988 -233.269317626953 3.306027173996
-25.256006240845 -70.537605285645 -180.109848022461 0.998926281929
-60.275810241699 -68.097030639648 -119.906478881836 1.934874653816
-19.896135330200 -79.991584777832 -226.099319458008 1.992338895798
-78.107994079590 -64.834136962891 -45.631187438965 2.179260015488
-16.140140533447 -84.281066894531 -190.968338012695 6.508877754211
35.548465728760 -66.227394104004 -38.561130523682 1.727480053902
-34.174705505371 -70.637306213379 -181.217147827148 2.182178258896
-12.831783294678 -73.296737670898 -248.044235229492 2.376684188843
-145.681137084961 -65.412635803223 -261.986602783203 1.689695477486
-128.681442260742 -73.937728881836 -230.239166259766 0.746305763721
-39.589061737061 -69.843727111816 -166.892440795898 1.173771262169
3.425903081894 -88.209403991699 -270.148071289063 3.685226917267
70.011024475098 -60.383239746094 -61.537109375000 1.021948933601
102.571151733398 -73.514053344727 -183.147323608398 1.068050026894
98.572776794434 -68.519821166992 -207.732604980469 3.391523361206
-147.396087646484 -79.972496032715 -189.701583862305 3.022200345993
88.378746032715 -75.996475219727 -78.786880493164 1.499832868576
-60.889728546143 -72.572547912598 -129.864288330078 2.311648607254
12.537678718567 -82.041419982910 -256.368988037109 2.514890432358
-151.659042358398 -68.397392272949 -181.452697753906 2.373207569122
109.999000549316 -70.950561523438 -179.165802001953 2.418242931366
40.420703887939 -67.236572265625 -30.196067810059 2.707601070404
-145.783218383789 -77.235359191895 -278.611541748047 2.237363100052
-18.777473449707 -72.537208557129 -222.511947631836 1.512270569801
-45.377655029297 -83.087020874023 -81.850463867188 1.483088374138
35.768508911133 -60.924797058105 -123.266868591309 0.792987287045
20.492073059082 -74.807487487793 -156.796051025391 1.169236421585
113.480445861816 -70.584434509277 -132.615310668945 1.605346083641
103.173713684082 -61.020381927490 -102.363288879395 1.714688658714
-73.685440063477 -83.194206237793 -83.645416259766 2.222498655319
-87.959159851074 -65.789314270020 -116.664909362793 1.468446373940
-146.461669921875 -66.767486572266 -268.130981445313 2.674317359924
-5.351346015930 -70.186195373535 -236.945434570313 1.839541196823
103.950851440430 -68.523025512695 -163.869308471680 5.547720432281
-24.803955078125 -72.814834594727 -192.285308837891 0.972163140774
106.037460327148 -67.566864013672 -89.301155090332 2.838778972626
-68.467796325684 -76.214302062988 -251.559585571289 1.375875115395
14.430285453796 -80.394241333008 -231.114456176758 1.938385009766
-163.895706176758 -65.213897705078 -215.021942138672 0.844715714455
-77.728126525879 -70.615364074707 -134.974227905273 1.152731895447
86.723335266113 -72.205513000488 -223.345840454102 0.622079372406
-51.178966522217 -75.794448852539 -193.969833374023 2.979035139084
119.653686523438 -77.599662780762 -124.356010437012 5.146300792694
-72.948005676270 -68.545379638672 -156.001861572266 3.420684814453
-64.551773071289 -77.455909729004 -181.802810668945 5.804505348206
24.820329666138 -64.588066101074 -164.490447998047 3.423323392868
-16.001274108887 -68.566001892090 -213.882141113281 1.466117382050
71.863067626953 -75.077545166016 -233.920761108398 2.822372674942
-137.816589355469 -65.117462158203 -221.910507202148 5.169023036957
-14.135769844055 -75.167579650879 -201.265335083008 1.051139831543
17.935491561890 -71.198577880859 -177.418380737305 1.995051741600
-154.342819213867 -77.591758728027 -203.941894531250 1.647814750671
13.565979003906 -81.494018554688 -247.218704223633 0.795471489429
36.616069793701 -61.356288909912 -120.937500000000 1.961623072624
-89.843986511230 -70.752738952637 -252.233581542969 1.061790704727
103.243453979492 -68.628608703613 -94.014122009277 1.172304153442
32.585708618164 -59.739341735840 -40.336151123047 1.404409527779
-122.513809204102 -66.576927185059 -200.342132568359 2.636377096176
6.448802947998 -65.787445068359 -289.672546386719 3.684807300568
19.565679550171 -70.034973144531 -187.113815307617 2.608362674713
