0.109274998307 -67.029037475586 -241.846130371094 0.950402855873
-152.812072753906 -68.867141723633 -220.061813354492 2.922450542450
-50.399188995361 -61.101325988770 -81.455078125000 1.875951051712
110.649978637695 -74.175498962402 -160.709136962891 1.418712377548
108.881454467773 -69.164047241211 -109.866577148438 2.018584966660
-44.625312805176 -60.331672668457 -79.040695190430 1.138126730919
-69.089675903320 -65.232315063477 -97.045394897461 2.173254728317
-75.203170776367 -71.343444824219 -254.176986694336 2.379171609879
31.881526947021 -65.338546752930 -265.122619628906 3.334500789642
-136.498703002930 -69.569351196289 -256.294860839844 1.707265615463
78.774505615234 -73.822105407715 -83.625259399414 2.517562389374
-156.003402709961 -60.522212982178 -293.636291503906 4.184120178223
-1.522426962852 -60.486370086670 -251.562454223633 2.005877971649
6.493265151978 -62.608188629150 -272.775756835938 2.161157369614
-56.314434051514 -78.835685729980 -66.511436462402 2.745854616165
-25.887044906616 -57.819625854492 -48.514671325684 1.291625261307
-15.238513946533 -76.047569274902 -224.216522216797 1.343971252441
77.723701477051 -71.710395812988 -226.985305786133 1.254492044449
-9.080119132996 -74.074623107910 -222.096328735352 2.389846086502
48.836708068848 -67.317657470703 -26.131011962891 3.297524213791
-54.607376098633 -83.429512023926 -83.184318542480 1.977726697922
-9.062918663025 -78.579498291016 -282.829803466797 5.355157375336
22.120136260986 -68.037033081055 -180.632568359375 2.440665483475
-158.741607666016 -73.062690734863 -291.603027343750 1.392095923424
44.082782745361 -69.197105407715 -90.607856750488 4.459182739258
-26.010705947876 -79.063720703125 -195.464553833008 1.670455574989
-153.153823852539 -80.946060180664 -198.386947631836 0.960911989212
-148.501434326172 -72.383384704590 -286.408752441406 3.005611658096
-25.386533737183 -70.632553100586 -207.228118896484 3.897740125656
111.039527893066 -65.085006713867 -113.167594909668 2.639394283295
-142.103485107422 -66.234626770020 -188.196533203125 1.652655482292
-94.456764221191 -68.072708129883 -147.991409301758 1.275569438934
-50.595596313477 -75.775512695313 -127.536163330078 5.663885116577
13.549865722656 -76.375556945801 -218.312896728516 2.745662927628
-105.071884155273 -72.223785400391 -170.742889404297 3.279372692108
-89.615608215332 -64.596267700195 -134.756484985352 2.470630407333
-29.224515914917 -85.265060424805 -185.906066894531 1.540683150291
0.200938999653 -67.132789611816 -233.923568725586 0.886641025543
79.270935058594 -72.753204345703 -71.222244262695 0.880646407604
-35.893890380859 -77.405220031738 -173.806838989258 2.298786878586
-91.809455871582 -69.401435852051 -63.977962493896 2.326513290405
16.119684219360 -63.106369018555 -34.754463195801 5.358959197998
-32.610874176025 -83.554229736328 -211.775756835938 2.657192707062
35.121147155762 -69.152236938477 -129.570693969727 1.626016855240
-147.907028198242 -85.559745788574 -268.974517822266 1.233465075493
-5.212874889374 -76.067070007324 -219.164291381836 0.545219957829
-102.932670593262 -71.632110595703 -256.842010498047 1.571829795837
-76.886230468750 -66.940391540527 -125.735069274902 1.593518614769
-7.109261989594 -69.142433166504 -292.468963623047 2.861439466476
-77.238128662109 -65.346992492676 -111.202789306641 1.695626735687
39.240428924561 -64.379516601563 -123.735679626465 3.446903467178
20.293399810791 -69.126174926758 -154.449005126953 3.293785572052
-136.918258666992 -81.696258544922 -260.144744873047 1.820099234581
4.634325981140 -72.644775390625 -206.261627197266 1.838540434837
-7.962104797363 -76.308471679688 -173.073013305664 2.074507474899
-79.682525634766 -70.891700744629 -51.096561431885 1.544342041016
-26.030284881592 -74.424606323242 -174.864486694336 1.706032872200
21.019889831543 -75.724395751953 -251.309768676758 2.595706224442
10.708383560181 -75.632316589355 -222.177810668945 1.654709815979
88.489364624023 -64.304794311523 -67.767745971680 3.755648136139
-130.334686279297 -66.375846862793 -200.655502319336 2.228893280029
-77.709434509277 -78.307113647461 -78.068565368652 2.486814260483
-162.849029541016 -74.332443237305 -228.663986206055 1.857723951340
-137.984420776367 -67.561203002930 -288.962890625000 1.620286107063
-3.962158918381 -70.535240173340 -237.735260009766 1.339902400970
-81.787506103516 -77.653106689453 -246.905303955078 4.639027595520
108.010231018066 -70.563026428223 -132.668746948242 1.654375076294
-115.093887329102 -76.241737365723 -263.556243896484 3.396929264069
-99.823287963867 -76.130790710449 -286.487640380859 1.634213566780
-76.846786499023 -62.228496551514 -103.247100830078 1.313241839409
-102.430572509766 -67.125289916992 -151.165161132813 2.539713382721
-145.484191894531 -81.371459960938 -259.509368896484 1.616160988808
18.376325607300 -71.495277404785 -269.140686035156 5.058720111847
-151.050079345703 -86.796302795410 -262.305847167969 1.443258643150
-128.058105468750 -71.190032958984 -200.980346679688 3.815948486328
24.726158142090 -62.515174865723 -159.496765136719 4.048546314240
-164.552200317383 -68.146545410156 -210.460723876953 1.426101684570
0.786872982979 -78.291709899902 -287.246520996094 3.137616157532
-125.348770141602 -66.123176574707 -199.590011596680 2.935019016266
-140.799942016602 -66.402946472168 -257.913696289063 2.648659467697
-132.097991943359 -63.810306549072 -232.960464477539 2.198251485825
41.558452606201 -61.515472412109 -22.403724670410 2.113129377365
-39.259334564209 -67.877204895020 -52.653106689453 4.709476470947
-169.738754272461 -74.333786010742 -253.325668334961 4.287372112274
-97.047058105469 -65.817451477051 -290.489196777344 3.605114459991
10.578232765198 -76.815467834473 -208.590332031250 1.102429866791
-0.688699007034 -74.441329956055 -235.879302978516 1.540596127510
43.113872528076 -56.258487701416 -32.902366638184 1.506989836693
34.194503784180 -65.990310668945 -138.111389160156 4.190544128418
106.169647216797 -70.176490783691 -96.996261596680 1.234195947647
84.263710021973 -73.224090576172 -228.766296386719 2.232459545135
39.407207489014 -74.759124755859 -114.360519409180 1.824878573418
-103.293548583984 -64.211059570313 -82.388938903809 5.288888454437
-59.996288299561 -69.287040710449 -140.268569946289 0.981275141239
8.895103454590 -72.174865722656 -231.119598388672 2.574258565903
-122.501991271973 -73.265953063965 -267.808593750000 4.082359313965
-54.756816864014 -73.310234069824 -140.195419311523 0.334044545889
-13.857508659363 -72.130706787109 -251.568038940430 0.535682678223
19.213586807251 -78.945762634277 -227.072250366211 0.234953701496
46.379543304443 -66.115577697754 -104.256729125977 1.089637517929
-10.047326087952 -69.855590820313 -223.430938720703 1.585608839989
101.880149841309 -66.781982421875 -113.895790100098 4.369832992554
-63.646793365479 -77.868034362793 -172.503067016602 0.873104214668
-151.379211425781 -77.514625549316 -212.911941528320 2.966740846634
-22.607543945313 -75.359642028809 -244.026962280273 3.012525081635
-157.240997314453 -70.816474914551 -231.564178466797 2.174279689789
-103.529449462891 -63.100284576416 -169.472198486328 2.023886680603
-115.379859924316 -72.041465759277 -261.289123535156 1.517309188843
-83.649665832520 -68.357925415039 -118.508666992188 1.655218720436
-69.821334838867 -76.560775756836 -161.127044677734 1.551075816154
-53.374866485596 -73.821647644043 -67.308509826660 6.010960578918
-74.773971557617 -77.397682189941 -77.445564270020 3.536460876465
28.630607604980 -68.161964416504 -265.451293945313 1.968911647797
-64.278861999512 -77.472969055176 -211.743698120117 3.009917736053
52.646606445313 -60.189495086670 -94.561828613281 2.180041790009
4.160655975342 -80.928245544434 -244.608032226563 2.204996347427
3.930468082428 -82.990837097168 -227.942352294922 4.804502010345
33.623264312744 -61.416885375977 -122.620750427246 1.731388807297
50.304016113281 -72.978118896484 -95.410392761230 2.713358402252
9.522168159485 -69.088005065918 -226.325454711914 1.229613900185
106.387855529785 -70.412544250488 -128.017715454102 2.512381553650
29.291584014893 -66.593574523926 -12.106496810913 2.766416788101
-5.043560981750 -80.032196044922 -247.150894165039 2.699093341827
32.034866333008 -74.804191589355 -146.901809692383 2.145756244659
-149.672012329102 -66.348068237305 -288.104705810547 1.955757856369
-14.597126007080 -67.555267333984 -202.245681762695 2.334571599960
38.126354217529 -71.999252319336 -131.166259765625 1.368704080582
-45.678150177002 -80.692840576172 -153.636199951172 1.187439203262
45.636337280273 -57.193054199219 -94.375656127930 7.077992439270
-99.286872863770 -65.153259277344 -74.958251953125 2.115527153015
93.871559143066 -74.716720581055 -84.305030822754 1.672520279884
-15.390932083130 -70.920761108398 -243.410369873047 2.809301614761
-26.599378585815 -79.886840820313 -184.739135742188 1.026365995407
-82.419082641602 -71.058853149414 -54.947635650635 3.151848077774
19.448968887329 -64.897331237793 -177.341003417969 3.038892269135
-137.237594604492 -70.419403076172 -203.437362670898 2.871909856796
44.924240112305 -73.993972778320 -110.098175048828 3.342943191528
10.883532524109 -85.089958190918 -246.645401000977 2.456455469131
-25.481782913208 -73.478408813477 -221.029525756836 2.701108932495
-150.749435424805 -71.431076049805 -185.200332641602 1.552703976631
58.009738922119 -68.209793090820 -92.354667663574 2.252299308777
-52.374866485596 -72.772239685059 -204.448059082031 7.054911136627
-110.415557861328 -74.462974548340 -228.741180419922 2.371211528778
106.306373596191 -65.686286926270 -148.514007568359 7.696867465973
-45.939636230469 -67.361267089844 -175.151855468750 7.440780162811
21.406751632690 -74.787780761719 -167.329421997070 1.341344118118
116.114875793457 -73.658363342285 -144.792266845703 2.086401224136
107.829940795898 -68.583465576172 -115.873519897461 2.425208091736
113.463119506836 -69.869934082031 -149.702423095703 1.748257279396
-84.165039062500 -71.759658813477 -138.631286621094 5.105607986450
-8.341232299805 -73.263465881348 -178.470138549805 3.858175039291
-58.595676422119 -77.784042358398 -176.359359741211 1.866982936859
61.402919769287 -68.048347473145 -242.545074462891 1.312505960464
25.305868148804 -70.583663940430 -162.899871826172 2.403399229050
5.625673770905 -74.467903137207 -165.360092163086 0.676671206951
-56.188350677490 -73.837348937988 -186.338714599609 3.715827465057
-150.163909912109 -68.786926269531 -191.627716064453 2.388069629669
-59.717781066895 -72.331138610840 -135.190261840820 3.227362632751
-23.466543197632 -82.364845275879 -201.008071899414 3.545511722565
-71.832023620605 -77.053611755371 -208.526992797852 1.334245562553
-90.465499877930 -62.517402648926 -141.636581420898 2.414627075195
37.668704986572 -76.412345886230 -108.104225158691 2.157319545746
18.175317764282 -82.438919067383 -240.145431518555 2.058978319168
-148.088638305664 -85.756607055664 -269.275787353516 1.304948210716
-110.644012451172 -69.722816467285 -261.776092529297 1.617231369019
-60.679733276367 -78.783767700195 -285.352966308594 3.996296882629
-98.149917602539 -59.197154998779 -78.466552734375 1.976111650467
-76.567199707031 -66.393814086914 -108.962661743164 2.513762474060
3.544706106186 -83.285896301270 -265.143524169922 3.060038328171
-39.227886199951 -71.625984191895 -165.669937133789 1.896844983101
-84.235778808594 -82.260360717773 -79.464736938477 4.324618816376
97.166328430176 -70.743362426758 -205.755554199219 0.952330350876
111.791770935059 -65.340682983398 -160.397415161133 4.593204975128
-48.731658935547 -68.538810729980 -146.810943603516 1.111720800400
37.540229797363 -73.846626281738 -130.771392822266 2.207320928574
-78.979698181152 -62.095600128174 -45.765663146973 0.444691479206
-88.322944641113 -74.637802124023 -217.031921386719 2.668954133987
-13.696019172668 -72.112579345703 -205.015426635742 2.246844053268
-165.980529785156 -78.753257751465 -277.832733154297 4.770486354828
3.229685068130 -83.635688781738 -252.200592041016 1.690176725388
-92.691047668457 -65.943687438965 -125.943328857422 3.151971340179
-144.070281982422 -63.388755798340 -234.859497070313 1.014646530151
90.197204589844 -53.796730041504 -61.964057922363 3.677196979523
-76.466392517090 -66.176185607910 -123.842231750488 1.443704009056
1.007598042488 -58.953918457031 -286.730651855469 3.738150119781
100.461242675781 -64.268341064453 -96.532524108887 1.929696440697
-39.704021453857 -82.688415527344 -165.736312866211 3.478841781616
-54.073165893555 -71.673042297363 -53.139347076416 3.883970737457
-107.457588195801 -67.634368896484 -190.451354980469 2.059237241745
-19.602117538452 -68.945190429688 -238.319030761719 2.090367555618
-145.432876586914 -79.758140563965 -309.341247558594 2.990052938461
-106.290130615234 -69.085243225098 -200.546066284180 4.338234901428
8.310070991516 -69.378547668457 -194.047363281250 3.161626100540
13.781199455261 -78.552360534668 -237.044189453125 2.134624242783
108.281303405762 -71.878501892090 -174.376617431641 2.175024747849
81.360626220703 -71.833564758301 -88.659111022949 6.921843528748
56.850666046143 -61.115974426270 -98.981163024902 2.482442617416
-32.315715789795 -79.147117614746 -214.767425537109 2.340560436249
-143.518600463867 -64.510192871094 -233.162567138672 2.350333213806
-149.094100952148 -79.767005920410 -226.358566284180 2.138671159744
-23.936660766602 -68.604179382324 -64.613525390625 5.032406330109
57.866317749023 -57.647521972656 -94.108680725098 2.910511255264
-44.011653900146 -62.093738555908 -44.588741302490 0.325962692499
41.557491302490 -72.533706665039 -127.136367797852 2.269969224930
38.817749023438 -71.356262207031 -133.406906127930 1.221051812172
-27.742952346802 -78.108505249023 -182.667663574219 1.781294703484
103.267448425293 -69.351043701172 -130.733184814453 5.341258049011
-77.610603332520 -76.988082885742 -65.545211791992 1.103339314461
-142.649993896484 -71.912055969238 -268.997772216797 4.292407035828
19.293695449829 -63.939357757568 -183.246856689453 3.966292381287
-144.042938232422 -72.585044860840 -213.594268798828 2.965188503265
-148.927291870117 -90.705635070801 -294.142120361328 4.655384063721
-150.803176879883 -73.391265869141 -185.131546020508 1.666671633720
-12.361949920654 -69.273391723633 -234.408828735352 1.606203913689
-10.348509788513 -74.546966552734 -214.982849121094 3.163027286530
-22.195962905884 -82.054992675781 -184.608520507813 1.921918749809
-105.431816101074 -75.741630554199 -294.402160644531 4.483909130096
-58.942569732666 -59.222404479980 -118.213455200195 1.831384778023
22.804256439209 -72.100013732910 -237.867401123047 4.119307041168
-76.681304931641 -74.187393188477 -136.575317382813 2.971397638321
38.967582702637 -64.198318481445 -254.082824707031 1.832241535187
17.616840362549 -70.102493286133 -152.423339843750 1.795834660530
-151.746322631836 -84.728462219238 -225.455963134766 1.456959843636
-75.406532287598 -72.065773010254 -290.100769042969 2.226223945618
-43.019401550293 -74.133361816406 -59.099052429199 2.141905069351
-165.086059570313 -77.069244384766 -280.160827636719 4.719551563263
-19.059658050537 -64.765037536621 -206.342712402344 2.080821037292
28.602134704590 -78.311782836914 -143.542526245117 1.619870424271
98.393577575684 -56.523666381836 -76.183059692383 6.066728591919
-6.515814781189 -66.483871459961 -273.314575195313 1.645280599594
10.827180862427 -81.735382080078 -213.035644531250 2.716562509537
-137.157714843750 -83.359725952148 -199.537902832031 0.768081486225
41.155632019043 -63.809135437012 -257.753448486328 1.354924440384
21.116682052612 -81.328903198242 -166.496109008789 4.012009143829
44.348308563232 -69.929763793945 -95.918281555176 1.400582432747
-86.498924255371 -77.217765808105 -113.138816833496 1.987257480621
11.229298591614 -75.927543640137 -213.219711303711 2.778854131699
-88.645286560059 -83.373130798340 -90.277229309082 3.581033706665
-108.490669250488 -73.572257995605 -186.854232788086 3.866007089615
-60.986061096191 -70.444229125977 -298.397399902344 8.923622131348
13.997444152832 -78.149864196777 -188.999206542969 1.400102376938
-1.978127002716 -70.783103942871 -229.015716552734 0.548511683941
88.501365661621 -76.412384033203 -210.485900878906 2.193463325500
-139.662704467773 -68.246597290039 -262.971221923828 1.653172016144
72.857597351074 -61.550346374512 -60.039134979248 1.346841216087
-63.442192077637 -74.210166931152 -254.764358520508 4.208248615265
-48.474887847900 -71.754287719727 -290.379028320313 3.252391815186
67.230743408203 -63.806186676025 -68.790710449219 1.241034865379
41.406757354736 -65.376411437988 -258.189849853516 1.646530032158
-20.332345962524 -75.205749511719 -289.162628173828 2.573267221451
-43.375793457031 -78.235877990723 -87.389968872070 2.812964439392
-166.513854980469 -73.251380920410 -236.155700683594 1.483990669250
-43.439308166504 -72.878242492676 -169.978652954102 2.461823940277
-117.405380249023 -68.886596679688 -290.758605957031 1.290739655495
71.101844787598 -60.446537017822 -59.594882965088 2.084693670273
-153.660293579102 -71.862503051758 -183.256057739258 1.542677521706
-46.277030944824 -68.907707214355 -171.828598022461 6.121761798859
-32.596572875977 -64.019508361816 -51.442653656006 4.762629985809
21.533452987671 -79.482589721680 -261.966766357422 2.661751747131
17.118396759033 -78.721939086914 -225.639389038086 1.308787584305
14.804651260376 -73.486412048340 -291.212982177734 1.495755195618
40.748645782471 -68.469284057617 -35.605640411377 2.335814476013
41.811050415039 -65.883514404297 -104.185829162598 2.703254461288
24.459613800049 -71.186828613281 -142.548629760742 2.732680082321
-73.484809875488 -56.703804016113 -93.493278503418 5.036106586456
49.329406738281 -61.701049804688 -92.593360900879 3.427375078201
113.215377807617 -64.034431457520 -154.338302612305 5.595013141632
25.143280029297 -70.483207702637 -139.387649536133 0.990827500820
-46.214000701904 -68.076576232910 -139.796798706055 3.080234050751
-101.039398193359 -63.671600341797 -111.385124206543 2.648028612137
-153.338897705078 -60.124198913574 -201.494918823242 2.226879596710
72.865104675293 -69.399536132813 -226.818557739258 0.842383801937
-63.315906524658 -71.329254150391 -120.570556640625 4.704192161560
-42.872348785400 -66.786628723145 -154.271148681641 1.547452569008
-64.407714843750 -79.656028747559 -164.316864013672 1.569217205048
-87.759880065918 -68.644554138184 -256.093383789063 1.476809620857
-54.424388885498 -75.170104980469 -287.551361083984 2.119597196579
23.934528350830 -65.585426330566 -260.800048828125 1.919889211655
83.001777648926 -71.180152893066 -223.615203857422 1.819287180901
-35.479183197021 -75.534149169922 -205.291595458984 1.092425346375
-152.570404052734 -82.232078552246 -234.466278076172 3.019372224808
-130.012786865234 -63.403896331787 -232.399368286133 2.967770576477
-79.300270080566 -68.855712890625 -253.060501098633 1.478276371956
-145.126876831055 -74.313522338867 -274.862854003906 1.179777264595
-128.541168212891 -78.020469665527 -267.516632080078 5.950466632843
-145.671997070313 -84.819831848145 -213.880783081055 1.333124279976
-123.737693786621 -65.357116699219 -199.441925048828 1.718231081963
-62.468334197998 -68.187896728516 -147.927490234375 5.411030292511
-35.483051300049 -68.927459716797 -287.203552246094 3.974723815918
-68.926559448242 -57.134326934814 -114.821052551270 2.386750698090
-39.660118103027 -87.620765686035 -197.794235229492 2.936539888382
-24.863286972046 -75.555877685547 -69.168785095215 2.684238195419
-67.248840332031 -75.963661193848 -290.615112304688 1.262690305710
-73.819122314453 -66.286613464355 -135.927978515625 0.770096182823
-48.762794494629 -79.899940490723 -202.282730102539 0.532654523849
20.489833831787 -70.193931579590 -35.767555236816 2.800520181656
90.641357421875 -68.788726806641 -69.647071838379 2.479544401169
-9.333782196045 -76.225631713867 -227.874328613281 1.993265271187
-124.004638671875 -71.679122924805 -262.295440673828 1.568093538284
24.908443450928 -64.332191467285 -39.507808685303 1.936022877693
-119.307365417480 -73.570564270020 -264.791931152344 3.201695203781
-58.946235656738 -61.027362823486 -137.477401733398 0.512295603752
47.591911315918 -71.707748413086 -105.844543457031 2.262521982193
105.157897949219 -70.588294982910 -198.466812133789 1.912208676338
5.947291851044 -75.678817749023 -243.325149536133 0.987972915173
-28.765363693237 -71.584686279297 -187.752349853516 1.938754200935
-84.868598937988 -64.868774414063 -118.863609313965 0.992333412170
62.781436920166 -65.322769165039 -82.981269836426 1.301552772522
108.933937072754 -70.958755493164 -165.913177490234 1.850915074348
-57.032356262207 -65.703071594238 -129.097732543945 2.368732213974
-27.613185882568 -66.228897094727 -77.274543762207 3.364867925644
8.684570312500 -63.863704681396 -290.783447265625 2.010165929794
-67.747077941895 -59.880039215088 -117.001121520996 1.830018043518
-0.280465990305 -82.989448547363 -249.590576171875 1.406162738800
-44.069366455078 -76.654609680176 -66.751274108887 2.527493238449
-24.972492218018 -65.932739257813 -53.602600097656 2.977044820786
-87.841995239258 -63.922233581543 -130.828002929688 1.187094330788
8.677380561829 -77.058891296387 -201.129104614258 0.485701382160
-147.087051391602 -77.610916137695 -304.916534423828 1.742727279663
-122.285057067871 -64.802726745605 -291.708557128906 2.736481428146
-77.076118469238 -69.818046569824 -104.205711364746 1.738326787949
-1.733675956726 -74.679397583008 -242.491714477539 2.251801729202
0.739499986172 -61.407920837402 -279.551635742188 3.111001491547
10.050890922546 -74.915405273438 -235.589508056641 2.390198945999
-146.475967407227 -70.079597473145 -194.570816040039 2.635231733322
-98.378723144531 -68.368324279785 -107.583724975586 2.421467781067
105.519081115723 -73.730987548828 -189.291992187500 2.282873868942
-38.644718170166 -64.335952758789 -78.550491333008 2.054727792740
104.328330993652 -69.405349731445 -102.970420837402 1.370428800583
12.077280998230 -67.406822204590 -216.233917236328 1.781690120697
-146.941940307617 -70.040420532227 -201.063812255859 1.561484217644
56.871845245361 -58.322223663330 -89.438224792480 2.302532672882
-159.596389770508 -72.008796691895 -197.962371826172 2.478386163712
86.470100402832 -75.084312438965 -80.144966125488 0.924889981747
-107.974189758301 -71.616653442383 -225.155899047852 2.094542264938
40.380615234375 -71.697311401367 -116.026359558105 2.372792005539
-126.117500305176 -68.616210937500 -269.792327880859 3.631591081619
-69.750976562500 -71.154922485352 -249.075408935547 2.355669498444
21.783823013306 -78.401977539063 -167.125000000000 2.348573207855
4.617592811584 -82.060111999512 -250.131515502930 2.113743305206
16.895948410034 -70.327621459961 -160.517333984375 2.046394824982
24.629474639893 -75.389213562012 -155.951065063477 2.086908102036
-148.665496826172 -78.503204345703 -226.789337158203 2.073876380920
80.926208496094 -71.743927001953 -229.754364013672 1.419389247894
-7.850987911224 -75.184066772461 -171.011505126953 1.225185632706
-76.929725646973 -71.965759277344 -51.877891540527 2.074240446091
-67.318107604980 -65.662765502930 -42.532218933105 2.841825485229
-156.366256713867 -82.330360412598 -278.345977783203 5.690569877625
-100.903244018555 -63.246482849121 -148.328353881836 2.038916826248
-1.695183992386 -68.478897094727 -234.372543334961 1.956540465355
102.336143493652 -72.194755554199 -174.298126220703 3.246247768402
8.441841125488 -80.888557434082 -240.666870117188 1.336764097214
-30.951864242554 -65.622680664063 -183.876876831055 3.480221986771
0.866739988327 -73.996360778809 -158.006072998047 3.389940738678
-92.882698059082 -74.812393188477 -92.889274597168 0.845406055450
-63.229564666748 -69.988700866699 -140.273651123047 3.037601709366
34.650455474854 -79.791419982910 -152.347290039063 3.703259944916
28.750469207764 -67.161621093750 -253.672027587891 3.740525245667
-146.973083496094 -71.486854553223 -313.154174804688 0.665514707565
85.714080810547 -70.896263122559 -211.125427246094 2.689576625824
43.103908538818 -68.957061767578 -108.082290649414 1.418070077896
96.732383728027 -52.493137359619 -70.590461730957 3.762991189957
20.126731872559 -72.783477783203 -212.392669677734 2.062032938004
-139.935089111328 -75.532493591309 -259.660949707031 1.230953574181
-93.973999023438 -71.543403625488 -223.591842651367 1.518156766891
-98.672683715820 -72.295425415039 -94.107620239258 4.768769741058
-115.130706787109 -68.671775817871 -231.615524291992 2.476675748825
-164.421386718750 -66.775329589844 -198.418029785156 1.953267812729
16.827356338501 -81.222206115723 -248.973678588867 1.011790394783
-20.391494750977 -73.206176757813 -293.465362548828 2.507088184357
105.859428405762 -74.335983276367 -150.454681396484 3.698925733566
93.745429992676 -63.405761718750 -75.187156677246 7.673519134521
24.253017425537 -77.500373840332 -183.901062011719 1.475292563438
-57.199001312256 -73.035774230957 -132.896743774414 0.233084127307
-20.112703323364 -63.109615325928 -68.653656005859 3.746167898178
104.187324523926 -56.457019805908 -90.760154724121 2.439237356186
-65.297828674316 -58.489505767822 -117.366561889648 3.455883979797
20.855340957642 -63.919082641602 -35.224514007568 2.427128791809
-25.996948242188 -74.031318664551 -193.890045166016 1.855005502701
-102.197219848633 -68.869049072266 -75.860374450684 6.209359645844
18.583496093750 -68.276023864746 -153.249725341797 2.825447082520
-46.220832824707 -76.259849548340 -193.134063720703 1.443676114082
110.850349426270 -73.295524597168 -148.393768310547 2.366789579391
-129.674087524414 -68.276283264160 -236.919372558594 2.988784074783
-95.073188781738 -67.748474121094 -153.000595092773 1.348726153374
9.491931915283 -71.089202880859 -240.299865722656 0.637591302395
17.071792602539 -83.683975219727 -251.613723754883 3.306643724442
-43.091953277588 -86.083068847656 -76.887290954590 3.710241317749
-31.139667510986 -80.811943054199 -192.111633300781 1.680254817009
-84.710243225098 -62.970310211182 -121.558174133301 2.707112789154
-147.425308227539 -63.354068756104 -251.368637084961 1.937054991722
6.736979007721 -74.712005615234 -293.908355712891 1.425924062729
-67.502792358398 -76.588356018066 -164.825180053711 1.681615471840
-139.657348632813 -87.477531433105 -261.578643798828 2.828649759293
-147.858474731445 -63.433769226074 -189.608718872070 2.117586135864
-123.083892822266 -73.408813476563 -268.951263427734 5.208381652832
-0.005084000062 -76.234588623047 -245.408584594727 1.697883725166
24.821392059326 -57.545265197754 -274.124511718750 2.140294075012
-70.513183593750 -69.490623474121 -159.510650634766 3.843079090118
107.421653747559 -73.388725280762 -154.788314819336 3.894231796265
16.886796951294 -74.470451354980 -239.617568969727 2.111370801926
17.313493728638 -67.612213134766 -286.846099853516 2.402004241943
-106.726699829102 -61.667240142822 -173.793273925781 2.058135509491
-162.268478393555 -72.687454223633 -215.242218017578 2.101896524429
26.402685165405 -68.897644042969 -156.259704589844 2.976462841034
-74.695060729980 -75.138778686523 -103.509231567383 3.047670125961
-149.725631713867 -83.030853271484 -299.998657226563 2.325243711472
107.105262756348 -71.012199401855 -180.831558227539 2.397835254669
-73.097229003906 -75.384460449219 -287.801086425781 3.230369806290
110.364540100098 -72.648139953613 -135.729995727539 2.019083499908
-96.615776062012 -66.022094726563 -144.047363281250 1.399924159050
-51.099617004395 -76.153244018555 -196.096343994141 2.864850282669
-24.146429061890 -74.301918029785 -75.349319458008 1.999532699585
41.233863830566 -61.698246002197 -251.198913574219 2.752839565277
19.101356506348 -64.491050720215 -25.682098388672 1.770550370216
-46.239292144775 -72.071990966797 -149.963607788086 2.580287694931
21.303478240967 -73.832168579102 -159.215026855469 1.816091418266
-147.861145019531 -63.161224365234 -237.091323852539 1.337717533112
43.559055328369 -76.652351379395 -118.962844848633 0.597777366638
-80.384262084961 -78.148262023926 -98.830513000488 3.462340831757
108.897071838379 -69.308662414551 -120.876091003418 2.069806098938
-100.142593383789 -76.894493103027 -221.695327758789 3.116760969162
-91.155525207520 -67.176284790039 -124.094100952148 3.708139419556
-71.641357421875 -71.666648864746 -151.566894531250 1.740284562111
90.242904663086 -65.381050109863 -69.361549377441 4.690812110901
35.857337951660 -59.146110534668 -34.979587554932 1.434760093689
-143.519088745117 -66.587997436523 -201.823333740234 2.459151506424
-147.569992065430 -67.902709960938 -198.736602783203 1.618862986565
-70.779953002930 -80.996810913086 -215.400054931641 2.676344394684
-166.560180664063 -70.323631286621 -209.348953247070 1.061332345009
-11.955495834351 -72.225669860840 -245.394744873047 0.817617714405
-167.941970825195 -70.169319152832 -229.190002441406 1.313783288002
-132.001449584961 -69.771766662598 -264.351684570313 1.690726518631
-58.278232574463 -62.524391174316 -135.452102661133 1.436864852905
21.256486892700 -70.024070739746 -205.360671997070 2.548981666565
-37.706508636475 -78.036178588867 -241.895095825195 1.000410318375
29.302675247192 -67.098037719727 -139.774398803711 3.148125410080
-76.456954956055 -60.358310699463 -101.568359375000 2.187211513519
-82.290267944336 -85.994682312012 -102.127334594727 2.387711524963
75.687057495117 -67.383651733398 -102.146163940430 2.440916061401
-154.263366699219 -77.782196044922 -275.112304687500 3.263465166092
-96.632598876953 -65.690887451172 -67.325332641602 1.046861171722
18.949056625366 -78.563934326172 -230.763671875000 2.249000549316
85.918418884277 -63.940639495850 -62.443130493164 1.642684817314
-141.079086303711 -74.668525695801 -201.539169311523 1.218241453171
44.321178436279 -71.105781555176 -119.019584655762 2.405548334122
-5.017209053040 -62.637821197510 -242.237945556641 1.903392314911
25.570892333984 -69.974983215332 -266.337921142578 1.375919818878
-17.712131500244 -69.470985412598 -67.312950134277 2.225733757019
-143.466964721680 -79.153747558594 -219.252532958984 2.626113414764
-96.639350891113 -71.451042175293 -113.288291931152 4.356185913086
-3.990287065506 -73.021575927734 -292.129730224609 2.897422313690
-170.632629394531 -71.812255859375 -222.977264404297 4.146176815033
33.817790985107 -70.620468139648 -117.371490478516 2.968741655350
13.150927543640 -71.653335571289 -247.736495971680 3.300202369690
36.548347473145 -61.666107177734 -260.069244384766 3.358666181564
-52.086582183838 -82.249946594238 -246.251174926758 3.280369997025
-15.602494239807 -77.124160766602 -211.146286010742 1.339489459991
-71.554809570313 -70.392097473145 -98.010627746582 2.550713300705
-43.083183288574 -77.254821777344 -156.967651367188 2.609866857529
-101.216720581055 -65.549133300781 -173.460723876953 1.680278420448
-30.848960876465 -68.370506286621 -175.629013061523 1.762718081474
42.076614379883 -69.688926696777 -253.098342895508 0.968757033348
-68.446105957031 -71.772674560547 -168.312545776367 3.670438766479
21.898311614990 -63.578998565674 -139.459564208984 2.097680330276
-144.615905761719 -82.781791687012 -261.273529052734 1.570232033730
-50.385631561279 -75.181526184082 -180.358825683594 1.654178619385
-25.766893386841 -72.706535339355 -222.590591430664 2.677528619766
-68.931404113770 -82.694946289063 -209.792556762695 1.375173449516
13.004991531372 -79.342384338379 -230.993438720703 1.450022339821
5.964251995087 -78.519851684570 -201.641113281250 3.060382127762
-149.700302124023 -75.513984680176 -234.791976928711 0.715961158276
27.808904647827 -69.935340881348 -156.482360839844 2.687472105026
32.817302703857 -64.539932250977 -130.828170776367 2.089549064636
-153.998428344727 -87.811782836914 -233.434997558594 5.475773811340
-9.627486228943 -70.893241882324 -281.709838867188 0.347464233637
71.589050292969 -68.741165161133 -233.388961791992 2.037721157074
-121.068489074707 -71.148544311523 -292.060272216797 2.505650997162
39.205993652344 -71.734954833984 -263.635314941406 5.900390148163
-106.714477539063 -68.942955017090 -192.371871948242 0.648557662964
-144.770385742188 -66.054328918457 -255.611038208008 1.847323656082
-62.632015228271 -61.536190032959 -123.612861633301 3.025528669357
-66.294189453125 -75.039016723633 -95.708465576172 2.421657323837
104.070411682129 -63.072795867920 -82.917327880859 1.338901162148
-145.177719116211 -77.542892456055 -188.266067504883 0.998552560806
-138.132934570313 -70.799636840820 -239.002380371094 5.212399482727
4.973083019257 -74.896575927734 -235.174209594727 2.053856134415
11.971970558167 -67.849113464355 -239.210678100586 1.964947819710
-10.658765792847 -70.964515686035 -203.494094848633 1.940406799316
-49.698532104492 -84.737236022949 -93.593757629395 4.853609085083
12.297750473022 -67.217109680176 -207.390121459961 1.561964631081
22.964620590210 -74.309280395508 -180.410552978516 2.121004343033
40.054821014404 -56.172714233398 -23.652231216431 1.695379376411
-25.070560455322 -69.968154907227 -224.249618530273 2.200359821320
19.216403961182 -68.106361389160 -161.827377319336 2.973406553268
10.111289978027 -80.599822998047 -224.010482788086 1.971280574799
-27.121887207031 -78.810897827148 -185.628051757813 1.145534753799
-95.951026916504 -62.345035552979 -145.338211059570 2.277188777924
107.659004211426 -65.009513854980 -165.587753295898 4.945827007294
-51.180862426758 -64.602584838867 -84.987152099609 0.136017188430
85.642997741699 -77.505828857422 -222.382110595703 0.659276902676
-97.207221984863 -66.318428039551 -70.256172180176 2.637484550476
-84.948394775391 -61.800041198730 -119.600547790527 1.450932025909
-4.306098937988 -74.859252929688 -218.088928222656 1.549982190132
-55.602798461914 -87.163665771484 -86.822319030762 2.835618257523
-80.254951477051 -77.048393249512 -107.536788940430 1.580208063126
22.797098159790 -60.483848571777 -145.347640991211 2.937328815460
-3.117115974426 -78.251113891602 -161.856414794922 3.331160545349
-152.663848876953 -74.580360412598 -210.492874145508 2.594385623932
60.009567260742 -66.724975585938 -244.256454467773 1.832705855370
-43.270057678223 -64.023857116699 -160.889160156250 4.914436817169
-38.748119354248 -64.971702575684 -178.884109497070 6.534814834595
6.403713226318 -72.210067749023 -226.967224121094 1.109506487846
25.185155868530 -81.412506103516 -157.757629394531 3.676214456558
109.046638488770 -71.750587463379 -131.404769897461 0.817859947681
19.775718688965 -73.259315490723 -198.317703247070 1.800471901894
33.876186370850 -72.187469482422 -250.998184204102 3.732121229172
-60.019996643066 -70.315216064453 -90.190834045410 0.781369388103
-58.010295867920 -82.800537109375 -205.856140136719 1.619776725769
-102.317146301270 -68.266952514648 -225.014221191406 0.835167288780
9.896382331848 -71.266517639160 -202.136230468750 1.824084162712
50.043029785156 -74.532188415527 -100.864830017090 2.703862667084
-42.782173156738 -69.346504211426 -55.920921325684 5.037220001221
-18.134811401367 -69.859664916992 -66.098884582520 1.746367454529
-87.289566040039 -73.904678344727 -218.083419799805 2.378316640854
43.319950103760 -62.697513580322 -25.446063995361 0.821485280991
-158.801483154297 -66.831222534180 -297.394683837891 4.944740772247
-46.321449279785 -76.492805480957 -168.745361328125 3.455005645752
0.559421002865 -65.512733459473 -290.142272949219 1.905997157097
-121.482772827148 -72.089469909668 -206.869659423828 4.089387893677
-156.690780639648 -71.921699523926 -179.170272827148 4.147573947906
-0.401978999376 -73.533088684082 -239.458251953125 1.016448736191
63.031227111816 -60.234329223633 -90.596664428711 1.637469768524
16.197734832764 -78.598747253418 -258.345672607422 3.013617277145
-98.190330505371 -65.118904113770 -113.907829284668 1.500784039497
94.715919494629 -73.215980529785 -212.038253784180 0.779698312283
-77.626014709473 -70.741226196289 -144.575454711914 1.941368222237
-59.078407287598 -78.329910278320 -180.174667358398 1.823812365532
-43.251354217529 -62.936267852783 -50.271965026855 3.795205831528
-48.138317108154 -83.192504882813 -153.936248779297 3.717772245407
-50.961200714111 -74.478736877441 -191.089370727539 2.058084487915
20.901247024536 -66.995109558105 -141.965240478516 1.837241888046
42.489589691162 -68.000694274902 -35.758956909180 2.915348529816
12.531102180481 -76.172874450684 -209.468933105469 1.237929463387
-46.060665130615 -86.908988952637 -202.021667480469 1.556158185005
-145.952621459961 -84.598693847656 -223.568511962891 0.631719172001
80.269569396973 -59.021446228027 -56.102817535400 2.489308357239
-47.447765350342 -76.437210083008 -285.706604003906 1.899712920189
15.737963676453 -72.336502075195 -214.375213623047 1.693132281303
70.799041748047 -73.221694946289 -88.422904968262 1.246897220612
-130.376510620117 -70.834197998047 -258.299468994141 4.447144508362
-149.703918457031 -67.216072082520 -196.403549194336 2.070854187012
41.489898681641 -68.484436035156 -21.866456985474 1.292597413063
-139.328552246094 -64.858093261719 -258.413543701172 3.647419214249
-154.360046386719 -61.238727569580 -251.119628906250 2.668874263763
-159.518661499023 -73.453643798828 -265.197784423828 2.322551012039
-141.161376953125 -69.608688354492 -258.025054931641 2.753226518631
26.085655212402 -61.884510040283 -20.283798217773 2.597456932068
-149.248687744141 -73.741317749023 -191.534545898438 0.740185201168
96.929901123047 -69.656082153320 -205.211654663086 0.889260888100
-149.242431640625 -68.112953186035 -300.079803466797 2.042838811874
12.885104179382 -67.688064575195 -177.128173828125 3.888291597366
-8.551181793213 -65.078063964844 -216.434982299805 2.404145002365
-141.970825195313 -72.396621704102 -203.076400756836 1.483021259308
-63.585227966309 -74.712249755859 -141.377578735352 4.822686672211
-151.576126098633 -83.499145507813 -232.952667236328 1.259224295616
-103.872772216797 -62.420364379883 -83.761451721191 4.739791393280
101.629417419434 -73.423507690430 -164.358215332031 6.019397258759
-72.160247802734 -86.654449462891 -91.480438232422 1.344906330109
-134.882202148438 -74.522369384766 -255.630447387695 1.301730275154
-66.298934936523 -62.417545318604 -125.386611938477 0.752605080605
92.572074890137 -71.002914428711 -198.187042236328 3.740173339844
-70.886207580566 -70.157554626465 -147.104949951172 1.727594494820
-76.399856567383 -69.654342651367 -105.684974670410 1.645136594772
3.654654979706 -74.163925170898 -216.439437866211 2.518798589706
-79.127967834473 -63.656589508057 -116.943290710449 0.181080713868
-134.091766357422 -71.799430847168 -227.400970458984 1.917669653893
-144.167755126953 -80.883865356445 -302.829315185547 4.177754878998
-78.462478637695 -58.742210388184 -48.297039031982 3.476281881332
-55.035900115967 -59.971122741699 -127.080841064453 1.345842123032
35.421054840088 -64.661430358887 -13.859674453735 3.320755243301
-109.082481384277 -66.898567199707 -188.012969970703 2.118138551712
-128.202774047852 -61.426010131836 -201.093017578125 3.268963575363
-149.535903930664 -65.498085021973 -194.662643432617 1.160958886147
-53.843971252441 -76.882675170898 -91.071090698242 1.286956429482
-146.039367675781 -87.527938842773 -253.664764404297 2.458308458328
-64.964500427246 -57.081676483154 -132.778533935547 3.432958364487
-92.808883666992 -70.130668640137 -139.954895019531 2.823595762253
31.358205795288 -57.238277435303 -12.863514900208 4.068844795227
108.603919982910 -71.174942016602 -127.924713134766 1.101362466812
-33.411052703857 -74.975410461426 -213.814117431641 0.763301432133
46.618343353271 -71.824958801270 -107.478843688965 2.763462305069
113.061798095703 -69.126159667969 -130.873657226563 1.640030384064
-52.908802032471 -69.703437805176 -136.499252319336 2.408113241196
-150.880447387695 -77.499740600586 -219.142303466797 2.137666463852
-139.348709106445 -71.406066894531 -202.965179443359 1.199578404427
-91.474914550781 -71.200447082520 -84.405845642090 2.413455963135
-33.799301147461 -77.737922668457 -207.802246093750 2.007148981094
-27.666658401489 -62.226566314697 -74.590179443359 5.263149261475
85.124603271484 -74.362632751465 -88.213623046875 4.596796035767
-153.986328125000 -67.878242492676 -281.543945312500 2.923376083374
44.545124053955 -66.602005004883 -107.683120727539 1.784794092178
-38.256904602051 -65.557991027832 -47.729919433594 1.582885146141
35.470691680908 -74.053283691406 -121.471153259277 2.440288782120
103.982711791992 -61.177082061768 -76.008735656738 1.116389632225
-107.157142639160 -66.322113037109 -197.531127929688 1.876138329506
-143.064254760742 -84.109207153320 -239.407363891602 1.288788199425
-81.015213012695 -71.266197204590 -63.794723510742 3.805926561356
-74.160263061523 -75.125556945801 -64.407768249512 2.160334348679
112.513137817383 -73.945655822754 -140.853042602539 1.599904656410
75.956680297852 -71.570907592773 -97.285270690918 2.634677410126
103.005325317383 -68.150581359863 -121.507820129395 4.450430870056
-144.211181640625 -79.385719299316 -206.418960571289 1.818102478981
78.246261596680 -76.898277282715 -222.038726806641 2.229704141617
24.654729843140 -75.630470275879 -155.469116210938 1.811652302742
-28.332481384277 -70.966796875000 -182.252395629883 2.612735509872
-146.521163940430 -74.686698913574 -290.981048583984 1.844015121460
2.621809005737 -72.129135131836 -241.678390502930 2.168972730637
16.460268020630 -72.236991882324 -250.248977661133 2.962799787521
108.670486450195 -62.924339294434 -116.963943481445 4.731663703918
-165.622543334961 -80.289543151855 -272.561126708984 4.923005104065
-10.296768188477 -67.193290710449 -243.710678100586 1.679927229881
29.283519744873 -70.748298645020 -164.199996948242 2.756857156754
-35.827674865723 -77.971275329590 -207.918853759766 0.591962277889
-48.035713195801 -65.399726867676 -86.383941650391 2.457174539566
-163.821334838867 -66.706680297852 -212.255996704102 1.472684025764
-134.770294189453 -74.892158508301 -298.612182617188 5.281064510345
-165.480468750000 -67.332054138184 -209.558288574219 1.737595438957
-97.792449951172 -68.884780883789 -63.415664672852 5.497628211975
-44.366603851318 -74.989181518555 -242.699417114258 2.010786056519
-147.477661132813 -84.757965087891 -279.227172851563 2.255389928818
-169.519256591797 -75.857368469238 -249.445251464844 3.493333816528
-142.352233886719 -75.525390625000 -293.625396728516 2.358129501343
-117.533393859863 -70.091102600098 -228.630233764648 1.452780723572
99.310829162598 -61.978912353516 -67.195365905762 1.331831574440
86.437637329102 -65.826675415039 -227.804153442383 6.027402400970
37.394222259521 -75.003829956055 -111.062316894531 1.539619326591
-49.776794433594 -74.218193054199 -91.811607360840 3.871399879456
-110.391181945801 -69.853927612305 -226.886657714844 1.628736615181
-96.337158203125 -69.120185852051 -77.728698730469 2.148131847382
58.351810455322 -65.056594848633 -237.781738281250 4.505132675171
42.854492187500 -69.191879272461 -35.496353149414 2.385908603668
-6.581931114197 -63.203769683838 -258.967926025391 3.134270906448
-83.216964721680 -66.848968505859 -117.679748535156 2.090653181076
19.154773712158 -74.445869445801 -275.216522216797 2.890698671341
-12.400182723999 -76.550300598145 -278.230072021484 2.364126205444
32.235576629639 -67.675949096680 -125.816314697266 1.986698269844
-155.299850463867 -65.546127319336 -288.390075683594 2.189405679703
3.442529916763 -77.521690368652 -246.827804565430 2.167681694031
-128.011947631836 -72.155838012695 -240.280715942383 5.405382156372
-9.581800460815 -70.982894897461 -269.403656005859 3.447012901306
28.896341323853 -55.335968017578 -37.522224426270 2.942786216736
6.113313198090 -83.462638854980 -248.651748657227 2.456031560898
19.974023818970 -75.169708251953 -139.929443359375 4.780655860901
67.982894897461 -67.342254638672 -241.805297851563 2.387776374817
-56.404037475586 -71.251365661621 -281.728149414063 5.092302799225
68.630783081055 -66.077323913574 -233.236068725586 1.663447141647
-145.047103881836 -62.643299102783 -184.341842651367 1.835790872574
33.957664489746 -71.632644653320 -117.385490417480 1.997897624969
-147.638519287109 -71.116340637207 -251.092941284180 2.378632545471
96.218940734863 -63.459304809570 -72.943893432617 4.487054824829
19.498968124390 -80.478195190430 -242.846740722656 2.221531152725
-52.041793823242 -81.735610961914 -88.200462341309 1.716427445412
-141.932846069336 -66.829269409180 -292.497009277344 2.399821519852
-146.260482788086 -66.836769104004 -181.375946044922 1.136882901192
-97.064765930176 -66.905891418457 -219.987518310547 2.418031930923
-23.873868942261 -79.939888000488 -197.990921020508 2.291134357452
-71.475280761719 -84.301460266113 -208.929779052734 2.366264104843
14.203972816467 -81.269874572754 -255.392715454102 2.434123754501
-10.580179214478 -68.874877929688 -238.431655883789 2.217733621597
-105.603363037109 -61.494342803955 -78.632698059082 6.618291378021
-37.669315338135 -59.814254760742 -48.473526000977 2.516265153885
-6.377098083496 -66.041511535645 -259.104125976563 0.489544510841
-146.132080078125 -77.875518798828 -302.396362304688 0.585795342922
-35.042034149170 -76.397064208984 -185.228836059570 2.295877933502
-160.085601806641 -67.927238464355 -210.362533569336 2.288356065750
-18.589069366455 -73.367156982422 -230.050277709961 2.036018610001
-78.917190551758 -64.523658752441 -141.049667358398 3.386725425720
-35.509319305420 -73.498245239258 -174.659606933594 2.843878269196
-148.240737915039 -65.397613525391 -202.874023437500 2.515609025955
-1.281551957130 -74.565292358398 -221.991058349609 1.976170897484
-159.738601684570 -75.260261535645 -253.998138427734 2.655972957611
23.491718292236 -73.545219421387 -265.649810791016 2.115390777588
-5.670021057129 -77.670883178711 -218.962310791016 1.553720355034
3.214365005493 -81.239288330078 -273.487579345703 2.457034587860
15.329204559326 -77.148811340332 -288.597961425781 1.224103331566
14.648065567017 -82.282981872559 -258.929656982422 2.150664806366
-61.199699401855 -73.926643371582 -245.964416503906 1.104178667068
-1.451972007751 -71.079833984375 -237.355972290039 2.087617397308
95.300506591797 -72.736122131348 -203.769134521484 3.019204854965
-36.397415161133 -81.788642883301 -210.362136840820 3.638242959976
106.825866699219 -57.159278869629 -76.373695373535 2.686909914017
-138.965332031250 -68.903549194336 -206.886108398438 3.633101940155
-115.901695251465 -70.840087890625 -293.835632324219 1.842036366463
-14.924019813538 -76.274795532227 -221.479629516602 1.469315171242
50.006519317627 -62.237678527832 -100.015396118164 2.747316122055
-148.302246093750 -68.289466857910 -281.560882568359 2.832069635391
-57.591144561768 -70.513725280762 -148.298339843750 3.107733964920
-44.301395416260 -75.667282104492 -285.446166992188 2.519876003265
-18.313638687134 -79.366523742676 -177.425460815430 1.621862530708
-17.564754486084 -73.472877502441 -227.262191772461 1.556838750839
34.287128448486 -70.504905700684 -131.221221923828 1.464115858078
102.218086242676 -70.367942810059 -176.827026367188 2.867131233215
7.685104846954 -72.486465454102 -193.154037475586 3.029793977737
115.376380920410 -68.376647949219 -137.116821289063 1.936661005020
99.339775085449 -67.843383789063 -105.378334045410 2.589146375656
-87.961692810059 -85.837570190430 -110.252296447754 5.468765258789
72.146186828613 -68.421249389648 -68.044692993164 1.026981115341
92.135742187500 -68.013442993164 -73.906951904297 5.307792663574
97.743820190430 -72.865531921387 -91.852798461914 1.459603667259
69.125068664551 -65.841949462891 -68.578063964844 0.980478942394
-29.135429382324 -68.518142700195 -183.898391723633 0.983512043953
-60.748329162598 -60.936847686768 -121.772811889648 3.207712173462
0.086025997996 -77.442230224609 -246.477798461914 1.373727798462
-145.095962524414 -63.756027221680 -230.454635620117 1.151695251465
-156.207229614258 -76.803428649902 -223.253356933594 3.460086107254
22.787540435791 -78.985229492188 -140.072891235352 1.830010056496
54.049652099609 -73.357437133789 -89.711067199707 1.850769042969
35.670703887939 -62.707317352295 -114.598365783691 5.601489543915
-8.321638107300 -68.312057495117 -286.213897705078 1.360973715782
