-157.336029052734 -65.787406921387 -270.429077148438 4.201638221741
-3.293562889099 -66.253295898438 -223.203308105469 0.839475572109
-86.623855590820 -73.868392944336 -287.275634765625 1.168831348419
-81.225494384766 -61.931171417236 -115.206794738770 0.711785078049
-98.105842590332 -70.511878967285 -89.767227172852 3.030707597733
-68.241027832031 -76.303947448730 -209.580047607422 1.158759117126
18.975168228149 -67.812744140625 -153.220031738281 2.628601312637
12.038847923279 -79.724891662598 -244.516204833984 1.911888360977
-90.652969360352 -73.824913024902 -286.888275146484 2.032486438751
-38.833118438721 -58.330799102783 -46.236026763916 1.082058906555
12.889221191406 -68.752510070801 -183.468032836914 2.945549726486
-13.553494453430 -69.207168579102 -236.513641357422 1.423715591431
-58.061435699463 -56.453598022461 -42.129734039307 1.438614368439
-18.432840347290 -71.432373046875 -195.975860595703 1.580060005188
-90.539291381836 -63.438884735107 -67.104080200195 5.393095970154
-116.623390197754 -67.917907714844 -283.264434814453 4.645504474640
70.593269348145 -77.918464660645 -231.484146118164 4.089262008667
-34.789093017578 -79.352043151855 -78.743621826172 2.245229244232
-69.836395263672 -71.217445373535 -251.614349365234 1.387786030769
11.275582313538 -64.239776611328 -147.554428100586 2.665045976639
46.528045654297 -67.960975646973 -99.049247741699 1.157140851021
-79.800643920898 -70.910736083984 -208.714904785156 2.343917131424
15.064023017883 -80.887031555176 -212.038009643555 1.375750780106
51.559375762939 -69.018089294434 -95.035964965820 1.966231346130
-33.164169311523 -75.100151062012 -162.629562377930 2.903998613358
-10.548450469971 -76.322891235352 -286.768585205078 1.289666175842
-152.588302612305 -64.515045166016 -299.078369140625 2.505878448486
-22.549762725830 -62.438316345215 -63.565753936768 2.873599290848
-149.125549316406 -61.217414855957 -191.686523437500 1.968102693558
65.711074829102 -63.214313507080 -82.907333374023 0.968638956547
-97.719650268555 -56.745197296143 -74.156013488770 1.505414843559
-141.188827514648 -77.708297729492 -187.556777954102 2.310560703278
-18.365747451782 -72.613883972168 -200.924560546875 3.103526353836
-110.426078796387 -65.601348876953 -193.722503662109 2.802544355392
-151.741882324219 -63.798782348633 -181.697265625000 1.912568211555
91.065109252930 -77.578125000000 -99.538345336914 3.014870405197
-147.700607299805 -77.490348815918 -187.301925659180 1.444934129715
96.333793640137 -72.883064270020 -90.677917480469 1.289635777473
9.983762741089 -78.488739013672 -229.098510742188 1.910847902298
-117.293258666992 -60.407905578613 -197.840408325195 4.182773590088
-165.952636718750 -66.403419494629 -242.720169067383 2.397803068161
-65.380874633789 -66.989959716797 -118.881782531738 2.329501867294
-34.104213714600 -78.540687561035 -290.905700683594 0.602453768253
-142.032180786133 -78.408241271973 -194.296157836914 0.806857824326
1.118800997734 -77.716773986816 -163.608306884766 1.138183832169
47.771701812744 -83.342964172363 -104.642272949219 4.647727012634
-157.076309204102 -66.481117248535 -201.537811279297 3.136500120163
-142.975296020508 -63.658695220947 -199.332153320313 2.362698793411
-152.473236083984 -76.108833312988 -214.084228515625 3.487547874451
121.622459411621 -73.065544128418 -146.233810424805 4.983831405640
30.764085769653 -71.862304687500 -258.779998779297 2.152546882629
64.484924316406 -71.985115051270 -86.094963073730 1.097183823586
-9.592189788818 -61.752990722656 -289.590728759766 4.810024738312
-143.777435302734 -58.673828125000 -181.401000976563 3.427613496780
-141.867675781250 -67.593818664551 -186.854202270508 0.733122169971
59.251014709473 -69.962532043457 -85.448074340820 1.748050093651
-66.690948486328 -64.030906677246 -118.929992675781 1.887963414192
37.017749786377 -82.187995910645 -124.132598876953 2.365794420242
-152.540863037109 -60.221817016602 -177.549697875977 3.076911926270
-51.883148193359 -70.916450500488 -143.499176025391 2.810297727585
-46.862495422363 -74.865127563477 -178.477676391602 4.913434982300
-44.088298797607 -74.159851074219 -144.512634277344 0.998371005058
-140.043563842773 -67.911598205566 -180.123153686523 2.198169231415
4.236371994019 -73.095588684082 -240.998550415039 1.518020153046
42.728927612305 -73.174285888672 -121.045745849609 2.459190368652
-150.567596435547 -61.560367584229 -271.464263916016 4.946846961975
105.308120727539 -62.405395507813 -88.901123046875 1.933629989624
-74.902191162109 -63.899719238281 -141.563430786133 2.894185304642
-152.547943115234 -69.463600158691 -275.913238525391 3.190371990204
-121.313804626465 -62.911449432373 -196.254013061523 1.988999128342
-125.827781677246 -67.016334533691 -201.035766601563 3.318437814713
-160.551132202148 -65.359390258789 -211.360153198242 3.377504110336
-150.717849731445 -78.169731140137 -256.206054687500 1.874363780022
-30.027444839478 -73.316825866699 -159.217987060547 1.625029683113
-148.374237060547 -69.051582336426 -194.029647827148 2.485488653183
90.831184387207 -77.143432617188 -68.050048828125 4.004923343658
55.712482452393 -68.838424682617 -90.104469299316 1.927923321724
65.317016601563 -68.595199584961 -70.603462219238 4.692536354065
-61.779636383057 -68.056076049805 -132.223175048828 1.314003586769
-68.563354492188 -62.530235290527 -104.647834777832 1.988457083702
-75.726669311523 -83.540077209473 -205.101699829102 4.793461799622
-62.332313537598 -75.320159912109 -284.994049072266 1.111230731010
-147.250747680664 -65.800132751465 -169.892868041992 4.836818218231
-152.678024291992 -59.658031463623 -256.884521484375 3.106770992279
-78.067832946777 -66.472702026367 -107.348205566406 0.493975698948
-13.051769256592 -67.324073791504 -64.651443481445 1.390494108200
78.294761657715 -75.830757141113 -90.027992248535 3.604495048523
-146.250457763672 -77.312759399414 -216.889587402344 1.680598020554
9.553250312805 -78.874526977539 -189.529876708984 4.932723045349
-1.250056982040 -70.282180786133 -262.967590332031 4.677060604095
69.736007690430 -70.486061096191 -77.141944885254 1.784372687340
17.228717803955 -64.956329345703 -246.412216186523 3.314566373825
86.857780456543 -70.501220703125 -107.536903381348 2.908288478851
-145.070999145508 -83.489295959473 -216.466552734375 1.292041659355
-65.834030151367 -82.440895080566 -201.293548583984 4.707572937012
-93.675125122070 -69.175262451172 -83.267768859863 2.375802516937
-67.912086486816 -71.916282653809 -40.951930999756 5.267608642578
-73.811141967773 -67.085289001465 -135.818222045898 1.065409064293
-165.549163818359 -64.861732482910 -199.166152954102 2.870696783066
-90.300956726074 -65.988868713379 -66.108909606934 4.140528202057
-155.941375732422 -69.698333740234 -274.865753173828 3.212789058685
-63.918392181396 -71.353805541992 -131.123474121094 2.873603105545
-13.826070785522 -74.835700988770 -206.902526855469 2.794609308243
-65.665321350098 -73.338073730469 -143.967041015625 3.065159320831
-152.167358398438 -63.799915313721 -181.838775634766 1.997919440269
-166.689178466797 -64.095558166504 -244.392929077148 3.499656438828
-156.205291748047 -82.104248046875 -281.683532714844 4.193329811096
79.909416198730 -64.510131835938 -61.250457763672 1.814038157463
85.975090026855 -66.308197021484 -65.183876037598 2.286032199860
-25.509698867798 -76.650787353516 -236.722732543945 0.597163677216
36.567008972168 -63.707557678223 -40.203998565674 1.709470868111
58.711124420166 -70.144256591797 -97.822555541992 0.902169406414
30.577762603760 -75.529808044434 -130.022247314453 1.914079070091
-151.592300415039 -66.287658691406 -254.433395385742 2.481490373611
-55.497459411621 -70.350585937500 -85.492797851563 4.634561061859
-12.192562103271 -79.567466735840 -237.022567749023 5.356863498688
-157.025085449219 -70.754402160645 -236.390029907227 1.858720660210
-110.380752563477 -57.901199340820 -170.650695800781 6.034539699554
-83.563041687012 -69.289062500000 -110.151252746582 2.629083633423
-29.861448287964 -64.325325012207 -44.621501922607 4.596304416656
96.116157531738 -77.682350158691 -81.247871398926 3.553285598755
-152.884063720703 -78.529930114746 -262.515472412109 2.917903423309
-82.096130371094 -77.805000305176 -106.514358520508 1.491422295570
-58.615943908691 -81.093849182129 -243.844207763672 3.826016426086
-47.374637603760 -72.017524719238 -163.085571289063 1.017683148384
-101.723014831543 -64.619400024414 -216.938064575195 5.386608600616
-153.293624877930 -65.884727478027 -191.500869750977 3.235365629196
-0.833307027817 -74.755798339844 -225.794006347656 2.136964559555
17.371942520142 -77.547958374023 -171.953918457031 0.968306720257
-149.682983398438 -62.377826690674 -171.779281616211 4.510877132416
-152.596389770508 -85.121582031250 -252.573623657227 2.904351949692
-44.908535003662 -87.247947692871 -194.874755859375 2.948917388916
-136.037704467773 -62.431106567383 -254.641067504883 3.626758813858
-6.914841175079 -69.007904052734 -232.258636474609 2.131142139435
-143.620834350586 -68.492362976074 -191.948379516602 1.935875892639
-28.794105529785 -79.494506835938 -182.552169799805 1.749484062195
-73.521820068359 -76.138053894043 -203.676651000977 4.919994831085
-133.769409179688 -60.247272491455 -200.072097778320 2.442704200745
-17.423925399780 -74.449462890625 -212.138763427734 1.763554453850
-25.540546417236 -71.155021667480 -218.791259765625 1.681472897530
-28.278497695923 -73.727981567383 -196.212554931641 2.062601089478
23.178447723389 -78.598678588867 -183.385238647461 2.243028879166
-157.719207763672 -74.089179992676 -255.485473632813 2.958301305771
-16.249534606934 -70.093048095703 -288.165344238281 0.939172446728
26.489402770996 -81.003723144531 -147.229934692383 3.114283084869
-138.164993286133 -75.467819213867 -224.848861694336 2.118435144424
-126.175964355469 -63.797130584717 -202.110610961914 1.553842306137
106.855232238770 -74.492263793945 -97.369865417480 2.801987409592
-18.416303634644 -72.999893188477 -208.985870361328 0.961117029190
-157.793609619141 -70.536094665527 -255.314453125000 2.260234117508
-43.089572906494 -68.518402099609 -143.172378540039 2.376379013062
40.710872650146 -76.990638732910 -126.822074890137 0.622563481331
-89.867881774902 -65.285049438477 -108.402214050293 4.924963951111
-157.641067504883 -61.952613830566 -190.002090454102 6.766853809357
2.440474987030 -68.316650390625 -235.366638183594 1.491287946701
-35.771640777588 -57.925781250000 -41.543651580811 5.657094478607
27.414491653442 -73.429138183594 -171.657196044922 2.488357067108
85.316375732422 -76.351821899414 -92.788642883301 1.873251199722
-6.569385051727 -79.425056457520 -164.031753540039 3.422920703888
-151.821716308594 -64.807998657227 -280.122406005859 2.425714731216
13.677460670471 -75.581626892090 -203.130630493164 1.810108065605
-153.605102539063 -72.256759643555 -309.327209472656 2.824882268906
14.445062637329 -67.422157287598 -153.139495849609 2.057605028152
-106.677062988281 -69.425460815430 -287.264862060547 2.239973783493
18.901645660400 -75.295669555664 -192.548599243164 3.206790208817
9.446435928345 -71.407485961914 -160.575988769531 1.810801982880
23.019769668579 -65.918678283691 -29.250024795532 4.153364658356
-40.983810424805 -71.186576843262 -135.990890502930 5.301676750183
-4.775925159454 -66.481857299805 -217.566864013672 2.916024446487
-171.967803955078 -66.680099487305 -273.090179443359 6.189199924469
-99.765037536621 -60.213577270508 -148.623748779297 3.779910564423
-36.872844696045 -75.344474792480 -240.585937500000 1.898719072342
-64.171195983887 -78.099952697754 -97.919540405273 2.189623832703
101.582107543945 -78.099601745605 -88.002159118652 4.373600006104
105.584426879883 -66.756729125977 -85.162918090820 1.986686825752
-150.232711791992 -65.685409545898 -306.375885009766 2.037800788879
2.113785028458 -86.488494873047 -271.594024658203 2.876545190811
-15.426852226257 -77.093589782715 -259.599884033203 1.110191464424
-146.402221679688 -74.438926696777 -182.838088989258 1.782526969910
-30.010627746582 -76.657447814941 -190.839111328125 2.772696256638
-64.317848205566 -77.695617675781 -174.134613037109 1.851602673531
-50.222671508789 -68.026374816895 -154.687179565430 2.761488914490
19.785276412964 -70.815055847168 -209.725738525391 2.173760414124
20.845684051514 -74.870254516602 -168.524765014648 2.447738409042
91.675781250000 -77.733879089355 -205.053939819336 1.794939279556
19.746820449829 -73.660636901855 -240.301528930664 0.971699476242
-61.895004272461 -73.231674194336 -290.200653076172 2.840554237366
-153.860473632813 -72.590950012207 -203.892272949219 2.255580425262
-14.931176185608 -62.746116638184 -206.813613891602 4.645988464355
-135.333602905273 -69.092941284180 -250.525482177734 4.554273128510
87.885948181152 -79.859703063965 -205.968917846680 6.228114604950
56.063056945801 -68.834358215332 -239.680175781250 1.228226065636
-91.807647705078 -57.049057006836 -52.464950561523 2.403385400772
-81.007911682129 -74.310073852539 -62.285720825195 0.910769820213
-36.933940887451 -71.967086791992 -169.299667358398 3.234008312225
-6.956596851349 -76.661170959473 -284.812103271484 3.312043428421
-170.883193969727 -65.686004638672 -200.467391967773 4.572127819061
-70.913795471191 -72.069084167480 -251.964477539063 1.441602945328
-81.329147338867 -63.474422454834 -55.389270782471 4.730033874512
24.629880905151 -66.262954711914 -157.887130737305 1.936974644661
13.455279350281 -74.912490844727 -210.962203979492 3.345771551132
13.639485359192 -85.811538696289 -215.816864013672 5.226231575012
-3.685312986374 -66.533843994141 -277.291259765625 1.277893185616
5.034358978271 -64.059997558594 -232.189651489258 1.464548230171
-165.479171752930 -64.114501953125 -253.233642578125 4.657842636108
-121.679145812988 -65.560409545898 -228.713912963867 0.821624577045
-26.414852142334 -70.256706237793 -177.675064086914 1.432544231415
-59.988498687744 -66.581863403320 -116.715278625488 1.585274338722
-22.330703735352 -80.132896423340 -223.706771850586 2.677000045776
-76.044349670410 -62.410999298096 -42.081062316895 3.710216045380
-17.881643295288 -84.286437988281 -188.640441894531 4.945471286774
37.676940917969 -66.512062072754 -37.567874908447 3.076967477798
-35.356224060059 -70.147407531738 -178.580108642578 2.159562349319
-15.607764244080 -73.752220153809 -245.851623535156 4.129087448120
-148.511337280273 -62.741485595703 -256.847351074219 1.003986358643
-131.004714965820 -71.471893310547 -225.432952880859 1.927016258240
-40.422958374023 -69.130912780762 -164.142745971680 3.715404987335
-0.220367997885 -89.196029663086 -268.212219238281 4.415390014648
71.739151000977 -61.652233123779 -61.355804443359 0.532061755657
101.201545715332 -76.348693847656 -183.575302124023 2.558120489120
96.766868591309 -71.417030334473 -208.098312377930 2.291965246201
-148.933105468750 -76.791046142578 -184.442337036133 2.664972066879
89.328872680664 -77.816337585449 -78.906425476074 1.631942272186
-60.936138153076 -71.105041503906 -126.625267028809 3.684365510941
9.348061561584 -83.162254333496 -254.685577392578 2.773297548294
-152.727584838867 -65.063331604004 -176.180221557617 1.243004441261
108.777526855469 -73.940399169922 -179.780364990234 2.252601146698
42.712314605713 -67.585250854492 -29.308053970337 2.151040077209
-149.275833129883 -74.664772033691 -273.382965087891 3.097024202347
-20.951654434204 -72.684928894043 -220.197586059570 1.211334228516
-44.594539642334 -81.683708190918 -78.901588439941 1.715620398521
36.099479675293 -61.760395050049 -122.291908264160 1.311556816101
19.735183715820 -75.483917236328 -155.370300292969 2.501683473587
113.323791503906 -73.359817504883 -133.323959350586 2.302189350128
103.940490722656 -63.354797363281 -102.914459228516 2.344729900360
-72.930183410645 -81.116546630859 -80.056541442871 2.339296817780
-87.527442932129 -63.583343505859 -112.866027832031 0.987476944923
-149.463684082031 -64.116455078125 -262.962951660156 0.817188620567
-7.804303169250 -70.752624511719 -234.946380615234 1.651921987534
103.138763427734 -71.268867492676 -164.368576049805 5.356048107147
-26.294578552246 -72.622360229492 -189.841461181641 2.372658729553
106.941909790039 -69.884719848633 -89.874961853027 4.056384086609
-71.363410949707 -75.343505859375 -248.090255737305 1.070452451706
11.853230476379 -81.399276733398 -229.492248535156 1.944645047188
-165.643798828125 -61.799930572510 -209.486175537109 4.634680271149
-77.834312438965 -68.773323059082 -131.367462158203 1.037208795547
84.480354309082 -74.914741516113 -223.414123535156 0.863078355789
-52.765151977539 -74.972846984863 -190.909606933594 1.554154396057
119.512458801270 -80.469360351563 -125.157379150391 7.675548553467
-73.484855651855 -66.954826354980 -152.511535644531 2.011307477951
-65.894111633301 -76.231658935547 -178.432647705078 5.276334762573
24.132246017456 -65.421981811523 -163.231430053711 2.423132419586
-17.885242462158 -68.726814270020 -211.660491943359 2.781473636627
69.318756103516 -77.493743896484 -233.630767822266 1.955580353737
-139.733215332031 -62.379600524902 -216.961959838867 5.834114074707
-15.892968177795 -75.290496826172 -199.043304443359 1.749464035034
16.798223495483 -71.946624755859 -175.954330444336 2.387207508087
-156.142349243164 -74.334190368652 -198.538513183594 2.484777688980
10.596929550171 -82.581184387207 -245.564849853516 2.747691392899
36.989124298096 -62.197326660156 -119.979309082031 2.582883834839
-92.611709594727 -69.370086669922 -248.319778442383 4.801080703735
104.016769409180 -70.908706665039 -94.516174316406 2.035690546036
34.831672668457 -59.965667724609 -39.320758819580 1.315388798714
-123.983787536621 -64.070854187012 -195.734725952148 0.547664165497
2.896990060806 -66.979728698730 -287.955718994141 4.558312416077
18.235191345215 -70.885139465332 -185.691955566406 2.093954563141
-158.475982666016 -65.222099304199 -195.622024536133 1.403365373611
-92.335105895996 -68.251167297363 -64.645408630371 2.634159564972
-23.373798370361 -83.351654052734 -180.571502685547 1.923350334167
101.401573181152 -79.996299743652 -208.614868164063 4.809028148651
-146.243911743164 -69.378997802734 -263.095123291016 2.381507396698
11.764908790588 -92.016036987305 -256.473266601563 7.156600475311
-97.048843383789 -63.589607238770 -112.534553527832 2.620264768600
-63.522453308105 -75.463317871094 -152.817932128906 2.483058214188
23.993146896362 -76.382324218750 -141.011917114258 2.306588649750
-162.255935668945 -72.970275878906 -257.783233642578 2.041105985641
17.243022918701 -71.496246337891 -232.924621582031 1.154680728912
19.492328643799 -62.635566711426 -251.389465332031 2.645589113235
-65.042648315430 -63.777542114258 -90.821441650391 2.217653274536
32.409160614014 -81.890670776367 -137.550842285156 2.366169214249
-46.008678436279 -70.071929931641 -156.644439697266 2.828204870224
45.295223236084 -76.818237304688 -123.305625915527 2.319610118866
-64.029556274414 -71.159973144531 -137.212066650391 2.912385702133
-148.163299560547 -72.652801513672 -258.804718017578 1.288911938667
14.165564537048 -76.104896545410 -189.537002563477 1.472801089287
79.011116027832 -79.105644226074 -95.738349914551 3.054486751556
-32.912506103516 -71.786079406738 -160.454284667969 2.229884862900
-159.389068603516 -72.125991821289 -289.811065673828 2.542591094971
-16.962593078613 -78.972320556641 -261.938659667969 3.106835842133
-20.755487442017 -66.835083007813 -204.073440551758 2.731522321701
-122.611648559570 -72.958908081055 -287.157867431641 2.078105211258
-82.129196166992 -59.447734832764 -118.858093261719 1.505615472794
-20.984153747559 -70.350021362305 -200.171905517578 2.754577398300
-48.395755767822 -69.681800842285 -134.923919677734 1.489609599113
10.974125862122 -66.703910827637 -285.472625732422 3.644118785858
-41.879001617432 -74.547042846680 -80.167709350586 1.640211820602
59.341747283936 -74.628852844238 -239.683227539063 1.933317065239
-151.561355590820 -55.358371734619 -192.452194213867 6.385309696198
-48.856479644775 -80.785484313965 -189.986770629883 3.484245538712
11.369694709778 -71.493339538574 -147.138442993164 2.012335062027
-134.390808105469 -63.535984039307 -223.937454223633 3.331959009171
-17.359514236450 -73.458099365234 -210.764373779297 1.177209377289
-127.053634643555 -71.252990722656 -261.275543212891 2.207394361496
117.866104125977 -75.315872192383 -120.861587524414 3.499698400497
23.600500106812 -74.773414611816 -187.631347656250 1.686212539673
87.740013122559 -84.565116882324 -92.001152038574 6.119089126587
-48.247638702393 -76.122695922852 -243.120925903320 1.723583936691
6.875393867493 -71.209892272949 -156.742355346680 1.828168630600
-79.518554687500 -72.472206115723 -122.809524536133 2.860134601593
102.511413574219 -66.048789978027 -71.461250305176 3.034557104111
-8.117886543274 -69.879676818848 -284.270111083984 0.554680109024
-65.776779174805 -75.364776611328 -67.443138122559 4.614948272705
14.572076797485 -82.555145263672 -239.856369018555 2.565984249115
31.622335433960 -69.338821411133 -167.879333496094 4.115931987762
29.445203781128 -74.098266601563 -29.859954833984 2.590576171875
38.204017639160 -80.258750915527 -107.679527282715 3.322655677795
100.558746337891 -74.934936523438 -79.140037536621 3.162544965744
-141.140609741211 -71.798942565918 -196.539566040039 1.685775041580
-65.359710693359 -58.763687133789 -82.625656127930 4.345176219940
45.552185058594 -69.919609069824 -11.495674133301 4.542607784271
-21.995632171631 -79.769393920898 -193.943374633789 0.676762998104
-21.791364669800 -82.810745239258 -254.215820312500 10.130207061768
-159.523941040039 -68.702621459961 -298.453247070313 3.839451313019
5.598125934601 -74.576103210449 -245.542160034180 2.359531402588
16.127769470215 -80.416572570801 -212.449127197266 2.189379930496
-69.044677734375 -65.385200500488 -134.558715820313 4.217704296112
50.148429870605 -72.489295959473 -96.663314819336 2.307255983353
-24.367219924927 -68.420486450195 -236.484176635742 4.883686542511
-53.262889862061 -65.000434875488 -43.817600250244 2.592128753662
-59.376243591309 -66.607093811035 -122.841629028320 0.675677478313
-68.531539916992 -80.253929138184 -67.493743896484 1.175559043884
47.399749755859 -69.835357666016 -25.030513763428 2.638647079468
-65.958122253418 -61.193061828613 -110.551185607910 0.743524014950
-146.892974853516 -61.261745452881 -196.796112060547 0.329789817333
-109.784523010254 -69.710449218750 -179.911514282227 1.599586963654
-143.587493896484 -61.394863128662 -185.174392700195 1.858604311943
-6.367280006409 -62.532287597656 -238.753707885742 1.496572017670
-130.366043090820 -63.874462127686 -199.404739379883 1.823685646057
-84.360847473145 -68.263244628906 -116.694480895996 0.806571602821
29.351345062256 -67.215011596680 -150.789413452148 2.636459589005
-17.211492538452 -75.139633178711 -293.763763427734 2.844283342361
-150.428085327148 -82.684715270996 -218.942413330078 1.269226789474
111.151916503906 -80.519699096680 -121.797225952148 5.227904319763
-147.718109130859 -80.757041931152 -218.328613281250 2.581677436829
17.837894439697 -66.399940490723 -281.623992919922 2.732553958893
-17.556570053101 -67.470420837402 -205.075973510742 1.222058534622
-83.937164306641 -73.696289062500 -65.230041503906 2.899540662766
104.189437866211 -73.890869140625 -102.492607116699 1.271391987801
-65.942024230957 -81.527709960938 -211.893524169922 1.523759603500
-17.221242904663 -73.746643066406 -220.812500000000 2.224634408951
-168.136795043945 -68.944267272949 -223.170944213867 1.859805941582
4.247642993927 -72.403900146484 -214.957534790039 3.056147575378
-65.318191528320 -78.989723205566 -168.517974853516 2.092177629471
-32.662979125977 -62.638446807861 -50.923130035400 4.806921005249
-67.979469299316 -71.995933532715 -142.585296630859 1.452324986458
27.042129516602 -68.943740844727 -154.209365844727 1.531011343002
-22.160146713257 -74.092941284180 -212.067764282227 2.386674404144
12.811229705811 -66.828178405762 -210.295700073242 2.400657176971
-109.169456481934 -62.220115661621 -173.294418334961 1.551826000214
-134.809982299805 -72.352828979492 -193.561386108398 2.773098468781
-59.561939239502 -85.124488830566 -81.385147094727 1.494416952133
-59.113216400146 -76.034484863281 -129.384109497070 4.169714450836
90.579627990723 -73.297348022461 -210.131042480469 0.644765436649
3.216268062592 -82.458343505859 -221.900009155273 4.859503269196
-76.652404785156 -84.121162414551 -86.871986389160 1.782121658325
-20.732692718506 -79.881423950195 -176.727996826172 1.467447280884
87.238838195801 -78.457443237305 -77.005447387695 1.869961500168
-77.322441101074 -70.940032958984 -94.127670288086 4.694238662720
-116.887161254883 -70.020553588867 -192.296966552734 2.325344562531
0.342381000519 -66.181816101074 -233.835128784180 1.002167940140
103.616836547852 -66.867362976074 -103.053520202637 1.256679177284
25.322172164917 -70.715438842773 -152.545272827148 1.448159575462
-56.487194061279 -71.565116882324 -43.650184631348 4.759784698486
-19.182449340820 -76.337852478027 -285.451324462891 3.586836814880
-150.341476440430 -76.048355102539 -296.793487548828 1.264096498489
-156.414962768555 -62.812347412109 -261.501434326172 1.467321753502
26.722698211670 -73.438735961914 -144.945724487305 1.500591397285
-56.870906829834 -60.307506561279 -114.152084350586 1.535888195038
94.378021240234 -80.405670166016 -211.204101562500 4.331047058105
-60.140930175781 -65.049156188965 -90.141029357910 2.484477043152
-63.364803314209 -69.604370117188 -45.316406250000 2.906940221786
-52.350387573242 -82.527954101563 -83.837318420410 3.494496583939
110.071166992188 -70.577560424805 -119.834472656250 1.265143513680
95.220100402832 -64.217636108398 -67.319511413574 3.569356679916
-49.672725677490 -72.065711975098 -140.357177734375 1.757805943489
-80.602546691895 -72.930778503418 -206.593627929688 3.622748851776
-171.529541015625 -69.110023498535 -277.657928466797 4.431664466858
30.055789947510 -63.888217926025 -35.563522338867 2.205854415894
-40.331653594971 -73.992607116699 -180.274200439453 2.524024009705
-77.992828369141 -71.000251770020 -136.142898559570 1.741677641869
-115.306663513184 -70.088325500488 -288.378387451172 1.162519216537
-49.208568572998 -73.093093872070 -154.594635009766 0.750723421574
-61.201221466064 -78.465362548828 -167.541915893555 1.414156913757
-132.276229858398 -66.648620605469 -279.564056396484 5.788628101349
-19.258943557739 -71.060462951660 -226.875961303711 2.878751516342
28.424877166748 -68.423934936523 -8.786821365356 4.469421863556
-153.569229125977 -65.801345825195 -286.870513916016 2.628042459488
-148.876251220703 -70.540695190430 -280.141510009766 3.234075307846
-56.923854827881 -59.295429229736 -117.553230285645 1.108059167862
19.760404586792 -77.418685913086 -188.928268432617 1.109159946442
-69.302230834961 -71.258590698242 -45.143531799316 2.252824306488
-40.822063446045 -74.727958679199 -53.339088439941 2.746214866638
55.628955841064 -61.552825927734 -90.905372619629 1.754085183144
-57.356609344482 -65.410881042480 -143.679702758789 1.318048715591
30.592233657837 -69.981887817383 -36.995468139648 2.214775085449
-90.768997192383 -71.292495727539 -212.790023803711 2.553640842438
103.564506530762 -76.149169921875 -77.705657958984 5.666874885559
-44.771617889404 -65.169807434082 -82.512672424316 0.447634279728
-5.539213180542 -79.792823791504 -270.201690673828 2.316960096359
21.619489669800 -73.746856689453 -164.409744262695 1.404668092728
38.792259216309 -63.997013092041 -14.909895896912 2.332283258438
115.021575927734 -81.218597412109 -168.079681396484 3.496555805206
78.750251770020 -81.005722045898 -94.002258300781 3.204317092896
7.975556850433 -83.473625183105 -213.312759399414 4.042781352997
-70.993354797363 -64.290855407715 -44.090179443359 1.640452623367
-131.424682617188 -74.010246276855 -228.426467895508 1.607253670692
-27.288534164429 -70.134658813477 -194.585601806641 1.654846787453
114.897377014160 -72.603538513184 -147.474777221680 1.826390266418
-151.996932983398 -79.077438354492 -193.366821289063 1.854109048843
-16.694976806641 -75.660781860352 -216.974548339844 2.196276187897
-41.135402679443 -72.051361083984 -212.430694580078 7.589216232300
-143.472244262695 -72.522895812988 -286.256683349609 1.104590535164
63.523872375488 -67.706268310547 -67.467643737793 5.067340850830
-143.226867675781 -81.262580871582 -250.940551757813 3.310059309006
17.615732192993 -75.366973876953 -172.420089721680 1.680653214455
-24.709291458130 -65.546882629395 -184.398498535156 3.940224647522
-56.879318237305 -69.427810668945 -87.289512634277 3.086919784546
-39.489898681641 -80.265007019043 -65.240982055664 1.994684934616
18.345075607300 -73.762695312500 -218.616195678711 2.497456312180
-83.002555847168 -72.708969116211 -101.285781860352 2.894315719604
11.871427536011 -79.685867309570 -270.997436523438 2.200435876846
-128.271911621094 -67.542747497559 -218.109725952148 6.548637390137
-107.261894226074 -70.864044189453 -255.467514038086 2.451706647873
21.808418273926 -71.041969299316 -163.444183349609 1.064322590828
23.726791381836 -67.192367553711 -251.578994750977 2.286586046219
24.624660491943 -72.620605468750 -151.969253540039 1.869164466858
9.642451286316 -79.185523986816 -226.106124877930 2.707368373871
-34.914218902588 -78.493400573730 -80.655334472656 1.627399206161
-145.599273681641 -70.919486999512 -286.700561523438 3.276736259460
55.722240447998 -65.980331420898 -87.461029052734 1.134119272232
11.105410575867 -69.028518676758 -208.993835449219 1.273602843285
-43.942005157471 -81.511337280273 -153.512680053711 2.108671903610
92.989913940430 -78.685462951660 -98.056663513184 4.287293910980
3.485305070877 -69.624076843262 -224.842926025391 1.363193631172
30.588924407959 -77.453178405762 -126.530776977539 2.054868459702
-58.741470336914 -74.575256347656 -53.249660491943 2.355374574661
-1.968675971031 -72.625434875488 -236.151870727539 0.399694532156
25.200361251831 -72.750740051270 -163.671920776367 2.579010486603
-158.024703979492 -69.467018127441 -267.085144042969 1.042360305786
-155.590423583984 -82.369392395020 -276.420715332031 5.014502525330
-9.818928718567 -62.215389251709 -59.340549468994 1.129419803619
112.188301086426 -73.212730407715 -109.507331848145 1.986142396927
-28.779537200928 -77.071258544922 -237.820709228516 3.020114183426
-148.185623168945 -82.883018493652 -225.545471191406 1.012540459633
110.867691040039 -74.284622192383 -142.176712036133 1.009145975113
4.135146141052 -77.146606445313 -228.490707397461 1.506392002106
23.692476272583 -70.530693054199 -163.616378784180 2.242602825165
-104.211837768555 -71.579200744629 -257.068145751953 1.715836763382
31.512699127197 -65.414474487305 -34.731838226318 1.976338744164
87.166564941406 -78.021110534668 -215.040115356445 3.221345663071
-133.008972167969 -75.408798217773 -226.935440063477 0.534184336662
-83.828323364258 -65.750251770020 -42.193222045898 5.437065601349
29.715572357178 -62.450447082520 -34.802482604980 1.485628008842
8.921842575073 -81.086776733398 -279.186889648438 1.428036212921
-112.082893371582 -61.087108612061 -195.505142211914 4.082421302795
-4.125174999237 -81.264480590820 -231.659973144531 2.039755582809
-51.657302856445 -67.452972412109 -285.821868896484 4.234944343567
-87.312873840332 -70.929145812988 -245.004043579102 5.097096920013
109.902725219727 -77.475425720215 -134.720794677734 2.400922298431
-154.993103027344 -71.195175170898 -290.995300292969 1.486045479774
-156.517791748047 -70.063346862793 -284.456146240234 2.651898384094
64.517143249512 -74.129966735840 -234.164001464844 2.812906742096
4.041357994080 -81.333236694336 -237.260894775391 2.641065359116
41.209560394287 -78.447784423828 -126.592605590820 1.546824812889
36.731853485107 -76.374168395996 -252.595855712891 4.729862213135
35.979705810547 -70.006874084473 -9.701399803162 1.603557944298
39.282688140869 -74.007720947266 -111.615432739258 2.013265609741
16.474225997925 -76.681053161621 -207.314926147461 0.959255456924
7.922448158264 -75.140701293945 -158.328216552734 0.818528592587
70.100181579590 -70.606613159180 -68.540199279785 2.155767440796
93.154029846191 -77.645416259766 -94.829689025879 2.140901327133
4.151090145111 -79.890029907227 -155.962493896484 4.818299293518
20.471099853516 -78.358581542969 -193.584350585938 2.237268447876
19.581098556519 -74.378753662109 -252.969451904297 2.476171970367
-49.850101470947 -83.569892883301 -84.510322570801 2.121704101563
-38.867835998535 -75.285911560059 -79.718101501465 0.626739799976
32.993434906006 -75.441291809082 -156.473083496094 1.384968161583
-30.961816787720 -83.381904602051 -171.642745971680 3.514372110367
-148.008621215820 -78.517303466797 -265.001434326172 1.687492251396
-138.596557617188 -85.008743286133 -220.036544799805 6.561425685883
-77.428627014160 -87.766036987305 -98.030685424805 2.318931818008
-21.044643402100 -72.570579528809 -213.109802246094 1.637212157249
-14.001384735107 -81.462860107422 -213.897186279297 3.117323398590
-106.431518554688 -73.465545654297 -290.474395751953 1.871908068657
-81.192375183105 -62.750373840332 -121.570541381836 2.017368078232
-152.187301635742 -58.050361633301 -216.520660400391 5.362852096558
-149.972015380859 -65.328659057617 -185.322830200195 2.015626907349
-33.297668457031 -79.208595275879 -189.596328735352 2.105125904083
72.030822753906 -72.404205322266 -238.369934082031 1.379516005516
52.871177673340 -66.889533996582 -249.934692382813 2.111777305603
-18.071882247925 -77.146141052246 -225.013412475586 1.857444643974
-98.378746032715 -74.095367431641 -257.992919921875 1.397151470184
66.990280151367 -72.749855041504 -235.222259521484 0.475115597248
-3.510688066483 -66.703910827637 -229.131912231445 1.171773672104
93.752288818359 -67.446266174316 -59.966915130615 5.073760032654
17.101047515869 -66.603378295898 -174.710571289063 1.623997807503
1.387498021126 -59.847980499268 -240.037612915039 3.022804975510
-143.370849609375 -81.271331787109 -280.651733398438 3.727372169495
-146.986190795898 -76.170089721680 -253.304794311523 2.125203609467
18.324142456055 -71.043472290039 -186.653472900391 2.766283512115
37.369453430176 -70.591514587402 -132.801574707031 1.255987644196
-18.883470535278 -70.532745361328 -289.426879882813 2.858106851578
-75.851104736328 -62.968460083008 -127.022949218750 2.470861196518
-160.095962524414 -67.309921264648 -217.911666870117 2.483694791794
-3.501497983932 -80.526718139648 -219.580749511719 2.664407491684
-149.066162109375 -85.595321655273 -283.368774414063 1.652233362198
-176.121566772461 -62.631866455078 -256.150848388672 11.339169502258
72.221397399902 -66.889495849609 -104.218734741211 1.315842509270
84.657623291016 -69.088706970215 -207.396118164063 5.912671566010
22.758934020996 -64.349685668945 -135.795059204102 1.243593096733
-154.627990722656 -63.923233032227 -197.687683105469 1.428757309914
21.686765670776 -69.658508300781 -160.354949951172 1.197024583817
-47.711318969727 -81.816947937012 -186.949600219727 1.417668342590
-47.894134521484 -72.317443847656 -133.910217285156 1.853308439255
-17.051130294800 -66.365913391113 -207.770172119141 2.721493959427
-74.765228271484 -72.115249633789 -256.848266601563 2.802793741226
-159.145568847656 -69.859016418457 -198.398620605469 3.007321834564
-154.290328979492 -67.461738586426 -302.056396484375 1.156916618347
-109.697868347168 -70.164825439453 -288.020324707031 3.177190780640
5.009736061096 -75.194389343262 -242.102371215820 1.852946758270
-155.820358276367 -63.914783477783 -217.302337646484 4.269148349762
-62.990413665771 -65.464721679688 -86.993103027344 2.431610822678
-27.218750000000 -79.764938354492 -197.968063354492 3.536049604416
88.302986145020 -62.474086761475 -112.441749572754 4.027347564697
-122.973121643066 -72.485984802246 -202.767547607422 1.740534782410
-143.600051879883 -75.382247924805 -197.197235107422 2.466843843460
-28.939550399780 -77.239273071289 -173.525878906250 1.329794287682
-62.451080322266 -83.925621032715 -89.731536865234 4.246496677399
-158.123443603516 -69.091468811035 -213.095672607422 2.240119695663
5.739836215973 -68.792800903320 -241.558151245117 1.755280137062
-79.429801940918 -61.418041229248 -122.584472656250 2.091881990433
-70.225906372070 -66.418312072754 -104.635597229004 1.765286445618
-55.074245452881 -73.768600463867 -291.361602783203 1.531531453133
-149.134460449219 -63.472434997559 -221.328506469727 1.759339332581
-147.148468017578 -57.761032104492 -194.522308349609 2.399927139282
97.350364685059 -72.733016967773 -204.531051635742 2.099570989609
18.876220703125 -67.130126953125 -179.167617797852 1.367320656776
116.156227111816 -70.977752685547 -131.113601684570 0.979341924191
24.066295623779 -70.942893981934 -21.824411392212 2.301457881927
96.210853576660 -73.042068481445 -102.677703857422 2.676732301712
-140.261459350586 -56.802696228027 -200.998489379883 4.126013755798
-23.387357711792 -70.242660522461 -211.141021728516 4.258263111115
-32.224639892578 -82.420173645020 -190.310333251953 2.440132617950
-73.621284484863 -60.910362243652 -130.553741455078 4.616139888763
54.295269012451 -80.315132141113 -99.604232788086 3.501840829849
-11.077423095703 -80.540405273438 -271.444885253906 2.105250358582
-59.351406097412 -70.640541076660 -54.205856323242 5.284300804138
-45.570560455322 -68.919525146484 -144.299560546875 0.674130678177
-158.447494506836 -61.436454772949 -286.470825195313 3.053674936295
-6.349833965302 -80.262428283691 -223.082199096680 2.772542238235
-57.796566009521 -88.289360046387 -201.521102905273 3.247843980789
-48.073265075684 -71.526977539063 -143.262069702148 2.566037178040
102.578536987305 -68.351005554199 -99.495590209961 0.808534264565
23.523006439209 -72.008766174316 -191.500488281250 1.347127914429
107.045227050781 -73.765441894531 -121.103050231934 1.980023145676
-146.055953979492 -59.884231567383 -212.797836303711 2.648090124130
-72.126251220703 -68.970817565918 -96.032508850098 4.051471233368
-11.204207420349 -76.060424804688 -234.936752319336 2.302663564682
-137.040237426758 -61.351333618164 -261.236907958984 4.218104362488
-55.977012634277 -64.577453613281 -136.338500976563 1.695565700531
-29.841873168945 -68.731636047363 -183.081497192383 1.598131656647
102.923339843750 -65.307762145996 -99.355522155762 2.419059038162
-147.373580932617 -79.594093322754 -199.888000488281 2.340613126755
58.222869873047 -69.818405151367 -239.211349487305 2.425210475922
18.722892761230 -72.942199707031 -178.237091064453 2.065913677216
-149.555191040039 -65.255462646484 -253.284713745117 2.212386369705
9.329999923706 -59.530235290527 -240.549545288086 2.543518066406
-78.391670227051 -68.078514099121 -116.174903869629 1.174002647400
-135.583740234375 -67.225257873535 -288.751068115234 1.292607665062
-145.181823730469 -75.691818237305 -287.066040039063 1.852472066879
-89.951782226563 -72.850059509277 -63.967250823975 3.480273962021
55.428676605225 -75.497039794922 -94.043815612793 2.196815013885
-26.803535461426 -79.683471679688 -223.192550659180 3.069581270218
-48.926761627197 -77.119461059570 -246.304870605469 1.862270951271
-32.513061523438 -66.644248962402 -79.440925598145 1.262017250061
1.755290985107 -63.839107513428 -273.327026367188 0.494218051434
52.229286193848 -72.587951660156 -108.708053588867 1.615893125534
-30.542356491089 -82.980583190918 -176.629974365234 3.733565330505
-32.900211334229 -73.507026672363 -56.619235992432 0.812151193619
22.024211883545 -71.868980407715 -177.593414306641 1.348508834839
-31.121866226196 -74.583145141602 -178.213989257813 2.809046983719
12.400139808655 -83.595344543457 -239.732376098633 2.134649276733
22.132303237915 -59.158382415771 -32.191192626953 1.574656486511
-155.241287231445 -77.167030334473 -226.466949462891 1.864023447037
44.927108764648 -74.445449829102 -24.715585708618 3.120141029358
19.818096160889 -73.065963745117 -188.143112182617 2.831146478653
-38.752655029297 -73.500213623047 -152.403564453125 1.539988636971
22.196924209595 -75.573593139648 -141.169372558594 2.677492856979
-136.985824584961 -67.747756958008 -277.296813964844 7.074440002441
34.773239135742 -68.418342590332 -119.043701171875 2.315569877625
99.133773803711 -71.771903991699 -96.929214477539 0.915731072426
-33.460174560547 -77.774604797363 -178.206985473633 2.600236892700
-140.790237426758 -74.173484802246 -195.455642700195 1.376979470253
-72.732788085938 -66.626541137695 -130.606353759766 2.428221464157
51.362186431885 -76.237915039063 -242.843338012695 4.646835327148
0.065641000867 -80.331588745117 -236.724899291992 2.547069787979
-147.908905029297 -77.139633178711 -214.348602294922 2.070819616318
-121.787933349609 -70.040374755859 -290.791473388672 2.823661327362
40.047592163086 -60.590156555176 -117.868011474609 1.201843380928
-59.263309478760 -77.088134765625 -70.115097045898 3.783049345016
-46.594066619873 -68.002471923828 -152.562744140625 2.256636381149
-125.742141723633 -73.175514221191 -195.784194946289 1.590083599091
-15.446487426758 -78.135078430176 -224.370193481445 2.062505960464
-58.571063995361 -74.551116943359 -173.526611328125 1.842048048973
-45.097618103027 -79.580085754395 -161.018539428711 3.177054166794
-116.573875427246 -69.495223999023 -291.106872558594 1.372481584549
-105.668540954590 -69.400863647461 -285.304412841797 2.474162817001
-26.689714431763 -79.070121765137 -189.052383422852 2.207333564758
-4.078712940216 -69.482284545898 -277.680633544922 2.734250068665
-95.248931884766 -63.448211669922 -286.957000732422 6.378123760223
7.577676773071 -77.715065002441 -156.013092041016 2.289394855499
-117.598197937012 -72.027389526367 -291.651672363281 2.189492464066
-53.565769195557 -64.186393737793 -74.083473205566 4.261888027191
-76.810058593750 -65.654289245605 -133.290817260742 1.274911761284
44.605968475342 -70.377937316895 -110.766014099121 1.331405520439
-86.704933166504 -61.582492828369 -113.919013977051 0.945968627930
42.442089080811 -60.298324584961 -40.789611816406 2.199351072311
-91.849472045898 -70.211456298828 -115.537345886230 2.595469474792
-22.238193511963 -72.894721984863 -188.826828002930 2.139620304108
46.734382629395 -76.728546142578 -104.053283691406 1.406858205795
-58.191310882568 -66.474365234375 -126.097785949707 1.279189348221
-148.619232177734 -71.693290710449 -205.884277343750 0.757740437984
56.243007659912 -69.817405700684 -103.350219726563 1.447394967079
-153.936035156250 -76.222175598145 -244.140655517578 2.904832363129
30.730079650879 -79.290435791016 -157.389770507813 2.313865900040
-38.910385131836 -68.807579040527 -79.527610778809 3.252109527588
-151.805053710938 -75.136871337891 -233.123062133789 2.155526161194
55.207595825195 -66.104232788086 -21.544488906860 6.341626644135
-158.773315429688 -72.107803344727 -295.973480224609 0.886569440365
26.123527526855 -68.271423339844 -254.033599853516 2.492226839066
-133.447509765625 -68.301338195801 -282.974853515625 1.933068156242
-39.497356414795 -67.518074035645 -165.265594482422 3.359336376190
112.875473022461 -73.425979614258 -126.866035461426 0.809102118015
-41.030307769775 -81.401664733887 -60.712226867676 3.875374794006
-152.131835937500 -76.497032165527 -250.861923217773 3.171993017197
34.161834716797 -75.429191589355 -41.203704833984 4.251288890839
-149.673522949219 -72.100860595703 -219.438507080078 3.437231779099
28.840578079224 -79.142570495605 -160.042709350586 0.979820668697
-27.210416793823 -73.742202758789 -220.265106201172 2.118086338043
-23.290098190308 -78.378669738770 -237.571456909180 2.642181873322
-4.165156841278 -74.379219055176 -230.655914306641 1.288960099220
24.476877212524 -75.156852722168 -23.198400497437 2.607588529587
-137.055343627930 -71.743087768555 -230.205886840820 2.086971282959
25.608919143677 -65.536209106445 -29.003793716431 3.087319850922
-79.823661804199 -58.906387329102 -122.074043273926 1.280863046646
6.515048980713 -64.896385192871 -243.457153320313 2.459697484970
22.184961318970 -76.255485534668 -183.686965942383 2.017277956009
-76.963317871094 -61.418251037598 -119.947883605957 0.984891831875
47.074447631836 -80.933616638184 -113.435539245605 3.669927120209
-166.371688842773 -70.591636657715 -210.282485961914 1.356251716614
109.118858337402 -78.466583251953 -115.827400207520 4.033319950104
108.566184997559 -69.620574951172 -115.500915527344 2.111752748489
-14.356135368347 -82.354225158691 -210.709091186523 2.515837430954
-79.776298522949 -79.067581176758 -89.266296386719 4.781394481659
2.103497982025 -64.589836120605 -257.220733642578 2.519025325775
-148.368759155273 -67.357734680176 -196.354354858398 1.591197609901
-51.938125610352 -74.556205749512 -147.509399414063 2.316943645477
-25.548336029053 -80.379356384277 -187.486251831055 1.628071784973
-0.712713003159 -61.969303131104 -230.661666870117 5.174653053284
-32.066989898682 -76.921768188477 -189.583724975586 0.628667473793
-24.280265808105 -67.668212890625 -202.526092529297 2.680473804474
26.244827270508 -74.252212524414 -257.963134765625 3.950854301453
-146.285140991211 -75.278518676758 -241.902572631836 0.782626152039
-75.567337036133 -70.581359863281 -246.409027099609 2.896757841110
-25.800592422485 -77.984573364258 -180.124877929688 1.004600405693
-95.653717041016 -66.474235534668 -216.535690307617 1.832822084427
-148.309020996094 -74.799400329590 -279.689208984375 1.634362220764
65.240821838379 -68.964576721191 -98.404579162598 2.629223823547
-95.699905395508 -58.696872711182 -72.705230712891 3.644940137863
-150.887680053711 -71.402923583984 -252.502685546875 2.194250106812
53.690616607666 -74.129699707031 -100.725502014160 1.990626215935
-32.563022613525 -76.577072143555 -63.638099670410 3.470349073410
-141.140060424805 -62.708709716797 -173.619674682617 2.856262207031
56.484558105469 -71.110260009766 -101.885063171387 0.957202374935
100.121734619141 -76.301429748535 -203.463668823242 1.756242752075
107.606735229492 -74.810150146484 -175.605575561523 2.033565998077
-103.378105163574 -64.453292846680 -152.959594726563 3.141218185425
-76.149505615234 -71.157287597656 -136.258026123047 1.608254432678
-84.612380981445 -62.951522827148 -114.636192321777 2.222356557846
-97.146003723145 -71.226097106934 -150.930297851563 2.302124261856
39.592761993408 -74.254341125488 -37.304870605469 3.863628387451
19.724090576172 -69.434219360352 -195.569671630859 0.885764598846
107.447479248047 -74.241630554199 -157.935119628906 1.925399780273
-57.634395599365 -79.535469055176 -65.516403198242 2.765567064285
-122.334747314453 -67.082077026367 -195.893676757813 1.486915469170
28.862762451172 -70.225028991699 -164.711380004883 3.153654575348
-53.435119628906 -86.123130798340 -85.776412963867 1.189570546150
-36.524005889893 -80.449691772461 -241.458419799805 1.176529765129
-29.768838882446 -85.294601440430 -188.983108520508 1.609946846962
76.878204345703 -65.897392272949 -63.353855133057 1.865062952042
-83.338905334473 -81.028991699219 -94.248924255371 3.175032377243
-50.729751586914 -70.116485595703 -285.084411621094 3.181702613831
43.320789337158 -74.773117065430 -102.649398803711 1.323261737823
-76.636093139648 -58.473579406738 -104.556587219238 2.673796892166
-166.827590942383 -74.761291503906 -284.117340087891 0.460042357445
-7.985214233398 -76.486068725586 -210.804870605469 2.103725433350
30.514333724976 -69.753776550293 -17.669256210327 1.595537304878
-61.536258697510 -82.487281799316 -177.395492553711 3.742609739304
-76.200073242188 -76.828094482422 -208.270858764648 1.089329719543
12.735520362854 -82.391525268555 -247.645614624023 1.784577727318
-13.781886100769 -78.080856323242 -231.245864868164 3.490284681320
-148.786819458008 -70.838172912598 -295.513061523438 2.189813613892
-84.333541870117 -60.430126190186 -103.615486145020 4.753262519836
-20.064981460571 -75.582382202148 -225.707534790039 1.549301147461
28.043964385986 -77.721168518066 -151.101852416992 0.419081360102
46.108478546143 -78.858131408691 -133.669799804688 6.454933643341
35.699859619141 -70.638435363770 -14.202549934387 1.512856960297
-76.861137390137 -73.680549621582 -54.180202484131 4.442006587982
-153.423767089844 -61.857284545898 -280.397918701172 3.276729345322
-73.023910522461 -82.631042480469 -210.621093750000 0.884620070457
