53.751434326172 -58.999912261963 -95.595840454102 3.762968778610
1.471485018730 -82.503776550293 -243.950942993164 4.740301609039
1.567389011383 -84.127151489258 -227.235443115234 4.846930980682
34.083190917969 -60.516448974609 -123.192169189453 1.534473538399
51.103630065918 -71.748847961426 -96.054534912109 3.028860807419
7.504877090454 -70.319633483887 -226.108993530273 1.935989975929
106.488456726074 -71.324287414551 -129.930145263672 3.464676380157
32.106388092041 -62.721073150635 -12.511536598206 1.860098123550
-7.764779090881 -81.462089538574 -246.315887451172 5.271010398865
31.652229309082 -74.489433288574 -147.070190429688 2.073572158813
-152.927947998047 -65.515205383301 -284.462951660156 1.159995794296
-16.029869079590 -67.606643676758 -201.559448242188 2.646076679230
38.155250549316 -71.418106079102 -131.550552368164 1.228214025497
-46.304542541504 -78.757804870605 -151.954956054688 1.844452857971
46.816192626953 -55.838832855225 -95.336639404297 7.683380126953
-97.779281616211 -59.949131011963 -72.568687438965 2.806013107300
94.858314514160 -74.202484130859 -85.857032775879 1.618025302887
-17.818595886230 -72.020492553711 -242.593673706055 1.413243174553
-27.912128448486 -79.199600219727 -183.475845336914 0.730830729008
-80.605628967285 -65.720535278320 -52.780296325684 2.890951156616
18.615261077881 -65.088638305664 -177.480010986328 3.236771345139
-138.699707031250 -67.672676086426 -200.007888793945 3.266999483109
45.375579833984 -73.021377563477 -110.589843750000 2.813127040863
8.051929473877 -86.870857238770 -246.023162841797 5.708768844604
-27.461839675903 -73.762931823730 -219.938858032227 1.938998818398
-151.820053100586 -67.898788452148 -181.460968017578 1.942120790482
58.980922698975 -67.081718444824 -93.294342041016 1.656741499901
-53.955085754395 -72.006736755371 -202.801025390625 7.341244220734
-112.547348022461 -72.989074707031 -225.773071289063 2.665265321732
106.055320739746 -67.131111145020 -150.537719726563 5.919181823730
-46.746952056885 -65.986808776855 -173.805099487305 7.778700351715
20.573440551758 -74.758346557617 -167.255142211914 1.542935729027
115.762863159180 -75.227882385254 -146.820480346680 2.246609210968
108.242240905762 -69.214279174805 -117.872833251953 3.243833541870
113.087890625000 -71.508071899414 -151.770339965820 1.601281762123
-84.236076354980 -68.553192138672 -136.358383178711 3.653986215591
-9.374234199524 -72.838371276855 -177.782821655273 3.189526319504
-59.657871246338 -76.142883300781 -174.460891723633 2.299452543259
59.020553588867 -70.897720336914 -243.474731445313 1.119105815887
24.664051055908 -70.531654357910 -163.024230957031 2.666638851166
4.851480007172 -74.023719787598 -164.952285766602 1.109123706818
-57.386001586914 -72.513145446777 -184.591186523438 4.001845359802
-151.318984985352 -65.436592102051 -187.967285156250 1.621010065079
-59.737071990967 -69.598594665527 -133.435821533203 2.627920389175
-25.200031280518 -82.170692443848 -199.737792968750 4.828413486481
-73.589813232422 -75.942855834961 -206.341171264648 3.052934885025
-90.392791748047 -59.249282836914 -139.469482421875 3.393316268921
38.113883972168 -75.219261169434 -108.375297546387 2.639965534210
15.544850349426 -84.220771789551 -239.755722045898 2.147173881531
-151.360931396484 -84.459732055664 -265.165863037109 2.317379236221
-113.407196044922 -69.104133605957 -258.909088134766 1.282626867294
-64.198425292969 -79.923568725586 -283.318817138672 5.649146556854
-96.587417602539 -54.113910675049 -76.257270812988 4.519544601440
-75.858612060547 -62.595512390137 -107.014350891113 1.418347716331
0.344062000513 -85.378929138184 -264.398590087891 1.797318696976
-39.922588348389 -70.157524108887 -164.361831665039 3.145494937897
-83.220924377441 -77.509895324707 -76.947090148926 2.224403619766
95.527351379395 -73.460487365723 -207.413131713867 2.602558135986
111.280235290527 -67.220680236816 -162.542587280273 3.616402626038
-48.930858612061 -66.363510131836 -145.388946533203 1.721810340881
37.536724090576 -73.240600585938 -131.094284057617 1.773399591446
-76.761383056641 -56.603595733643 -43.915695190430 1.800837039948
-90.208168029785 -73.369132995605 -214.546463012695 1.595060467720
-15.293523788452 -72.253883361816 -204.226562500000 3.057292699814
-169.277603149414 -77.270278930664 -273.514099121094 4.500970363617
0.310499995947 -85.385231018066 -251.447158813477 3.671018123627
-92.343620300293 -62.214775085449 -123.646362304688 1.654973268509
-146.072967529297 -61.304508209229 -231.449081420898 1.198136329651
92.155120849609 -52.630397796631 -64.002868652344 4.572424411774
-76.085403442383 -62.766624450684 -121.893142700195 1.622012615204
-2.127183914185 -61.563552856445 -286.561798095703 3.209578037262
101.406341552734 -64.229759216309 -98.497138977051 0.947054266930
-40.648601531982 -81.204032897949 -164.125076293945 2.121529579163
-52.247364044189 -66.940879821777 -51.573181152344 4.881546020508
-108.581939697266 -65.238723754883 -187.750747680664 0.761859536171
-21.869516372681 -69.816848754883 -237.466033935547 2.143321275711
-149.466812133789 -79.566253662109 -305.424316406250 1.938292264938
-107.673202514648 -66.977714538574 -197.826522827148 1.891441226006
7.007998943329 -69.744079589844 -193.815780639648 4.247294902802
11.309577941895 -80.154739379883 -236.663604736328 2.603116273880
107.312278747559 -74.036544799805 -176.264236450195 1.774769544601
82.321189880371 -71.145683288574 -90.012809753418 6.858894348145
57.833824157715 -60.137481689453 -100.079475402832 2.129309177399
-34.279842376709 -79.108108520508 -213.381805419922 2.900508642197
-145.508834838867 -62.393932342529 -229.735443115234 0.922625660896
-151.272430419922 -77.336380004883 -222.410461425781 1.744727015495
-22.313381195068 -64.866508483887 -63.777145385742 3.440119981766
59.035781860352 -56.568038940430 -95.323722839355 3.543005466461
-41.784580230713 -57.377319335938 -43.499874114990 3.440807342529
41.662685394287 -71.926712036133 -127.583473205566 2.851185083389
38.810691833496 -70.849609375000 -133.821929931641 0.882459998131
-28.968879699707 -77.342185974121 -181.427780151367 1.497472167015
103.332801818848 -70.261985778809 -132.604263305664 5.721612453461
-76.169601440430 -72.032165527344 -63.319309234619 4.240694999695
-145.607650756836 -70.741683959961 -265.372650146484 1.626368403435
18.349651336670 -64.280982971191 -183.404388427734 4.030921936035
-145.777206420898 -69.943817138672 -209.953552246094 2.872984886169
-152.865951538086 -90.032005310059 -289.868438720703 4.242845535278
-151.916275024414 -69.854774475098 -181.339172363281 2.606612443924
-14.553004264832 -70.210258483887 -233.706878662109 2.848613500595
-12.225097656250 -75.022743225098 -214.196502685547 3.146395444870
-23.556735992432 -81.464561462402 -183.383682250977 2.384709596634
-109.061813354492 -76.086494445801 -291.470092773438 1.455928564072
-58.288337707520 -56.074893951416 -116.832740783691 1.748294711113
20.454729080200 -73.935661315918 -237.853271484375 2.466207742691
-76.764739990234 -71.098617553711 -134.402084350586 1.412317276001
36.425251007080 -66.832336425781 -254.619766235352 1.369025707245
17.223760604858 -69.601531982422 -152.399398803711 1.923598766327
-154.014663696289 -82.210266113281 -221.319427490234 3.900271177292
-78.872901916504 -72.993377685547 -287.921386718750 3.109934568405
-41.387603759766 -69.809265136719 -57.704647064209 4.099206924438
-168.397750854492 -75.668334960938 -275.904846191406 2.126099824905
-20.518980026245 -64.821578979492 -205.630874633789 2.436779022217
28.217437744141 -77.828567504883 -143.545394897461 1.226760983467
99.968421936035 -55.913791656494 -78.319595336914 4.608404636383
-9.516322135925 -68.567230224609 -272.790740966797 3.773594856262
8.821890830994 -82.644447326660 -212.520675659180 3.451581478119
-138.823593139648 -80.505805969238 -195.769989013672 3.036481618881
38.538940429688 -66.589118957520 -258.346099853516 0.906321227551
20.155118942261 -81.267204284668 -166.242919921875 4.865118026733
45.208084106445 -68.578216552734 -96.513290405273 1.481370925903
-86.121932983398 -73.292396545410 -110.685661315918 1.583302617073
9.350229263306 -76.854164123535 -212.867065429688 1.244731545448
-87.894790649414 -78.801048278809 -87.627914428711 4.032572269440
-109.667594909668 -71.055831909180 -183.976135253906 2.274118661880
-64.608596801758 -71.920646667480 -296.569610595703 5.908627510071
12.608156204224 -78.510162353516 -188.662155151367 2.188071727753
-4.087841987610 -71.818428039551 -228.502746582031 1.768658161163
86.633644104004 -79.049133300781 -211.802261352539 3.695256948471
-142.404830932617 -66.990844726563 -259.511596679688 1.610228896141
74.692970275879 -59.929626464844 -61.496852874756 2.315232038498
-66.173309326172 -74.494926452637 -252.809112548828 3.021969318390
-51.954010009766 -73.310180664063 -288.793334960938 1.974272847176
68.822723388672 -62.281589508057 -70.061248779297 2.825819015503
38.744964599609 -68.172561645508 -258.746246337891 1.365038275719
-23.876007080078 -77.376762390137 -288.098266601563 1.908941149712
-42.468082427979 -74.635566711426 -85.862663269043 3.120285511017
-168.755874633789 -70.677436828613 -231.995498657227 3.147961378098
-44.256301879883 -71.423797607422 -168.543319702148 2.183156490326
-120.793891906738 -68.864974975586 -287.749725341797 3.149388313293
72.972831726074 -58.774475097656 -61.043888092041 0.284511625767
-154.695709228516 -68.212371826172 -179.443115234375 1.614375352859
-47.044685363770 -67.438255310059 -170.435546875000 6.858140945435
-30.571643829346 -59.743026733398 -50.547019958496 3.310854196548
18.480224609375 -81.910140991211 -261.715515136719 0.471935898066
14.896088600159 -80.105064392090 -225.333572387695 1.670944094658
11.236166954041 -76.521728515625 -290.956939697266 1.914846062660
42.990528106689 -65.469848632813 -36.196392059326 2.980872154236
42.578334808350 -64.690551757813 -104.827896118164 3.189153194427
24.259340286255 -70.586601257324 -142.650558471680 2.841801881790
-72.214378356934 -52.580795288086 -91.877494812012 4.989480972290
50.445907592773 -60.382976531982 -93.516387939453 2.724569559097
112.867858886719 -65.790733337402 -156.552551269531 3.975284576416
25.029098510742 -69.817108154297 -139.524932861328 1.458959817886
-46.247371673584 -65.777496337891 -138.445892333984 3.582252264023
-100.311454772949 -59.373653411865 -108.975296020508 2.984843969345
-154.518127441406 -56.962059020996 -197.988906860352 3.818009376526
70.797958374023 -72.104057312012 -227.970932006836 2.142488241196
-62.984249114990 -68.134819030762 -118.772972106934 1.963841557503
-43.201786041260 -64.941139221191 -153.018554687500 3.338331460953
-65.240013122559 -77.567115783691 -162.249542236328 1.920192003250
-90.383377075195 -68.406555175781 -253.755859375000 0.924426674843
-57.914119720459 -76.513366699219 -285.747589111328 1.453796386719
21.218505859375 -68.046417236328 -260.969451904297 3.973180294037
80.961090087891 -74.034126281738 -224.942749023438 2.908813238144
-37.148811340332 -75.178382873535 -203.938354492188 2.766642093658
-154.983535766602 -79.930313110352 -230.372589111328 2.558191776276
-131.967895507813 -61.579849243164 -229.295654296875 2.601511001587
-81.865005493164 -68.733871459961 -250.903121948242 1.992412090302
-148.268295288086 -73.236869812012 -271.116882324219 3.767942428589
-131.610107421875 -77.133224487305 -264.037506103516 2.797142505646
-147.686843872070 -82.141113281250 -209.880691528320 1.257635831833
-125.003547668457 -62.820941925049 -196.442306518555 0.612324774265
-62.677692413330 -65.725112915039 -146.215423583984 5.112550258636
-38.834220886230 -70.702117919922 -285.977050781250 2.542673349380
-68.144592285156 -53.669837951660 -113.280487060547 1.397159695625
-41.431797027588 -86.966682434082 -196.034637451172 2.130411863327
-23.497556686401 -71.910919189453 -68.125625610352 4.698594570160
-70.818405151367 -77.090332031250 -288.509674072266 2.213416576385
-73.711959838867 -63.251777648926 -134.026443481445 2.340092420578
-50.456649780273 -79.157188415527 -200.526870727539 0.891502022743
22.699516296387 -66.730613708496 -35.872055053711 2.235464334488
92.090454101563 -67.823059082031 -71.294303894043 4.369302272797
-11.536623001099 -77.058471679688 -227.058059692383 1.045993566513
-126.816688537598 -70.764739990234 -259.085845947266 3.258019208908
27.164087295532 -61.071372985840 -39.861316680908 1.299853086472
-122.220062255859 -72.828140258789 -261.632965087891 1.804663181305
-58.762958526611 -58.378795623779 -136.037551879883 1.828931450844
48.188327789307 -70.687606811523 -106.457214355469 1.612177371979
103.681228637695 -73.300521850586 -200.306533813477 2.049298524857
3.403867959976 -77.265388488770 -242.846572875977 1.833814382553
-29.957748413086 -70.930740356445 -186.659896850586 2.072381496429
-84.342765808105 -61.137046813965 -116.769340515137 2.111310482025
64.024528503418 -64.063087463379 -84.106597900391 2.212361574173
108.174339294434 -72.912681579590 -167.844299316406 1.659381270409
-56.767913818359 -62.878265380859 -127.580673217773 2.314528226852
-26.217538833618 -62.736598968506 -76.413658142090 5.528423309326
5.345035076141 -66.752578735352 -290.649230957031 2.536543846130
-67.076118469238 -56.497684478760 -115.412254333496 1.222723364830
-3.125051021576 -84.590705871582 -248.779449462891 2.462330341339
-42.664669036865 -72.503456115723 -65.262825012207 5.797118663788
-23.042650222778 -61.886940002441 -52.820854187012 3.102789640427
-87.560699462891 -60.433147430420 -128.687118530273 3.325813055038
7.044287204742 -77.612106323242 -200.698120117188 1.946633934975
-150.973037719727 -77.267318725586 -301.023040771484 1.200625300407
-125.600547790527 -64.695724487305 -288.701080322266 1.497761487961
-76.337959289551 -65.882446289063 -102.158508300781 1.283828020096
-4.232157230377 -76.067855834961 -241.873062133789 3.088336467743
-2.289912939072 -63.823520660400 -279.316253662109 3.224249362946
7.695387840271 -76.396217346191 -235.224914550781 2.138196706772
-147.727706909180 -66.889907836914 -190.954635620117 2.885811567307
-97.672752380371 -64.030189514160 -105.109687805176 1.602394104004
104.176574707031 -76.211456298828 -191.061782836914 1.556141018867
-37.229492187500 -60.623603820801 -77.499069213867 2.286844730377
105.012191772461 -69.619964599609 -104.879409790039 1.056611180305
10.321951866150 -68.436378479004 -216.123428344727 0.564539074898
-148.337631225586 -67.008583068848 -197.434738159180 0.483034133911
58.130985260010 -57.098155975342 -90.616523742676 2.308646440506
-160.960662841797 -68.603530883789 -194.007843017578 1.629874706268
87.545249938965 -74.291221618652 -81.528739929199 2.517443656921
-109.963134765625 -70.107673645020 -222.318313598633 1.382022142410
40.753414154053 -70.775268554688 -116.476524353027 2.360572099686
-129.027130126953 -67.849594116211 -266.613464355469 3.319582700729
-72.283149719238 -71.148384094238 -247.067153930664 1.842183709145
20.873659133911 -78.373748779297 -166.963409423828 2.685724735260
1.779348969460 -83.788887023926 -249.451171875000 2.822421312332
16.317338943481 -70.020034790039 -160.466995239258 1.639199018478
24.035234451294 -75.138313293457 -155.937622070313 2.258946418762
-150.825271606445 -76.094406127930 -222.883743286133 1.367735981941
78.736732482910 -74.709091186523 -231.018264770508 1.234233379364
-8.760766029358 -74.575485229492 -170.288391113281 0.518959999084
-75.070838928223 -66.673744201660 -49.807716369629 1.536521434784
-65.113594055176 -60.353507995605 -40.843322753906 3.081698179245
-159.760025024414 -81.080192565918 -274.141418457031 5.816461563110
-100.991180419922 -59.911022186279 -145.911087036133 5.041714191437
-3.872931003571 -69.661201477051 -233.923568725586 1.401994466782
101.364753723145 -74.213516235352 -176.048156738281 4.279094696045
5.839459896088 -82.460487365723 -240.106231689453 3.667454481125
-31.922567367554 -64.821304321289 -182.896926879883 4.415308952332
0.269834995270 -73.251838684082 -157.511581420898 4.177078723907
-91.996025085449 -70.215599060059 -90.372833251953 3.414431810379
-63.308017730713 -67.308578491211 -138.501861572266 3.033151388168
34.032749176025 -79.675331115723 -152.437362670898 3.526592969894
26.155849456787 -69.547645568848 -253.908615112305 2.278475999832
-150.905532836914 -71.363433837891 -309.420410156250 3.325834512711
83.957443237305 -73.488685607910 -212.526794433594 2.293754100800
43.714408874512 -67.893203735352 -108.668846130371 0.590321004391
98.523590087891 -51.702201843262 -72.800819396973 2.167521953583
18.332332611084 -73.895637512207 -212.317184448242 1.239739298820
-142.766876220703 -74.180130004883 -256.004547119141 0.565538883209
-95.933395385742 -70.316619873047 -221.061538696289 2.332664728165
-97.753753662109 -67.598297119141 -91.531173706055 2.035646677017
-117.194183349609 -67.167289733887 -228.696456909180 2.011136293411
-165.675796508789 -63.273807525635 -194.496826171875 6.762621879578
14.027675628662 -83.202903747559 -248.581680297852 2.368730783463
-23.986314773560 -75.488731384277 -292.450103759766 2.565526008606
105.370834350586 -75.815673828125 -152.238647460938 5.016719818115
95.190177917480 -62.658725738525 -77.041084289551 7.738356590271
22.987073898315 -77.965141296387 -183.807174682617 2.162460565567
-57.184154510498 -70.301330566406 -131.179779052734 2.149000406265
-18.458116531372 -59.568298339844 -68.043464660645 3.885758638382
105.435073852539 -56.359191894531 -93.015884399414 1.497817158699
-64.605010986328 -55.173938751221 -115.867546081543 2.522442579269
23.218002319336 -60.453876495361 -35.503334045410 1.157857418060
-27.382837295532 -73.599052429199 -192.789443969727 1.943548083305
-100.791839599609 -63.619010925293 -73.308654785156 3.410469055176
18.212518692017 -67.819900512695 -153.294647216797 2.781051874161
-47.629756927490 -75.340385437012 -191.535186767578 1.785052537918
110.428672790527 -74.837387084961 -150.315002441406 1.419636249542
-131.839874267578 -66.574447631836 -233.691421508789 1.461258172989
-95.369621276855 -64.666000366211 -150.588195800781 2.520378112793
7.117469787598 -72.681716918945 -240.021606445313 2.741073608398
14.157677650452 -85.737365722656 -251.160339355469 4.103738307953
-42.126110076904 -82.211906433105 -75.164649963379 0.599822103977
-32.635639190674 -80.210861206055 -190.720825195313 0.899738848209
-84.202026367188 -59.313339233398 -119.516006469727 2.015443801880
-149.794357299805 -61.621093750000 -247.876495361328 2.133517503738
3.084784030914 -77.630569458008 -293.442901611328 2.358093738556
-68.275947570801 -74.443130493164 -162.771438598633 0.950520336628
-142.800598144531 -86.174156188965 -257.611022949219 2.538975000381
-148.849288940430 -60.087394714355 -186.141265869141 2.673118114471
-126.083976745605 -72.687400817871 -265.712036132813 2.689253091812
-2.604554891586 -77.737686157227 -244.784652709961 2.440959930420
21.987943649292 -60.377471923828 -274.518157958984 2.808242082596
-71.006561279297 -67.142311096191 -157.582397460938 5.070894718170
106.856750488281 -75.017501831055 -156.628768920898 2.904115676880
14.447866439819 -76.213691711426 -239.411010742188 2.485060453415
13.973337173462 -70.595535278320 -286.802642822266 1.871668577194
-107.345138549805 -58.859580993652 -171.276229858398 5.406444072723
-164.032714843750 -69.668785095215 -211.201507568359 2.170411825180
25.946561813354 -68.699546813965 -156.456420898438 2.821831941605
-74.062126159668 -71.236785888672 -101.373413085938 1.265160322189
-153.622238159180 -82.495483398438 -295.907257080078 1.853374600410
106.012084960938 -73.311233520508 -182.712753295898 0.884337365627
-76.587966918945 -76.303596496582 -285.585449218750 2.335994243622
110.240585327148 -73.850433349609 -137.665206909180 1.723402142525
-96.672607421875 -62.672664642334 -141.652374267578 2.656636238098
-52.569877624512 -75.198272705078 -194.392456054688 3.872678041458
-22.890958786011 -70.834693908691 -74.351303100586 1.218213915825
38.811019897461 -64.311141967773 -251.852981567383 0.672844946384
21.665235519409 -60.737331390381 -25.913236618042 3.212800502777
-46.589591979980 -70.033866882324 -148.500457763672 1.141439914703
20.672983169556 -73.590270996094 -159.168563842773 1.564171195030
-149.906661987305 -61.047660827637 -233.603179931641 1.417279839516
43.753280639648 -75.876823425293 -119.349281311035 1.380167484283
-79.711578369141 -73.991828918457 -96.494087219238 4.378230571747
109.180770874023 -70.093513488770 -122.876487731934 1.919065594673
-102.176780700684 -75.473037719727 -218.890411376953 3.139860868454
-90.795257568359 -63.434020996094 -121.798995971680 0.839422762394
-72.005599975586 -69.084785461426 -149.561187744141 1.151519298553
91.775161743164 -64.400840759277 -71.090461730957 6.474855899811
38.325206756592 -56.023273468018 -35.711067199707 1.734475135803
-144.855880737305 -63.656867980957 -198.359603881836 1.450278878212
-148.865310668945 -64.797271728516 -195.151809692383 0.857140660286
-72.780456542969 -80.086372375488 -213.128723144531 2.016294002533
-168.137466430664 -67.054443359375 -205.280944824219 2.141773223877
-14.458548545837 -73.455329895020 -244.617050170898 3.257169723511
-169.958374023438 -67.383468627930 -225.084381103516 4.029366970062
-134.812545776367 -68.727554321289 -261.017486572266 2.173136711121
-58.083686828613 -59.837741851807 -133.988342285156 1.212948083878
19.680644989014 -70.981376647949 -205.386886596680 1.339518547058
-40.249031066895 -78.577827453613 -240.405746459961 1.383510470390
29.253845214844 -66.539901733398 -140.091476440430 3.173583745956
-75.447570800781 -56.374217987061 -99.786499023438 2.376441717148
-81.866638183594 -81.875167846680 -99.539878845215 2.915432214737
76.449172973633 -66.917793273926 -103.486343383789 2.797388792038
-157.483734130859 -76.499298095703 -271.075744628906 3.042581796646
-94.967895507813 -60.349464416504 -64.983726501465 2.753288984299
16.614894866943 -80.122398376465 -230.498840332031 1.836718440056
87.639801025391 -62.681991577148 -64.120185852051 2.413822412491
-142.592361450195 -71.781402587891 -197.914825439453 1.864647030830
44.638420104980 -70.352638244629 -119.569343566895 2.588009834290
-7.237729072571 -63.951259613037 -241.866699218750 1.625082612038
22.631664276123 -72.614830017090 -266.423492431641 2.696570396423
-16.171773910522 -65.946365356445 -66.587402343750 3.109524488449
-145.475585937500 -76.668731689453 -215.447174072266 2.847961664200
-96.130981445313 -67.299255371094 -110.767158508301 2.192008733749
-7.559360027313 -75.647682189941 -291.476776123047 1.514579534531
-172.545806884766 -68.802093505859 -218.773300170898 6.305665016174
34.188037872314 -69.582687377930 -117.706657409668 3.104094266891
10.595802307129 -73.522926330566 -247.518508911133 3.260454177856
33.930400848389 -64.401290893555 -260.617065429688 2.348455190659
-54.813899993896 -82.570632934570 -244.335067749023 2.271193981171
-17.448650360107 -77.377662658691 -210.179748535156 1.207000374794
-70.693931579590 -66.422607421875 -96.071922302246 3.119589567184
-43.708034515381 -75.468170166016 -155.431869506836 3.067872524261
-101.917747497559 -62.857528686523 -170.960952758789 1.991459846497
-31.697204589844 -67.355720520020 -174.583419799805 1.202492356300
39.431312561035 -72.365745544434 -253.558166503906 2.750155925751
-69.188461303711 -69.699142456055 -166.363693237305 3.631515979767
21.939329147339 -62.844112396240 -139.708938598633 1.765107631683
-147.644302368164 -81.359024047852 -257.322570800781 1.681266546249
-51.482810974121 -73.835037231445 -178.705398559570 1.822770714760
-27.764335632324 -73.025474548340 -221.513229370117 3.160616159439
-70.845726013184 -81.680519104004 -207.519775390625 1.780869364738
10.651188850403 -80.769302368164 -230.578613281250 0.986688733101
4.288248062134 -79.022933959961 -201.112167358398 4.820542335510
-151.971160888672 -73.290885925293 -230.938293457031 3.093166112900
27.323776245117 -69.774818420410 -156.682067871094 2.846068382263
33.024074554443 -63.832111358643 -131.294601440430 1.536922335625
-156.513198852539 -85.446952819824 -229.163208007813 3.676342010498
-12.913095474243 -73.120155334473 -280.996734619141 3.815180301666
69.390556335449 -71.587249755859 -234.527160644531 1.406088113785
-124.535072326660 -71.074897766113 -288.911102294922 2.619384050369
36.280738830566 -74.617912292480 -263.972381591797 7.463499546051
-107.911521911621 -66.613517761230 -189.651657104492 2.459702014923
-147.296234130859 -64.491065979004 -252.102691650391 2.044537782669
-62.148563385010 -58.442405700684 -122.087516784668 2.896137237549
-65.488960266113 -71.128234863281 -93.762527465820 1.408601522446
105.344749450684 -62.764671325684 -85.000045776367 1.033527612686
-146.457000732422 -74.214958190918 -184.484313964844 2.429952859879
-140.397720336914 -68.955352783203 -235.522506713867 1.430341720581
2.629832983017 -76.249549865723 -234.699935913086 1.713363647461
9.693419456482 -69.472480773926 -239.072723388672 1.554155468941
-12.198004722595 -71.137039184570 -202.802536010742 0.930206954479
-49.072364807129 -81.148300170898 -91.753280639648 2.738257169724
10.744157791138 -68.022262573242 -207.294631958008 1.439934849739
21.849029541016 -74.655647277832 -180.375137329102 2.958147048950
42.840476989746 -52.854362487793 -24.560312271118 1.691394686699
-27.043870925903 -70.347869873047 -223.258880615234 3.579132795334
18.657285690308 -67.887611389160 -161.885513305664 3.520482301712
7.886688232422 -81.777992248535 -223.503540039063 1.821756243706
-28.430049896240 -78.135330200195 -184.381362915039 1.815477252007
-95.954383850098 -59.046653747559 -143.054214477539 4.753422737122
107.041030883789 -66.929183959961 -167.648773193359 4.131489753723
-49.909130096436 -60.768177032471 -83.652313232422 2.643302917480
83.486358642578 -80.384864807129 -223.600418090820 4.061257839203
-95.621810913086 -61.039470672607 -67.883743286133 1.702431321144
-84.370018005371 -58.087459564209 -117.585319519043 1.487119436264
-6.262136936188 -75.554779052734 -217.423889160156 1.263926744461
-54.876918792725 -83.261352539063 -84.793212890625 3.196899414063
-79.752128601074 -73.121635437012 -105.227172851563 4.509953498840
22.775682449341 -59.924411773682 -145.695007324219 3.429796218872
-3.893667936325 -77.512138366699 -161.160430908203 3.571330070496
-154.369354248047 -71.658660888672 -206.613693237305 1.482515215874
57.619411468506 -69.587455749512 -245.189834594727 1.094861626625
-43.685054779053 -62.342674255371 -159.697143554688 6.017347335815
-39.588729858398 -63.861370086670 -177.754791259766 7.029181003571
4.303481101990 -73.384582519531 -226.599975585938 1.424351096153
24.414899826050 -81.217689514160 -157.595809936523 3.543959379196
109.040153503418 -72.810752868652 -133.337631225586 1.668742418289
18.285257339478 -73.997695922852 -198.230239868164 2.233214855194
31.225769042969 -74.619209289551 -251.214813232422 5.591210365295
-58.988475799561 -66.408676147461 -88.509567260742 1.580019116402
-59.844532012939 -81.935623168945 -203.820343017578 0.292137026787
-104.230484008789 -66.886734008789 -222.388366699219 2.198403120041
8.370362281799 -71.877471923828 -201.884445190430 1.346079826355
50.685985565186 -73.437568664551 -101.458969116211 3.345544576645
-40.971900939941 -64.948257446289 -54.660213470459 7.094622135162
-16.575851440430 -66.293548583984 -65.354568481445 3.707314729691
-89.182327270508 -72.687568664551 -215.639205932617 1.723512053490
45.917243957520 -59.497074127197 -26.251424789429 3.364979743958
-162.271255493164 -66.028785705566 -293.536163330078 4.768237590790
-47.190681457520 -74.937721252441 -167.152420043945 2.691999673843
-2.798768997192 -68.196655273438 -289.788116455078 2.977301359177
-123.067016601563 -69.794052124023 -203.736541748047 0.798981130123
-157.634719848633 -68.095603942871 -175.292251586914 5.914215087891
-2.807594060898 -74.874191284180 -238.900665283203 2.249734163284
64.218414306641 -59.181179046631 -91.857620239258 1.950814843178
13.247952461243 -80.809822082520 -258.003936767578 3.434782505035
-97.552703857422 -60.951259613037 -111.520172119141 2.211472988129
92.882232666016 -76.038230895996 -213.573440551758 0.767673313618
-77.810249328613 -67.840438842773 -142.468185424805 2.515712738037
-60.237865447998 -76.776344299316 -178.249023437500 1.262279629707
-41.170566558838 -58.384410858154 -49.174003601074 2.898841142654
-48.826358795166 -81.207038879395 -152.135177612305 3.223786830902
-52.282032012939 -73.397979736328 -189.435729980469 2.209868907928
20.810007095337 -66.300231933594 -142.101058959961 1.726330637932
44.737705230713 -65.045654296875 -36.399875640869 2.306212663651
10.729661941528 -77.031982421875 -209.140289306641 0.977881789207
-47.907581329346 -86.217529296875 -200.139236450195 1.339297294617
-148.178787231445 -82.165138244629 -219.562500000000 2.492371559143
82.246002197266 -57.470932006836 -57.790931701660 1.392723679543
-50.928264617920 -77.892646789551 -284.022064208984 2.701811075211
13.911522865295 -73.399223327637 -214.214965820313 3.046607971191
71.738998413086 -72.283363342285 -89.510353088379 2.689224720001
-133.077087402344 -69.669685363770 -254.976028442383 2.281152963638
-150.930618286133 -64.001274108887 -192.791885375977 2.557013034821
44.038021087646 -65.145385742188 -22.480981826782 1.872419953346
-141.892868041992 -63.493762969971 -255.053512573242 0.966159522533
-156.672500610352 -59.340690612793 -247.532821655273 7.066184997559
-162.417587280273 -71.794807434082 -261.167297363281 2.552303552628
-143.822860717773 -68.189155578613 -254.499694824219 1.152283906937
28.825214385986 -58.153228759766 -20.738948822021 1.070458173752
-150.513488769531 -70.406684875488 -187.762954711914 1.132192730904
95.327629089355 -72.354286193848 -206.893188476563 2.625734806061
-152.805801391602 -67.599822998047 -296.393646240234 1.210355758667
11.996726036072 -67.720840454102 -177.050735473633 4.630152702332
-10.248295783997 -65.638679504395 -215.937438964844 2.010044574738
-143.466934204102 -69.530220031738 -199.491882324219 2.961459398270
-63.794326782227 -72.049743652344 -139.472412109375 4.673532485962
-153.984420776367 -81.180236816406 -228.847961425781 1.631635904312
-102.498130798340 -57.340705871582 -81.339317321777 4.463341236115
100.852828979492 -75.167175292969 -166.066177368164 6.236027240753
-71.518676757813 -82.491668701172 -89.102035522461 2.654552459717
-137.603775024414 -73.182472229004 -252.113006591797 3.370032548904
-65.873085021973 -59.284744262695 -123.757171630859 0.686882317066
91.098655700684 -73.417480468750 -199.742279052734 3.330220460892
-71.117225646973 -67.478172302246 -145.158203125000 1.015585303307
-75.691413879395 -65.772834777832 -103.655944824219 2.329050779343
1.747097015381 -75.000564575195 -215.966857910156 4.397619724274
-78.534873962402 -60.008083343506 -115.007057189941 1.406293153763
-136.121856689453 -69.746528625488 -223.989318847656 2.370007038116
-148.082138061523 -80.551406860352 -298.913940429688 0.888087391853
-76.225608825684 -53.329868316650 -46.545574188232 3.466784000397
-54.598571777344 -57.143432617188 -125.760055541992 1.570814967155
38.237033843994 -60.976909637451 -14.448099136353 4.330338001251
-110.135002136230 -64.402603149414 -185.297912597656 2.201094388962
-129.414916992188 -58.832130432129 -198.099349975586 3.641914129257
-150.685180664063 -62.243007659912 -191.101119995117 3.362577438354
-52.982830047607 -73.137413024902 -89.349807739258 1.967880487442
-149.003738403320 -85.871955871582 -249.561691284180 1.510277867317
-64.584533691406 -54.174755096436 -131.314987182617 5.008887290955
-92.868537902832 -66.760276794434 -137.536361694336 1.216480493546
34.365322113037 -53.438709259033 -13.560620307922 2.310554981232
108.688346862793 -72.134895324707 -129.865203857422 1.453607320786
-35.259571075439 -74.888916015625 -212.515640258789 2.195628166199
47.176101684570 -70.824737548828 -108.066284179688 1.483202576637
113.124145507813 -70.266677856445 -132.963577270508 2.164020538330
-52.901702880859 -67.163429260254 -134.961654663086 2.445372343063
-152.845703125000 -74.841949462891 -215.219589233398 3.323863983154
-140.821380615234 -68.597824096680 -199.463958740234 2.762199878693
-90.318237304688 -66.418037414551 -82.020576477051 5.547310352325
-35.575397491455 -77.484733581543 -206.425750732422 1.150870084763
-26.121059417725 -58.665752410889 -73.835624694824 6.020452976227
86.036384582520 -73.748435974121 -89.582504272461 4.505324363708
-157.127914428711 -66.774673461914 -277.771728515625 5.708715915680
45.216751098633 -65.562431335449 -108.363578796387 2.817660331726
-36.180759429932 -61.053703308105 -46.672668457031 0.520294547081
35.671360015869 -73.157974243164 -121.749023437500 2.405699968338
105.454048156738 -60.688724517822 -78.143768310547 0.936798453331
-108.410324096680 -64.117988586426 -194.867614746094 2.021363258362
-145.634735107422 -82.153732299805 -235.467803955078 1.503217220306
-79.404785156250 -66.189796447754 -61.647239685059 7.373555660248
-72.653724670410 -70.220779418945 -62.306846618652 6.542775630951
112.244483947754 -75.329696655273 -142.797637939453 1.099830031395
76.733146667480 -70.982551574707 -98.523361206055 2.535631656647
103.303901672363 -68.816696166992 -123.410369873047 3.686994075775
-145.937927246094 -76.550224304199 -202.598815917969 2.513492107391
76.114669799805 -79.598251342773 -223.112472534180 4.733447074890
24.065822601318 -75.367492675781 -155.450119018555 1.984823584557
-29.388319015503 -70.180412292480 -181.188934326172 2.022087097168
-150.030364990234 -73.996124267578 -287.185424804688 1.394479632378
0.196628004313 -73.598426818848 -241.222412109375 2.275517463684
13.834229469299 -74.247756958008 -250.086029052734 3.249234199524
109.185195922852 -63.606246948242 -119.130653381348 3.997059822083
-168.836563110352 -78.677032470703 -268.212707519531 4.739510536194
-12.649925231934 -68.420501708984 -243.103225708008 1.784680724144
28.606954574585 -70.821640014648 -164.405731201172 3.010423183441
-37.610603332520 -77.674209594727 -206.492004394531 1.048604846001
-46.814685821533 -61.673603057861 -85.095581054688 3.148730754852
-165.383666992188 -63.578285217285 -208.341537475586 2.545387268066
-138.460525512695 -74.670478820801 -295.062164306641 3.048411846161
-166.995742797852 -64.095001220703 -205.592788696289 3.414115190506
-96.111602783203 -63.413196563721 -60.966609954834 2.384167671204
-46.855262756348 -75.400001525879 -241.145416259766 1.653255343437
-150.950149536133 -83.734123229980 -275.151153564453 1.885590195656
-172.115234375000 -73.557579040527 -245.142944335938 7.051521301270
-145.941467285156 -74.999069213867 -289.896697998047 2.142403125763
-119.560867309570 -68.452873229980 -225.623123168945 2.038293361664
100.963394165039 -61.153564453125 -69.212760925293 2.026687383652
84.421951293945 -68.871841430664 -229.345626831055 3.618842601776
37.805107116699 -73.882072448730 -111.362960815430 1.851786494255
-48.874351501465 -70.587524414063 -90.248840332031 3.689329385757
-112.377960205078 -68.335227966309 -224.042160034180 2.402260780334
-94.982101440430 -64.053596496582 -75.296661376953 2.873386621475
56.144638061523 -67.713775634766 -238.727020263672 1.983799099922
45.081516265869 -66.237709045410 -36.113838195801 1.572309732437
-9.188157081604 -64.915122985840 -258.537872314453 3.154125452042
-82.710021972656 -63.123394012451 -115.569686889648 2.393718004227
15.919923782349 -77.165603637695 -275.039062500000 2.545229434967
-15.733800888062 -78.619544982910 -277.309020996094 4.802390098572
32.484127044678 -66.822715759277 -126.190048217773 2.586958408356
-158.541320800781 -64.591423034668 -284.646972656250 2.050604820251
0.780690014362 -79.140342712402 -246.243942260742 1.357743144035
-130.340850830078 -70.577255249023 -236.984283447266 1.577589869499
-12.594509124756 -72.891326904297 -268.696380615234 2.020962953568
31.396537780762 -52.120960235596 -38.201679229736 1.394600033760
3.275855064392 -85.186630249023 -247.967681884766 3.966425180435
19.745002746582 -74.395675659180 -139.829971313477 4.874101161957
65.629615783691 -70.324539184570 -242.897155761719 1.524738907814
-59.674598693848 -72.400169372559 -279.988403320313 5.762822151184
66.497062683105 -68.852836608887 -234.380523681641 1.681718707085
-145.903900146484 -59.225482940674 -180.959533691406 2.678801774979
34.304779052734 -70.597846984863 -117.696914672852 2.780253410339
-150.175750732422 -69.366615295410 -247.390914916992 2.022044658661
97.711357116699 -62.711021423340 -74.851501464844 4.470255851746
16.851552963257 -82.361869812012 -242.536102294922 3.345271110535
-51.226497650146 -77.954444885254 -86.391624450684 2.617453098297
-145.301635742188 -66.288566589355 -289.008209228516 2.752238988876
-147.144638061523 -63.311454772949 -177.858016967773 2.204967498779
-98.837852478027 -65.517082214355 -217.514846801758 3.422029256821
-25.485244750977 -79.659477233887 -196.777725219727 1.441679120064
-73.405158996582 -83.205017089844 -206.559677124023 3.724225044250
11.261129379272 -83.356712341309 -254.938659667969 1.713186383247
-12.853048324585 -69.957496643066 -237.776626586914 0.923372209072
-104.092453002930 -56.242198944092 -76.200447082520 4.891510963440
-35.480987548828 -55.346279144287 -47.580612182617 2.860793113708
-9.050251007080 -67.759414672852 -258.603363037109 2.370114088058
-149.968185424805 -77.488349914551 -298.518127441406 1.762900233269
-36.283046722412 -75.529998779297 -183.874023437500 3.119758844376
-161.634933471680 -64.835075378418 -206.498107910156 3.018967390060
-20.771627426147 -74.044837951660 -229.107131958008 3.320427894592
-78.882263183594 -61.505325317383 -139.080932617188 4.248109817505
-36.448814392090 -72.347763061523 -173.377548217773 1.119149804115
-149.571853637695 -62.385631561279 -199.338516235352 1.421908378601
-3.319681882858 -75.432022094727 -221.397277832031 1.075847387314
-162.427810668945 -73.304512023926 -249.921630859375 2.556070804596
20.488664627075 -76.117118835449 -265.596099853516 2.045381546021
-7.708077907562 -78.355941772461 -218.192687988281 1.955494999886
-0.126533001661 -83.542564392090 -272.784729003906 1.024857759476
11.736565589905 -80.126121520996 -288.257965087891 2.249461412430
11.603208541870 -84.471267700195 -258.456359863281 2.517570018768
-63.728961944580 -74.034812927246 -244.070587158203 1.885305166245
-3.754952907562 -72.343635559082 -236.841705322266 0.723376333714
93.662055969238 -75.357460021973 -205.334564208984 1.000593900681
-38.320442199707 -81.539573669434 -208.820449829102 3.212104558945
108.377922058105 -56.748363494873 -78.676658630371 2.654133796692
-140.469543457031 -66.207443237305 -203.457153320313 1.268492460251
-119.403610229492 -70.931831359863 -290.805938720703 2.701810598373
-16.982290267944 -76.812713623047 -220.544265747070 2.674478054047
50.944797515869 -61.127578735352 -100.934600830078 3.074619293213
-151.456314086914 -67.317131042480 -277.901367187500 3.252895593643
-57.863513946533 -68.171607971191 -146.630569458008 2.677098035812
-47.760353088379 -77.188957214355 -283.850555419922 2.471223831177
-19.455459594727 -78.680740356445 -176.360397338867 0.430385649204
-19.687913894653 -74.101730346680 -226.340148925781 2.206177473068
34.350315093994 -69.837577819824 -131.561538696289 0.845266878605
101.231315612793 -72.450729370117 -178.621337890625 3.937537431717
6.333453178406 -72.812522888184 -192.827163696289 4.135896682739
115.314926147461 -69.733055114746 -139.273254394531 2.721842050552
100.007453918457 -68.006439208984 -107.218772888184 3.831993818283
-87.713211059570 -81.798339843750 -107.540916442871 1.076736450195
73.648628234863 -66.987823486328 -69.300422668457 2.993800163269
93.506340026855 -67.193290710449 -75.604690551758 5.756410121918
98.601608276367 -72.637634277344 -93.533561706543 2.376837491989
70.675086975098 -64.354278564453 -69.836044311523 2.502316713333
-30.172601699829 -67.757461547852 -182.881301879883 1.546413540840
-60.211242675781 -57.839080810547 -120.305374145508 1.160480737686
-2.564521074295 -78.974456787109 -245.823272705078 2.719938755035
-147.007965087891 -61.533554077148 -227.014755249023 0.513969242573
-158.246002197266 -74.129989624023 -219.230834960938 4.514776706696
22.468145370483 -78.277481079102 -139.933547973633 1.856694817543
54.966190338135 -72.066329956055 -90.429962158203 1.708475708961
36.279827117920 -61.645034790039 -115.184860229492 4.444159030914
-11.650517463684 -70.687561035156 -285.594879150391 3.116501092911
-35.105224609375 -76.898475646973 -208.848693847656 1.617375731468
-20.228944778442 -78.762298583984 -178.157318115234 1.582584381104
97.250709533691 -68.486763000488 -71.965438842773 1.938064694405
17.306838989258 -64.611663818359 -181.908081054688 3.327358961105
7.615857124329 -75.968681335449 -211.953796386719 1.449874758720
91.710205078125 -71.636177062988 -210.423248291016 1.842839717865
-47.545791625977 -56.593612670898 -48.473911285400 2.759051799774
-24.019029617310 -77.916175842285 -245.121978759766 1.937099099159
80.511985778809 -73.024513244629 -75.778480529785 2.165374279022
91.422409057617 -66.384155273438 -95.138694763184 8.043949127197
91.644271850586 -68.180213928223 -94.954650878906 6.358606338501
-46.177364349365 -70.707725524902 -164.023208618164 1.052659630775
70.193481445313 -57.984718322754 -69.019958496094 4.232395172119
-22.385175704956 -66.826728820801 -250.160812377930 7.245043277740
41.353073120117 -54.343994140625 -16.098834991455 2.882899761200
-54.620540618896 -69.168952941895 -52.679939270020 3.174092054367
-15.248729705811 -58.453166961670 -64.883285522461 1.753713846207
72.619895935059 -67.539451599121 -81.231079101563 5.457384586334
11.370292663574 -75.454994201660 -198.428329467773 0.992571532726
19.563913345337 -67.935386657715 -274.490539550781 3.208550214767
1.127861022949 -75.043197631836 -206.272186279297 4.578515529633
-12.518170356750 -68.443855285645 -270.238983154297 1.202374219894
2.868902921677 -71.186851501465 -160.156845092773 2.048691034317
-97.516052246094 -60.744392395020 -102.244514465332 1.520138859749
-144.275146484375 -62.831321716309 -186.290206909180 1.766724586487
-63.779731750488 -60.026580810547 -125.218116760254 1.575172901154
-150.001312255859 -80.379714965820 -227.980041503906 1.253052711487
44.985866546631 -71.194023132324 -113.585594177246 1.600683927536
-69.743247985840 -55.461948394775 -114.399665832520 2.187015295029
40.339397430420 -58.269523620605 -12.645198822021 2.337019920349
-40.497150421143 -71.806739807129 -169.637573242188 1.712759137154
-162.857269287109 -67.503227233887 -208.047088623047 2.561825752258
1.851753950119 -72.823898315430 -224.734954833984 1.492014408112
-109.837532043457 -66.488571166992 -217.607086181641 5.421844482422
-58.472335815430 -80.180168151855 -205.414794921875 2.024961709976
-57.980087280273 -73.147148132324 -65.904151916504 5.462753295898
-164.241577148438 -71.380477905273 -252.663772583008 0.934155225754
-18.666450500488 -73.188453674316 -234.767318725586 2.439960002899
-7.246517181396 -78.945213317871 -290.395141601563 3.235513448715
20.043720245361 -68.691360473633 -189.648513793945 1.392679810524
-89.541763305664 -62.641696929932 -142.517791748047 2.496495485306
-149.312698364258 -75.642555236816 -303.909790039063 3.772855043411
-152.158325195313 -76.339019775391 -186.470733642578 3.791063547134
-12.540427207947 -74.651359558105 -202.831634521484 1.615032911301
-70.454582214355 -71.442649841309 -162.888442993164 2.932890176773
-36.887844085693 -76.182807922363 -208.878524780273 1.587121248245
-72.999916076660 -54.117031097412 -102.398559570313 1.174937129021
38.930145263672 -76.986892700195 -123.661575317383 1.702936172485
-91.630332946777 -70.133277893066 -255.482742309570 2.165147066116
13.273145675659 -63.554637908936 -237.160247802734 4.054434776306
-19.441528320313 -73.495574951172 -260.647460937500 4.729365348816
-150.971786499023 -70.977813720703 -181.097549438477 1.537618994713
-6.659390926361 -68.906005859375 -167.176467895508 5.639882564545
-158.402221679688 -68.482925415039 -273.155151367188 0.770945966244
-4.722545146942 -65.738899230957 -224.837493896484 1.020760178566
-87.487312316895 -76.402816772461 -289.207244873047 2.902878761292
-83.504371643066 -58.533199310303 -117.614295959473 0.681036233902
-100.488090515137 -66.413230895996 -92.017333984375 4.049652099609
-69.665824890137 -75.989608764648 -211.343963623047 2.282182693481
17.033706665039 -64.673645019531 -154.683959960938 3.045540094376
10.905049324036 -79.771995544434 -245.565658569336 0.400337964296
-91.519454956055 -76.387832641602 -288.850494384766 2.230412960052
-41.670570373535 -52.137722015381 -48.505153656006 2.868848800659
11.185281753540 -66.710182189941 -184.924865722656 4.683733463287
-14.851696968079 -69.252258300781 -238.112030029297 2.204878091812
-60.947216033936 -50.320350646973 -44.603626251221 2.399085044861
-20.013132095337 -70.140312194824 -197.557846069336 1.518288135529
-93.164062500000 -58.491428375244 -69.556213378906 5.412046909332
-117.574745178223 -70.629524230957 -285.617584228516 2.041912794113
69.338546752930 -76.914901733398 -232.183532714844 2.842058420181
-37.169998168945 -74.215324401855 -80.243377685547 2.014035940170
-70.996223449707 -72.360298156738 -253.538269042969 1.677477955818
9.256022453308 -60.988918304443 -149.199508666992 5.336899280548
44.178382873535 -62.684104919434 -100.343696594238 4.036538124084
-81.285507202148 -70.689926147461 -210.747100830078 1.673320531845
13.697400093079 -79.791435241699 -213.045867919922 2.133296012878
49.189800262451 -63.551212310791 -96.260559082031 0.610705912113
-34.957103729248 -72.817924499512 -164.211944580078 1.453699231148
-11.396965026855 -78.050865173340 -288.070739746094 1.348741412163
-153.452209472656 -68.141929626465 -301.796417236328 1.046595215797
-25.216655731201 -56.666664123535 -65.566688537598 3.071492910385
-150.830917358398 -61.138141632080 -194.558593750000 0.820022940636
63.190521240234 -57.189888000488 -84.236770629883 1.239711165428
-100.358413696289 -52.117496490479 -76.884719848633 2.195278167725
-142.759323120117 -77.395111083984 -189.809295654297 2.330223083496
-19.896884918213 -71.489601135254 -202.462524414063 1.729355335236
-112.074920654297 -65.188278198242 -196.165527343750 0.610307574272
-153.496109008789 -63.403350830078 -184.505783081055 2.898882627487
88.812728881836 -71.850776672363 -100.183456420898 1.615560412407
-149.274703979492 -77.235992431641 -189.608779907227 1.547236919403
93.966918945313 -66.801185607910 -91.451583862305 7.227634429932
8.721659660339 -78.030670166016 -230.214538574219 2.712042570114
-118.963035583496 -60.210056304932 -200.508132934570 3.677536487579
-167.220382690430 -68.240196228027 -245.503906250000 1.334131002426
-67.582275390625 -63.550399780273 -121.000015258789 2.605910539627
-34.897338867188 -80.652580261230 -292.298248291016 2.604895830154
-143.544845581055 -78.333801269531 -196.526611328125 2.167813062668
-0.643059015274 -75.111442565918 -164.854522705078 2.030625104904
45.619384765625 -78.234657287598 -105.397209167480 1.491631507874
-158.653762817383 -66.817672729492 -204.280487060547 2.916118383408
-144.598983764648 -63.775646209717 -202.071762084961 2.142232656479
-153.859420776367 -76.820625305176 -216.456222534180 3.985959768295
119.673347473145 -68.621566772461 -146.785781860352 4.645536422729
29.656686782837 -72.208351135254 -259.955871582031 3.084116697311
62.077037811279 -66.076782226563 -87.130645751953 2.815783739090
-10.566715240479 -63.576877593994 -291.383636474609 6.921516418457
-145.586288452148 -58.189086914063 -184.328201293945 2.788232564926
-143.545578002930 -67.270095825195 -189.458648681641 2.408550500870
56.818241119385 -64.087562561035 -86.591011047363 2.036289930344
-68.921760559082 -60.608448028564 -121.159004211426 2.590609073639
35.001235961914 -77.858253479004 -124.992294311523 1.505122542381
-154.362365722656 -59.695106506348 -180.489059448242 4.357324600220
-53.860763549805 -68.176483154297 -145.370925903320 1.789012789726
-48.537490844727 -73.266807556152 -180.156646728516 4.233896732330
