4.756385803223 -65.756790161133 -241.879226684570 3.109430074692
88.533226013184 -78.901329040527 -87.008544921875 2.431766510010
-36.595920562744 -72.804145812988 -286.221862792969 2.146977663040
-87.454612731934 -70.976860046387 -59.829483032227 2.358904123306
-150.945388793945 -66.047134399414 -245.493728637695 1.656088471413
-155.990203857422 -69.599639892578 -296.143310546875 1.003922581673
-128.051544189453 -72.787254333496 -254.019424438477 2.651918649673
29.241357803345 -71.744888305664 -36.247020721436 1.205597639084
-55.509040832520 -78.174858093262 -93.123947143555 1.174376964569
-54.228610992432 -66.513084411621 -77.689010620117 3.972219944000
16.232887268066 -84.548713684082 -192.314239501953 5.453783988953
-143.598526000977 -75.147148132324 -190.389190673828 2.720474481583
-76.349006652832 -83.669403076172 -81.195114135742 2.641171455383
75.430091857910 -76.042800903320 -234.214752197266 3.277963876724
-30.254507064819 -76.177268981934 -177.356414794922 2.648962259293
-92.997535705566 -63.531890869141 -80.550918579102 5.518763542175
-48.126770019531 -80.133094787598 -157.177810668945 2.882100343704
-152.868041992188 -81.430526733398 -194.118713378906 3.170761585236
-141.191680908203 -84.137878417969 -291.372894287109 2.945399522781
-151.345901489258 -81.502571105957 -234.209579467773 2.529057502747
-79.599945068359 -69.828918457031 -115.924880981445 2.156139135361
16.123315811157 -80.895034790039 -246.053894042969 1.494395256042
-44.925842285156 -80.915313720703 -160.630187988281 3.176587820053
49.017238616943 -64.738510131836 -94.061408996582 1.469802498817
22.228660583496 -69.983741760254 -183.408340454102 0.993974030018
-155.001052856445 -81.656585693359 -256.541076660156 1.039471626282
-0.157431006432 -67.231376647949 -265.744262695313 1.832314848900
-150.503112792969 -78.922065734863 -286.891906738281 1.254225492477
31.184047698975 -65.332130432129 -17.990758895874 2.781317472458
31.809360504150 -76.116668701172 -162.157485961914 2.051687479019
-46.433963775635 -74.759056091309 -149.130508422852 2.123730421066
87.791160583496 -71.405380249023 -58.640583038330 6.537868022919
-145.417953491211 -75.629806518555 -295.755706787109 2.067898035049
-148.883926391602 -72.347282409668 -260.062225341797 0.711823403835
-74.537200927734 -66.607383728027 -98.891677856445 0.926259219646
29.050027847290 -81.359466552734 -136.511276245117 2.679838418961
78.889587402344 -66.922195434570 -64.771522521973 2.102424383163
16.700736999512 -78.601821899414 -224.037460327148 2.415690183640
-31.966117858887 -77.397804260254 -170.924468994141 2.924502134323
-150.958084106445 -68.676673889160 -299.415863037109 2.038805961609
74.895851135254 -70.401153564453 -106.038703918457 2.069862365723
-146.476776123047 -78.801193237305 -293.824981689453 2.234318494797
-3.818737983704 -59.201568603516 -247.001327514648 3.197023630142
-41.801544189453 -79.701889038086 -154.652694702148 1.320723176003
-85.125007629395 -67.511245727539 -129.702560424805 1.314299702644
39.396324157715 -73.379539489746 -13.556446075439 2.103308439255
-132.817855834961 -67.749877929688 -294.498077392578 2.549859762192
34.722354888916 -75.384529113770 -18.558519363403 3.207805871964
26.193828582764 -67.950645446777 -23.280086517334 2.311120033264
-48.024940490723 -75.181022644043 -164.320587158203 2.072248935699
-78.610710144043 -59.497997283936 -109.308731079102 0.574812173843
-40.882575988770 -66.299781799316 -45.882350921631 2.824696779251
-25.446077346802 -80.990119934082 -211.231384277344 2.104978084564
-15.107584953308 -72.580398559570 -259.831298828125 2.823773622513
-64.207550048828 -59.930961608887 -43.564926147461 2.480115175247
-128.529693603516 -62.817157745361 -262.563354492188 2.284140586853
22.729921340942 -71.781242370605 -173.768020629883 3.637539148331
106.011604309082 -62.876068115234 -72.714927673340 2.536863565445
10.891341209412 -75.273551940918 -192.420837402344 0.797015547752
14.031395912170 -77.313056945801 -159.535537719727 4.890034675598
-97.227050781250 -74.162513732910 -65.328147888184 6.958720684052
-27.188045501709 -67.856208801270 -180.733413696289 2.378233194351
5.628042221069 -63.619777679443 -264.656005859375 2.917694091797
-58.062553405762 -70.344696044922 -40.068756103516 6.180185794830
16.970546722412 -75.857093811035 -191.187789916992 1.294532537460
112.011932373047 -75.347030639648 -141.997299194336 1.318967342377
-53.914714813232 -75.826072692871 -176.287033081055 1.559107780457
-139.818374633789 -77.152824401855 -261.528900146484 1.793690443039
90.459327697754 -74.575111389160 -213.037521362305 1.829664349556
38.823928833008 -72.140655517578 -257.034118652344 2.177797079086
-149.958358764648 -66.598617553711 -226.397644042969 3.289152145386
19.778226852417 -80.714157104492 -226.397796630859 2.156531333923
26.135200500488 -67.351219177246 -145.545822143555 2.149733781815
-5.927102088928 -74.613456726074 -210.140243530273 2.159937143326
58.448314666748 -59.095146179199 -83.350509643555 1.936332345009
31.308683395386 -73.990653991699 -158.939971923828 1.878635048866
-20.975519180298 -65.558761596680 -52.401550292969 3.813989639282
103.522872924805 -67.134262084961 -94.619087219238 1.496611475945
21.384254455566 -65.808692932129 -183.834838867188 2.134647607803
-83.600059509277 -78.666893005371 -71.589721679688 3.691036939621
27.363668441772 -78.406204223633 -186.138610839844 3.610325336456
-99.447479248047 -65.131935119629 -98.826370239258 2.275760650635
-17.765922546387 -65.624160766602 -203.379882812500 2.025809049606
-6.092586994171 -69.943496704102 -233.245208740234 1.036939859390
-51.871997833252 -62.097423553467 -44.978713989258 2.080194234848
-28.683906555176 -78.302108764648 -216.694564819336 1.153854608536
-161.607940673828 -67.208206176758 -231.971801757813 3.187315464020
-81.058761596680 -67.569213867188 -106.444747924805 1.889753103256
-147.633834838867 -64.561141967773 -296.605804443359 1.300306797028
2.549956083298 -79.670013427734 -246.838867187500 0.688959360123
-163.245529174805 -68.386184692383 -212.567825317383 2.557560205460
2.843650102615 -77.025039672852 -220.038818359375 4.286953926086
-13.605619430542 -71.532447814941 -202.624649047852 0.790423512459
-97.229042053223 -67.817565917969 -114.752532958984 3.291578292847
-35.262828826904 -77.707778930664 -244.066818237305 2.114201307297
-74.850746154785 -68.072853088379 -251.394790649414 2.199265241623
-74.819282531738 -82.816368103027 -66.418334960938 4.454989433289
-78.701240539551 -74.314384460449 -56.368473052979 2.461626768112
-19.064188003540 -82.021026611328 -194.945510864258 2.423666954041
-52.756744384766 -63.443790435791 -142.486892700195 2.772869110107
23.189720153809 -69.495483398438 -165.578125000000 0.763740658760
57.465888977051 -70.973365783691 -248.831878662109 1.477195024490
-47.960582733154 -76.198982238770 -157.443069458008 2.194516181946
-93.541122436523 -69.732963562012 -118.445289611816 1.898596882820
-6.577058792114 -73.646018981934 -235.039733886719 0.575763285160
-4.313182830811 -67.069274902344 -238.115432739258 1.236565589905
40.314998626709 -70.318092346191 -17.525629043579 1.725204706192
-120.483970642090 -61.280193328857 -289.448333740234 5.069741249084
-155.512664794922 -64.973052978516 -205.486511230469 4.342015743256
-8.490260124207 -67.635108947754 -62.548259735107 3.016788959503
92.036033630371 -72.536285400391 -209.575683593750 1.703444004059
-144.006607055664 -72.215179443359 -266.289215087891 1.590099573135
-149.373535156250 -73.545791625977 -209.127838134766 2.762043237686
-18.507354736328 -73.694389343262 -73.348045349121 2.933349370956
-160.610992431641 -75.534271240234 -220.520645141602 3.983119010925
8.503616333008 -71.853805541992 -220.558700561523 1.354280710220
-73.898658752441 -66.429107666016 -46.171813964844 2.653011083603
-17.261535644531 -80.539031982422 -181.133514404297 1.433116078377
-11.809277534485 -68.310211181641 -67.401054382324 1.879891276360
-25.755552291870 -70.287475585938 -216.622909545898 2.631638526917
12.674581527710 -72.187370300293 -240.454132080078 1.620266556740
-143.013458251953 -81.289550781250 -263.828887939453 2.083711862564
-99.478050231934 -64.999328613281 -172.705261230469 2.707078933716
-148.974792480469 -83.936073303223 -258.677001953125 1.316787242889
-144.348281860352 -74.982353210449 -261.972625732422 2.436383008957
45.887039184570 -76.471572875977 -25.320917129517 4.491630077362
-71.906517028809 -68.956321716309 -141.897842407227 1.268520712852
-74.281982421875 -78.473373413086 -98.268600463867 3.415221214294
-14.876216888428 -78.955718994141 -208.452560424805 2.527187108994
-67.932296752930 -89.380859375000 -96.825874328613 1.955601930618
-77.460678100586 -67.014221191406 -123.495422363281 0.820293724537
-52.481510162354 -73.612243652344 -86.930816650391 1.956710457802
42.906066894531 -72.444343566895 -126.499107360840 1.694954872131
-83.630775451660 -69.023399353027 -129.697540283203 2.696571350098
-98.000679016113 -66.548286437988 -151.440643310547 2.427757263184
-150.032958984375 -79.647010803223 -181.787338256836 4.432198524475
-83.050201416016 -83.068473815918 -85.024749755859 2.858572483063
97.925888061523 -76.207229614258 -87.111251831055 1.752615690231
-22.613777160645 -72.937103271484 -52.514514923096 5.144357681274
92.915756225586 -66.022590637207 -60.508300781250 3.585009098053
10.627585411072 -79.616394042969 -206.740356445313 0.863123297691
-145.514053344727 -67.284568786621 -299.751556396484 2.745802640915
109.330345153809 -74.510246276855 -185.495697021484 2.159782886505
14.383451461792 -77.776756286621 -184.392303466797 3.031177282333
24.334318161011 -71.491172790527 -164.079833984375 2.606744050980
-18.864416122437 -71.753387451172 -262.057891845703 3.675946474075
31.930875778198 -60.826515197754 -258.684387207031 2.494076251984
-60.048717498779 -84.024093627930 -93.839675903320 2.019277572632
-13.308550834656 -64.032684326172 -245.721023559570 3.718117475510
-58.050559997559 -66.456504821777 -116.496017456055 2.423892498016
102.853668212891 -66.208183288574 -191.580398559570 5.001901149750
-168.162551879883 -66.975654602051 -253.030090332031 3.254624605179
-67.625762939453 -88.145629882813 -90.346046447754 2.240985870361
-25.061935424805 -68.412704467773 -186.271377563477 1.828540325165
-0.928586006165 -74.349304199219 -223.812622070313 1.441673874855
-78.204414367676 -86.737831115723 -103.164260864258 0.954343199730
-155.200942993164 -68.564918518066 -303.769683837891 3.247558832169
-141.098770141602 -69.687171936035 -239.324783325195 3.547279596329
10.933562278748 -69.074867248535 -219.269607543945 1.682804346085
73.101577758789 -72.791824340820 -90.777854919434 2.138532638550
-55.988613128662 -74.911079406738 -288.920013427734 2.315787076950
22.668628692627 -70.241844177246 -182.032684326172 2.283831357956
18.058732986450 -75.273216247559 -217.574844360352 2.005621194839
-66.720085144043 -77.410400390625 -97.658561706543 1.873002290726
-69.524482727051 -68.356353759766 -101.540557861328 2.123956918716
-148.536941528320 -79.638702392578 -238.129776000977 3.338738679886
19.071523666382 -71.107772827148 -196.550765991211 1.463961720467
-69.875473022461 -82.312705993652 -98.015960693359 3.078696966171
-9.636145591736 -85.328376770020 -216.868972778320 4.528351783752
-152.565185546875 -56.589817047119 -222.478027343750 5.377600193024
51.746276855469 -62.671878814697 -92.735435485840 1.636073946953
-148.657012939453 -72.589569091797 -202.157012939453 1.540944576263
24.049449920654 -72.282897949219 -254.582443237305 2.014217853546
-148.949142456055 -72.651565551758 -238.840393066406 3.278147220612
-74.364082336426 -82.023422241211 -83.478179931641 1.930293083191
112.548728942871 -71.478927612305 -144.476501464844 1.256170392036
14.887806892395 -72.883216857910 -238.378723144531 0.532157778740
44.657402038574 -79.410072326660 -115.949188232422 1.033708333969
35.307872772217 -69.740898132324 -145.313552856445 0.999886870384
15.440692901611 -76.600234985352 -177.071304321289 2.282467365265
-52.941783905029 -83.111534118652 -81.016212463379 1.498852849007
46.097297668457 -77.231994628906 -120.741310119629 1.754653215408
-54.368507385254 -62.976257324219 -82.439048767090 2.473990440369
46.279491424561 -73.585433959961 -100.609718322754 2.117063522339
-153.565536499023 -61.503585815430 -246.044418334961 4.987454414368
-75.478836059570 -89.095298767090 -95.055870056152 2.162507772446
-11.284219741821 -64.532951354980 -52.208450317383 4.268701076508
-40.347957611084 -77.986892700195 -171.882034301758 2.156054258347
41.350158691406 -78.018211364746 -120.274368286133 2.542185306549
-131.271911621094 -72.446914672852 -201.692306518555 1.915076613426
105.390022277832 -73.901481628418 -180.637481689453 1.771263957024
-86.309547424316 -68.409393310547 -131.548553466797 1.611741304398
-154.990188598633 -68.480285644531 -301.451232910156 1.582420706749
12.109854698181 -81.507530212402 -223.884826660156 2.917458534241
-91.146720886230 -69.091064453125 -136.450653076172 1.951662659645
-45.320770263672 -72.479988098145 -131.418884277344 4.069245815277
-122.725112915039 -69.008171081543 -201.079986572266 2.059905290604
-158.037750244141 -75.896469116211 -270.487426757813 2.584411382675
33.107055664063 -67.346214294434 -261.035430908203 0.910428583622
21.975051879883 -77.112648010254 -186.098220825195 1.923939585686
-153.863113403320 -68.095230102539 -276.516998291016 3.706806421280
-25.723510742188 -69.262382507324 -47.781406402588 4.722448348999
-8.148690223694 -68.609954833984 -222.368041992188 1.497210860252
14.679492950439 -77.612205505371 -216.492584228516 1.536780953407
-108.993659973145 -68.629394531250 -174.839752197266 1.289885044098
-142.061782836914 -70.232612609863 -191.458877563477 2.489670991898
-154.872726440430 -64.919601440430 -286.670013427734 2.126579999924
-10.827131271362 -65.336395263672 -233.845947265625 2.345406770706
-63.430053710938 -62.605976104736 -40.191715240479 4.491265773773
-156.800888061523 -82.299407958984 -284.438720703125 3.766602516174
-12.887229919434 -76.092918395996 -178.844329833984 2.263439416885
8.716364860535 -69.604682922363 -158.553039550781 2.001724481583
-147.015869140625 -69.627555847168 -239.810440063477 2.915727138519
59.844161987305 -74.181266784668 -246.792892456055 3.213480234146
-43.861671447754 -79.802665710449 -155.281799316406 2.417562723160
-63.447788238525 -80.697227478027 -162.724380493164 1.298759222031
-155.303817749023 -64.996788024902 -201.741241455078 2.956590652466
-45.441268920898 -76.488258361816 -196.533325195313 1.226242542267
37.791896820068 -66.789283752441 -35.355609893799 1.180945992470
7.773572921753 -84.564147949219 -269.713897705078 2.680059432983
113.547874450684 -80.943733215332 -153.828063964844 4.555063724518
55.638343811035 -76.556030273438 -87.926460266113 3.978965282440
-147.318054199219 -68.035690307617 -236.857574462891 2.871393442154
7.909913063049 -75.285255432129 -211.484909057617 1.248364925385
-141.387115478516 -77.011734008789 -192.118621826172 2.121077775955
10.110384941101 -69.328735351563 -290.031341552734 2.846879959106
7.374038219452 -60.498180389404 -271.282196044922 1.117756128311
-52.059696197510 -86.907051086426 -79.281440734863 2.665095806122
-40.116367340088 -74.362533569336 -244.864959716797 1.645886301994
81.315635681152 -69.587905883789 -230.825851440430 2.646149873734
-165.021438598633 -73.053688049316 -267.559509277344 3.531307220459
-82.362861633301 -72.206352233887 -102.001075744629 2.885542869568
26.443992614746 -62.548484802246 -27.245149612427 2.075645446777
-151.195800781250 -59.678092956543 -290.167694091797 2.625293970108
-55.866573333740 -77.668228149414 -145.659240722656 2.353992938995
-74.336608886719 -75.960006713867 -102.211044311523 2.001607418060
90.707839965820 -68.121147155762 -207.384323120117 3.211569309235
-63.070270538330 -59.788215637207 -108.952735900879 1.819574117661
-73.624519348145 -72.268867492676 -49.188835144043 2.020356655121
4.397690773010 -74.237243652344 -158.862854003906 1.017360806465
73.522979736328 -76.440116882324 -99.157638549805 3.220216751099
-155.529586791992 -68.756072998047 -215.493927001953 2.872812032700
-143.500015258789 -67.895294189453 -235.164810180664 1.546994209290
-89.364898681641 -82.789039611816 -102.631698608398 3.019378423691
6.689807891846 -76.947517395020 -193.756347656250 4.641592502594
-96.097473144531 -65.983932495117 -156.961822509766 0.402950197458
-99.734214782715 -70.003265380859 -108.947235107422 4.231426715851
45.853794097900 -73.713058471680 -100.777381896973 2.196666717529
57.929920196533 -70.920578002930 -85.664657592773 0.967693328857
82.308410644531 -76.011352539063 -79.725494384766 1.692666292191
84.752792358398 -77.093826293945 -219.368637084961 2.022023677826
-37.799346923828 -74.754188537598 -243.738891601563 1.224384665489
-5.444177150726 -75.902565002441 -274.847167968750 3.052608251572
47.733264923096 -72.533927917480 -37.265422821045 3.254937887192
-20.681686401367 -61.771541595459 -47.691028594971 3.300522327423
-43.892860412598 -71.208976745605 -169.333587646484 2.404076576233
43.262756347656 -74.355720520020 -117.699638366699 1.600321769714
22.999040603638 -67.510078430176 -34.011230468750 3.177137851715
-147.100982666016 -78.211204528809 -304.525512695313 2.111582279205
-35.959827423096 -79.687416076660 -166.654006958008 1.518159985542
-143.939178466797 -67.305343627930 -252.615982055664 1.190534710884
-46.913307189941 -72.417121887207 -197.941894531250 4.441539764404
71.465599060059 -74.011802673340 -105.044120788574 5.409401416779
0.809358000755 -75.036880493164 -242.206054687500 1.598528862000
-27.848297119141 -75.356811523438 -290.358306884766 2.079883098602
-9.122600555420 -77.974784851074 -265.078063964844 2.198319196701
-75.467758178711 -78.959869384766 -155.495773315430 4.830210208893
-128.548294067383 -74.133346557617 -266.457061767578 3.286051034927
43.343917846680 -63.063526153564 -21.060981750488 0.614544987679
-49.358985900879 -85.906547546387 -77.380943298340 1.955474138260
84.870803833008 -71.373733520508 -222.634231567383 1.154627084732
-31.819160461426 -69.158721923828 -286.449920654297 3.819878816605
-108.204872131348 -73.245483398438 -228.781570434570 1.950649023056
79.378417968750 -72.594261169434 -63.728595733643 4.301067829132
-31.099758148193 -72.794128417969 -290.530944824219 1.445786237717
-4.145965099335 -74.733154296875 -287.762359619141 1.630676031113
-47.046577453613 -76.926940917969 -166.380218505859 1.893770337105
-146.678176879883 -76.911529541016 -308.977996826172 1.803126335144
-128.237838745117 -60.463573455811 -227.839065551758 4.662768363953
-67.327476501465 -85.272567749023 -73.517105102539 2.760292291641
-83.796012878418 -66.273132324219 -130.537628173828 1.218854904175
-53.321311950684 -63.839523315430 -138.091613769531 1.901765942574
-60.642417907715 -65.283248901367 -135.023788452148 1.627057909966
-8.027294158936 -58.650382995605 -249.710510253906 4.939991474152
9.653122901917 -79.105438232422 -210.911148071289 2.411742687225
60.406215667725 -62.891502380371 -89.304702758789 2.127764940262
25.510347366333 -81.352439880371 -155.410644531250 1.583176374435
20.760759353638 -81.316841125488 -171.770935058594 2.781369924545
-59.982089996338 -71.319564819336 -292.157348632813 3.406795263290
-138.680648803711 -80.007812500000 -230.869506835938 2.527112483978
27.575849533081 -79.438316345215 -131.854629516602 3.583959579468
-34.646739959717 -80.610527038574 -167.648544311523 2.848770618439
-156.979949951172 -62.653282165527 -227.951416015625 2.356136798859
-66.995750427246 -77.741165161133 -211.174957275391 2.087581872940
-57.660690307617 -65.634895324707 -286.962005615234 4.900385856628
-70.217140197754 -73.357681274414 -145.794921875000 1.760527253151
19.979021072388 -72.813049316406 -169.903472900391 2.633139371872
15.218407630920 -72.908035278320 -150.354675292969 2.404038429260
-23.965826034546 -69.637176513672 -217.966629028320 2.327539682388
25.732238769531 -81.528388977051 -145.894653320313 3.483240365982
-47.783596038818 -64.440002441406 -44.825420379639 0.652607679367
55.448719024658 -72.088531494141 -86.763740539551 2.218100070953
-39.202301025391 -70.422561645508 -47.395298004150 2.548161029816
-140.747177124023 -80.736267089844 -195.859375000000 2.205367803574
32.447818756104 -66.783615112305 -11.844642639160 0.692797243595
-5.489349842072 -64.482353210449 -237.999511718750 1.290199279785
-83.475524902344 -82.045867919922 -108.940727233887 0.772070884705
43.995979309082 -79.399917602539 -104.663742065430 1.051947593689
-16.311937332153 -73.939918518066 -71.636085510254 2.374067068100
-110.865501403809 -68.796028137207 -288.802551269531 2.888347148895
25.252977371216 -71.853759765625 -162.965332031250 2.897920131683
16.072404861450 -78.393371582031 -191.478485107422 2.077319860458
-86.598236083984 -78.277656555176 -219.977249145508 2.653558969498
-62.322738647461 -80.633178710938 -65.236961364746 2.601105213165
40.775661468506 -67.737236022949 -113.820289611816 2.614070892334
-101.530792236328 -68.980773925781 -167.826889038086 2.100701093674
95.151985168457 -71.466850280762 -199.284042358398 2.269747495651
-150.470016479492 -76.390579223633 -220.419586181641 1.855020642281
-20.068260192871 -79.018020629883 -216.820022583008 2.015506029129
-153.454864501953 -81.204040527344 -196.093460083008 2.024677038193
-94.142044067383 -67.125350952148 -140.716308593750 2.208523273468
49.962566375732 -63.540126800537 -246.158752441406 3.113779783249
-44.710010528564 -72.933982849121 -156.965255737305 2.506569862366
97.919944763184 -70.580581665039 -71.601119995117 2.404026508331
-16.840608596802 -69.877471923828 -200.652847290039 0.282552480698
31.986772537231 -71.159751892090 -131.750625610352 0.644025981426
50.946537017822 -75.185462951660 -245.233810424805 3.455508470535
-59.842525482178 -72.063964843750 -162.439025878906 2.656356811523
50.286128997803 -67.494140625000 -32.016693115234 2.652005672455
112.923805236816 -72.960182189941 -127.915275573730 1.633191704750
-20.729011535645 -66.542388916016 -60.302799224854 3.415815591812
-99.190788269043 -70.662582397461 -77.161506652832 4.520244598389
-50.639553070068 -76.306304931641 -246.656539916992 1.492303252220
115.852218627930 -75.083580017090 -144.402832031250 2.580376625061
-70.730354309082 -73.404396057129 -211.541610717773 3.734395027161
-79.061668395996 -80.563003540039 -84.452095031738 2.609616518021
53.146903991699 -68.693855285645 -22.749071121216 3.712884426117
-133.481811523438 -68.871932983398 -234.350357055664 1.502628207207
-62.155776977539 -65.372238159180 -127.348030090332 1.376114249229
-147.706832885742 -68.910850524902 -273.454162597656 3.350307464600
95.239433288574 -67.532646179199 -109.603614807129 3.547367095947
16.117921829224 -72.095428466797 -183.618759155273 2.420752525330
-154.275436401367 -74.800437927246 -237.687026977539 3.344156265259
-146.416305541992 -82.125045776367 -188.531723022461 0.897955000401
5.002336978912 -73.558685302734 -226.925949096680 1.133693695068
-116.464424133301 -66.350852966309 -257.343750000000 1.765617728233
109.839401245117 -76.832206726074 -144.762252807617 3.111369371414
-86.816352844238 -74.805007934570 -60.165382385254 4.335648536682
-164.930770874023 -65.657341003418 -247.729476928711 3.663220167160
-58.466144561768 -81.919868469238 -183.376922607422 4.165338516235
-102.378746032715 -64.585136413574 -156.831237792969 1.088735461235
-118.608139038086 -64.266105651855 -231.902938842773 1.308668851852
65.468681335449 -75.491378784180 -93.555122375488 4.923881053925
-111.921287536621 -68.021476745605 -192.515838623047 2.162004470825
-99.888031005859 -67.476615905762 -118.546897888184 3.013539552689
-166.807357788086 -72.110099792480 -273.500091552734 1.518754601479
-4.881519794464 -82.465835571289 -233.220016479492 3.384132623672
21.790592193604 -70.721542358398 -279.982391357422 3.035773277283
-42.093975067139 -70.403320312500 -164.127243041992 2.656540155411
-37.026008605957 -80.688209533691 -82.965599060059 0.990853488445
55.999042510986 -62.562679290771 -91.034873962402 1.761852741241
105.360130310059 -69.655860900879 -197.495056152344 2.964762687683
102.097190856934 -71.982994079590 -96.468711853027 1.719404935837
-62.145370483398 -62.253704071045 -120.034378051758 1.385249614716
113.407745361328 -73.769737243652 -132.639862060547 2.044992208481
-47.147121429443 -76.363273620605 -190.261779785156 1.347627043724
-92.325889587402 -68.043754577637 -61.013847351074 2.221192836761
-27.623792648315 -77.148994445801 -62.787166595459 2.016450881958
-32.545139312744 -78.305053710938 -56.413257598877 4.781230449677
-127.718345642090 -74.230194091797 -231.227478027344 1.045338988304
48.295120239258 -66.529541015625 -256.383453369141 3.272235870361
0.885497987270 -69.554817199707 -226.567749023438 2.154435873032
-150.923004150391 -76.758567810059 -238.228851318359 2.505644083023
-45.521747589111 -82.064842224121 -185.682312011719 2.456121206284
24.266836166382 -79.015060424805 -184.239578247070 2.874912261963
21.573099136353 -70.259399414063 -153.256591796875 2.252659797668
-33.559654235840 -73.439697265625 -243.882659912109 2.524156570435
70.816276550293 -68.593505859375 -98.965721130371 0.804905951023
-149.222488403320 -64.138450622559 -250.795913696289 2.170950889587
-144.115097045898 -63.960739135742 -285.499450683594 1.525947451591
45.502887725830 -63.476966857910 -115.525871276855 3.178792238235
-101.799453735352 -67.491317749023 -89.399726867676 5.739281654358
47.076927185059 -73.250305175781 -28.251131057739 2.253756046295
53.862033843994 -73.620819091797 -111.319549560547 3.995739221573
30.001365661621 -75.496711730957 -124.747467041016 1.661818623543
111.146011352539 -67.802360534668 -130.700805664063 1.449949383736
-163.089691162109 -65.991683959961 -207.365676879883 1.399537920952
-17.829629898071 -73.724464416504 -202.819305419922 3.316778421402
-5.734954833984 -66.409805297852 -224.738128662109 1.416157484055
-44.510501861572 -63.075477600098 -47.570301055908 3.193826198578
-33.739009857178 -75.625289916992 -186.709640502930 2.345647096634
18.507829666138 -69.370521545410 -239.254074096680 3.335121631622
21.989078521729 -70.071456909180 -245.771545410156 2.917145490646
110.875358581543 -72.453186035156 -113.880249023438 1.735521912575
41.651596069336 -79.061225891113 -96.665840148926 6.192264080048
63.159805297852 -74.243408203125 -94.327018737793 2.895030498505
6.897417068481 -71.124893188477 -210.407348632813 2.492229461670
43.026737213135 -74.027832031250 -18.626281738281 2.824292421341
-131.357879638672 -71.664070129395 -203.670211791992 1.194302678108
22.568088531494 -69.725044250488 -153.447448730469 1.710158467293
94.838645935059 -79.886833190918 -92.314773559570 3.067007064819
-79.158447265625 -87.077804565430 -106.241516113281 3.166733264923
2.134936094284 -82.212471008301 -250.356323242188 1.938102483749
-149.626007080078 -76.718238830566 -192.403381347656 1.876743912697
-142.282333374023 -80.683341979980 -260.350799560547 2.104693651199
116.738227844238 -75.470329284668 -171.588027954102 3.634990453720
-36.167205810547 -70.878623962402 -291.996490478516 1.874894142151
-161.133621215820 -70.721000671387 -292.538208007813 1.074227809906
-147.708877563477 -65.628646850586 -297.921325683594 2.396553277969
15.746894836426 -74.948310852051 -242.134643554688 3.189364910126
-14.653171539307 -70.314506530762 -202.930450439453 1.846405625343
-74.995567321777 -78.327461242676 -214.330596923828 1.152153372765
-15.368294715881 -67.749885559082 -263.259002685547 2.907690525055
-30.509389877319 -83.512153625488 -73.200736999512 3.721726179123
-149.652938842773 -68.540702819824 -225.610717773438 2.934391498566
-19.769969940186 -69.440498352051 -195.620941162109 1.831923723221
-147.376724243164 -76.663940429688 -215.591308593750 1.213660120964
86.039695739746 -75.057777404785 -80.810920715332 1.161015629768
-71.157615661621 -74.428390502930 -139.810089111328 1.668259501457
-154.237030029297 -78.704795837402 -255.029357910156 2.409312009811
-141.899703979492 -69.589485168457 -226.964096069336 1.747256398201
-149.912109375000 -61.829208374023 -209.209350585938 1.285343527794
-23.463113784790 -76.934051513672 -178.720687866211 0.437053859234
91.927665710449 -70.368446350098 -223.986694335938 5.017845153809
-130.972152709961 -61.647674560547 -203.457809448242 2.579683065414
-5.407156944275 -73.236175537109 -242.860687255859 1.831541895866
-140.739501953125 -68.432327270508 -199.296585083008 2.750513076782
-149.126144409180 -76.049644470215 -203.395599365234 1.343706965446
93.965255737305 -67.554924011230 -214.834396362305 3.188615322113
106.284828186035 -72.575981140137 -101.044593811035 1.659002184868
-14.876676559448 -70.237785339355 -218.785095214844 1.941588878632
-42.344085693359 -66.574348449707 -284.489807128906 5.192276954651
103.431259155273 -70.822158813477 -191.300613403320 1.456689476967
-81.764312744141 -65.934814453125 -137.890594482422 3.403403759003
14.326915740967 -73.593971252441 -197.322265625000 2.325336933136
-150.445816040039 -72.228889465332 -178.410949707031 2.615983009338
82.057815551758 -67.311637878418 -62.282180786133 1.159612298012
-23.185579299927 -75.002571105957 -214.422882080078 2.424994945526
-85.741287231445 -80.264419555664 -117.021789550781 4.353684425354
-25.425912857056 -69.241348266602 -172.023971557617 3.574970722198
-59.244945526123 -67.048416137695 -126.815841674805 1.396596550941
12.610830307007 -66.130249023438 -155.565399169922 2.054431438446
-61.031261444092 -79.044776916504 -173.256301879883 0.718711316586
16.609300613403 -71.797912597656 -290.632720947266 2.258007764816
-151.701339721680 -82.379615783691 -201.637313842773 0.943671703339
-103.166069030762 -64.436134338379 -225.528060913086 2.987308025360
-148.499893188477 -61.904090881348 -180.917648315430 1.615101337433
94.591789245605 -70.843879699707 -69.658401489258 1.212706565857
6.176808834076 -70.747184753418 -238.046981811523 3.252968311310
-18.305915832520 -71.936775207520 -262.064422607422 3.102190256119
21.689725875854 -64.427528381348 -179.411514282227 2.481856822968
-126.715187072754 -62.714721679688 -289.450317382813 2.591902017593
-81.387008666992 -65.389816284180 -125.776824951172 1.782088518143
25.253072738647 -74.072631835938 -195.661483764648 3.076781988144
-13.190728187561 -76.561294555664 -223.470291137695 1.967758178711
2.938898086548 -62.395259857178 -292.774230957031 0.915003180504
-31.956201553345 -77.210594177246 -59.155502319336 2.594702243805
115.447715759277 -73.592399597168 -136.332504272461 2.716876029968
-3.082138061523 -73.914039611816 -291.420440673828 2.235537528992
-82.825599670410 -74.090133666992 -108.409805297852 2.862967729568
0.689871013165 -83.294876098633 -276.990570068359 2.307126760483
79.143524169922 -79.198959350586 -87.895103454590 4.070204257965
96.553344726563 -69.875411987305 -67.011154174805 2.558036327362
19.292659759521 -63.139892578125 -141.932312011719 1.682818531990
-53.384815216064 -76.958862304688 -149.596206665039 1.506692409515
113.330192565918 -73.160583496094 -130.403839111328 0.309657871723
-42.830581665039 -80.569572448730 -78.903900146484 2.063678026199
-69.409515380859 -81.080047607422 -87.797615051270 4.319540500641
-6.377521038055 -76.862457275391 -210.767440795898 0.912314176559
78.005523681641 -70.836654663086 -67.219612121582 1.273297905922
-142.319839477539 -79.785240173340 -206.739624023438 2.175260782242
29.909631729126 -72.488235473633 -174.223251342773 2.144450902939
27.693943023682 -69.415199279785 -34.974754333496 2.337065458298
-65.155685424805 -63.088169097900 -104.673568725586 3.139523267746
-96.030326843262 -63.154827117920 -149.544265747070 1.311806917191
-150.524246215820 -72.359474182129 -201.903106689453 2.213191032410
-59.329746246338 -62.349098205566 -133.815780639648 1.921820044518
-54.576065063477 -66.814048767090 -45.127651214600 2.749545097351
-31.423519134521 -67.795234680176 -47.314228057861 1.798350095749
-39.976947784424 -79.255432128906 -206.944580078125 1.857184648514
45.247737884521 -74.232658386230 -32.333511352539 2.583586931229
102.939636230469 -71.577659606934 -89.184822082520 2.784882545471
-156.844589233398 -70.979507446289 -293.385833740234 1.777019858360
-148.248382568359 -63.711322784424 -277.356353759766 1.957163095474
-76.377624511719 -73.082130432129 -117.455261230469 3.839914798737
-20.776872634888 -72.667518615723 -236.079071044922 2.583443403244
10.123909950256 -78.477050781250 -203.326232910156 2.082273244858
18.942481994629 -67.931953430176 -216.207305908203 4.273498058319
-75.936553955078 -70.031677246094 -108.554092407227 1.177319884300
26.214256286621 -65.802299499512 -25.635681152344 3.214480876923
-146.783142089844 -73.689529418945 -185.559860229492 1.705193042755
-5.235369205475 -80.381515502930 -276.009735107422 0.377313137054
-35.617313385010 -82.360504150391 -203.974685668945 3.139072179794
-160.309387207031 -66.344261169434 -200.289199829102 1.188549876213
15.494315147400 -65.446472167969 -181.027496337891 4.183817386627
99.575607299805 -73.104217529297 -202.537673950195 1.173840761185
-154.166061401367 -76.426902770996 -268.168670654297 2.794070243835
-151.672760009766 -81.130203247070 -299.921142578125 0.737546682358
-140.064437866211 -66.356544494629 -196.039443969727 2.556596040726
79.238998413086 -77.483985900879 -99.390419006348 3.378048896790
40.847820281982 -75.948867797852 -10.544231414795 4.129602909088
-137.279769897461 -65.054901123047 -229.782394409180 1.765423893929
-151.705780029297 -67.827018737793 -272.282073974609 3.770757436752
-22.002174377441 -65.407867431641 -190.005432128906 1.559852242470
-21.087198257446 -72.668457031250 -205.005462646484 1.672920465469
22.489976882935 -63.549583435059 -138.967803955078 1.598274946213
76.582382202148 -72.636726379395 -224.741394042969 1.376250028610
-103.017677307129 -62.653091430664 -175.774627685547 1.620057225227
-151.178527832031 -63.858356475830 -179.827835083008 1.887260079384
-51.238990783691 -73.013458251953 -128.964294433594 3.762755632401
0.573652029037 -75.747436523438 -292.783996582031 2.993357419968
-79.111145019531 -91.009567260742 -108.949279785156 7.518977642059
-114.925651550293 -63.028625488281 -258.557678222656 2.767364263535
-60.758636474609 -74.987060546875 -247.680221557617 1.829122304916
-153.460357666016 -79.531692504883 -291.751556396484 1.964831590652
-142.861404418945 -72.757873535156 -223.368621826172 1.033452272415
-63.954883575439 -82.030151367188 -62.287052154541 4.435855865479
39.141284942627 -71.498344421387 -125.042755126953 1.353907823563
78.459045410156 -81.979331970215 -91.194625854492 3.540873050690
-35.113422393799 -79.368347167969 -174.261306762695 0.810515820980
8.831584930420 -76.411247253418 -208.529968261719 1.784874081612
-110.702056884766 -73.121215820313 -258.670104980469 1.590310573578
-89.391876220703 -76.566619873047 -110.007354736328 1.986382246017
-96.325393676758 -68.538940429688 -80.411186218262 1.935640335083
-146.212524414063 -61.004486083984 -311.237640380859 6.576660633087
-68.371063232422 -75.051704406738 -150.440963745117 1.289908051491
28.199249267578 -60.204681396484 -139.283554077148 2.662889719009
19.886436462402 -68.661804199219 -276.983886718750 2.012919425964
-19.581787109375 -77.033439636230 -242.450775146484 0.362985402346
-157.756423950195 -71.881072998047 -291.672424316406 1.499452710152
-59.246551513672 -66.097549438477 -140.730499267578 2.903891324997
-80.881744384766 -63.947238922119 -126.175804138184 1.256126999855
-24.190544128418 -69.831840515137 -239.875152587891 3.145849943161
118.169609069824 -73.929985046387 -138.003723144531 2.933085918427
-39.803821563721 -73.580825805664 -52.604633331299 2.050431489944
65.626220703125 -72.107933044434 -71.715347290039 5.449546813965
56.715221405029 -71.884399414063 -27.262668609619 6.144184589386
-6.313494205475 -85.142845153809 -265.996765136719 2.544561147690
52.131099700928 -71.967750549316 -101.595848083496 2.377013683319
-65.639038085938 -77.861228942871 -100.290527343750 2.592262029648
16.681068420410 -81.592704772949 -225.187866210938 2.254070281982
-99.610321044922 -62.993053436279 -145.322952270508 3.133126974106
38.612388610840 -78.764358520508 -134.429000854492 2.297325134277
-22.702899932861 -66.187530517578 -65.765678405762 2.510315179825
35.026309967041 -77.458175659180 -113.867309570313 2.632875680923
-79.510475158691 -67.731224060059 -47.868022918701 2.673907756805
-145.567993164063 -81.456680297852 -237.557144165039 2.750089406967
93.976112365723 -74.475830078125 -209.646682739258 0.768122136593
-173.188110351563 -66.092590332031 -261.188232421875 5.957779407501
82.733078002930 -77.637992858887 -81.384063720703 1.582327961922
-148.279815673828 -83.204795837402 -258.632080078125 1.385026574135
-43.182876586914 -78.830574035645 -240.864624023438 1.611701607704
12.504090309143 -68.430458068848 -214.734024047852 0.383920133114
-144.584884643555 -77.938331604004 -187.598358154297 1.422785758972
-21.587610244751 -76.926010131836 -223.684448242188 1.844949483871
1.701305985451 -81.427558898926 -254.029342651367 1.810314536095
4.350143909454 -77.873565673828 -217.779922485352 4.136399745941
-4.097127914429 -80.749023437500 -270.741638183594 1.252162694931
-60.626152038574 -79.597381591797 -58.576385498047 2.459238052368
6.001965999603 -60.540271759033 -251.130050659180 3.419783353806
-149.352233886719 -73.736640930176 -279.500976562500 2.899634122849
9.490276336670 -73.679656982422 -159.268096923828 1.425553679466
-12.648824691772 -76.537147521973 -218.038803100586 1.371740460396
-37.133232116699 -81.502952575684 -161.985748291016 1.315123677254
82.795852661133 -73.238571166992 -220.639312744141 2.114248514175
25.433692932129 -80.829231262207 -173.148117065430 3.205846071243
51.809371948242 -68.426971435547 -240.303726196289 3.374397516251
-144.691543579102 -74.248718261719 -204.293289184570 2.995440006256
-74.679061889648 -92.637100219727 -94.575141906738 5.536844253540
-90.609771728516 -81.051055908203 -109.568534851074 2.688644647598
-104.667327880859 -69.295066833496 -225.946701049805 2.260457038879
-67.680412292480 -77.286048889160 -164.455841064453 1.529367327690
-149.219406127930 -76.155166625977 -250.923553466797 2.622189044952
21.743570327759 -79.355583190918 -254.010147094727 1.975863575935
-91.520469665527 -71.298538208008 -219.742095947266 2.086095571518
111.832847595215 -68.766487121582 -131.781906127930 0.827188909054
5.501171112061 -72.791763305664 -237.245605468750 2.950089693069
-148.021408081055 -62.661552429199 -301.398864746094 3.168350219727
-154.371795654297 -68.123474121094 -285.430786132813 1.600219011307
60.456600189209 -73.601295471191 -89.229293823242 1.537959098816
11.360522270203 -74.538490295410 -285.033660888672 2.165519714355
89.386940002441 -67.957473754883 -216.232147216797 1.462136149406
-43.459640502930 -87.442344665527 -82.260963439941 3.395166635513
-95.078521728516 -76.018608093262 -102.110191345215 4.235197544098
86.665199279785 -73.639663696289 -223.316467285156 0.820709407330
-66.770698547363 -87.104042053223 -79.737953186035 3.373652935028
-68.724876403809 -77.300437927246 -99.839523315430 2.234246492386
-58.960323333740 -74.487762451172 -139.975494384766 1.075637221336
76.286582946777 -68.704818725586 -229.514556884766 0.896166503429
-96.495285034180 -72.991600036621 -252.221618652344 1.668397068977
-14.539985656738 -75.031555175781 -213.551589965820 1.906751036644
56.103927612305 -76.907867431641 -102.848358154297 1.828961372375
21.255256652832 -84.152519226074 -179.921478271484 4.870331287384
-131.399871826172 -62.360363006592 -257.033935546875 3.025596141815
40.861652374268 -78.128417968750 -104.653465270996 2.474931001663
45.967063903809 -75.731452941895 -95.968963623047 2.956784963608
-122.167999267578 -66.165321350098 -294.112976074219 3.682109355927
-66.632553100586 -65.441612243652 -288.602478027344 5.089303970337
106.273666381836 -69.560295104980 -100.277351379395 0.667867839336
-105.597434997559 -73.410652160645 -220.966979980469 1.885104417801
-166.473602294922 -69.978866577148 -278.082214355469 2.472029685974
-37.926460266113 -72.126541137695 -154.720443725586 1.104433774948
-83.219841003418 -76.649742126465 -288.165588378906 3.019963502884
-79.757789611816 -59.717128753662 -116.666442871094 1.986483454704
-155.267669677734 -70.152046203613 -212.389343261719 3.334836959839
8.347995758057 -65.163352966309 -243.838272094727 2.218217611313
-147.413223266602 -65.992103576660 -221.186904907227 1.365522146225
-149.156875610352 -87.142478942871 -263.005126953125 1.081009507179
-148.131408691406 -64.290824890137 -285.706726074219 1.474647521973
-93.653182983398 -63.564594268799 -59.524578094482 3.217278718948
-165.364883422852 -69.807144165039 -257.022033691406 2.632769584656
-123.989700317383 -77.237022399902 -255.070800781250 2.873236179352
-116.759536743164 -65.612213134766 -231.264907836914 1.312608599663
-98.828735351563 -65.540275573730 -70.335754394531 3.339888334274
-140.403686523438 -74.265312194824 -278.077667236328 4.768137931824
-62.302967071533 -74.079132080078 -156.505493164063 2.333366870880
107.471672058105 -69.864707946777 -99.374862670898 1.698804497719
-16.469442367554 -71.663352966309 -262.725524902344 1.392489671707
-66.484771728516 -62.274566650391 -110.522125244141 1.852320432663
-56.476623535156 -85.981941223145 -80.577804565430 3.057535409927
23.924495697021 -81.517662048340 -137.856796264648 3.815393209457
-107.615036010742 -62.777278900146 -167.710861206055 1.356243014336
-65.190399169922 -63.638095855713 -121.332115173340 1.834670543671
-87.681991577148 -70.372146606445 -259.445465087891 2.830240249634
-149.058883666992 -71.978073120117 -207.715606689453 2.582455635071
-11.685622215271 -71.846954345703 -223.597869873047 1.864063858986
47.722587585449 -69.665390014648 -15.560014724731 1.603434443474
-10.202803611755 -81.471946716309 -173.556915283203 0.908852219582
-125.463012695313 -63.558250427246 -200.278930664063 1.826205730438
-1.003196001053 -79.734848022461 -233.460968017578 3.356808662415
-95.199562072754 -65.817955017090 -118.689193725586 1.676646113396
20.894458770752 -76.514785766602 -221.329116821289 2.447294235229
-161.786453247070 -71.044273376465 -218.133377075195 3.806422233582
-73.326904296875 -67.785919189453 -248.360733032227 2.522973775864
12.149948120117 -84.814964294434 -244.127685546875 2.225434541702
-85.275573730469 -64.865203857422 -131.607681274414 1.143914103508
-54.574253082275 -65.265068054199 -139.708969116211 1.456031799316
66.241722106934 -73.246009826660 -237.068801879883 1.108356833458
-164.563125610352 -70.839744567871 -236.867980957031 2.055736541748
-38.069564819336 -81.720375061035 -198.996536254883 0.992938995361
-72.602668762207 -84.596252441406 -210.163696289063 1.417674303055
-70.852203369141 -79.328666687012 -148.521530151367 3.621105194092
-18.801370620728 -76.625404357910 -198.620895385742 1.879555702209
8.726466178894 -78.299682617188 -216.712387084961 0.496492266655
105.526855468750 -72.260925292969 -110.205307006836 1.949194073677
-32.853763580322 -72.961380004883 -174.239135742188 2.041655063629
47.707386016846 -76.929222106934 -117.331550598145 1.920941472054
0.129868999124 -81.703216552734 -222.047622680664 2.187243938446
-166.267669677734 -68.887084960938 -240.409622192383 1.197661757469
29.900083541870 -59.985610961914 -44.147861480713 4.530432701111
-24.115476608276 -75.728187561035 -186.322418212891 1.364923238754
111.826065063477 -74.082778930664 -170.472305297852 1.956844568253
-13.280876159668 -81.787040710449 -201.756195068359 3.789852142334
62.346443176270 -66.950263977051 -243.273208618164 1.677975296974
83.608192443848 -70.198661804199 -221.232009887695 1.588445663452
-152.554901123047 -75.004470825195 -306.465148925781 2.310151338577
-134.298141479492 -69.347991943359 -224.613220214844 0.821983456612
49.147628784180 -61.938697814941 -94.389884948730 1.863952875137
-22.544471740723 -78.190155029297 -64.000068664551 2.808043003082
83.103988647461 -70.096702575684 -220.780990600586 1.754426479340
-62.636772155762 -75.407524108887 -248.086334228516 1.746238827705
-151.261337280273 -63.509639739990 -304.498504638672 3.534674882889
31.031162261963 -73.654060363770 -133.836608886719 1.778813242912
32.806823730469 -76.226600646973 -147.855651855469 1.464779496193
52.589389801025 -76.984413146973 -96.237464904785 1.470799446106
20.086988449097 -69.511360168457 -150.222564697266 2.415299892426
48.704658508301 -74.720016479492 -111.610694885254 1.774968981743
-41.068641662598 -80.661010742188 -56.781730651855 4.815257072449
30.770586013794 -81.704864501953 -149.418014526367 2.004218816757
-30.711641311646 -75.359863281250 -207.811340332031 1.417039871216
-145.134948730469 -54.629508972168 -203.039245605469 5.369119644165
-9.939994812012 -69.089088439941 -205.112426757813 2.697064638138
10.173037528992 -75.709815979004 -228.405746459961 2.644560575485
-85.214309692383 -73.958099365234 -219.988250732422 1.996342897415
-31.749862670898 -71.131813049316 -176.266311645508 1.920657992363
-79.836273193359 -86.056297302246 -93.207870483398 3.364739894867
-8.767391204834 -76.131530761719 -289.670654296875 1.581072092056
111.978851318359 -71.216697692871 -157.823913574219 0.972268819809
-101.331954956055 -72.497306823730 -284.787322998047 2.663445949554
-63.590957641602 -67.783714294434 -118.238288879395 1.641844630241
-158.416946411133 -74.021522521973 -199.857269287109 4.656831264496
86.116630554199 -76.083755493164 -90.909561157227 2.000667333603
-81.425811767578 -70.178527832031 -136.010238647461 3.010976314545
-6.865983963013 -76.584930419922 -213.740524291992 1.106511831284
-71.095672607422 -62.214122772217 -93.445121765137 2.730607509613
26.930818557739 -66.917984008789 -163.410583496094 0.914798676968
100.917091369629 -76.218109130859 -189.393096923828 1.431326985359
-22.019144058228 -69.975547790527 -191.567047119141 1.868407130241
-99.155509948730 -66.728630065918 -220.462127685547 2.381556272507
-149.298736572266 -65.247573852539 -261.358795166016 1.292469978333
-10.174463272095 -70.752738952637 -64.345581054688 2.971106290817
-157.272125244141 -58.350685119629 -258.344726562500 5.786985874176
70.138031005859 -67.434700012207 -232.531906127930 0.872721195221
-30.329395294189 -79.234886169434 -190.684982299805 1.259991407394
-32.172863006592 -80.066780090332 -184.284240722656 1.430781126022
-164.094345092773 -67.928024291992 -275.303863525391 2.489474058151
-60.712017059326 -84.478958129883 -65.899864196777 4.472394466400
43.107074737549 -74.527938842773 -117.638847351074 1.818080067635
41.981025695801 -70.869201660156 -36.687969207764 2.879458189011
-82.993537902832 -71.441154479980 -247.301940917969 2.272336483002
30.000608444214 -67.510200500488 -154.369125366211 1.866272330284
-39.256271362305 -79.104225158691 -81.942764282227 2.690587043762
100.219490051270 -75.807243347168 -99.188667297363 1.793462634087
-147.246383666992 -62.184940338135 -226.806243896484 0.507453918457
-44.303333282471 -70.805145263672 -169.601928710938 2.926467657089
-146.419631958008 -56.035682678223 -239.605484008789 6.064763069153
-39.685565948486 -76.581108093262 -168.749282836914 1.986728072166
-85.965400695801 -69.299560546875 -136.645751953125 2.626558542252
98.875366210938 -67.442367553711 -74.876930236816 3.227933645248
7.304512977600 -72.557304382324 -236.407546997070 2.114107847214
5.100787162781 -61.584293365479 -242.693908691406 1.336275935173
-26.699892044067 -80.074508666992 -179.657974243164 2.400376081467
-38.611457824707 -72.160377502441 -47.948101043701 1.597292184830
15.250238418579 -78.900878906250 -260.340942382813 3.811521291733
-91.399665832520 -64.665443420410 -146.452774047852 0.825428009033
-154.922119140625 -81.210899353027 -194.414199829102 4.217908382416
-81.281044006348 -69.996757507324 -130.669860839844 2.806067466736
27.343133926392 -77.072776794434 -152.204101562500 1.823086977005
30.977985382080 -70.281951904297 -154.838851928711 0.516315162182
-144.531753540039 -72.478340148926 -216.063674926758 1.924372792244
