-63.318183898926 -76.019912719727 -73.674072265625 5.565080165863
-48.352836608887 -67.017807006836 -155.745223999023 3.730486392975
-125.654403686523 -76.479957580566 -201.507766723633 3.131293773651
-14.351261138916 -76.202033996582 -226.375915527344 2.043543815613
-59.282016754150 -74.330787658691 -177.026458740234 1.518571972847
-46.004276275635 -78.578346252441 -164.028900146484 0.744578719139
-113.485137939453 -73.159568786621 -296.507232666016 3.703137159348
-102.798599243164 -72.474746704102 -290.348297119141 1.667310476303
-26.713542938232 -77.393707275391 -191.441894531250 2.103020906448
-1.641500949860 -67.449172973633 -279.365997314453 2.170351982117
-92.635673522949 -66.026557922363 -291.715454101563 3.658716201782
6.317261219025 -74.058769226074 -157.302032470703 1.759537100792
-114.364463806152 -75.743988037109 -297.059906005859 4.940476417542
-58.133945465088 -62.885494232178 -77.582466125488 3.798548698425
-79.277565002441 -66.008460998535 -137.508712768555 1.068305969238
41.399341583252 -64.508544921875 -110.931060791016 3.141210556030
-90.005722045898 -62.268268585205 -118.517341613770 1.238751292229
36.393909454346 -53.954292297363 -41.170532226563 0.594032227993
-94.661201477051 -71.155372619629 -120.217384338379 1.819052457809
-22.582096099854 -71.003288269043 -191.131835937500 2.442162752151
43.611915588379 -70.688400268555 -104.087455749512 0.900033414364
-60.892906188965 -65.842277526855 -129.695465087891 1.078127980232
-148.224914550781 -76.220893859863 -212.373992919922 0.570154845715
52.739151000977 -63.308120727539 -103.140258789063 3.117734909058
-152.025085449219 -81.333114624023 -250.737426757813 3.049931049347
29.552331924438 -74.494743347168 -157.895645141602 2.964496374130
-43.094043731689 -66.819717407227 -82.491401672363 1.920999169350
-150.321151733398 -80.049766540527 -239.666931152344 2.191189527512
48.777210235596 -58.955669403076 -21.455522537231 1.844395041466
-155.317260742188 -77.904640197754 -302.741058349609 2.477930307388
27.653690338135 -64.539840698242 -254.745864868164 2.941968441010
-130.660507202148 -72.735549926758 -288.950653076172 4.661275386810
-40.866371154785 -66.289779663086 -168.210510253906 3.508599519730
110.237892150879 -64.301231384277 -124.731040954590 4.456966876984
-45.220443725586 -79.343109130859 -63.629611968994 1.848127484322
-149.984985351563 -81.575210571289 -257.392150878906 1.632166266441
28.888563156128 -69.480453491211 -41.704833984375 2.155733585358
-148.802368164063 -76.795494079590 -225.950851440430 2.558066129684
27.747930526733 -74.463394165039 -160.611038208008 2.421700239182
-26.448659896851 -72.363700866699 -222.707229614258 3.103439331055
-21.725881576538 -76.946830749512 -239.826385498047 2.153870105743
-3.064325094223 -71.944458007813 -232.322631835938 2.124922037125
18.603200912476 -69.536087036133 -24.033620834351 2.282208442688
-135.862991333008 -75.903434753418 -236.297805786133 4.147927761078
19.453544616699 -59.920810699463 -29.895725250244 1.412075400352
-82.995025634766 -59.323348999023 -126.466911315918 3.900547742844
7.558744907379 -62.052391052246 -244.858978271484 0.835948228836
21.755224227905 -72.111282348633 -184.490692138672 2.360726118088
-80.087234497070 -61.671985626221 -124.221855163574 1.420401692390
44.473621368408 -74.951011657715 -113.410148620605 2.139085054398
-165.852508544922 -76.039115905762 -217.368270874023 3.659170389175
106.366134643555 -69.428062438965 -113.772186279297 0.947778642178
105.367202758789 -60.617927551270 -113.553977966309 6.356361389160
-13.513197898865 -80.245590209961 -212.644088745117 1.697377920151
-83.054336547852 -79.177742004395 -93.472602844238 4.324595928192
3.601808071136 -62.082180023193 -258.763427734375 2.676916122437
-148.508529663086 -71.797409057617 -202.885498046875 1.851739525795
-53.533721923828 -73.785514831543 -150.805252075195 1.013209223747
-25.562181472778 -78.631317138672 -189.825637817383 1.899136781693
-0.229903995991 -59.378982543945 -232.340087890625 5.110836029053
-32.169372558594 -75.519477844238 -192.172698974609 3.079366445541
-24.418588638306 -66.001205444336 -204.943527221680 3.835896015167
28.201620101929 -70.540428161621 -258.608337402344 2.342064619064
-144.509460449219 -79.991897583008 -248.257049560547 0.863871276379
-73.998023986816 -71.829147338867 -250.467987060547 2.094163417816
-26.179134368896 -76.189514160156 -182.501327514648 2.384022235870
-95.253692626953 -68.470230102539 -221.319030761719 2.424640178680
-145.285324096680 -79.935043334961 -286.092895507813 1.252206921577
61.512912750244 -61.967754364014 -97.908454895020 3.601916074753
-100.510047912598 -59.482414245605 -77.655258178711 2.595374822617
-148.939239501953 -76.439758300781 -259.042480468750 1.452641844749
50.315910339355 -67.719314575195 -100.557823181152 2.086341619492
-36.908004760742 -74.129257202148 -66.322471618652 4.804763793945
-142.284927368164 -66.602249145508 -179.972381591797 3.213093996048
52.994869232178 -64.574897766113 -101.654869079590 3.024414539337
100.219146728516 -68.457130432129 -201.675674438477 2.980313301086
106.682403564453 -66.359443664551 -173.601684570313 4.155860900879
-105.197486877441 -66.294807434082 -158.057205200195 2.390243291855
-78.247200012207 -71.496917724609 -140.396438598633 2.192545890808
-87.825302124023 -63.537799835205 -119.150939941406 2.626823186874
-98.710540771484 -72.732460021973 -155.754119873047 4.126614093781
34.121036529541 -68.004402160645 -37.640522003174 1.820703864098
19.361066818237 -65.521820068359 -196.516983032227 2.000630140305
105.902404785156 -65.649345397949 -155.952865600586 4.585402965546
-61.725791931152 -78.344215393066 -68.999382019043 2.652631282806
-122.549934387207 -70.226066589355 -201.566268920898 1.419653415680
27.486925125122 -65.595748901367 -165.366683959961 2.922813415527
-56.529197692871 -84.887313842773 -89.041397094727 3.025623321533
-34.703639984131 -79.705085754395 -244.127990722656 1.772334218025
-29.482513427734 -83.762519836426 -191.411392211914 0.955968141556
71.802070617676 -58.028930664063 -62.524715423584 2.136926412582
-86.346656799316 -81.355842590332 -98.550247192383 2.389319419861
-47.929729461670 -70.460876464844 -288.302886962891 3.876661539078
40.060848236084 -68.892944335938 -102.817237854004 2.651206254959
-80.422325134277 -58.583980560303 -108.858848571777 2.584961414337
-163.624191284180 -80.853729248047 -291.131652832031 5.399065494537
-7.439828872681 -74.069488525391 -212.588531494141 0.970484972000
24.177873611450 -63.793220520020 -18.362819671631 1.915010333061
-61.720680236816 -82.436943054199 -180.910598754883 5.466152667999
-75.601379394531 -77.775177001953 -212.310211181641 2.408644914627
14.771570205688 -79.252204895020 -248.661468505859 2.254036903381
-12.461563110352 -76.123710632324 -233.192947387695 2.437941551208
-145.426635742188 -76.137062072754 -301.963287353516 1.475927472115
-88.041152954102 -60.912082672119 -108.153205871582 5.643944740295
-19.042552947998 -73.893173217773 -227.891235351563 2.177672863007
26.582592010498 -73.007331848145 -151.716323852539 2.847718954086
44.086029052734 -73.098098754883 -133.685317993164 3.160464763641
29.281463623047 -64.389915466309 -14.717589378357 2.154014110565
-81.587486267090 -73.354614257813 -58.365741729736 2.373325824738
-151.005493164063 -67.269218444824 -287.101806640625 1.727416038513
-72.065803527832 -83.433105468750 -214.495025634766 3.423362255096
-17.052928924561 -68.380363464355 -232.182266235352 2.840452671051
-32.304817199707 -70.827713012695 -58.970081329346 3.197668552399
96.616638183594 -65.889099121094 -199.581481933594 4.881730556488
-151.916275024414 -70.134948730469 -271.642822265625 3.508631229401
-87.493743896484 -61.642955780029 -51.154102325439 2.830122470856
-80.577674865723 -79.035011291504 -215.140975952148 0.824105858803
-155.172500610352 -65.347541809082 -259.432281494141 1.016850829124
-40.745002746582 -72.348358154297 -170.655563354492 0.812165200710
15.074838638306 -81.189346313477 -272.682647705078 2.499879598618
-76.682167053223 -67.833175659180 -127.394981384277 1.107907056808
50.914497375488 -55.781757354736 -245.588455200195 8.754745483398
-47.732627868652 -80.854827880859 -157.915023803711 3.246977567673
-47.726791381836 -71.526924133301 -150.982269287109 2.447756290436
-10.395352363586 -74.670501708984 -253.366912841797 1.195543527603
56.900142669678 -68.735939025879 -243.053039550781 1.663769364357
20.406669616699 -73.865463256836 -210.893234252930 1.452884435654
-150.068298339844 -88.654418945313 -269.733978271484 4.060187339783
7.936569213867 -78.567825317383 -245.942550659180 0.804804980755
16.947984695435 -80.630538940430 -261.268524169922 1.871543526649
-31.958986282349 -67.328155517578 -177.308425903320 2.710438251495
3.398380994797 -68.170997619629 -145.919433593750 7.274585723877
-139.333328247070 -78.758987426758 -202.677505493164 2.748962879181
-41.349960327148 -78.907089233398 -205.161010742188 2.216825008392
-49.151584625244 -69.373580932617 -133.868835449219 1.678535342216
41.823123931885 -72.525672912598 -122.893424987793 1.865718483925
30.969215393066 -72.104721069336 -124.294090270996 1.047832965851
4.773115158081 -60.778038024902 -240.734573364258 1.946905970573
-52.284687042236 -78.901710510254 -241.419555664063 2.642934560776
-160.933395385742 -71.416671752930 -208.934036254883 4.330186367035
-12.588621139526 -77.745178222656 -175.737640380859 1.873141169548
107.674873352051 -73.049858093262 -180.311645507813 1.869235396385
102.690528869629 -68.916275024414 -174.779129028320 4.209758758545
-6.776367187500 -70.564613342285 -206.600814819336 2.257423639297
17.789781570435 -73.845855712891 -169.138626098633 1.518303275108
-46.564655303955 -76.118682861328 -59.887390136719 1.912465929985
103.349128723145 -68.045394897461 -174.608108520508 4.495526313782
-67.925415039063 -78.750633239746 -286.283660888672 1.923453927040
-126.749229431152 -77.192512512207 -287.887237548828 1.571119308472
-80.101257324219 -62.841209411621 -107.498779296875 1.479426264763
3.119050979614 -78.192077636719 -223.677947998047 2.626094818115
-107.013191223145 -64.931755065918 -80.882431030273 9.177863121033
-80.404953002930 -83.942146301270 -84.564865112305 3.391607284546
27.140069961548 -61.200805664063 -262.397094726563 2.194087982178
21.345993041992 -62.368278503418 -144.152420043945 1.864899635315
20.657434463501 -67.753028869629 -37.383163452148 2.953454017639
-157.834976196289 -75.933639526367 -262.719696044922 2.384682178497
68.245376586914 -63.624031066895 -76.370048522949 3.805515050888
-31.052192687988 -71.624427795410 -77.103530883789 3.001631736755
-20.963790893555 -81.055969238281 -191.162048339844 2.748124599457
39.654712677002 -79.091941833496 -123.386123657227 1.672937393188
-13.430790901184 -55.068664550781 -56.499591827393 3.920396327972
-53.379718780518 -76.230690002441 -87.980766296387 2.383046150208
26.905212402344 -63.672031402588 -265.642822265625 1.798828005791
21.094778060913 -69.032165527344 -152.700958251953 2.896318912506
24.297336578369 -69.965423583984 -138.673690795898 1.177398681641
-100.930145263672 -73.246253967285 -224.517990112305 0.893950045109
17.734611511230 -78.806098937988 -239.149246215820 1.402648448944
98.510459899902 -65.056739807129 -70.275756835938 2.037664890289
6.989923000336 -67.967552185059 -236.278045654297 1.909238457680
-7.344834804535 -63.191352844238 -212.834320068359 4.284902095795
99.265274047852 -65.946754455566 -198.925659179688 4.688961982727
-62.741607666016 -68.583457946777 -90.464927673340 2.142518281937
100.211273193359 -57.299781799316 -100.637405395508 2.356682062149
-157.693069458008 -74.480644226074 -232.069885253906 3.604946136475
15.901689529419 -68.825569152832 -26.385263442993 4.038168430328
12.017930984497 -63.835601806641 -286.985443115234 2.645300626755
-144.614685058594 -77.922050476074 -299.175872802734 2.662672042847
-142.669281005859 -76.368644714355 -229.287872314453 1.553831458092
-89.217720031738 -64.130607604980 -53.768638610840 1.857709288597
59.686859130859 -59.708614349365 -90.046836853027 1.638230443001
-110.776992797852 -76.943817138672 -289.821441650391 2.827146053314
-145.920639038086 -81.448036193848 -215.542572021484 0.937259912491
-72.175720214844 -82.759292602539 -212.220458984375 1.512093186378
22.066331863403 -72.578544616699 -140.497879028320 2.864624023438
33.735900878906 -64.720886230469 -22.315702438354 3.699418306351
-9.480233192444 -73.080421447754 -211.905822753906 1.315888524055
-31.259117126465 -80.145812988281 -181.972427368164 2.255271673203
-83.255622863770 -75.930694580078 -110.905494689941 2.127758741379
-159.213226318359 -72.936088562012 -289.384765625000 2.452919483185
-149.456008911133 -69.806564331055 -259.825469970703 1.761923074722
56.947166442871 -74.887359619141 -248.555267333984 3.659770011902
-40.364269256592 -74.088241577148 -246.888473510742 2.201186895370
-24.277875900269 -77.653228759766 -220.831741333008 1.702945470810
-58.663848876953 -76.200332641602 -143.138031005859 2.712590694427
-155.213699340820 -77.351615905762 -198.422683715820 1.249576807022
-148.947387695313 -72.940277099609 -298.270080566406 2.435944557190
-8.809961318970 -77.979469299316 -218.837341308594 2.526764869690
-50.016239166260 -81.479194641113 -203.561370849609 2.194109678268
-43.216670989990 -79.080726623535 -163.821502685547 1.337292671204
14.933240890503 -78.831481933594 -236.729141235352 1.760134220123
-153.595413208008 -68.123512268066 -219.797119140625 1.995875477791
34.372341156006 -77.137527465820 -134.590560913086 1.347689270973
60.431198120117 -68.804000854492 -239.210098266602 3.054898977280
-23.778940200806 -72.841156005859 -182.618804931641 1.568598866463
-166.412719726563 -76.911689758301 -243.585800170898 3.636673927307
8.177102088928 -72.332771301270 -243.558105468750 1.016249299049
-51.498073577881 -74.909393310547 -141.755172729492 2.677535057068
-155.558029174805 -73.443962097168 -179.820175170898 4.457979202271
-42.514324188232 -77.250495910645 -165.108413696289 1.874964594841
99.918457031250 -67.114967346191 -99.802749633789 1.668365597725
36.091892242432 -75.910964965820 -124.706665039063 0.995293378830
22.350238800049 -73.515907287598 -145.139343261719 1.939983248711
-36.342937469482 -68.742034912109 -178.884292602539 3.062974452972
59.501831054688 -65.805412292480 -233.681259155273 4.720016956329
64.949562072754 -72.527069091797 -76.621719360352 4.333086490631
-150.471954345703 -84.696228027344 -288.513702392578 1.832499742508
66.530029296875 -63.983005523682 -240.585708618164 3.448172807693
110.125511169434 -65.093795776367 -141.802368164063 5.429408550262
-52.332672119141 -78.053512573242 -197.080062866211 3.573651552200
60.217956542969 -71.425895690918 -242.123641967773 1.802134275436
24.015913009644 -57.694862365723 -14.814172744751 1.644870638847
-97.944007873535 -72.919128417969 -226.058563232422 3.393859624863
-61.844924926758 -60.802886962891 -138.298110961914 2.936090707779
-95.358505249023 -73.736877441406 -286.940399169922 2.800889015198
-61.292392730713 -81.773895263672 -77.814643859863 2.326541900635
-145.720657348633 -89.159606933594 -292.624481201172 1.889026522636
-62.919963836670 -76.961692810059 -56.052211761475 1.637524604797
25.413433074951 -70.775817871094 -182.499893188477 0.991574466228
-74.632408142090 -69.432098388672 -136.544662475586 1.636744260788
-56.433948516846 -80.730918884277 -207.195037841797 1.633929133415
16.157131195068 -65.917572021484 -240.298797607422 2.082806825638
-50.336303710938 -75.297714233398 -56.843666076660 1.928400397301
-65.121253967285 -80.326377868652 -86.441871643066 4.224333763123
45.774417877197 -62.911338806152 -26.637147903442 2.529933691025
6.968192100525 -73.532981872559 -210.286712646484 1.961582303047
-151.121994018555 -72.723754882813 -249.728637695313 3.143039703369
71.250335693359 -70.122291564941 -98.523185729980 1.577270507813
-151.202957153320 -85.272865295410 -191.351760864258 3.736120223999
-22.306581497192 -77.369804382324 -236.836303710938 2.766286611557
20.612821578979 -67.274200439453 -175.772323608398 2.099878311157
38.807044982910 -75.359420776367 -129.064422607422 1.553946733475
-104.013069152832 -71.252372741699 -293.832305908203 3.457004308701
2.114694118500 -75.585243225098 -241.648483276367 0.679672956467
-39.075645446777 -77.348831176758 -200.040649414063 1.325646162033
-81.590614318848 -58.821346282959 -125.950851440430 2.668337106705
-7.902318000793 -79.159774780273 -274.477966308594 2.216041564941
77.052780151367 -70.502464294434 -225.872375488281 0.958871245384
92.041572570801 -74.258209228516 -200.910858154297 2.820137739182
25.526666641235 -74.432670593262 -159.497940063477 2.420524358749
-35.362911224365 -82.358741760254 -196.971847534180 2.346458196640
-154.558395385742 -63.837837219238 -181.260284423828 3.489236116409
39.795543670654 -59.799186706543 -38.453269958496 3.130750179291
-150.921585083008 -74.597923278809 -192.497985839844 1.605295300484
42.904293060303 -59.355743408203 -33.701435089111 2.217885494232
4.923122882843 -84.364875793457 -264.717346191406 2.870813608170
-40.878311157227 -75.814659118652 -164.183532714844 2.551450252533
-67.202178955078 -81.622344970703 -210.802322387695 1.876638889313
20.999349594116 -69.173149108887 -19.826564788818 0.905964970589
-52.280506134033 -68.599334716797 -146.065902709961 1.956667542458
-38.812786102295 -75.726829528809 -208.066925048828 1.979977726936
-30.573158264160 -77.950645446777 -216.657516479492 0.390552610159
65.655944824219 -70.449470520020 -72.100616455078 4.265601158142
-151.624282836914 -75.437294006348 -272.309326171875 1.709859490395
57.608222961426 -62.591499328613 -86.466361999512 2.050746917725
-159.507263183594 -77.907135009766 -298.138336181641 5.960189819336
-47.769714355469 -68.170066833496 -55.729995727539 5.915029048920
-72.840438842773 -74.460647583008 -155.276992797852 2.701099872589
18.425628662109 -62.985610961914 -185.342407226563 4.771199703217
-55.659370422363 -62.473777770996 -143.852752685547 3.365799903870
-21.748981475830 -79.037597656250 -204.364593505859 1.614266276360
16.077398300171 -75.019638061523 -203.176635742188 2.567149877548
4.081967830658 -64.953285217285 -241.986938476563 3.306920528412
85.511825561523 -71.060859680176 -85.436164855957 6.261861324310
-36.261505126953 -74.538597106934 -286.780639648438 2.441359519958
-91.081008911133 -67.759956359863 -61.409084320068 1.834268450737
-151.453720092773 -70.123558044434 -248.160644531250 1.365289330482
-155.507553100586 -75.284805297852 -298.760803222656 2.846568822861
-128.222091674805 -76.400718688965 -256.106292724609 2.166236400604
25.157291412354 -64.269180297852 -35.891471862793 2.396963119507
-58.358631134033 -74.929496765137 -93.946701049805 4.306232452393
-57.699348449707 -62.794712066650 -78.840866088867 2.932261705399
15.256869316101 -81.950614929199 -191.710220336914 4.375170707703
-144.794799804688 -77.404853820801 -192.699493408203 2.271960496902
-79.227523803711 -80.715270996094 -82.207649230957 1.061040043831
74.889984130859 -72.841766357422 -232.859161376953 2.251877546310
-31.715080261230 -74.582267761230 -177.773269653320 2.434249401093
-96.484970092773 -61.087738037109 -82.428314208984 3.333374977112
-49.807964324951 -78.502311706543 -157.785171508789 1.648683309555
-153.804199218750 -84.074317932129 -196.395889282227 3.275373220444
-140.362136840820 -89.219001770020 -293.323120117188 4.503264904022
-151.583709716797 -85.252975463867 -236.436859130859 2.342574596405
-82.290359497070 -67.985893249512 -117.376762390137 2.547877788544
15.971509933472 -79.849563598633 -245.528320312500 2.454729557037
-46.525341033936 -79.284973144531 -161.159866333008 2.994263410568
45.714977264404 -58.325634002686 -93.551979064941 6.362094402313
20.654533386230 -66.958389282227 -183.136932373047 2.231642484665
-154.843688964844 -86.161430358887 -258.811553955078 3.134326457977
-0.369394987822 -67.263870239258 -265.876403808594 1.866548657417
-149.903274536133 -84.164520263672 -289.151092529297 1.287057161331
26.587804794312 -57.277294158936 -17.801263809204 3.238473176956
30.045021057129 -72.180633544922 -161.560379028320 1.802866816521
-48.418319702148 -72.849586486816 -149.871856689453 3.386975049973
84.050697326660 -62.778186798096 -57.316001892090 3.134466171265
-144.766448974609 -80.974182128906 -298.022338867188 2.696457147598
-148.950027465820 -76.774017333984 -262.502380371094 1.936833977699
-77.624099731445 -64.121887207031 -100.363975524902 2.517874240875
26.999668121338 -76.765625000000 -135.820663452148 2.416441917419
75.125816345215 -58.748405456543 -63.721675872803 3.709940195084
16.096544265747 -76.907272338867 -223.581954956055 0.892653346062
-33.500652313232 -75.669181823730 -171.337448120117 3.139525890350
-150.449432373047 -74.302444458008 -301.975494384766 3.708541393280
71.957061767578 -63.534004211426 -104.929573059082 0.876169562340
-145.762481689453 -84.119697570801 -296.017333984375 2.247273921967
-4.596746921539 -58.814266204834 -247.439636230469 3.824023246765
-43.543498992920 -77.804817199707 -155.169723510742 1.491213321686
-87.642463684082 -66.236122131348 -131.305709838867 1.173323035240
34.960887908936 -64.938095092773 -12.998250961304 3.251210451126
-132.433715820313 -72.678527832031 -296.788269042969 2.738986730576
30.437250137329 -67.228591918945 -18.015920639038 1.452640891075
21.771619796753 -60.198738098145 -23.093276977539 2.776217937469
-49.731472015381 -73.756988525391 -165.067245483398 3.079075574875
-81.728584289551 -57.443424224854 -111.050567626953 2.273129224777
-44.920906066895 -61.257164001465 -46.838161468506 2.750368118286
-26.175285339355 -80.217910766602 -211.408782958984 1.330850481987
-15.251840591431 -72.896652221680 -260.056884765625 2.632999420166
-68.464248657227 -55.542808532715 -45.093517303467 3.895564317703
-128.852310180664 -66.699905395508 -264.945251464844 2.549257755280
21.042118072510 -68.461578369141 -173.441162109375 1.680790066719
102.247367858887 -54.102405548096 -71.331451416016 1.542611956596
9.640463829041 -72.850570678711 -192.176544189453 2.531090497971
12.268362998962 -73.845878601074 -159.198272705078 1.227182269096
-100.655746459961 -71.400756835938 -66.972640991211 7.684356212616
-28.842916488647 -66.271659851074 -181.341415405273 2.030276060104
5.284636020660 -63.446689605713 -264.799041748047 2.684583187103
-62.069458007813 -65.658256530762 -41.192943572998 3.627319574356
15.712153434753 -73.211647033691 -190.826782226563 2.251584053040
109.825149536133 -68.371452331543 -140.110443115234 3.403927564621
-55.390125274658 -74.926399230957 -177.105255126953 1.577087044716
-139.719421386719 -81.339416503906 -263.677886962891 3.942332506180
89.497573852539 -70.305099487305 -211.488815307617 1.550692439079
38.585037231445 -70.722465515137 -256.384033203125 0.632649362087
-150.782684326172 -70.094902038574 -229.042907714844 2.773595094681
19.276964187622 -78.991249084473 -225.828308105469 1.215104579926
23.820890426636 -63.119098663330 -145.308441162109 2.702905178070
-6.879591941833 -73.216743469238 -210.182861328125 1.385110735893
54.783752441406 -52.089817047119 -82.856750488281 5.707743644714
29.424530029297 -69.979293823242 -158.415206909180 0.394012600183
-24.934938430786 -60.093696594238 -53.046829223633 3.571472406387
100.269538879395 -59.063331604004 -93.139610290527 4.072992801666
19.692037582397 -62.825210571289 -183.699401855469 4.938681602478
-86.792190551758 -75.663276672363 -72.873855590820 1.761604785919
26.088113784790 -75.294433593750 -185.534255981445 1.432111859322
-102.564933776855 -63.409984588623 -100.753036499023 4.597222805023
-19.100105285645 -64.404067993164 -203.884948730469 3.317434787750
-6.784182071686 -69.220695495605 -233.414245605469 1.673382878304
-56.046215057373 -57.369628906250 -46.239475250244 3.949038028717
-29.397287368774 -77.788764953613 -217.001022338867 0.838514804840
-162.309875488281 -71.221664428711 -234.788330078125 2.843263149261
-83.981338500977 -65.500205993652 -107.992233276367 2.038020849228
-147.300292968750 -70.007736206055 -299.232696533203 0.608289241791
2.383059978485 -79.064575195313 -246.572753906250 1.147858858109
-164.248321533203 -71.890602111816 -215.387847900391 2.372093200684
2.130743026733 -75.641921997070 -219.860443115234 3.779740333557
-14.777127265930 -70.157783508301 -202.888458251953 1.789173841476
-99.989852905273 -66.483367919922 -116.554931640625 2.985940456390
-35.514205932617 -78.184242248535 -244.483795166016 2.222799777985
-75.241500854492 -69.983024597168 -252.743148803711 0.729859948158
-77.981422424316 -79.390960693359 -67.438957214355 0.743455946445
-82.292381286621 -70.726448059082 -57.707820892334 3.225041389465
-20.049329757690 -80.583610534668 -194.996597290039 0.772529065609
-55.194313049316 -61.547153472900 -143.667724609375 3.836911916733
21.290239334106 -65.928123474121 -165.315231323242 3.407534837723
57.037834167480 -68.748397827148 -247.912963867188 2.210777282715
-49.756011962891 -74.574211120605 -158.162750244141 1.132455348969
-96.182151794434 -68.390182495117 -120.128646850586 2.099367141724
-7.125402927399 -72.986434936523 -235.107330322266 1.216152310371
-5.007926940918 -66.434547424316 -238.336517333984 1.747103214264
35.855617523193 -61.965370178223 -17.039682388306 3.261494398117
-120.390388488770 -65.690948486328 -291.727264404297 1.435199975967
-156.746292114258 -68.039558410645 -208.282867431641 2.987815380096
-12.218152999878 -62.077125549316 -62.920936584473 2.562491178513
90.951583862305 -68.120117187500 -208.062637329102 2.897620916367
-143.971389770508 -76.671562194824 -268.649230957031 3.499346733093
-150.288818359375 -76.521156311035 -211.569763183594 2.008440256119
-21.858495712280 -68.749023437500 -73.702499389648 0.897175371647
-161.261337280273 -79.180343627930 -223.083374023438 6.651601314545
7.640231132507 -70.316596984863 -220.438064575195 1.843262076378
-77.908012390137 -62.407482147217 -47.668582916260 1.666812777519
-18.532665252686 -78.650268554688 -181.206039428711 2.906696081161
-15.430399894714 -62.993053436279 -67.805999755859 2.437977313995
-26.713863372803 -69.689338684082 -217.115798950195 3.284619808197
12.164675712585 -71.094291687012 -240.243652343750 1.566610813141
-142.747726440430 -85.636657714844 -265.908142089844 4.422395706177
-101.314880371094 -65.403854370117 -174.594558715820 1.378424167633
-148.715148925781 -88.315490722656 -260.780059814453 3.005033731461
-144.304382324219 -79.322586059570 -264.259674072266 1.506314039230
41.745555877686 -68.166748046875 -24.558397293091 2.366113662720
-74.176322937012 -67.625282287598 -143.233627319336 1.100925087929
-77.021720886230 -75.951622009277 -99.389533996582 1.542267918587
-15.721559524536 -77.781127929688 -208.516662597656 1.647521853447
-70.371749877930 -86.613174438477 -97.523406982422 1.364512681961
-80.105712890625 -65.325859069824 -124.990150451660 1.678290843964
-55.578338623047 -70.099876403809 -87.840721130371 2.359096288681
40.404125213623 -67.145309448242 -125.846542358398 4.194362163544
-86.103584289551 -67.700958251953 -131.231750488281 0.935085713863
-100.161407470703 -66.294357299805 -153.272216796875 1.629201054573
-151.239074707031 -81.850646972656 -184.076919555664 3.609922170639
-85.876205444336 -80.430618286133 -86.163314819336 2.384354352951
94.819259643555 -68.083976745605 -85.462692260742 5.340976238251
-26.347536087036 -67.519012451172 -52.970691680908 4.034938335419
89.042198181152 -57.296691894531 -59.255718231201 2.901147365570
9.756937026978 -77.609626770020 -206.365142822266 0.952122747898
-145.044891357422 -72.754234313965 -302.261932373047 1.682230830193
107.876281738281 -68.869071960449 -183.652999877930 1.043644428253
13.066409111023 -75.013473510742 -184.021621704102 1.497110486031
22.468326568604 -67.843833923340 -163.740463256836 2.588296175003
-18.992639541626 -72.249671936035 -262.368438720703 3.711509227753
31.383365631104 -59.677253723145 -258.478485107422 3.311478376389
-62.706562042236 -80.933403015137 -94.565650939941 2.290256261826
-13.957244873047 -63.895378112793 -246.175201416016 3.905516386032
-60.845912933350 -63.971862792969 -117.690681457520 0.634694397449
101.258758544922 -60.948078155518 -190.084289550781 9.336550712585
-168.501373291016 -71.796211242676 -255.949707031250 2.374924182892
-70.215354919434 -85.183219909668 -91.078353881836 2.834362268448
-26.605007171631 -66.921760559082 -186.824859619141 1.586195468903
-1.654346942902 -73.192832946777 -223.772735595703 2.571629524231
-80.607192993164 -84.469932556152 -104.105140686035 0.645629525185
-154.617401123047 -74.446189880371 -306.400146484375 1.953908205032
-141.610473632813 -73.280853271484 -241.726074218750 2.455363273621
9.962410926819 -67.428489685059 -219.190979003906 2.876162052155
69.970680236816 -65.538566589355 -89.636947631836 3.930106401443
-55.531921386719 -77.316162109375 -289.735595703125 1.574478030205
21.078102111816 -67.163185119629 -181.747238159180 2.292788505554
17.240873336792 -73.354034423828 -217.198043823242 1.780663728714
-69.507102966309 -74.640068054199 -98.686164855957 3.824823379517
-72.515579223633 -65.791740417480 -102.877403259277 1.740600228310
-148.764541625977 -83.417366027832 -240.363067626953 1.710374712944
17.761758804321 -68.556365966797 -196.291122436523 1.810291886330
-72.506393432617 -79.645118713379 -98.951881408691 3.003857374191
-10.145977020264 -84.229545593262 -216.655197143555 3.671989202499
-153.758178710938 -60.062152862549 -225.461639404297 1.937278628349
48.356922149658 -56.138965606689 -92.242240905762 6.949821949005
-149.722793579102 -75.343254089355 -204.619049072266 1.838337898254
23.781188964844 -71.247261047363 -254.173446655273 0.947138726711
-149.375030517578 -76.469497680664 -241.284713745117 1.763456583023
-77.253791809082 -79.075538635254 -84.504867553711 4.278201103210
110.287979125977 -64.561630249023 -142.692657470703 5.496593952179
14.361473083496 -71.661918640137 -238.112503051758 1.009215474129
42.181201934814 -73.747642517090 -115.069694519043 2.205728054047
33.056087493896 -65.218605041504 -144.854934692383 3.795421838760
13.960201263428 -73.594947814941 -176.721755981445 3.066563606262
-55.854457855225 -79.434730529785 -81.658866882324 5.170112609863
43.637809753418 -71.665191650391 -119.899131774902 2.462747335434
-57.863323211670 -59.401962280273 -83.694107055664 2.496601343155
43.359775543213 -67.437103271484 -99.882698059082 1.133812904358
-154.199844360352 -65.680244445801 -248.887329101563 3.986826658249
-77.953102111816 -86.508438110352 -95.887313842773 2.693498373032
-15.283839225769 -58.765953063965 -52.723930358887 1.274217963219
-41.842975616455 -76.542411804199 -172.415557861328 1.699908018112
38.909160614014 -72.582893371582 -119.487770080566 2.227686166763
-132.360626220703 -74.654067993164 -203.871856689453 2.017561435699
103.835502624512 -68.241950988770 -178.880401611328 2.747519969940
-88.767074584961 -67.222915649414 -133.143920898438 2.924401283264
-154.449630737305 -74.288475036621 -304.082031250000 2.174336194992
11.593495368958 -79.946846008301 -223.420074462891 2.956054925919
-93.495498657227 -68.193397521973 -138.103103637695 0.847808659077
-47.682559967041 -70.028839111328 -132.218627929688 0.704490065575
-123.933456420898 -70.938568115234 -203.219528198242 0.447287231684
-157.809906005859 -80.900779724121 -272.968811035156 4.554008483887
32.796497344971 -66.222747802734 -260.617858886719 1.037746667862
20.663022994995 -74.166152954102 -185.620727539063 2.491242885590
-153.768417358398 -73.151847839355 -279.154571533203 2.680800437927
-29.648597717285 -63.806766510010 -48.399196624756 2.130716323853
-9.068420410156 -67.638481140137 -222.616210937500 2.176192760468
13.915465354919 -75.763481140137 -216.103683471680 2.778924942017
-110.678039550781 -69.384017944336 -176.778594970703 3.169441938400
-143.388732910156 -72.478294372559 -193.887145996094 1.524820566177
-154.696731567383 -70.302093505859 -289.411499023438 1.364178180695
-11.644465446472 -64.780189514160 -234.227691650391 3.232342481613
-67.665145874023 -58.094562530518 -41.631046295166 3.046115636826
-156.137939453125 -87.661476135254 -286.704315185547 4.423317909241
-14.335016250610 -74.008049011230 -178.976181030273 3.828179836273
6.706809997559 -66.279098510742 -158.529800415039 3.644695043564
-147.517349243164 -73.416770935059 -242.310852050781 1.917997717857
59.476036071777 -71.821846008301 -245.741928100586 1.967346906662
-45.588397979736 -77.986793518066 -155.829528808594 2.098106384277
-65.006217956543 -79.695487976074 -163.564956665039 2.155046224594
-156.601974487305 -67.949119567871 -204.535568237305 2.688688755035
-46.549793243408 -75.910537719727 -197.180862426758 1.833454132080
33.537567138672 -59.030025482178 -35.004570007324 1.327023148537
8.148979187012 -84.452232360840 -269.205322265625 2.745865821838
111.734802246094 -74.256446838379 -151.745254516602 0.497028678656
52.582077026367 -69.753105163574 -86.965148925781 1.076942443848
-147.918731689453 -71.750633239746 -239.411254882813 3.864289999008
6.992683887482 -73.502182006836 -211.278717041016 1.444133996964
-142.498382568359 -79.249710083008 -194.336837768555 1.013438344002
10.377800941467 -69.743125915527 -289.918884277344 2.780347824097
7.050570011139 -60.464927673340 -271.484069824219 1.242143869400
-54.888507843018 -83.149925231934 -79.799369812012 1.655377745628
-40.451892852783 -75.013801574707 -245.459548950195 0.895036399364
80.518203735352 -66.114547729492 -229.564071655273 3.811720132828
-164.926071166992 -78.190505981445 -270.241088867188 2.749990701675
-85.221946716309 -70.045402526855 -103.436798095703 2.854725360870
21.927520751953 -54.907749176025 -27.210174560547 3.096383094788
-151.119430541992 -65.053054809570 -293.000000000000 0.768854618073
-57.817756652832 -75.945663452148 -146.473037719727 2.357634067535
-77.083618164063 -73.555572509766 -103.404266357422 3.320351123810
89.452835083008 -63.686588287354 -206.023727416992 7.979382514954
-66.195007324219 -57.246440887451 -110.429786682129 2.766833543777
-77.405326843262 -68.320465087891 -50.508358001709 2.878012180328
2.535969018936 -71.048957824707 -158.775054931641 2.421112060547
70.647651672363 -69.411781311035 -97.898208618164 1.319606065750
-156.475006103516 -72.107658386230 -218.174118041992 1.675637841225
-144.136688232422 -71.444541931152 -237.660552978516 2.444889783859
-91.889358520508 -80.851661682129 -103.872718811035 4.932621479034
5.515227794647 -74.690361022949 -193.531616210938 4.773936271667
-98.180381774902 -65.830963134766 -158.775390625000 1.460395812988
-102.528480529785 -68.576972961426 -110.730255126953 5.526505947113
42.941108703613 -67.582496643066 -100.053550720215 1.585290312767
54.662837982178 -63.987266540527 -84.831832885742 2.540075778961
79.076927185059 -68.154861450195 -78.344596862793 7.139129161835
83.980606079102 -73.178779602051 -217.836791992188 2.582316875458
-38.144039154053 -75.301635742188 -244.284423828125 1.766245007515
-5.232926845551 -76.351448059082 -274.807495117188 3.119078159332
43.679500579834 -64.519577026367 -36.580997467041 3.300112962723
-24.837499618530 -56.165294647217 -48.445026397705 1.688567996025
-45.634620666504 -69.805915832520 -170.125549316406 4.540221214294
40.665279388428 -68.790901184082 -116.990188598633 2.317965507507
18.752065658569 -60.165287017822 -33.883987426758 2.402635335922
-146.218048095703 -83.857215881348 -306.739410400391 3.593557596207
-37.497085571289 -77.956420898438 -167.068267822266 1.410323858261
-144.289947509766 -71.370635986328 -255.126388549805 1.810904622078
-48.119327545166 -71.928680419922 -198.732162475586 5.108001232147
68.620574951172 -67.218070983887 -103.886428833008 2.224513769150
0.423119992018 -74.355651855469 -242.106948852539 2.180475950241
-27.370218276978 -76.939666748047 -290.695587158203 1.330004811287
-9.016437530518 -78.253623962402 -265.043914794922 2.323538780212
-77.197021484375 -78.120422363281 -156.589691162109 6.838437080383
-128.461639404297 -78.118675231934 -268.505645751953 6.825941085815
38.725208282471 -54.726016998291 -20.735496520996 3.105124235153
-52.252681732178 -82.012786865234 -77.884666442871 1.278623938560
83.982681274414 -67.554077148438 -221.266082763672 1.961110591888
-31.593709945679 -70.756423950195 -287.036468505859 2.130017518997
-108.812461853027 -75.523666381836 -230.541717529297 4.221677303314
75.767417907715 -64.370452880859 -62.505165100098 0.770042538643
-30.694055557251 -74.483955383301 -290.996856689453 2.900705575943
-3.746229887009 -75.514808654785 -287.728210449219 1.873031139374
-48.665187835693 -75.530601501465 -167.058456420898 3.448571443558
-145.757308959961 -82.673820495605 -311.220458984375 4.144379615784
-129.235458374023 -63.340465545654 -230.304687500000 2.477062940598
-70.296585083008 -81.819396972656 -74.338142395020 1.876064896584
-86.337127685547 -64.982360839844 -132.154632568359 1.852439403534
-55.823017120361 -61.833408355713 -139.272659301758 1.181523442268
-63.149448394775 -63.412174224854 -136.285125732422 1.575493693352
-8.772278785706 -58.470607757568 -250.232894897461 5.671688079834
8.840165138245 -77.249000549316 -210.564620971680 0.816109657288
56.958583831787 -55.994052886963 -88.664085388184 2.087178945541
23.790546417236 -77.410896301270 -154.767974853516 0.783860087395
19.327238082886 -77.991691589355 -171.198440551758 1.504173278809
-59.575088500977 -73.943466186523 -293.142211914063 3.812786817551
-139.029327392578 -83.274932861328 -232.933425903320 3.127419471741
25.387428283691 -74.757431030273 -131.247238159180 3.648879289627
-36.139640808105 -78.867050170898 -168.013534545898 1.773110508919
-157.892074584961 -66.413146972656 -230.827224731445 1.791955351830
-67.798789978027 -78.244750976563 -212.133270263672 1.719270825386
-57.517013549805 -68.043144226074 -288.077941894531 2.593100547791
-72.287361145020 -72.083045959473 -146.971725463867 0.828670144081
18.256832122803 -69.465675354004 -169.593978881836 1.769233465195
13.162059783936 -69.144218444824 -150.132019042969 1.701825618744
-24.921485900879 -69.023368835449 -218.448257446289 3.442690610886
23.852151870728 -77.306121826172 -145.248550415039 1.846767902374
-51.892250061035 -59.580310821533 -45.950187683105 2.224442243576
52.237506866455 -65.261924743652 -85.937049865723 2.462356805801
-43.090904235840 -65.368278503418 -48.201789855957 0.694968521595
-141.681365966797 -83.058929443359 -197.955856323242 0.701509594917
27.787752151489 -58.511913299561 -11.595255851746 3.165098428726
-6.263476848602 -63.882656097412 -238.315841674805 1.264560461044
-85.916282653809 -80.109992980957 -110.102745056152 2.167822837830
41.323642730713 -73.433120727539 -103.801841735840 1.197149634361
-19.686767578125 -68.877738952637 -71.948081970215 2.318099737167
-110.562126159668 -72.886505126953 -290.703002929688 2.316956520081
23.377992630005 -68.145851135254 -162.600814819336 1.378510117531
14.896164894104 -75.781593322754 -191.057861328125 1.152523517609
-87.220130920410 -79.635314941406 -221.238418579102 4.416292190552
-65.578895568848 -76.792381286621 -66.115943908691 3.091816663742
37.912475585938 -62.142959594727 -113.347900390625 4.701514244080
-103.331031799316 -69.304397583008 -169.636230468750 0.792111098766
93.854415893555 -66.659973144531 -197.756698608398 5.804841041565
-151.102416992188 -79.721916198730 -222.789916992188 2.435094594955
-20.763078689575 -78.243370056152 -216.963256835938 1.622524619102
-154.363174438477 -83.922843933105 -198.385833740234 3.129618883133
-96.474159240723 -66.444023132324 -142.473358154297 1.201377034187
49.268226623535 -61.474994659424 -245.582855224609 4.640822887421
-46.614265441895 -71.198638916016 -157.727172851563 1.649244189262
94.373794555664 -62.016273498535 -70.126197814941 5.649718761444
-18.094390869141 -68.546775817871 -201.019622802734 1.924784302711
29.543994903564 -66.347892761230 -131.312942504883 3.457310676575
50.587009429932 -73.053230285645 -244.301177978516 1.913950324059
-61.668682098389 -70.951057434082 -163.473083496094 0.965752303600
45.987434387207 -59.254943847656 -31.440690994263 2.457175254822
110.419570922852 -65.553619384766 -126.091209411621 4.095118045807
-24.521503448486 -61.296203613281 -60.910736083984 4.112939357758
-102.518173217773 -68.304588317871 -78.934211730957 6.566249370575
-50.878871917725 -77.330192565918 -247.366882324219 1.622157335281
113.696983337402 -68.059638977051 -142.458938598633 1.313217520714
-71.655647277832 -74.036926269531 -212.688369750977 3.565115690231
-81.975669860840 -77.788528442383 -85.598533630371 3.386938333511
48.721538543701 -60.099224090576 -22.095956802368 0.966613829136
-134.109237670898 -72.089576721191 -236.652618408203 2.845823526382
-64.792671203613 -63.326686859131 -128.636062622070 2.241503000259
-147.644515991211 -73.689781188965 -275.967956542969 3.203285694122
92.263702392578 -60.146553039551 -108.240715026855 2.515776395798
14.614897727966 -69.261711120605 -183.386245727539 1.698076486588
-154.653274536133 -78.746673583984 -240.156967163086 5.171335220337
-147.432556152344 -84.409576416016 -190.685241699219 2.604493379593
4.303247928619 -72.310546875000 -226.809570312500 1.317804574966
-116.778457641602 -69.710205078125 -259.425994873047 2.456609487534
107.746849060059 -70.001510620117 -142.866195678711 2.097198486328
-90.321739196777 -71.574806213379 -61.622150421143 2.093234062195
-165.403503417969 -70.227432250977 -250.637359619141 1.742440462112
-59.631587982178 -81.358390808105 -184.087799072266 4.491149425507
-104.502342224121 -64.622329711914 -158.789520263672 1.436093688011
-119.426162719727 -66.961151123047 -234.095993041992 2.670271635056
62.472183227539 -68.549774169922 -92.459564208984 1.809674978256
-113.314880371094 -69.374961853027 -194.510803222656 2.368792772293
-102.591545104980 -66.333442687988 -120.401023864746 5.031861782074
-166.636093139648 -77.473442077637 -276.235412597656 3.455735445023
-5.196324825287 -81.694084167480 -233.002365112305 2.719974040985
21.918228149414 -70.487312316895 -279.642059326172 2.629355907440
-43.951667785645 -68.796012878418 -164.916061401367 3.672088384628
-39.987586975098 -76.581413269043 -83.415443420410 1.770236968994
52.574241638184 -55.850486755371 -90.475646972656 3.773377180099
103.970603942871 -64.485977172852 -195.853271484375 7.702394485474
99.023239135742 -64.004722595215 -94.869720458984 3.735901117325
-65.003562927246 -60.000183105469 -121.417701721191 1.244752526283
111.009803771973 -66.483535766602 -130.781433105469 2.207312822342
-48.367435455322 -75.657569885254 -190.944686889648 0.814725816250
-96.017265319824 -65.012954711914 -62.759071350098 2.715216875076
-31.048763275146 -72.176391601563 -63.196880340576 4.768571853638
-36.043060302734 -73.299026489258 -56.873943328857 1.880198121071
-128.241836547852 -77.176460266113 -233.279464721680 3.316453695297
47.869808197021 -64.807067871094 -255.741760253906 3.586279153824
0.061829000711 -68.426200866699 -226.636779785156 0.969662785530
-151.234359741211 -80.615829467773 -240.585815429688 2.488714694977
-46.650581359863 -81.172485351563 -186.174011230469 1.569465398788
22.978517532349 -75.943107604980 -183.669601440430 1.924570441246
19.483411788940 -66.386482238770 -153.004989624023 1.152781844139
-33.944091796875 -73.862396240234 -244.396621704102 2.563981294632
67.702415466309 -61.649620056152 -97.980857849121 3.580976724625
-149.697280883789 -68.316253662109 -253.487289428711 1.859568953514
-143.994918823242 -68.980407714844 -288.092132568359 2.246842622757
42.537902832031 -57.790519714355 -115.099266052246 0.929372489452
-105.008171081543 -65.568237304688 -91.301437377930 7.022308826447
42.888442993164 -64.996124267578 -27.561653137207 2.276543855667
51.125011444092 -67.547966003418 -110.460289001465 1.487861514091
27.568925857544 -70.540435791016 -124.219490051270 2.953581333160
108.535606384277 -60.535034179688 -129.055557250977 7.079879760742
-164.255294799805 -69.343780517578 -210.256195068359 1.763737559319
-18.929027557373 -72.483039855957 -203.088531494141 2.214059591293
-6.681345939636 -65.434417724609 -225.009552001953 2.624821424484
-48.614601135254 -58.195560455322 -48.679458618164 4.509038448334
-35.051498413086 -74.406745910645 -187.194869995117 2.307032823563
17.888496398926 -68.066474914551 -239.030471801758 3.236924886703
21.502115249634 -68.847503662109 -245.466278076172 2.104070901871
108.113029479980 -64.706138610840 -112.112770080566 2.500269174576
38.831390380859 -72.936546325684 -95.857070922852 6.202867507935
60.140468597412 -67.395935058594 -93.305679321289 2.341310501099
5.836493015289 -69.345558166504 -210.340316772461 3.714422702789
38.696823120117 -65.620315551758 -17.986318588257 1.322002768517
-132.435791015625 -73.931457519531 -205.873001098633 3.298009872437
20.464986801147 -65.827568054199 -153.194961547852 1.257688879967
91.935432434082 -72.004722595215 -90.606475830078 4.548345565796
-81.496879577637 -84.927398681641 -107.186447143555 1.982107043266
2.106193065643 -81.718704223633 -250.020614624023 1.523812890053
-150.736175537109 -79.217399597168 -194.766021728516 1.237978935242
-142.095825195313 -84.908500671387 -262.437713623047 2.858166933060
115.066825866699 -69.200958251953 -169.602828979492 2.355067968369
-35.790760040283 -72.767753601074 -292.601318359375 2.665873527527
-160.676681518555 -76.459236145020 -295.209808349609 4.891672611237
-147.320190429688 -71.114448547363 -300.517456054688 1.981744050980
15.347678184509 -73.806884765625 -241.791641235352 2.737558841705
-15.855486869812 -68.981849670410 -203.247039794922 1.614144444466
-75.721191406250 -79.166709899902 -215.401992797852 2.366343736649
-15.598591804504 -68.177024841309 -263.628387451172 2.770272731781
-33.559478759766 -78.922035217285 -73.465843200684 3.180564880371
-150.432525634766 -72.003257751465 -228.194503784180 0.771332502365
-21.122659683228 -68.055290222168 -196.051712036133 1.481890797615
-148.086715698242 -79.761245727539 -217.905303955078 1.948608636856
82.796035766602 -67.118896484375 -79.395751953125 7.787278652191
-73.299018859863 -73.009483337402 -140.974441528320 0.487771332264
-154.195510864258 -83.145324707031 -257.374511718750 1.998603224754
-142.628799438477 -72.852218627930 -229.388458251953 1.850982546806
-151.179290771484 -64.833801269531 -212.003234863281 1.832336068153
-24.881244659424 -75.169303894043 -179.002502441406 1.910968899727
91.028434753418 -66.372116088867 -222.530776977539 5.538728713989
-132.356307983398 -63.905975341797 -205.947662353516 1.744192004204
-5.832591056824 -72.766059875488 -242.916549682617 1.734592437744
-141.985305786133 -70.864524841309 -201.751312255859 2.004369020462
-150.065673828125 -78.850288391113 -205.763351440430 1.492758154869
92.820724487305 -63.235275268555 -213.432403564453 5.626111507416
103.305793762207 -64.600372314453 -99.356536865234 1.997598171234
-15.805491447449 -69.368179321289 -219.098663330078 2.448128461838
-42.224334716797 -68.440803527832 -285.326843261719 3.234932661057
101.970397949219 -65.532203674316 -189.660003662109 4.885249614716
-84.189010620117 -64.793556213379 -139.479827880859 2.908161401749
13.108485221863 -71.208099365234 -197.067687988281 1.462559938431
-151.934295654297 -74.354621887207 -180.926498413086 2.144079685211
78.260589599609 -58.968696594238 -61.170047760010 3.237598896027
-24.041385650635 -74.258132934570 -214.736511230469 2.567114114761
-88.093925476074 -78.632110595703 -118.268806457520 3.501163244247
-27.191486358643 -67.350952148438 -172.567245483398 4.028636455536
-61.842266082764 -64.896774291992 -128.007049560547 1.416072964668
10.442094802856 -62.602325439453 -155.581314086914 5.182304859161
-62.457904815674 -78.273368835449 -174.099441528320 1.500471949577
16.957756042480 -72.028060913086 -290.340332031250 1.978220701218
-152.478820800781 -85.203079223633 -203.863189697266 3.619329214096
-104.099174499512 -66.473953247070 -227.464874267578 2.944494962692
-150.257614135742 -64.051376342773 -183.702011108398 1.857361674309
91.021835327148 -62.325546264648 -68.231796264648 5.908980846405
