-27.321844100952 -78.688682556152 -213.793045043945 1.141175150871
-153.925781250000 -75.278099060059 -306.554290771484 1.234292387962
-151.259201049805 -61.204719543457 -258.459655761719 2.011517524719
-41.244239807129 -81.495178222656 -84.866241455078 2.020627975464
74.405845642090 -78.105651855469 -84.650245666504 3.297097921371
21.136171340942 -68.035896301270 -143.738769531250 0.759710490704
47.135765075684 -70.057334899902 -111.710220336914 2.022281408310
34.408382415771 -72.287902832031 -143.600997924805 1.868472814560
35.697414398193 -72.226768493652 -118.839683532715 2.214883804321
7.334906101227 -75.522521972656 -292.301910400391 1.217136383057
-19.143154144287 -74.290138244629 -240.540008544922 1.634889245033
29.668560028076 -60.656547546387 -11.464034080505 4.626345634460
-153.939178466797 -76.025238037109 -227.200942993164 3.092756748199
-73.304283142090 -75.156433105469 -53.812263488770 3.498711347580
-161.260101318359 -66.617668151855 -201.120178222656 1.859742641449
-2.772586107254 -74.378158569336 -167.160827636719 1.791104197502
-13.579344749451 -67.486595153809 -207.643249511719 1.631982803345
17.724451065063 -77.863388061523 -221.768463134766 0.944198787212
109.853263854980 -75.692367553711 -118.792610168457 0.628328323364
-19.019081115723 -74.521636962891 -224.583679199219 2.099910497665
-5.716468811035 -65.201652526855 -225.767837524414 2.138710498810
110.042739868164 -73.501350402832 -180.609008789063 2.060384988785
82.419776916504 -69.952552795410 -67.158668518066 2.608277797699
-31.616149902344 -78.928016662598 -181.968017578125 1.673019528389
16.771331787109 -68.216674804688 -241.477645874023 3.123342514038
77.572586059570 -69.690391540527 -64.964370727539 2.534991979599
-86.353073120117 -57.438308715820 -119.125061035156 0.953484535217
53.984840393066 -68.822761535645 -246.054458618164 0.398632228374
-35.504463195801 -77.195877075195 -213.967559814453 3.505118131638
44.438106536865 -73.982971191406 -112.338699340820 2.912008047104
1.418210029602 -68.039215087891 -241.793334960938 0.703126430511
-151.175888061523 -64.800308227539 -217.972961425781 3.796202659607
-46.758121490479 -62.659309387207 -80.667137145996 1.403521895409
112.682014465332 -80.253433227539 -162.265289306641 3.496099948883
111.753616333008 -75.920021057129 -111.338188171387 3.162431240082
-40.929683685303 -62.128765106201 -78.320426940918 1.248926281929
-65.784461975098 -65.902427673340 -96.059928894043 1.289344072342
-74.153808593750 -69.516609191895 -253.164901733398 1.656368851662
32.924991607666 -67.132812500000 -265.470947265625 4.060907840729
-135.370300292969 -65.552093505859 -254.429382324219 2.516201972961
81.844329833984 -79.893516540527 -84.760406494141 2.641770124435
-155.026062011719 -55.282764434814 -291.373382568359 7.863323211670
-0.106792002916 -61.302974700928 -251.394042968750 1.408348321915
7.552081108093 -63.398452758789 -272.741363525391 3.123053312302
-53.103385925293 -80.388786315918 -65.895080566406 1.443905591965
-21.718729019165 -60.721527099609 -48.018108367920 3.831578969955
-14.009007453918 -76.765571594238 -224.086166381836 1.730173468590
79.004623413086 -75.668876647949 -228.049530029297 1.159474849701
-7.757499217987 -75.041900634766 -222.021926879883 2.503195047379
52.906188964844 -73.171455383301 -26.781372070313 3.122627973557
-51.777214050293 -84.797851562500 -82.652290344238 1.620938181877
-8.689867973328 -78.664024353027 -282.807312011719 5.411870479584
24.173768997192 -70.709526062012 -180.902847290039 1.423004388809
-158.180358886719 -67.747062683105 -289.479370117188 2.735751152039
47.250469207764 -73.947608947754 -91.208145141602 2.879619121552
-24.506483078003 -79.816390991211 -195.236404418945 0.691523671150
-151.663650512695 -77.172485351563 -196.466964721680 1.595964550972
-147.855850219727 -67.504539489746 -284.414886474609 2.263663530350
-23.736907958984 -71.242889404297 -206.887954711914 3.260730266571
114.011802673340 -71.872200012207 -114.610534667969 2.067480325699
-139.967208862305 -63.008998870850 -186.221481323242 4.017567157745
-91.896728515625 -67.108169555664 -146.693435668945 1.405494570732
-48.073829650879 -76.648155212402 -126.942611694336 7.568869590759
14.823994636536 -78.193824768066 -218.577178955078 2.077140569687
-102.947303771973 -70.552307128906 -169.355392456055 1.831597447395
-86.763671875000 -63.996723175049 -133.477661132813 1.731846690178
-27.813489913940 -86.038429260254 -185.723251342773 2.517953872681
1.609169006348 -68.260932922363 -233.874954223633 0.838704109192
82.539596557617 -79.022621154785 -72.351455688477 3.843007087708
-34.042156219482 -78.124496459961 -173.426010131836 1.487520456314
-88.205749511719 -69.746696472168 -62.750270843506 1.849523901939
20.249610900879 -67.684806823730 -34.902137756348 3.783105134964
-31.473245620728 -83.834579467773 -211.518325805664 2.677689552307
37.790077209473 -73.022216796875 -130.041915893555 2.032036066055
-147.502151489258 -80.944923400879 -267.176727294922 2.492247819901
-3.925502061844 -77.211723327637 -219.170623779297 1.182310223579
-101.908424377441 -68.788818359375 -255.458831787109 1.575625300407
-74.009132385254 -66.918655395508 -124.662796020508 2.063451766968
-6.528472900391 -69.163009643555 -292.338684082031 2.555621862411
-74.115295410156 -65.524589538574 -110.106163024902 1.755983710289
42.151477813721 -68.482749938965 -124.196739196777 2.078864097595
22.650266647339 -72.112899780273 -154.714828491211 1.283228516579
-136.269439697266 -77.599617004395 -258.442932128906 1.438930869102
6.203786849976 -74.326065063477 -206.355438232422 1.325262308121
-6.081878185272 -78.023933410645 -173.054290771484 2.719057083130
-75.972755432129 -71.850090026855 -50.056034088135 1.683389782906
-24.093696594238 -75.478469848633 -174.574920654297 2.090150594711
21.882621765137 -77.328338623047 -251.659606933594 3.091805458069
11.960617065430 -77.294937133789 -222.392547607422 2.423911571503
92.095840454102 -70.955413818359 -68.903686523438 1.097549676895
-128.373840332031 -63.384494781494 -198.839065551758 1.325015783310
-74.614700317383 -78.938827514648 -77.153572082520 2.028241157532
-161.511291503906 -69.783126831055 -226.514541625977 3.128765344620
-137.208633422852 -63.019638061523 -287.043029785156 4.454483509064
-2.721132040024 -71.458900451660 -237.677398681641 1.395620107651
-80.862525939941 -75.694923400879 -245.894104003906 3.836742877960
110.536872863770 -76.956848144531 -134.143890380859 2.035142660141
-114.311676025391 -72.869056701660 -262.072143554688 0.970607638359
-99.346282958984 -72.964263916016 -285.203948974609 1.329678654671
-73.510231018066 -62.537448883057 -102.113540649414 0.924824118614
-99.872535705566 -65.834327697754 -149.745574951172 2.280955314636
-144.809494018555 -76.982254028320 -257.687377929688 2.416603803635
19.158939361572 -72.750709533691 -269.392150878906 3.860286712646
-150.600067138672 -82.166404724121 -260.484222412109 1.206547498703
-126.273750305176 -68.270736694336 -199.262100219727 4.265105724335
27.248538970947 -65.589836120605 -159.728836059570 3.010813713074
-162.757232666016 -63.805450439453 -208.204971313477 2.694144010544
1.105656981468 -78.659698486328 -287.352203369141 3.633419036865
-123.368667602539 -63.323230743408 -197.837585449219 1.925379276276
-139.577270507813 -62.212890625000 -255.945404052734 3.402721405029
-130.465118408203 -60.290523529053 -231.078109741211 4.689067840576
45.887256622314 -67.170898437500 -22.875102996826 3.272998571396
-35.491794586182 -70.240379333496 -52.116130828857 0.730374693871
-168.716888427734 -69.184188842773 -251.078506469727 2.853810071945
-96.258522033691 -62.698310852051 -289.097656250000 6.720003604889
11.965336799622 -78.669540405273 -208.822479248047 1.050520658493
0.435680001974 -75.504455566406 -235.920791625977 1.725526213646
47.491355895996 -61.820434570313 -33.319061279297 1.125029444695
36.865089416504 -69.706153869629 -138.524139404297 2.805823564529
109.175247192383 -77.022628784180 -98.447868347168 5.443467617035
85.463150024414 -77.386238098145 -229.939758300781 5.506957530975
42.072162628174 -78.996551513672 -114.971145629883 0.702175557613
-99.737121582031 -63.888420104980 -80.929832458496 4.020821571350
-57.403430938721 -69.648460388184 -139.454635620117 1.084530472755
10.154884338379 -73.646492004395 -231.259689331055 1.081354618073
-121.664329528809 -69.572631835938 -266.181884765625 3.483204126358
-52.309345245361 -73.854515075684 -139.508697509766 0.946382701397
-12.845881462097 -72.503890991211 -251.396255493164 1.494627714157
20.278654098511 -80.834907531738 -227.447433471680 2.398726463318
49.477298736572 -70.751502990723 -104.842262268066 0.813734233379
-8.591831207275 -70.772491455078 -223.284042358398 0.950002193451
104.789337158203 -73.234466552734 -115.238647460938 1.701280236244
-61.774715423584 -77.627418518066 -171.754043579102 1.076363325119
-149.957580566406 -73.595634460449 -210.965057373047 0.896691501141
-21.606046676636 -75.531265258789 -243.783660888672 2.656332492828
-155.820358276367 -66.425399780273 -229.440643310547 2.689166545868
-101.066062927246 -61.508220672607 -167.977859497070 3.629731655121
-114.419082641602 -68.694602966309 -259.742675781250 2.364344835281
-80.723999023438 -68.201431274414 -117.366264343262 3.227040290833
-67.750556945801 -76.268264770508 -160.278411865234 1.928265333176
-49.998561859131 -75.470481872559 -66.661415100098 4.060128211975
-71.640998840332 -78.142578125000 -76.557594299316 2.714682102203
29.572040557861 -69.834800720215 -265.795227050781 3.497025489807
-62.902679443359 -76.641723632813 -210.973159790039 2.644782304764
56.076030731201 -65.191169738770 -95.150764465332 2.166272401810
4.938126087189 -82.031143188477 -244.804336547852 3.102885961533
4.851741790771 -84.325614929199 -228.167633056641 5.809974670410
36.657829284668 -65.340385437012 -122.964584350586 3.877369165421
53.270782470703 -77.875617980957 -96.146842956543 1.964410185814
10.953266143799 -70.653457641602 -226.431625366211 1.156281232834
108.981483459473 -76.816673278809 -129.469711303711 1.994627952576
33.583068847656 -71.962051391602 -12.485305786133 1.085219025612
-4.260838031769 -80.774391174316 -247.209808349609 2.945556879044
34.280261993408 -78.310111999512 -147.407318115234 2.104241609573
-148.833724975586 -61.407760620117 -286.010070800781 1.835916042328
-12.781321525574 -68.620429992676 -202.009063720703 1.625091195107
40.671474456787 -75.949996948242 -131.717712402344 1.894503116608
-43.673637390137 -81.357063293457 -153.173095703125 2.092537641525
49.179389953613 -61.952449798584 -94.827903747559 1.538739800453
-95.670059204102 -65.078872680664 -73.567893981934 1.520692467690
96.890060424805 -81.309883117676 -85.656547546387 6.022835731506
-14.229227066040 -71.358970642090 -243.202438354492 2.478808164597
-24.984418869019 -80.773582458496 -184.516601562500 2.233593940735
-78.763366699219 -71.864837646484 -53.871753692627 3.453166484833
21.658601760864 -67.525634765625 -177.531784057617 1.166100263596
-135.451324462891 -67.141426086426 -201.583831787109 2.046544790268
47.667816162109 -78.488220214844 -110.773406982422 1.752166986465
11.482199668884 -86.397323608398 -246.990509033203 2.907249450684
-24.112457275391 -73.883323669434 -220.725372314453 1.801887869835
-148.752212524414 -67.940269470215 -183.181900024414 2.379008054733
61.179767608643 -73.426712036133 -93.128936767578 0.882540822029
-50.745677947998 -72.469818115234 -203.773818969727 7.547208786011
-109.120841979980 -71.761024475098 -227.301910400391 1.128403544426
108.801002502441 -71.793968200684 -149.894760131836 2.122975587845
-43.742225646973 -67.714179992676 -174.494216918945 5.368227481842
23.394630432129 -77.623001098633 -167.687240600586 1.983606457710
118.368347167969 -80.159988403320 -146.418014526367 6.844929218292
110.645309448242 -75.215751647949 -117.321640014648 2.213261127472
115.788902282715 -76.209671020508 -151.238296508789 1.481583952904
-81.621284484863 -71.290924072266 -137.525817871094 3.135799169540
-6.422998905182 -74.889556884766 -178.402587890625 3.669693470001
-56.774379730225 -77.665687561035 -175.676666259766 0.364760249853
62.622917175293 -71.208610534668 -243.334503173828 1.681401968002
27.497591018677 -73.623588562012 -163.252258300781 0.165065526962
7.661759853363 -76.775512695313 -165.500595092773 2.631499290466
-54.358669281006 -73.662124633789 -185.631301879883 2.055508613586
-148.156982421875 -65.225547790527 -189.578903198242 2.005906581879
-57.166969299316 -72.773757934570 -134.423721313477 1.362118005753
-22.153238296509 -83.124481201172 -200.859527587891 3.649607419968
-70.393753051758 -76.002990722656 -207.649139404297 1.055861711502
-87.628746032715 -61.789707183838 -140.315826416016 1.084751605988
40.357669830322 -80.677932739258 -108.715728759766 1.977313160896
18.947284698486 -84.099479675293 -240.553100585938 3.096413850784
-147.694534301758 -81.130874633789 -267.478240966797 2.886318206787
-109.610763549805 -66.537544250488 -260.261047363281 1.232551932335
-60.309921264648 -77.011787414551 -284.635498046875 3.010372877121
-94.368431091309 -59.116340637207 -77.007377624512 5.033382892609
-73.452812194824 -66.626777648926 -107.890205383301 1.722765564919
3.971970081329 -84.067787170410 -265.360687255859 2.421271562576
-37.063106536865 -72.349822998047 -165.164566040039 2.780453205109
-81.294670104980 -82.638877868652 -78.516738891602 3.690490961075
98.743766784668 -75.695648193359 -207.072891235352 2.252005577087
114.140190124512 -71.469802856445 -161.845169067383 2.495559453964
-46.205402374268 -69.203117370605 -146.137466430664 2.048002481461
40.025424957275 -77.781082153320 -131.340896606445 0.158438026905
-74.889320373535 -63.162406921387 -44.612300872803 1.854827761650
-86.897895812988 -72.884292602539 -215.895812988281 1.855092048645
-12.078413963318 -73.166061401367 -204.854370117188 1.877949833870
-165.436721801758 -73.377822875977 -275.693664550781 1.112725257874
3.813107013702 -84.593772888184 -252.420852661133 2.511891841888
-89.770057678223 -65.362442016602 -124.643516540527 2.363144636154
-142.438613891602 -59.419662475586 -232.809127807617 1.826705932617
94.250396728516 -60.599292755127 -62.976821899414 1.713204145432
-73.537887573242 -66.197235107422 -122.765274047852 3.651113748550
2.018357992172 -59.351219177246 -286.568267822266 3.352370738983
103.686355590820 -70.924232482910 -97.824249267578 1.366363763809
-37.931873321533 -83.386474609375 -165.379608154297 3.316941738129
-50.435924530029 -73.504135131836 -52.455368041992 1.337936043739
-105.424957275391 -65.596511840820 -188.963562011719 2.602008104324
-18.301170349121 -69.310150146484 -238.027465820313 1.607628226280
-145.349136352539 -74.649810791016 -307.487915039063 3.348139047623
-104.441047668457 -66.941215515137 -199.092468261719 4.760365962982
10.151535034180 -71.368797302246 -194.147338867188 2.246920347214
14.734392166138 -80.105766296387 -237.338592529297 0.599796354771
110.218681335449 -77.676536560059 -175.865966796875 1.038389563560
84.433616638184 -77.924644470215 -89.800361633301 1.689602017403
60.186779022217 -66.201156616211 -99.639045715332 3.140920877457
-31.060998916626 -79.397720336914 -214.451614379883 1.525595307350
-141.904998779297 -60.584327697754 -231.135696411133 1.209296703339
-147.928802490234 -75.732086181641 -224.471588134766 2.688287019730
-20.361368179321 -71.333717346191 -64.291481018066 3.453976154327
61.388015747070 -62.841632843018 -94.732574462891 1.397013187408
-39.930847167969 -64.410423278809 -43.907989501953 4.042349815369
44.133632659912 -76.663421630859 -127.742416381836 2.253429651260
41.356025695801 -75.299377441406 -133.958251953125 2.178393840790
-26.037204742432 -78.986236572266 -182.405136108398 1.603279590607
105.865600585938 -75.606582641602 -132.127624511719 4.795723438263
-74.306312561035 -77.805717468262 -64.615425109863 2.390182495117
-141.765441894531 -67.492149353027 -267.079650878906 3.708796024323
21.460586547852 -66.477302551270 -183.420989990234 2.112668514252
-142.460678100586 -68.918388366699 -211.677246093750 3.113541126251
-149.031417846680 -85.686408996582 -292.397949218750 1.037124156952
-148.874496459961 -69.898139953613 -183.139877319336 3.299773931503
-11.026944160461 -69.950035095215 -234.220428466797 1.484222054482
-8.949211120605 -75.572257995605 -214.899261474609 2.326097011566
-20.659294128418 -83.097290039063 -184.475906372070 1.014752626419
-105.039947509766 -72.262962341309 -293.035766601563 2.303988218307
-55.706878662109 -59.947887420654 -117.276802062988 1.962074756622
23.969009399414 -73.964286804199 -238.193069458008 4.099839687347
-74.202201843262 -74.010528564453 -135.605377197266 2.950331211090
40.189987182617 -66.403213500977 -254.512985229492 1.503082990646
19.967355728149 -73.023506164551 -152.667083740234 2.328291177750
-150.743255615234 -80.609504699707 -223.602905273438 1.380018711090
-74.849845886230 -69.710678100586 -289.089263916016 1.685626626015
-39.554759979248 -76.266014099121 -58.597782135010 1.178992867470
-164.513488769531 -71.692825317383 -278.009796142578 2.776600599289
-17.195056915283 -65.615524291992 -206.005920410156 1.517284989357
30.769340515137 -81.742813110352 -144.051467895508 2.606104373932
102.159339904785 -63.407173156738 -77.342102050781 2.340376615524
-5.592102050781 -66.804870605469 -273.158691406250 1.127859950066
11.981907844543 -83.530235290527 -213.339309692383 3.412423849106
-135.779464721680 -80.131675720215 -197.867630004883 1.710197448730
42.342533111572 -66.038261413574 -258.207031250000 0.981890738010
22.883756637573 -84.161216735840 -166.941894531250 5.144204139709
47.420768737793 -74.612144470215 -96.531425476074 1.924935221672
-83.815422058105 -77.032196044922 -112.083168029785 2.067831039429
12.587203025818 -77.738128662109 -213.447326660156 1.588134527206
-85.881095886230 -83.438697814941 -89.283218383789 0.997820258141
-106.620986938477 -71.545791625977 -185.436416625977 3.508207559586
-60.490093231201 -68.478492736816 -297.556396484375 8.571954727173
15.589609146118 -80.407402038574 -189.299972534180 3.342811822891
-0.633897006512 -71.902885437012 -228.989776611328 1.754751563072
89.822525024414 -80.986511230469 -211.764770507813 4.245886802673
-138.571975708008 -64.022003173828 -261.043212890625 3.697699069977
76.673362731934 -67.763847351074 -60.926731109619 2.362460136414
-62.510475158691 -72.787384033203 -253.951248168945 4.437253952026
-47.929988861084 -70.344879150391 -289.726928710938 3.820517539978
70.856750488281 -69.692855834961 -69.632263183594 0.944114208221
42.532249450684 -67.606925964355 -258.668701171875 1.066362261772
-19.914037704468 -74.803642272949 -288.939361572266 2.870651483536
-40.424255371094 -79.943023681641 -86.936058044434 2.490918159485
-165.232620239258 -68.465080261230 -233.940170288086 1.312294602394
-41.371948242188 -73.390258789063 -169.433135986328 1.288300871849
-116.714614868164 -65.043579101563 -289.135009765625 1.782850146294
74.963768005371 -66.605377197266 -60.443363189697 2.575330972672
-151.651000976563 -68.296928405762 -181.204711914063 2.189460754395
-44.090969085693 -69.295753479004 -171.188720703125 3.879083395004
-28.681306838989 -66.637924194336 -50.941825866699 2.218499660492
22.124010086060 -80.947479248047 -262.374237060547 3.691551923752
18.211526870728 -80.558143615723 -225.983413696289 2.341918468475
15.232172012329 -74.294631958008 -291.439910888672 1.636992096901
44.659851074219 -73.899803161621 -36.161090850830 2.081452131271
44.921215057373 -70.359580993652 -104.706398010254 1.206095695496
26.895242691040 -74.491386413574 -142.901885986328 1.762424349785
-69.827972412109 -57.276638031006 -92.329521179199 3.633984565735
52.733222961426 -66.613197326660 -93.159049987793 1.709003210068
115.687889099121 -70.302497863770 -155.788116455078 1.194198131561
27.644472122192 -73.858192443848 -139.740875244141 1.216947793961
-43.581932067871 -68.931617736816 -139.152175903320 2.760907888412
-97.842575073242 -63.008647918701 -109.943420410156 1.700122833252
-151.150985717773 -56.314193725586 -199.279876708984 3.239680767059
74.233566284180 -73.190811157227 -227.784759521484 1.204496741295
-60.536880493164 -71.857597351074 -119.744132995605 4.272380828857
-40.385189056396 -67.550674438477 -153.650833129883 2.613983631134
-62.492000579834 -79.505912780762 -163.584182739258 1.101316094398
-86.630836486816 -66.349212646484 -254.873428344727 2.281480789185
-53.959545135498 -73.589431762695 -286.867340087891 0.685940921307
25.031129837036 -67.161972045898 -261.045318603516 1.467408299446
84.341560363770 -75.373939514160 -224.743927001953 1.321487426758
-33.970909118652 -75.813163757324 -204.884185791016 1.336013555527
-151.595458984375 -77.955322265625 -232.565368652344 0.984045147896
-128.359680175781 -59.966053009033 -230.539596557617 5.140861988068
-78.145294189453 -66.902420043945 -251.958389282227 3.904280900955
-144.401962280273 -69.719558715820 -272.943847656250 0.839249253273
-127.863922119141 -74.115005493164 -265.875030517578 3.509164810181
-144.525955200195 -81.082710266113 -212.113250732422 1.187006831169
-121.729667663574 -62.616672515869 -197.700546264648 1.456239938736
-59.934364318848 -68.351982116699 -147.063293457031 3.861629247665
-34.805923461914 -68.024154663086 -286.687957763672 5.104300975800
-65.565612792969 -57.558494567871 -113.720878601074 3.251671552658
-38.479759216309 -87.852233886719 -197.501235961914 3.486130475998
-21.592979431152 -78.181694030762 -68.930839538574 1.484542369843
-66.842819213867 -73.885887145996 -289.768371582031 1.300698161125
-71.053604125977 -66.225784301758 -134.886032104492 2.350364208221
-47.360656738281 -79.751052856445 -201.757629394531 1.430391788483
24.352251052856 -74.906608581543 -36.073463439941 3.557404518127
94.062919616699 -75.484718322754 -70.874603271484 3.055058479309
-8.162370681763 -77.098670959473 -227.825546264648 2.178892135620
-123.037956237793 -68.013870239258 -260.627197265625 3.198571681976
28.926832199097 -69.150711059570 -39.790508270264 1.622674465179
-118.443550109863 -70.033363342285 -263.213226318359 0.544009327888
-56.025062561035 -61.472255706787 -136.562362670898 1.178097724915
50.469940185547 -76.359352111816 -106.524566650391 2.006895542145
106.829925537109 -75.928062438965 -199.891326904297 3.317189455032
6.926238059998 -76.867103576660 -243.472229003906 0.368218302727
-26.893779754639 -72.357429504395 -187.383575439453 2.149918079376
-81.823005676270 -64.666687011719 -117.655738830566 1.238376021385
66.172302246094 -70.845840454102 -83.781295776367 1.807562708855
111.013519287109 -76.903114318848 -167.400070190430 1.395729780197
-54.169296264648 -66.333473205566 -128.275695800781 1.241299510002
-24.115745544434 -68.647079467773 -76.867134094238 2.914886236191
9.463118553162 -64.469367980957 -290.792846679688 1.318987131119
-64.512649536133 -60.312206268311 -115.954963684082 3.008273601532
0.362309992313 -83.862068176270 -249.754852294922 2.461798906326
-40.792865753174 -78.637527465820 -66.269721984863 1.360069870949
-21.158567428589 -68.787261962891 -53.231193542480 2.469165086746
-84.916343688965 -63.442638397217 -129.564437866211 2.056348085403
10.154251098633 -78.953887939453 -201.340408325195 1.479460120201
-146.868484497070 -72.509948730469 -303.011566162109 2.551728487015
-121.458404541016 -60.776866912842 -289.961578369141 5.605635643005
-74.020874023438 -70.099502563477 -103.175292968750 2.911319017410
-0.702988028526 -75.609687805176 -242.521179199219 2.835977077484
1.756837964058 -61.898014068604 -279.421417236328 2.494025945663
11.154575347900 -76.361022949219 -235.782791137695 2.061326742172
-144.555755615234 -66.604652404785 -192.589385986328 0.889774441719
-95.300834655762 -67.850845336914 -106.244544982910 2.617039918900
107.198783874512 -79.214157104492 -190.767181396484 2.141651868820
-35.088912963867 -66.348091125488 -77.967262268066 1.544354796410
107.284873962402 -76.100563049316 -104.385208129883 0.470130115747
13.697394371033 -69.209815979004 -216.352951049805 1.332755923271
-145.104461669922 -66.454986572266 -199.074310302734 0.880514919758
60.431076049805 -63.548461914063 -90.059028625488 1.693139791489
-157.779312133789 -68.020736694336 -195.830093383789 1.908524632454
89.534957885742 -81.476547241211 -81.402435302734 4.988949775696
-106.533699035645 -69.054794311523 -223.710388183594 1.840899944305
43.131736755371 -75.947143554688 -116.606880187988 1.655178189278
-125.138244628906 -64.770057678223 -268.051177978516 3.472212791443
-68.632476806641 -69.594367980957 -248.135284423828 2.497181177139
23.645988464355 -81.250823974609 -167.538635253906 2.213196039200
5.282781124115 -83.098251342773 -250.348831176758 2.540612220764
19.133729934692 -73.105758666992 -160.752960205078 1.923735380173
26.741720199585 -78.502494812012 -156.363006591797 1.268195867538
-147.461334228516 -74.478073120117 -224.890350341797 3.637624025345
82.167648315430 -75.775161743164 -230.861801147461 2.691299915314
-5.904173851013 -76.934135437012 -170.978912353516 1.718734145164
-73.270156860352 -73.009094238281 -50.889465332031 1.774616837502
-63.320434570313 -67.184974670410 -41.587032318115 2.938358068466
-155.962783813477 -77.283851623535 -276.386871337891 4.428716659546
-98.171920776367 -62.053295135498 -146.875549316406 2.432599067688
-0.339152008295 -69.532699584961 -234.317108154297 1.249031901360
104.267578125000 -77.784095764160 -175.711608886719 3.735880136490
9.268920898438 -82.199531555176 -240.921203613281 2.651038408279
-28.816995620728 -66.378829956055 -183.395706176758 1.787967920303
3.018579006195 -76.243103027344 -158.077072143555 1.716512203217
-89.846023559570 -74.696937561035 -91.717483520508 3.284879922867
-60.659336090088 -70.235549926758 -139.425872802734 1.559309244156
36.646389007568 -83.307022094727 -152.957031250000 6.358631610870
29.880470275879 -69.010101318359 -254.005783081055 2.775414228439
-146.644668579102 -66.274978637695 -311.163330078125 1.737077713013
87.224426269531 -75.366859436035 -212.289184570313 1.462862014771
46.053535461426 -73.420005798340 -108.662681579590 3.203461170197
100.714927673340 -59.402046203613 -71.671607971191 2.171494722366
21.600486755371 -74.922012329102 -212.696563720703 3.724586486816
-139.059356689453 -71.340972900391 -257.832031250000 2.566615104675
-92.520561218262 -69.497848510742 -222.334747314453 2.135098457336
-95.558517456055 -71.960014343262 -92.822090148926 2.272343158722
-113.664749145508 -65.766143798828 -230.030807495117 0.556599736214
-162.421295166016 -62.614356994629 -196.147109985352 5.492223739624
17.528593063354 -82.708190917969 -249.344406127930 1.510035872459
-19.958229064941 -72.741088867188 -293.212463378906 2.790791988373
108.022552490234 -80.393501281738 -151.950317382813 4.553696155548
97.283523559570 -70.134826660156 -76.380096435547 2.556019544601
25.927194595337 -80.193832397461 -184.332229614258 3.424681186676
-54.645133972168 -73.599914550781 -132.174560546875 1.539387464523
-16.397930145264 -65.919418334961 -68.305465698242 2.352560281754
107.761726379395 -63.333602905273 -91.993774414063 3.494959831238
-62.020618438721 -59.003734588623 -116.333930969238 2.249389648438
24.946969985962 -68.657073974609 -35.447475433350 1.653231263161
-24.293884277344 -74.810943603516 -193.591812133789 2.200141191483
-98.721771240234 -68.676284790039 -74.482627868652 3.471409082413
20.987312316895 -71.220458984375 -153.480758666992 1.393584728241
-44.572502136230 -76.335800170898 -192.594009399414 1.149111986160
113.073593139648 -79.559616088867 -149.942626953125 3.782094478607
-128.252716064453 -64.781341552734 -235.131637573242 1.573394775391
-92.566360473633 -66.689857482910 -151.688781738281 0.881244063377
10.670372962952 -72.449630737305 -240.431060791016 1.600907921791
17.651262283325 -85.138542175293 -252.021774291992 4.171774387360
-40.282161712646 -87.946716308594 -76.549232482910 5.048680782318
-29.650144577026 -81.431098937988 -191.839340209961 2.061989545822
-81.632514953613 -62.736145019531 -120.325325012207 0.774375855923
-146.004730224609 -59.027484893799 -249.269332885742 4.734941959381
7.091757774353 -75.195838928223 -294.042999267578 1.182039380074
-65.482749938965 -76.323974609375 -164.007568359375 1.754987716675
-139.230148315430 -83.259338378906 -259.920593261719 1.700824737549
-145.637176513672 -59.986812591553 -187.516357421875 2.028796195984
-122.265739440918 -69.678314208984 -267.318481445313 4.117330551147
0.931311011314 -77.182418823242 -245.482650756836 1.422539710999
26.029048919678 -58.965835571289 -274.266479492188 3.525624752045
-68.170295715332 -69.202285766602 -158.553848266602 1.852504014969
109.560882568359 -79.439208984375 -156.290939331055 3.172333478928
17.948989868164 -76.099021911621 -239.896194458008 0.444432795048
18.004230499268 -68.576423645020 -287.025390625000 3.481762170792
-104.266441345215 -59.900878906250 -172.234832763672 4.631027221680
-160.698287963867 -68.354293823242 -213.080093383789 1.099293589592
28.739746093750 -72.073684692383 -156.604522705078 2.452424287796
-71.821044921875 -75.510414123535 -102.585723876953 2.737810134888
-149.633316040039 -77.904182434082 -298.134979248047 2.211730957031
108.990234375000 -76.675865173340 -182.291656494141 2.043368101120
-72.629913330078 -73.141685485840 -286.867736816406 2.547582149506
112.775779724121 -79.079086303711 -137.265594482422 3.147620201111
-93.930213928223 -65.040084838867 -142.692199707031 1.655873179436
-49.482555389404 -76.014343261719 -195.488327026367 1.416419625282
-20.912570953369 -76.864356994629 -75.102310180664 2.789255142212
42.580776214600 -64.026649475098 -251.625183105469 1.427042484283
23.298070907593 -69.305068969727 -25.891189575195 1.242458343506
-43.881050109863 -72.775909423828 -149.372741699219 1.044262290001
23.430835723877 -76.782020568848 -159.559585571289 1.880735158920
-146.247741699219 -59.026306152344 -234.986129760742 2.479435205460
46.094085693359 -80.968078613281 -119.655235290527 3.188089847565
-77.552009582520 -78.384925842285 -97.873229980469 2.975535869598
111.620910644531 -75.905548095703 -122.347854614258 1.731928467751
-98.849754333496 -74.655052185059 -220.430297851563 1.835930109024
-88.255264282227 -66.675079345703 -122.832664489746 1.975748419762
-69.271476745605 -71.452064514160 -150.626861572266 1.966743826866
93.789245605469 -72.069618225098 -70.535964965820 0.509718418121
40.110630035400 -64.420028686523 -35.338344573975 1.692741870880
-141.571563720703 -63.114738464355 -199.831527709961 1.536980628967
-145.626022338867 -64.330413818359 -196.709091186523 2.789818048477
-69.571586608887 -79.880821228027 -214.590408325195 1.911882042885
-164.826492309570 -65.926269531250 -207.096817016602 0.481337308884
-10.868301391602 -72.755294799805 -245.251144409180 1.237081527710
-166.459884643555 -65.435844421387 -226.913284301758 0.539259195328
-130.988204956055 -65.796165466309 -262.548309326172 2.389308691025
-55.384258270264 -63.021095275879 -134.567459106445 2.138012170792
22.918699264526 -72.306343078613 -205.642471313477 3.389443397522
-36.761386871338 -77.704429626465 -241.485748291016 1.226083278656
31.915857315063 -70.616516113281 -140.136276245117 1.887785911560
-73.032554626465 -60.706687927246 -100.414161682129 0.335172027349
-79.777648925781 -86.110679626465 -101.253692626953 2.009894371033
78.746414184570 -73.082504272461 -103.145812988281 2.392593383789
-153.658126831055 -72.859977722168 -273.118438720703 1.427587747574
-92.937461853027 -65.820297241211 -65.979812622070 3.608396768570
19.979835510254 -80.390541076660 -231.129241943359 1.990005850792
89.608879089355 -70.578041076660 -63.540241241455 2.471112966537
-139.416000366211 -71.279541015625 -199.693679809570 2.365684032440
47.051528930664 -75.451591491699 -119.644485473633 2.039486646652
-3.554066896439 -63.464775085449 -242.054244995117 0.920586049557
26.438713073730 -71.525787353516 -266.665771484375 2.484389066696
-14.207112312317 -72.380226135254 -67.086647033691 2.534650087357
-142.191543579102 -75.420631408691 -217.434326171875 3.496184349060
-93.746154785156 -70.909988403320 -112.014762878418 2.447026014328
-3.544806957245 -73.154220581055 -292.096069335938 2.856917858124
-169.126052856445 -67.072753906250 -220.688400268555 3.750681161880
36.594268798828 -74.620201110840 -117.847991943359 2.490059852600
14.210044860840 -73.034591674805 -247.923614501953 2.829622983932
37.784374237061 -63.700801849365 -260.430084228516 1.885065436363
-51.337207794189 -81.345031738281 -245.705810546875 2.262212038040
-14.240899085999 -78.017951965332 -211.028579711914 1.911905527115
-68.443283081055 -70.957565307617 -97.064018249512 2.606327533722
-41.001987457275 -77.964759826660 -156.490783691406 2.153484582901
-98.893661499023 -63.979034423828 -172.031204223633 3.604237794876
-28.704292297363 -69.247802734375 -175.189300537109 1.070021510124
43.114994049072 -72.013710021973 -253.647689819336 1.849747061729
-66.300056457520 -71.428001403809 -167.414001464844 1.861078739166
24.645601272583 -66.843544006348 -139.672119140625 1.879348635674
-144.014755249023 -78.396614074707 -259.482727050781 2.469835996628
-48.529960632324 -75.296554565430 -179.749786376953 3.010904312134
-24.390308380127 -73.079338073730 -222.271469116211 1.874880671501
-67.711624145508 -81.724151611328 -209.032760620117 2.050604343414
14.009431838989 -80.955528259277 -231.289566040039 1.639266133308
7.384615898132 -80.310714721680 -201.836135864258 3.343251228333
-148.493530273438 -71.338577270508 -232.835571289063 3.360417604446
30.105285644531 -73.156974792480 -156.860671997070 2.514526844025
35.635002136230 -68.313819885254 -131.203353881836 1.257587909698
-153.206817626953 -83.495567321777 -231.593231201172 1.353955030441
-8.967028617859 -70.979675292969 -281.572143554688 0.570736289024
72.896308898926 -72.392730712891 -234.327453613281 1.269992589951
-120.472206115723 -67.155868530273 -290.418640136719 0.905447542667
40.036857604980 -73.804351806641 -264.172576904297 7.451747894287
-104.753738403320 -66.902519226074 -190.912094116211 3.459619760513
-143.502578735352 -61.757907867432 -253.584671020508 2.178354978561
-59.545925140381 -62.051673889160 -122.657783508301 2.369409799576
-63.321182250977 -75.819938659668 -94.898529052734 2.528048753738
107.512405395508 -70.054100036621 -84.243621826172 5.598567485809
-143.440979003906 -74.199653625488 -186.408035278320 1.200830101967
-136.822067260742 -66.974449157715 -237.135360717773 3.785681962967
6.086458206177 -76.169197082520 -235.298706054688 1.444751262665
13.277651786804 -69.315116882324 -239.330139160156 2.074754476547
-8.982848167419 -72.147956848145 -203.358261108398 2.203558683395
-47.053607940674 -86.126846313477 -93.144416809082 7.398792743683
14.039450645447 -69.156166076660 -207.511154174805 2.405343055725
24.798219680786 -77.010208129883 -180.780227661133 1.169613242149
44.557830810547 -61.760917663574 -24.028144836426 2.490974426270
-23.618986129761 -70.343452453613 -223.901184082031 1.127297997475
21.514226913452 -70.948936462402 -162.062957763672 1.127453327179
11.164042472839 -82.211227416992 -224.286468505859 2.359921932220
-25.479978561401 -79.667114257813 -185.383209228516 1.180900096893
-93.152397155762 -61.370426177979 -143.940231323242 2.701034545898
109.954605102539 -70.917961120605 -166.974044799805 2.681288242340
-47.709274291992 -66.079284667969 -84.237083435059 1.497134804726
86.772720336914 -81.805999755859 -223.635452270508 5.109055995941
-93.572036743164 -66.384651184082 -68.911140441895 3.773521423340
-81.803565979004 -61.586700439453 -118.348434448242 1.700005412102
-2.962577104568 -76.052337646484 -218.090759277344 1.518047094345
-52.951602935791 -88.441482543945 -86.328514099121 2.264672994614
-77.497039794922 -77.164260864258 -106.564178466797 3.347357511520
25.576875686646 -63.697010040283 -145.527832031250 3.010853528976
-1.163321018219 -80.298515319824 -161.932510375977 1.966402649879
-151.105819702148 -70.653259277344 -208.487945556641 2.648802757263
61.255207061768 -69.812278747559 -245.008178710938 1.065081357956
-40.770763397217 -64.679992675781 -160.223480224609 4.505507946014
-36.519683837891 -65.525810241699 -178.289413452148 5.158454418182
7.718028068542 -73.654006958008 -227.074935913086 2.482102870941
27.060016632080 -84.514823913574 -158.261199951172 5.191555976868
111.546882629395 -78.198402404785 -132.910812377930 2.191716670990
21.415912628174 -75.589096069336 -198.626190185547 2.387023210526
34.859165191650 -74.251754760742 -251.472167968750 3.996716737747
-56.812267303467 -71.400726318359 -89.400466918945 1.316399216652
-56.750846862793 -82.271736145020 -205.246109008789 1.017846822739
-100.760116577148 -65.909027099609 -223.598190307617 2.159385919571
11.564595222473 -73.194099426270 -202.282592773438 0.774437248707
52.883964538574 -79.340309143066 -101.618507385254 2.139479875565
-39.106697082520 -71.537055969238 -55.356334686279 2.802380084991
-14.627475738525 -72.771316528320 -65.872550964355 1.572464942932
-85.852951049805 -72.172897338867 -216.950775146484 2.358466148376
47.566032409668 -68.370101928711 -25.957239151001 3.578543901443
-158.094635009766 -61.434082031250 -295.181732177734 4.665607929230
-44.364112854004 -76.918457031250 -168.211822509766 2.821354389191
1.293653964996 -65.840026855469 -290.065155029297 2.702318191528
-119.811584472656 -69.315994262695 -205.251739501953 3.630643367767
-154.628295898438 -68.308456420898 -177.079574584961 2.714361429214
0.707841992378 -74.555122375488 -239.490203857422 1.729248762131
66.503227233887 -65.659545898438 -91.327270507813 1.943987250328
16.870519638062 -79.928642272949 -258.669342041016 1.797567248344
-95.079643249512 -64.518791198730 -112.524436950684 3.900430679321
96.125747680664 -77.989036560059 -213.355972290039 3.434141397476
-75.128135681152 -70.417633056641 -143.542907714844 1.807688117027
-57.325733184814 -78.138847351074 -179.492385864258 0.564441740513
-39.274864196777 -65.196792602539 -49.612224578857 3.702462196350
-46.224552154541 -83.763832092285 -153.474899291992 3.862640619278
-49.219764709473 -74.418487548828 -190.460678100586 1.555132508278
23.495574951172 -70.185714721680 -142.211761474609 3.054633378983
46.414165496826 -73.490707397461 -36.331325531006 1.745353937149
13.928163528442 -78.083526611328 -209.718292236328 0.737820804119
-44.905494689941 -86.854064941406 -201.631408691406 2.101639509201
-144.924545288086 -80.711448669434 -221.792251586914 2.617693662643
84.220886230469 -65.555145263672 -57.055831909180 3.761353492737
-47.008815765381 -75.128311157227 -285.134948730469 1.801392436028
17.204908370972 -74.291900634766 -214.613189697266 1.826417446136
73.833442687988 -78.942840576172 -89.440971374512 3.916646003723
-129.323364257813 -67.002815246582 -256.534057617188 2.814723730087
-147.703735351563 -63.602840423584 -194.338012695313 1.572692632675
45.578723907471 -74.140167236328 -22.434730529785 3.050697565079
-138.058685302734 -60.713787078857 -256.443359375000 4.902357578278
-152.856307983398 -56.672801971436 -248.897018432617 6.529883384705
-158.627304077148 -68.492965698242 -263.074096679688 1.622739791870
-140.053527832031 -65.401947021484 -256.096801757813 2.404726266861
30.439983367920 -67.024879455566 -20.551715850830 2.389549016953
-147.416793823242 -70.209960937500 -189.567581176758 3.156510114670
98.553115844727 -74.608703613281 -206.510665893555 2.250816345215
-148.622756958008 -63.012985229492 -298.013458251953 2.093935489655
15.003270149231 -70.086006164551 -177.269454956055 1.667307734489
-6.836428165436 -66.152557373047 -216.242630004883 2.369849443436
-140.246582031250 -68.955574035645 -201.186706542969 1.496228337288
-61.196525573730 -74.927131652832 -140.591018676758 2.495921373367
-150.627120971680 -79.278450012207 -231.083251953125 2.209106206894
-100.270317077637 -62.058719635010 -82.269149780273 3.297407150269
103.647071838379 -79.131080627441 -165.781265258789 6.355427265167
-69.539772033691 -87.281387329102 -90.754920959473 1.219589829445
-133.921859741211 -70.568138122559 -253.856399536133 1.877272963524
-63.264545440674 -62.777408599854 -124.394020080566 1.773955225945
94.242019653320 -75.902709960938 -199.447387695313 2.422175884247
-68.405342102051 -70.035346984863 -146.154800415039 1.675170183182
-73.358528137207 -69.938323974609 -104.661125183105 3.014377832413
5.038599014282 -75.662078857422 -216.539382934570 1.622016668320
-76.018524169922 -63.685604095459 -115.796348571777 1.310168743134
-132.668334960938 -68.284111022949 -225.604751586914 1.082607865334
-144.040130615234 -75.913681030273 -301.010101318359 2.183688163757
-74.286529541016 -59.793006896973 -47.103164672852 2.646525859833
-51.944862365723 -60.705299377441 -126.205780029297 3.201259374619
39.753849029541 -70.222000122070 -14.293866157532 1.512388110161
-106.990898132324 -64.839294433594 -186.493347167969 1.056296229362
-126.073699951172 -58.507072448730 -199.235885620117 3.795802116394
-147.452316284180 -61.917259216309 -192.575607299805 1.174022555351
-50.884880065918 -78.168395996094 -90.456085205078 1.470091104507
-145.506484985352 -83.199378967285 -251.922714233398 1.729695796967
-61.838066101074 -57.385345458984 -131.727752685547 1.363791346550
-90.218444824219 -69.339195251465 -138.709548950195 1.930500626564
35.969966888428 -62.675437927246 -13.138919830322 2.009532213211
111.170143127441 -77.657989501953 -129.417343139648 2.020580530167
-31.995290756226 -75.204246520996 -213.425186157227 1.209678173065
49.471656799316 -76.418472290039 -108.147048950195 0.560870587826
115.659111022949 -75.725128173828 -132.397247314453 1.613949060440
-50.286735534668 -70.369056701660 -135.787612915039 0.716393530369
-149.539672851563 -73.508056640625 -217.200775146484 2.217659950256
-137.589767456055 -68.059791564941 -201.097045898438 3.106362342834
-88.200889587402 -71.260177612305 -83.204032897949 3.263270378113
-32.402992248535 -78.038177490234 -207.447952270508 1.259631633759
-23.992406845093 -64.684661865234 -74.126434326172 3.921037435532
88.111061096191 -80.591033935547 -89.441268920898 3.152786254883
-153.113876342773 -62.879791259766 -279.413757324219 3.390381336212
47.582386016846 -71.123260498047 -108.250045776367 1.513454914093
-34.343845367432 -68.029533386230 -47.174896240234 3.193939924240
38.070991516113 -78.049392700195 -122.017349243164 1.380119085312
107.581809997559 -68.256782531738 -77.308578491211 4.216225624084
-105.170295715332 -64.193214416504 -196.027648925781 3.435667276382
-142.226882934570 -80.094627380371 -237.660263061523 3.707411289215
-77.482917785645 -71.993316650391 -62.739044189453 4.393463134766
-70.777626037598 -76.082672119141 -63.498691558838 3.817742824554
114.810226440430 -80.377174377441 -142.434890747070 3.871975183487
78.930648803711 -77.346664428711 -98.348197937012 2.829912424088
105.766204833984 -74.531433105469 -122.883628845215 3.544625043869
-142.776535034180 -75.812164306641 -204.596389770508 0.652867197990
79.407264709473 -80.943092346191 -223.183685302734 4.996877193451
26.764675140381 -78.751449584961 -155.884872436523 0.974990129471
-26.367774963379 -71.834945678711 -181.881835937500 2.234901428223
-146.018096923828 -69.809738159180 -289.045349121094 2.193094730377
3.750360965729 -73.226623535156 -241.731094360352 1.275883793831
17.463659286499 -73.698089599609 -250.488525390625 2.222071647644
111.671661376953 -69.574562072754 -118.343864440918 2.100301980972
-165.064895629883 -75.001998901367 -270.449432373047 1.359943509102
-9.010482788086 -67.809463500977 -243.519256591797 2.213468551636
31.449659347534 -73.909500122070 -164.608184814453 0.841372609138
-34.439704895020 -78.198158264160 -207.540405273438 1.559685707092
-44.612792968750 -66.966491699219 -85.687271118164 2.652224302292
-161.999206542969 -62.366386413574 -209.989593505859 4.600049495697
-134.382156372070 -70.318756103516 -296.836700439453 2.801091670990
-163.644241333008 -62.971904754639 -207.278747558594 2.810502767563
-94.158843994141 -69.027633666992 -62.100006103516 4.194220066071
-43.319190979004 -74.413177490234 -242.157211303711 0.908022463322
-147.178024291992 -80.010292053223 -277.422027587891 0.703375458717
-168.501083374023 -70.770637512207 -247.223159790039 2.259819030762
-141.916275024414 -70.756484985352 -291.757293701172 1.118820905685
-116.077201843262 -67.142990112305 -227.033523559570 1.962558865547
102.999465942383 -69.021034240723 -68.444999694824 4.002241611481
87.910240173340 -70.084785461426 -228.903442382813 5.295068264008
40.094833374023 -79.217903137207 -111.649803161621 1.065889239311
-46.735790252686 -75.638519287109 -91.214042663574 4.519248008728
-108.908996582031 -67.183059692383 -225.383453369141 1.781964898109
-92.899085998535 -69.106765747070 -76.433288574219 3.463834047318
59.741973876953 -68.180488586426 -238.488906860352 3.203354835510
46.740001678467 -74.697692871094 -36.090404510498 2.119245529175
-5.355319023132 -63.732715606689 -258.767852783203 2.904951572418
-80.227340698242 -66.720832824707 -116.522186279297 2.654256820679
19.753229141235 -75.638557434082 -275.518707275391 3.382632255554
-11.893004417419 -76.585296630859 -278.134887695313 2.312373399734
35.007717132568 -71.499671936035 -126.228561401367 2.438951730728
-154.432846069336 -60.403858184814 -286.208099365234 2.111328601837
4.312386989594 -78.569572448730 -246.966217041016 1.261262893677
-126.772987365723 -68.667968750000 -238.569198608398 4.753180503845
-8.764502525330 -71.249198913574 -269.270141601563 4.249222755432
33.256580352783 -60.330390930176 -37.733028411865 1.205534815788
6.746966838837 -84.573936462402 -248.909210205078 3.011339187622
22.305744171143 -78.351188659668 -140.278442382813 2.128650903702
69.232841491699 -70.745735168457 -242.673858642578 2.231897354126
-55.723148345947 -69.688133239746 -280.963500976563 5.968746185303
70.036560058594 -69.628738403320 -234.097274780273 1.659620881081
-142.731307983398 -59.372360229492 -182.277389526367 2.742970705032
36.697982788086 -75.636375427246 -117.878082275391 2.391612291336
-146.489334106445 -66.780593872070 -249.099655151367 1.496114015579
99.782546997070 -70.308044433594 -74.171417236328 2.513562917709
20.304355621338 -82.147705078125 -243.244277954102 2.105095148087
-49.218662261963 -83.122947692871 -87.678390502930 2.395344734192
-141.174270629883 -62.097820281982 -290.512847900391 2.829644918442
-144.053863525391 -63.562984466553 -179.354461669922 2.641750812531
-95.397872924805 -64.806968688965 -218.624328613281 3.191704273224
-22.435081481934 -80.730644226074 -197.803451538086 3.085811853409
-70.299407958984 -83.252311706543 -208.158294677734 1.432230114937
14.821907043457 -82.570327758789 -255.727462768555 1.161352872849
-9.284638404846 -69.556335449219 -238.260971069336 2.230491161346
-101.900146484375 -61.146678924561 -77.105003356934 3.496335506439
-33.562759399414 -62.299907684326 -47.845760345459 3.133908033371
-5.252986907959 -66.573638916016 -258.946594238281 1.409851193428
-145.890792846680 -72.844543457031 -300.508483886719 0.772374510765
-33.303726196289 -76.981590270996 -184.843215942383 1.452516198158
-158.284774780273 -63.745204925537 -208.164062500000 3.569947481155
-17.338037490845 -73.884437561035 -229.835968017578 1.771436095238
-76.152153015137 -64.210151672363 -139.913177490234 2.342998981476
-33.530471801758 -74.221557617188 -174.229019165039 2.932383060455
-146.261291503906 -61.743530273438 -200.801528930664 1.070554018021
0.019483000040 -75.808677673340 -222.028900146484 2.214987993240
-158.765457153320 -70.452812194824 -251.898941040039 1.800900697708
24.243425369263 -75.030090332031 -265.999786376953 3.119968175888
-4.436542034149 -78.801185607910 -218.984985351563 1.805281758308
3.605885982513 -81.890106201172 -273.669982910156 2.035414218903
15.660548210144 -78.010749816895 -288.883850097656 0.949647367001
15.183773040771 -83.547096252441 -259.283935546875 1.397290349007
-60.145080566406 -72.710647583008 -245.179275512695 1.702597379684
-0.227106004953 -72.097099304199 -237.339721679688 1.702123165131
96.834472656250 -77.649963378906 -205.089584350586 2.145236253738
