-117.618705749512 -63.839733123779 -206.151611328125 3.557618379593
-83.879180908203 -93.314979553223 -79.928871154785 12.597980499268
-145.830276489258 -66.846450805664 -239.318328857422 2.649033069611
-112.220726013184 -53.550865173340 -294.032897949219 13.472360610962
12.707450866699 -68.503944396973 -225.008026123047 2.006524562836
-63.062778472900 -71.184936523438 -246.060867309570 1.562101840973
107.978309631348 -86.422050476074 -105.931640625000 10.301278114319
-93.517410278320 -66.307701110840 -266.972320556641 9.155980110168
-75.041313171387 -63.934036254883 -287.271392822266 4.058255672455
-78.960876464844 -74.236038208008 -102.401725769043 2.207572460175
-97.321685791016 -71.983169555664 -153.709167480469 3.442304134369
-124.280044555664 -70.646919250488 -268.017913818359 2.847131252289
39.395103454590 -66.414131164551 -252.750289916992 1.130420804024
-129.494674682617 -75.440658569336 -272.267150878906 8.201045989990
-115.427993774414 -68.664337158203 -206.775085449219 2.773981809616
29.748636245728 -71.617042541504 -143.102554321289 2.359878063202
-150.052856445313 -62.942890167236 -220.893966674805 0.707723855972
24.511774063110 -70.137832641602 -273.916809082031 2.921465635300
-112.839340209961 -63.929851531982 -204.360519409180 2.952223300934
-119.545898437500 -56.206047058105 -263.823394775391 9.677731513977
-114.552902221680 -57.145996093750 -237.760101318359 9.146006584167
26.250881195068 -88.627906799316 -6.072537899017 18.192056655884
-49.360881805420 -87.774826049805 -48.133720397949 13.575963020325
-149.015823364258 -63.449855804443 -264.497344970703 0.873175263405
-71.475379943848 -53.321670532227 -289.450103759766 15.120596885681
22.657722473145 -79.008567810059 -195.159484863281 2.889709711075
15.583598136902 -72.744987487793 -223.230682373047 1.144067883492
29.451507568359 -82.156471252441 -15.461536407471 8.628550529480
35.887798309326 -78.152282714844 -121.224197387695 1.280133962631
100.919807434082 -90.466033935547 -71.148208618164 17.940189361572
98.571365356445 -75.947204589844 -203.949508666992 1.761880159378
37.351657867432 -90.057037353516 -98.326560974121 14.452912330627
-108.225860595703 -77.741142272949 -85.979179382324 13.846293449402
-57.011249542236 -77.254951477051 -137.236358642578 1.325098276138
24.411584854126 -71.495513916016 -216.894577026367 5.803088665009
-100.150611877441 -62.515331268311 -271.813415527344 13.143531799316
-51.931377410889 -81.468261718750 -136.942306518555 4.924995899200
4.921049118042 -67.930137634277 -240.201828002930 1.928265452385
33.867538452148 -79.143760681152 -212.335342407227 15.861619949341
42.954647064209 -83.053680419922 -86.286193847656 13.029702186584
4.601282119751 -69.384559631348 -211.755874633789 3.571850061417
99.240196228027 -84.791000366211 -87.896026611328 10.071277618408
-56.072753906250 -81.539894104004 -170.504684448242 2.606094837189
-136.876724243164 -72.462921142578 -222.642028808594 3.706468582153
-4.913440227509 -71.720809936523 -234.477264404297 1.407540082932
-139.778991699219 -63.227287292480 -240.901596069336 5.801234245300
-95.624977111816 -65.637405395508 -171.299179077148 6.022653102875
-94.039169311523 -62.419017791748 -264.239196777344 8.770314216614
-83.581077575684 -78.103454589844 -119.148704528809 5.933646202087
-63.822456359863 -81.425109863281 -160.055908203125 1.482972145081
-61.297321319580 -91.233215332031 -65.307136535645 11.027213096619
-81.047576904297 -92.613555908203 -78.779014587402 11.582815170288
49.067535400391 -63.999862670898 -247.228668212891 2.619841337204
-50.916954040527 -76.168624877930 -209.039718627930 6.183475494385
47.859226226807 -78.662948608398 -75.103523254395 15.109664916992
21.516944885254 -78.272956848145 -231.949859619141 3.693605661392
18.791545867920 -82.411567687988 -215.903167724609 4.704755783081
33.147274017334 -75.551254272461 -105.510307312012 5.858168601990
45.379825592041 -91.134323120117 -77.945014953613 22.248126983643
24.395938873291 -69.067115783691 -211.697601318359 6.414668083191
105.693252563477 -86.792984008789 -101.581031799316 11.126201629639
12.491706848145 -94.453956604004 1.611109972000 31.141399383545
12.809389114380 -76.683464050293 -235.642913818359 3.027871131897
34.846908569336 -85.689147949219 -131.310455322266 4.408261775970
-123.877136230469 -51.973804473877 -294.702880859375 14.227767944336
-2.962274074554 -69.590942382813 -191.321655273438 12.049383163452
38.619125366211 -85.147193908691 -114.635375976563 5.121064662933
-41.142852783203 -87.463920593262 -149.796859741211 7.564973831177
40.967029571533 -75.426849365234 -75.530723571777 17.020620346069
-105.377975463867 -79.778594970703 -78.240020751953 14.023723602295
86.789718627930 -96.059890747070 -61.050006866455 23.593982696533
2.231998920441 -67.697334289551 -232.259689331055 1.114329218864
-17.683387756348 -83.527206420898 -177.477142333984 1.810217618942
-91.774208068848 -88.855010986328 -56.970806121826 18.604547500610
27.101331710815 -71.507415771484 -161.674560546875 1.782094717026
-124.126548767090 -67.211013793945 -210.396804809570 5.028335571289
42.197528839111 -90.064720153809 -93.256240844727 14.569571495056
28.371030807495 -82.418426513672 -233.532379150391 10.682684898376
-11.096071243286 -72.640579223633 -212.080581665039 2.112827539444
-140.193222045898 -69.957504272461 -194.569564819336 1.938974738121
52.657566070557 -87.112442016602 -73.221511840820 20.307672500610
-40.112857818604 -72.922462463379 -199.565444946289 1.586985826492
-93.972122192383 -69.132957458496 -231.915924072266 9.466625213623
108.733825683594 -79.517868041992 -121.081542968750 3.984186887741
-37.936744689941 -71.523620605469 -169.196609497070 2.546720981598
27.342199325562 -82.654968261719 -152.867752075195 3.463271379471
117.706344604492 -88.294471740723 -117.071907043457 14.547313690186
105.374130249023 -86.572746276855 -89.221572875977 13.713721275330
115.891578674316 -83.810180664063 -121.772056579590 9.623889923096
-81.207382202148 -78.913543701172 -139.408691406250 7.513462066650
-0.401612013578 -78.508422851563 -167.850021362305 1.427790760994
-50.508758544922 -81.178581237793 -173.554809570313 4.318514347076
78.108253479004 -68.133186340332 -220.057296752930 4.021572589874
30.640941619873 -79.208396911621 -147.414489746094 1.531210184097
11.454337120056 -81.934349060059 -153.149749755859 7.744671344757
-46.571567535400 -76.106590270996 -182.484115600586 3.035147666931
-138.609329223633 -66.549613952637 -200.445205688477 2.243750572205
-57.551296234131 -80.924652099609 -132.613052368164 6.697367668152
-12.248163223267 -84.058990478516 -193.314086914063 7.893970489502
-58.849739074707 -75.846900939941 -206.908828735352 3.250286579132
-86.787727355957 -69.113433837891 -142.047714233398 3.244925975800
34.675071716309 -92.413528442383 -92.653861999512 20.232662200928
34.685188293457 -80.912757873535 -225.766296386719 15.655052185059
-125.517593383789 -73.652702331543 -278.545471191406 5.954693794250
-89.232254028320 -60.255149841309 -263.736450195313 10.516953468323
-36.560127258301 -68.324386596680 -280.910064697266 7.033064842224
-103.603645324707 -73.479377746582 -80.739555358887 8.787611007690
-77.937400817871 -77.654487609863 -108.514205932617 3.783478975296
23.875396728516 -77.991935729980 -252.492568969727 3.957259178162
-32.790367126465 -77.224876403809 -159.493377685547 2.111018180847
-90.216438293457 -96.787239074707 -82.749000549316 16.344194412231
108.001480102539 -76.926452636719 -179.206024169922 1.525407314301
115.913871765137 -77.901901245117 -131.910202026367 3.272778034210
-44.892868041992 -76.152992248535 -141.946456909180 1.167509794235
37.939884185791 -87.003829956055 -114.573623657227 7.019645214081
-89.522048950195 -81.272407531738 -46.297950744629 15.781132698059
-73.851722717285 -71.697364807129 -217.293548583984 5.050043106079
-1.766320943832 -73.795463562012 -194.506652832031 11.194824218750
-141.794082641602 -64.891807556152 -288.580932617188 0.888414263725
21.652225494385 -79.959472656250 -239.885940551758 2.262852668762
-91.373916625977 -74.398437500000 -127.418754577637 5.919942378998
-126.103096008301 -55.993682861328 -241.279342651367 11.240390777588
80.340759277344 -77.993659973145 -36.919357299805 26.288778305054
-75.644172668457 -75.564613342285 -123.068672180176 6.861579418182
25.089206695557 -51.045627593994 -270.847686767578 1.895165801048
95.339660644531 -84.432868957520 -70.735824584961 11.035903930664
-33.500308990479 -88.161231994629 -161.074737548828 7.107144355774
-64.023666381836 -90.863449096680 -51.225246429443 14.944449424744
-96.525550842285 -67.320648193359 -193.035522460938 10.664376258850
-2.636750936508 -66.207946777344 -227.608261108398 2.396865367889
-116.863182067871 -62.759433746338 -316.686187744141 23.739297866821
-93.918884277344 -67.532600402832 -202.961822509766 12.557327270508
18.442981719971 -73.379653930664 -180.242980957031 2.010573387146
29.971260070801 -77.270523071289 -222.843215942383 11.225450515747
114.351615905762 -82.472030639648 -146.981948852539 5.524043560028
75.123382568359 -92.135612487793 -66.732482910156 19.483999252319
52.645687103271 -79.197074890137 -78.959365844727 10.850449562073
-18.902553558350 -78.767143249512 -207.656219482422 2.709211349487
-125.832374572754 -57.342197418213 -239.682525634766 9.206270217896
-132.689849853516 -73.092323303223 -235.801834106445 1.759433388710
-32.465877532959 -87.618743896484 -57.772132873535 11.382302284241
53.011363983154 -76.416412353516 -73.580055236816 13.524185180664
-55.116378784180 -82.864219665527 -40.144519805908 14.186008453369
41.407276153564 -86.327430725098 -110.261398315430 6.197703838348
39.646865844727 -84.255622863770 -116.650520324707 3.863504409790
-19.078916549683 -81.978858947754 -175.375625610352 2.206420421600
103.030883789063 -85.269149780273 -104.552101135254 10.186827659607
-85.593849182129 -93.592620849609 -67.456230163574 15.398078918457
-119.868934631348 -60.190673828125 -275.682891845703 12.754214286804
27.838037490845 -69.805984497070 -167.365188598633 0.649545133114
-129.410858154297 -67.794059753418 -221.617385864258 3.728018999100
-122.800643920898 -75.384193420410 -303.707977294922 8.280295372009
-140.300582885742 -71.906791687012 -194.766372680664 2.326657772064
3.940274953842 -67.326065063477 -222.780227661133 3.609004497528
2.955271005630 -75.088378906250 -204.125198364258 2.997240066528
-13.396983146667 -85.874603271484 -177.003372192383 3.224867105484
-79.414489746094 -62.317443847656 -295.786590576172 8.857266426086
-58.986938476563 -70.107192993164 -114.131355285645 5.997241497040
39.160110473633 -71.144317626953 -221.516311645508 20.162715911865
-74.164001464844 -81.888580322266 -136.639739990234 7.175436496735
57.706401824951 -61.933635711670 -234.079299926758 8.268181800842
21.507337570190 -79.736251831055 -138.172790527344 3.460354089737
-135.556930541992 -78.014152526855 -235.944992065430 5.139044761658
-50.273479461670 -60.457981109619 -286.793518066406 8.856913566589
-52.271690368652 -93.006446838379 -55.813896179199 14.280216217041
-140.529251098633 -62.965785980225 -290.516571044922 2.899374485016
-6.709714889526 -66.123817443848 -195.613632202148 8.239349365234
30.879358291626 -89.447860717773 -128.964752197266 8.203199386597
90.476028442383 -79.240211486816 -50.054019927979 17.534189224243
15.506766319275 -59.891540527344 -259.747253417969 5.487227439880
23.447080612183 -83.334007263184 -200.128952026367 7.040077209473
-124.912261962891 -80.532234191895 -208.253890991211 9.250352859497
60.418762207031 -61.174957275391 -237.316574096680 6.199954509735
26.785631179810 -89.231330871582 -152.947998046875 9.119115829468
39.633705139160 -87.802742004395 -78.895561218262 22.196573257446
-87.387794494629 -87.444915771484 -115.447822570801 8.970179557800
24.002456665039 -77.571022033691 -199.491744995117 3.969830751419
-93.011466979980 -96.342994689941 -94.132431030273 16.228748321533
-98.209815979004 -73.617317199707 -190.431625366211 10.218439102173
-34.756713867188 -58.399414062500 -292.659149169922 13.379441261292
23.127172470093 -82.945549011230 -175.625823974609 4.845911026001
13.381251335144 -69.932319641113 -216.202682495117 2.065623998642
100.001235961914 -81.590019226074 -185.827423095703 5.837043285370
-117.718879699707 -57.441913604736 -268.863800048828 10.057299613953
62.736621856689 -85.204994201660 -38.524612426758 19.137128829956
-43.688247680664 -67.538543701172 -250.697753906250 8.577078819275
-23.593725204468 -61.227108001709 -283.175933837891 10.599706649780
58.408939361572 -86.103546142578 -48.209865570068 21.496154785156
60.696022033691 -62.683631896973 -237.913970947266 4.770237445831
3.978940010071 -65.964561462402 -278.411529541016 3.480486869812
-48.555072784424 -93.486549377441 -84.156265258789 6.360651493073
-148.328018188477 -64.677787780762 -247.050323486328 1.916629552841
-36.349296569824 -77.748077392578 -164.486328125000 2.713723182678
-91.636474609375 -55.488281250000 -293.026336669922 13.380459785461
60.959899902344 -84.094490051270 -38.195262908936 17.114439010620
-143.367370605469 -70.510253906250 -193.134735107422 0.879720330238
-38.793991088867 -73.461921691895 -166.187057495117 2.542561769485
-42.863555908203 -84.379463195801 -45.488792419434 11.493007659912
41.282169342041 -75.366752624512 -246.306732177734 5.441762924194
31.589950561523 -79.016212463379 -211.199874877930 13.418944358826
39.065029144287 -65.453704833984 -275.175201416016 14.190694808960
27.235532760620 -93.820083618164 -20.050153732300 20.522592544556
38.431808471680 -82.643829345703 -86.839317321777 14.919478416443
26.797054290771 -82.340309143066 -127.649131774902 5.208794593811
-76.946739196777 -70.130516052246 -91.629074096680 7.060978889465
44.255409240723 -80.272514343262 -73.844451904297 18.387659072876
116.459777832031 -77.430938720703 -125.591499328613 4.357532501221
27.023986816406 -82.070213317871 -124.358276367188 5.761055469513
-43.424556732178 -76.684333801270 -134.644943237305 4.486253261566
-101.719589233398 -73.639251708984 -114.032592773438 8.112892150879
-140.102706909180 -56.586837768555 -209.445098876953 6.664022445679
87.099205017090 -71.931350708008 -203.167434692383 6.275658130646
-63.237251281738 -81.628486633301 -118.653808593750 14.264494895935
-37.962043762207 -73.716728210449 -148.198226928711 2.878051757813
-58.069545745850 -84.313995361328 -162.816574096680 6.208044052124
-67.414512634277 -60.849521636963 -254.749114990234 10.664679527283
-29.969758987427 -64.723739624023 -281.699523925781 9.405291557312
43.797550201416 -61.839233398438 -242.999649047852 6.967996120453
96.611785888672 -74.519477844238 -198.808929443359 1.454185128212
-23.343326568604 -76.251647949219 -198.339355468750 1.571639299393
-134.990341186523 -74.368408203125 -244.575408935547 9.074189186096
-112.564292907715 -56.900192260742 -236.858367919922 9.367659568787
-59.499938964844 -61.791267395020 -250.592132568359 9.980159759521
-121.509567260742 -61.728118896484 -282.105194091797 7.856328487396
-106.272460937500 -67.014999389648 -273.012695312500 11.403104782104
-131.254882812500 -79.816955566406 -223.732986450195 4.540430068970
-111.250747680664 -63.255851745605 -203.884674072266 3.590992450714
-58.304489135742 -75.096557617188 -144.959503173828 3.467190504074
-11.150010108948 -59.363082885742 -277.833496093750 2.693831443787
-69.311798095703 -68.053260803223 -111.957122802734 4.863836765289
-28.852426528931 -89.004821777344 -193.164093017578 4.947618484497
-32.868545532227 -93.895523071289 -63.283504486084 15.943923950195
-42.218639373779 -64.593528747559 -286.642272949219 6.364593029022
-71.251152038574 -74.257804870605 -134.561248779297 4.210350036621
-37.019851684570 -80.409622192383 -197.857925415039 2.142086029053
7.187273979187 -94.671791076660 -23.330711364746 26.285861968994
81.572792053223 -91.901298522949 -46.355762481689 28.137565612793
5.817158222198 -75.166732788086 -216.846893310547 1.032319426537
-102.411766052246 -61.576423645020 -266.411895751953 8.035997390747
12.238721847534 -88.572433471680 -25.601043701172 18.481628417969
-97.442123413086 -63.330078125000 -268.437194824219 10.525647163391
-56.197620391846 -69.464202880859 -133.266769409180 2.170494079590
44.261264801025 -88.445968627930 -88.402656555176 15.933903694153
114.835456848145 -78.023124694824 -170.892852783203 2.624043226242
23.213088989258 -73.305816650391 -229.748718261719 5.864908695221
-19.195268630981 -74.828720092773 -179.655990600586 2.378391027451
-84.655731201172 -74.550033569336 -119.214393615723 4.019986629486
56.062347412109 -85.631454467773 -62.965843200684 23.180784225464
113.772781372070 -82.655799865723 -138.465347290039 5.432914257050
-55.642810821533 -75.235389709473 -125.384536743164 4.874037742615
-34.185714721680 -83.514297485352 -70.407630920410 4.327804565430
33.166385650635 -55.717559814453 -274.368927001953 5.251915931702
-67.886550903320 -70.548187255859 -114.286682128906 7.205253601074
17.811782836914 -79.503379821777 -237.742584228516 2.635831356049
-52.241119384766 -94.495979309082 -63.801132202148 13.755524635315
-35.049686431885 -86.318145751953 -46.768394470215 14.773134231567
-85.814880371094 -71.978668212891 -131.253005981445 2.729334592819
19.675077438354 -80.113151550293 -188.143356323242 2.287306785583
-119.101478576660 -61.121429443359 -312.300750732422 20.170095443726
-96.230216979980 -51.119018554688 -294.121185302734 18.185142517090
-79.217391967773 -81.627845764160 -104.368484497070 2.155345678329
15.517525672913 -72.103034973145 -229.898223876953 1.432342648506
23.712919235229 -54.373054504395 -264.164398193359 2.635136604309
26.150333404541 -73.695274353027 -221.473251342773 7.234725475311
-134.558624267578 -67.611709594727 -202.974517822266 0.878610730171
-99.753349304199 -78.884185791016 -110.537803649902 7.758797168732
113.772384643555 -82.311088562012 -162.251815795898 4.878595829010
-44.864170074463 -81.021163940430 -72.988502502441 2.199520111084
99.995079040527 -88.871482849121 -77.171325683594 14.895863533020
25.476053237915 -68.780334472656 -201.212127685547 4.708543300629
-134.063461303711 -66.733978271484 -209.405868530273 5.587838172913
51.325798034668 -77.633613586426 -69.228660583496 18.277759552002
-147.077499389648 -68.553466796875 -208.429840087891 3.580539703369
78.850486755371 -96.643508911133 -58.074981689453 25.948373794556
-92.021263122559 -66.865341186523 -227.677032470703 7.834527492523
38.628139495850 -86.852294921875 -99.420837402344 10.896393775940
-103.329467773438 -57.506958007813 -273.667663574219 15.819541931152
-50.694854736328 -64.967803955078 -245.618545532227 7.378297805786
27.603696823120 -86.278526306152 -153.086441040039 6.516568183899
22.755786895752 -78.716407775879 -237.451446533203 3.668641328812
21.979957580566 -78.907844543457 -146.245773315430 2.501374721527
28.841859817505 -84.820610046387 -141.323242187500 4.481534481049
-132.174224853516 -71.803062438965 -235.997726440430 1.578956961632
95.449661254883 -74.217498779297 -205.202163696289 2.778893709183
-1.057131052017 -81.373817443848 -160.714187622070 3.298043966293
-86.817901611328 -90.368240356445 -53.293315887451 18.953403472900
-78.546157836914 -85.698066711426 -41.925811767578 16.982490539551
-132.291839599609 -68.769744873047 -288.178375244141 2.291146278381
-96.141372680664 -68.559959411621 -150.200073242188 1.539228439331
14.500823974609 -66.984001159668 -221.115829467773 3.017727613449
108.453987121582 -82.549705505371 -147.796203613281 6.235236644745
25.171651840210 -78.908058166504 -227.466262817383 5.957350730896
-21.793342590332 -69.318405151367 -175.386108398438 2.861978769302
5.677280902863 -82.198661804199 -146.553756713867 11.936356544495
-96.624908447266 -87.353263854980 -96.179985046387 11.129463195801
-60.223564147949 -77.816131591797 -137.795394897461 3.510210990906
38.122158050537 -90.052864074707 -136.931625366211 8.405977249146
47.475944519043 -64.500305175781 -235.524719238281 9.189026832581
-117.639320373535 -54.016452789307 -319.564178466797 30.257566452026
97.463142395020 -75.926849365234 -186.131149291992 5.041577339172
40.214260101318 -85.251693725586 -90.879417419434 13.547850608826
88.101379394531 -75.882728576660 -44.277317047119 20.163120269775
32.749919891357 -74.926910400391 -196.996948242188 8.564507484436
-118.639060974121 -65.069869995117 -266.609039306641 2.665633916855
-78.405349731445 -67.568740844727 -224.131774902344 10.992369651794
-102.114601135254 -84.465515136719 -97.873397827148 13.493422508240
-98.081703186035 -62.835361480713 -234.651641845703 11.045571327209
-151.664016723633 -63.109451293945 -208.881469726563 2.650141716003
34.678161621094 -78.536666870117 -234.460525512695 15.204412460327
4.598329067230 -63.437095642090 -282.379364013672 3.376793384552
108.382720947266 -87.827468872070 -124.181625366211 11.764899253845
85.578308105469 -85.994949340820 -50.642375946045 20.984035491943
32.533290863037 -83.369209289551 -169.073333740234 6.477571010590
-55.413764953613 -82.016654968262 -130.095230102539 8.729759216309
-27.966613769531 -81.820884704590 -60.469726562500 5.964098453522
98.350929260254 -77.573432922363 -63.517723083496 9.987267494202
-65.379531860352 -69.225059509277 -114.113052368164 5.263599872589
7.610002040863 -88.536193847656 -21.924285888672 21.207029342651
-15.609913825989 -76.593276977539 -185.601837158203 2.628703832626
-108.206817626953 -83.227310180664 -80.027488708496 17.964706420898
22.625873565674 -77.861595153809 -138.606216430664 1.852067351341
-35.769981384277 -78.061721801758 -188.042877197266 3.901448488235
113.038337707520 -87.262641906738 -121.310157775879 11.694194793701
-111.674133300781 -61.172817230225 -241.882064819336 10.321331977844
-89.790260314941 -72.673187255859 -154.539642333984 6.848843097687
26.376527786255 -69.285255432129 -225.673294067383 8.900302886963
35.252822875977 -80.653457641602 -237.337829589844 15.335646629333
-49.995780944824 -102.601753234863 -74.839477539063 17.265468597412
-21.109514236450 -83.325798034668 -185.479949951172 1.988410472870
-84.060081481934 -72.334793090820 -121.586692810059 3.468774318695
-126.991645812988 -53.736606597900 -257.950408935547 11.276176452637
31.456068038940 -65.994773864746 -279.133148193359 9.516749382019
-60.986389160156 -81.081420898438 -163.356094360352 2.332039117813
-118.351066589355 -76.678466796875 -270.014373779297 8.722929000854
-136.506103515625 -61.594032287598 -197.434158325195 4.103189945221
-100.561164855957 -62.488628387451 -273.036315917969 14.202598571777
17.620929718018 -73.347663879395 -232.716262817383 2.258261680603
46.815326690674 -52.224937438965 -254.892074584961 11.333055496216
-64.585296630859 -74.593063354492 -157.643524169922 1.218710184097
110.586296081543 -86.406105041504 -128.085739135742 9.985319137573
33.512638092041 -73.028274536133 -224.389480590820 14.843384742737
41.035766601563 -60.286483764648 -269.763519287109 11.156841278076
-98.118812561035 -63.539451599121 -175.807739257813 4.967825889587
-147.193405151367 -66.934349060059 -225.852767944336 2.589501142502
30.786769866943 -78.420875549316 -140.522735595703 1.149609804153
-77.084991455078 -87.087753295898 -104.041381835938 2.241085052490
-122.555984497070 -67.005111694336 -308.562866210938 13.361130714417
114.157623291016 -80.749961853027 -153.369186401367 4.063800811768
-48.402809143066 -64.132995605469 -284.641815185547 8.562367439270
110.709770202637 -88.199546813965 -108.871238708496 13.105486869812
-92.593772888184 -72.028579711914 -145.750732421875 3.692411661148
-40.156330108643 -77.380500793457 -191.632431030273 2.100928544998
-31.222356796265 -91.902091979980 -69.080192565918 11.971123695374
59.579502105713 -59.913421630859 -230.598846435547 10.555831909180
4.459074020386 -90.235206604004 -12.888448715210 26.383808135986
-42.044006347656 -79.359878540039 -145.145584106445 4.247349262238
26.068019866943 -82.727882385254 -144.796920776367 4.838421821594
-129.518341064453 -55.329772949219 -243.980941772461 14.246132850647
42.091648101807 -91.524085998535 -102.495948791504 13.248220443726
-83.466758728027 -90.426078796387 -100.658622741699 4.975709915161
107.148895263672 -86.704116821289 -94.071655273438 14.198538780212
-84.904609680176 -72.856910705566 -223.853515625000 5.594847679138
-90.155220031738 -75.917007446289 -125.546463012695 6.544134616852
-66.918319702148 -77.705970764160 -150.296554565430 2.644779920578
81.213439941406 -88.543395996094 -45.686515808105 26.201541900635
22.516334533691 -84.456405639648 -18.914680480957 11.070207595825
-130.489334106445 -63.357719421387 -209.209747314453 4.274974346161
-134.978729248047 -64.883033752441 -206.932723999023 3.981395006180
-56.887130737305 -78.931015014648 -214.017349243164 5.515656471252
-152.250991821289 -65.158042907715 -220.375320434570 3.476001262665
5.891715049744 -68.882156372070 -233.886169433594 1.007070660591
-150.695495605469 -62.443344116211 -240.017395019531 1.890533447266
-109.974174499512 -59.095912933350 -269.322601318359 10.964537620544
-55.868637084961 -71.231239318848 -131.380355834961 1.593760490417
32.894832611084 -73.126335144043 -189.575576782227 7.335737228394
-20.218103408813 -74.018775939941 -234.894577026367 3.357624292374
31.270120620728 -78.838104248047 -123.699958801270 1.105672001839
-78.780235290527 -72.610450744629 -100.454277038574 2.030463457108
-85.043136596680 -97.708030700684 -105.192543029785 13.227964401245
71.596916198730 -85.788108825684 -80.192230224609 10.944963455200
-130.585678100586 -64.756988525391 -284.110046386719 3.309664249420
-103.888076782227 -81.384696960449 -70.442817687988 15.199366569519
34.157516479492 -78.288398742676 -215.944595336914 16.428915023804
75.951873779297 -87.810386657715 -39.328918457031 30.919502258301
-128.300079345703 -71.503356933594 -209.639999389648 4.966339588165
42.978416442871 -86.050994873047 -101.716567993164 8.006512641907
12.504120826721 -60.064498901367 -228.542282104492 8.454857826233
46.131511688232 -65.558448791504 -248.773208618164 1.657398581505
-25.933086395264 -88.394340515137 -59.644054412842 12.543415069580
-128.156799316406 -73.614082336426 -227.945907592773 1.631259560585
-97.263603210449 -81.291358947754 -116.289100646973 9.081680297852
20.624635696411 -64.100540161133 -278.700378417969 1.089870214462
-154.306991577148 -64.744796752930 -234.522186279297 1.430775761604
32.360462188721 -85.343971252441 -101.537628173828 11.790537834167
31.075958251953 -69.056823730469 -232.519683837891 12.969864845276
56.251613616943 -58.568180084229 -239.966506958008 7.423184394836
-33.892139434814 -77.051040649414 -241.775253295898 1.850294709206
-2.862523078918 -77.909927368164 -201.449829101563 8.126394271851
-74.681709289551 -83.207023620605 -97.576782226563 2.782753467560
-38.009399414063 -83.743057250977 -152.244125366211 4.852041244507
-92.806419372559 -67.656639099121 -175.202026367188 8.989666938782
-22.966590881348 -73.087318420410 -167.639663696289 5.432810306549
60.512493133545 -67.628349304199 -233.387832641602 3.654115438461
-61.297897338867 -75.829200744629 -166.281753540039 0.816118597984
23.981046676636 -75.083992004395 -123.988853454590 5.169703960419
-123.193649291992 -71.857933044434 -269.809143066406 5.037908554077
-41.743278503418 -78.433540344238 -175.964111328125 3.061070919037
-11.131024360657 -71.666694641113 -213.551757812500 2.386028766632
-55.922176361084 -81.398361206055 -208.474273681641 2.439618110657
28.295911788940 -78.785293579102 -217.121597290039 10.937787055969
17.034597396851 -81.384414672852 -189.224716186523 2.560380935669
-131.953155517578 -67.787338256836 -243.605194091797 8.580176353455
32.186737060547 -79.479385375977 -140.675994873047 1.634716749191
33.487258911133 -77.577247619629 -114.086112976074 3.680057525635
-136.679672241211 -79.969841003418 -244.498260498047 8.405505180359
13.565402984619 -63.073463439941 -269.005310058594 6.388792037964
86.818618774414 -70.396659851074 -209.709457397461 2.584055185318
-95.118225097656 -57.414489746094 -295.123046875000 12.958289146423
59.177692413330 -68.207473754883 -244.403152465820 2.134361267090
-95.537658691406 -68.405914306641 -194.984695434570 11.780303955078
-123.802993774414 -55.987110137939 -262.086334228516 8.440464019775
-61.893161773682 -71.566406250000 -120.258644104004 4.403167724609
-69.922828674316 -88.320785522461 -95.174621582031 1.254429697990
96.932876586914 -85.115798950195 -56.706424713135 18.838180541992
-134.370101928711 -75.858413696289 -197.580795288086 1.467670559883
-119.789184570313 -63.061286926270 -245.465072631836 10.542724609375
21.068393707275 -73.519187927246 -221.789215087891 2.503078460693
28.741638183594 -66.313858032227 -223.826080322266 11.826482772827
1.039173007011 -72.975143432617 -192.429718017578 8.900542259216
-54.041160583496 -98.885864257813 -91.997306823730 13.038262367249
24.397495269775 -69.717819213867 -192.479721069336 1.501427173615
30.817605972290 -80.593765258789 -165.415451049805 2.021463632584
25.067829132080 -83.112739562988 -6.812890052795 13.154762268066
-10.136811256409 -68.771926879883 -214.721298217773 2.128061771393
24.517250061035 -76.636779785156 -146.908493041992 1.283959507942
24.379005432129 -80.793510437012 -210.849319458008 7.911848068237
-18.045120239258 -82.326980590820 -178.283035278320 1.590347886086
-91.663833618164 -68.248619079590 -146.440704345703 1.430236458778
112.598014831543 -76.747665405273 -137.549514770508 2.409762382507
-56.319972991943 -79.954826354980 -81.130004882813 4.755240917206
98.899917602539 -81.053916931152 -198.049758911133 4.083644390106
-104.039321899414 -81.612953186035 -73.482368469238 15.296093940735
-84.557212829590 -71.412170410156 -119.547035217285 1.985273122787
9.380263328552 -75.255508422852 -206.349502563477 2.070454359055
-60.930305480957 -101.901588439941 -86.515922546387 14.794694900513
-82.033531188965 -88.242263793945 -109.037315368652 5.306011199951
25.805543899536 -71.310127258301 -129.231597900391 3.859886884689
2.208406925201 -85.765022277832 -151.457534790039 11.826861381531
-138.436874389648 -69.806938171387 -220.068344116211 4.204272270203
77.011917114258 -66.547927856445 -221.762161254883 4.659832954407
-37.319717407227 -70.126571655273 -154.385894775391 1.341155648232
-30.222553253174 -68.981277465820 -171.517257690430 1.945212483406
21.336362838745 -71.951629638672 -213.181686401367 3.466681480408
29.521577835083 -90.585441589355 -143.804611206055 10.389984130859
108.790534973145 -87.801483154297 -104.698951721191 11.619273185730
30.321805953979 -77.160797119141 -183.301376342773 3.610383510590
52.038230895996 -70.030982971191 -232.826812744141 9.198174476624
-64.423805236816 -84.594657897949 -88.246368408203 2.622819423676
-45.704040527344 -82.451263427734 -203.065185546875 1.235950827599
-86.372680664063 -63.796985626221 -226.290878295898 10.816956520081
21.158960342407 -74.295341491699 -188.198837280273 1.748204827309
45.889080047607 -91.975288391113 -83.536750793457 20.527666091919
-52.396888732910 -88.673004150391 -52.035484313965 12.308771133423
-26.538381576538 -88.915367126465 -58.564319610596 13.052512168884
-72.658699035645 -70.880706787109 -218.081405639648 6.343110561371
28.413677215576 -89.488220214844 -8.960116386414 17.520133972168
-131.549377441406 -50.902667999268 -305.184936523438 20.471517562866
-39.462078094482 -81.367195129395 -164.161590576172 2.300838947296
25.000282287598 -57.097137451172 -275.117248535156 2.251240491867
-108.079833984375 -69.084091186523 -211.730514526367 8.787785530090
-146.966445922852 -70.959465026855 -189.567382812500 3.173737764359
16.413990020752 -71.404853820801 -226.581878662109 2.079142332077
57.543991088867 -79.637084960938 -69.734977722168 16.296911239624
35.493110656738 -74.727348327637 -243.401351928711 9.797554969788
-98.563728332520 -74.873016357422 -116.289657592773 6.175657749176
106.446846008301 -78.482795715332 -186.043548583984 3.778856277466
-73.843910217285 -77.424003601074 -144.172042846680 2.474384546280
-50.437194824219 -81.218032836914 -177.438217163086 2.503280878067
-53.547546386719 -83.013275146484 -45.721569061279 11.560297012329
-43.587730407715 -89.801895141602 -150.770111083984 9.835799217224
-40.718265533447 -76.358612060547 -186.481414794922 5.092203617096
23.286790847778 -78.112327575684 -127.036735534668 5.122197628021
28.990188598633 -93.408233642578 -19.890356063843 20.097087860107
24.732542037964 -78.341461181641 -195.658126831055 2.599295139313
-34.543888092041 -87.501190185547 -198.133102416992 4.265596389771
-130.102432250977 -78.363227844238 -233.248153686523 4.933916091919
69.543975830078 -83.501716613770 -33.272369384766 22.999723434448
-23.370660781860 -66.500808715820 -279.058349609375 10.027655601501
28.711681365967 -74.052253723145 -199.510742187500 6.703863620758
64.613410949707 -93.104797363281 -68.192222595215 21.548784255981
-109.281455993652 -60.980094909668 -263.291931152344 6.133195877075
-137.416625976563 -64.408805847168 -204.859069824219 4.726391792297
25.947280883789 -95.600112915039 -6.467564105988 24.488622665405
-117.982627868652 -54.672588348389 -263.901184082031 11.221286773682
-133.838211059570 -51.384857177734 -258.420532226563 13.056956291199
-137.143432617188 -61.501178741455 -274.568145751953 10.861038208008
-119.959053039551 -59.354389190674 -264.403961181641 6.682647228241
10.630215644836 -88.621856689453 -6.252922058105 24.164567947388
-137.829452514648 -71.509689331055 -200.871551513672 1.654595255852
107.712142944336 -75.907699584961 -178.563903808594 1.886058807373
-121.730613708496 -52.229122161865 -306.620483398438 21.011077880859
20.516452789307 -74.029029846191 -162.769378662109 1.408914327621
5.159210205078 -65.594337463379 -204.053298950195 5.984609127045
-128.904663085938 -69.020675659180 -210.978118896484 6.502953052521
-60.519157409668 -82.343780517578 -139.547576904297 7.535971164703
-134.258270263672 -75.856407165527 -243.114257812500 9.286210060120
-108.556465148926 -75.769119262695 -87.174041748047 13.449485778809
106.265403747559 -84.993141174316 -138.306671142578 10.010016441345
-76.606803894043 -100.124610900879 -93.385879516602 13.274663925171
-114.212547302246 -64.786315917969 -261.800445556641 2.020079851151
-65.278182983398 -72.064498901367 -122.638313293457 6.054484844208
102.339271545410 -77.949272155762 -172.471771240234 4.778061866760
-66.793937683105 -76.804718017578 -145.613723754883 2.994765996933
-78.327392578125 -81.306800842285 -105.701599121094 1.508597850800
17.025409698486 -75.103546142578 -203.502304077148 2.349122047424
-79.234199523926 -73.828247070313 -116.351203918457 2.437908172607
-117.521965026855 -65.683746337891 -233.636901855469 1.770429253578
-116.595314025879 -64.749496459961 -310.264282226563 17.662115097046
-88.562805175781 -77.650550842285 -48.268394470215 11.611621856689
-53.836296081543 -69.891342163086 -122.370132446289 3.867866992950
18.854284286499 -92.570922851563 1.020310997963 26.629404067993
-98.474464416504 -66.832031250000 -190.779327392578 8.988718032837
-115.334823608398 -58.966625213623 -205.628097534180 6.194132804871
-137.467910766602 -62.932754516602 -202.902252197266 3.680030584335
-58.334808349609 -91.248031616211 -89.086822509766 5.024584293365
-125.827232360840 -77.463699340820 -263.169464111328 3.175980806351
-62.751277923584 -65.897933959961 -129.000778198242 0.652393221855
-89.523658752441 -76.774688720703 -141.729553222656 8.708783149719
14.857138633728 -85.171394348145 2.388564109802 24.247764587402
107.853813171387 -87.651947021484 -101.272819519043 11.848003387451
-20.032066345215 -74.707481384277 -206.331466674805 0.931119382381
43.536289215088 -88.315597534180 -90.160476684570 14.719981193542
112.741920471191 -85.433280944824 -103.260391235352 10.540103912354
-50.566463470459 -78.436378479004 -132.579910278320 4.916638374329
-135.466751098633 -71.682281494141 -228.680984497070 3.262257099152
-126.305809020996 -68.161300659180 -210.364517211914 5.214052200317
-96.399375915527 -84.902412414551 -87.183372497559 9.799832344055
-21.362434387207 -78.188377380371 -200.850738525391 1.411504864693
-34.543395996094 -79.884078979492 -67.257881164551 2.259974956512
78.723030090332 -94.854064941406 -66.088470458984 21.215803146362
-129.142868041992 -54.140335083008 -289.083587646484 10.934808731079
41.633701324463 -83.027458190918 -89.973510742188 11.931784629822
-49.041591644287 -86.139076232910 -42.857002258301 14.946441650391
34.520751953125 -88.297149658203 -105.772651672363 11.935735702515
95.872604370117 -84.105369567871 -49.693229675293 21.851829528809
-95.157554626465 -65.138717651367 -199.766296386719 13.608757019043
-124.905456542969 -75.998016357422 -248.309631347656 5.714245319366
-89.089309692383 -88.001701354980 -65.476570129395 13.982901573181
-82.307327270508 -92.032775878906 -65.603317260742 13.353796958923
113.558815002441 -88.927642822266 -113.759849548340 14.270465850830
71.054344177246 -90.563034057617 -75.933135986328 16.094432830811
101.441719055176 -85.233062744141 -95.382003784180 11.399707794189
-130.785644531250 -75.433303833008 -215.492492675781 8.530097007751
91.548690795898 -80.189422607422 -198.690689086914 6.874773502350
28.790515899658 -85.121604919434 -140.878402709961 4.829434871674
-19.562297821045 -74.928482055664 -174.117584228516 3.799039363861
-120.525886535645 -60.005668640137 -298.165863037109 9.963833808899
19.762262344360 -69.858032226563 -228.143875122070 3.678941488266
34.704887390137 -69.454910278320 -234.587860107422 15.777603149414
106.493019104004 -80.860847473145 -89.430320739746 9.476787567139
-142.250061035156 -67.094741821289 -283.559234619141 2.658169746399
7.397480010986 -64.175506591797 -231.338134765625 3.327884197235
34.761844635010 -79.371833801270 -148.142913818359 1.676498532295
-23.356323242188 -78.321121215820 -201.285629272461 2.464546918869
-53.022315979004 -80.698554992676 -82.155067443848 3.861306667328
-149.033676147461 -61.319358825684 -222.362228393555 0.425597190857
-107.787994384766 -59.731601715088 -303.999420166016 14.322241783142
-151.085205078125 -62.211174011230 -220.034713745117 1.038138031960
-105.681945800781 -84.995903015137 -67.191215515137 19.572513580322
-26.617193222046 -70.622001647949 -236.236801147461 4.290593147278
-123.427200317383 -71.431930541992 -288.090087890625 2.072335958481
-149.403808593750 -65.458862304688 -260.858581542969 1.776412367821
-116.033279418945 -60.675403594971 -300.273925781250 10.711122512817
-100.928680419922 -64.519676208496 -232.252227783203 7.074375629425
89.938323974609 -85.819595336914 -41.819808959961 28.078529357910
100.745986938477 -68.826637268066 -201.726470947266 2.643037557602
34.870437622070 -90.632736206055 -95.410697937012 17.410118103027
-54.144042968750 -88.681762695313 -88.883094787598 3.409872293472
-94.117111206055 -64.799858093262 -229.489730834961 8.774653434753
-102.142829895020 -83.482543945313 -81.055572509766 13.822484970093
74.457778930664 -65.643165588379 -215.428802490234 8.893526077271
29.285600662231 -94.637092590332 -19.736507415771 21.233615875244
13.404914855957 -58.448837280273 -245.252731323242 0.601781427860
-83.241172790527 -76.730392456055 -118.076118469238 5.091379165649
40.992198944092 -68.603759765625 -258.985870361328 1.884033322334
10.184467315674 -69.005081176758 -266.728454589844 8.987550735474
32.104259490967 -81.294113159180 -109.663002014160 7.589859962463
-129.382308959961 -50.910377502441 -295.682342529297 15.506275177002
21.209960937500 -74.586685180664 -233.784225463867 2.450578689575
-109.623344421387 -64.662361145020 -245.449935913086 10.447194099426
11.798436164856 -64.717697143555 -256.937713623047 7.166851043701
16.092550277710 -80.071380615234 -21.905366897583 9.387113571167
23.985641479492 -80.355117797852 -235.969543457031 6.032727241516
21.886539459229 -86.433166503906 -126.242218017578 11.022184371948
84.522041320801 -67.798667907715 -218.298522949219 1.994732141495
-32.695755004883 -61.493011474609 -275.756713867188 15.817783355713
83.930725097656 -67.653465270996 -209.633621215820 6.307264328003
-134.482955932617 -61.591621398926 -191.761825561523 5.783687591553
32.478065490723 -86.351188659668 -101.663871765137 12.374517440796
-127.417648315430 -61.456089019775 -258.726593017578 3.664323091507
87.693115234375 -86.433425903320 -48.095081329346 23.394285202026
36.435550689697 -78.683097839355 -227.970474243164 17.227638244629
-57.084117889404 -96.494827270508 -86.648315429688 10.276786804199
-115.588897705078 -52.216110229492 -297.968597412109 15.849858283997
-136.213409423828 -66.072196960449 -189.574584960938 4.789466381073
-81.887542724609 -63.299594879150 -220.430526733398 10.243305206299
-13.040195465088 -82.019554138184 -190.094940185547 7.004294395447
-58.600784301758 -82.994422912598 -208.201797485352 0.927362084389
33.027095794678 -77.665184020996 -241.139068603516 11.222410202026
6.302896022797 -66.496887207031 -226.419891357422 2.713482379913
-111.001350402832 -75.427215576172 -82.268714904785 16.150100708008
-48.221950531006 -80.376640319824 -42.750602722168 11.025610923767
13.563662528992 -61.252704620361 -245.728576660156 2.317185401917
-118.533775329590 -61.741287231445 -309.726501464844 18.052446365356
-25.881511688232 -79.657630920410 -178.707565307617 1.818592309952
-145.645507812500 -62.922512054443 -220.130447387695 1.277530550957
-2.950721025467 -71.676414489746 -219.930389404297 1.651718139648
-75.499450683594 -71.653251647949 -140.083770751953 1.188057780266
-27.833017349243 -78.099395751953 -168.026092529297 2.306913375854
-134.977081298828 -61.850120544434 -210.759613037109 5.835175514221
12.951720237732 -74.596549987793 -209.706802368164 2.693718671799
-139.048934936523 -64.696502685547 -263.848846435547 3.519296169281
43.893951416016 -69.097984313965 -248.862747192383 0.934096634388
8.096738815308 -77.875602722168 -207.769363403320 1.194954395294
24.822111129761 -74.896492004395 -260.457672119141 1.592974662781
39.116703033447 -69.435432434082 -273.014221191406 13.271546363831
33.963703155518 -78.241180419922 -244.678070068359 10.779939651489
-42.758731842041 -68.461074829102 -241.707031250000 5.099200725555
15.121650695801 -69.195327758789 -224.348388671875 1.805185079575
105.819412231445 -79.075210571289 -177.784866333008 4.008523464203
-23.646215438843 -81.772682189941 -204.263763427734 4.593888759613
98.828178405762 -80.194595336914 -49.118873596191 20.643257141113
-125.293663024902 -65.201835632324 -213.828674316406 8.856929779053
-89.740875244141 -57.098171234131 -296.085784912109 12.186688423157
-0.652552008629 -75.791679382324 -211.379028320313 4.560338497162
46.004623413086 -79.895439147949 -81.099182128906 12.341194152832
-123.528839111328 -54.780681610107 -288.341522216797 10.999470710754
-53.479370117188 -77.556518554688 -144.930618286133 2.351149797440
-20.280303955078 -65.900604248047 -278.252288818359 8.993117332458
-10.553961753845 -84.277160644531 -169.049636840820 4.088862419128
-2.350291967392 -72.175491333008 -217.062591552734 0.781186699867
34.864341735840 -83.500495910645 -115.042472839355 5.495375156403
108.750320434570 -80.414955139160 -150.054855346680 3.876514196396
17.623655319214 -76.546974182129 -179.862808227539 1.362336516380
115.965904235840 -83.997947692871 -108.956169128418 11.982476234436
95.451385498047 -86.813224792480 -80.042198181152 10.996869087219
-89.452781677246 -96.292266845703 -113.953567504883 15.971455574036
63.056095123291 -90.975028991699 -47.379505157471 26.618076324463
83.694572448730 -90.656898498535 -50.219738006592 24.726280212402
91.770729064941 -93.432334899902 -67.658760070801 19.155477523804
60.205093383789 -88.226394653320 -47.996963500977 23.608669281006
-20.059106826782 -72.260566711426 -175.526596069336 4.555607795715
-60.287616729736 -71.282501220703 -118.105773925781 4.771780490875
17.841129302979 -74.413398742676 -233.910278320313 1.509841799736
-127.773529052734 -56.871368408203 -237.152709960938 8.831881523132
-140.113861083984 -70.253044128418 -233.384368896484 1.656742215157
24.603994369507 -90.313034057617 -126.480255126953 11.521916389465
48.236911773682 -92.384536743164 -71.868003845215 25.673543930054
33.962863922119 -77.927581787109 -97.516319274902 10.607758522034
15.577293395996 -60.000537872314 -272.899383544922 4.995213508606
-20.491731643677 -77.252243041992 -203.041854858398 2.027407407761
-11.012102127075 -84.068649291992 -170.941848754883 2.709521770477
86.774925231934 -92.568260192871 -46.245365142822 28.747920989990
26.558589935303 -70.336662292480 -166.133483886719 1.433365345001
22.134981155396 -76.796424865723 -198.757766723633 2.874033451080
104.740814208984 -74.584236145020 -182.498672485352 1.699784398079
-59.956687927246 -81.210342407227 -45.835117340088 8.817026138306
-3.427184104919 -73.005058288574 -236.664062500000 1.475167393684
70.940956115723 -96.109169006348 -53.460803985596 29.000108718872
84.940582275391 -86.852516174316 -69.469375610352 12.333077430725
85.135543823242 -88.660140991211 -69.527732849121 14.000016212463
-39.010002136230 -77.683235168457 -160.296920776367 1.520496726036
59.566104888916 -82.044998168945 -46.308406829834 18.179292678833
-1.010617017746 -61.318634033203 -239.600524902344 2.106206893921
22.177154541016 -85.834167480469 0.950214028358 20.491783142090
-66.166282653809 -92.845748901367 -53.042068481445 16.348339080811
-25.342475891113 -81.267761230469 -56.683124542236 6.445446968079
64.061973571777 -89.690277099609 -59.255558013916 22.780233383179
23.546005249023 -78.419830322266 -184.877151489258 2.337720632553
44.452789306641 -59.645015716553 -256.428192138672 3.817283868790
14.775877952576 -76.600814819336 -194.171188354492 2.143662214279
12.116155624390 -60.090606689453 -257.746765136719 3.130887269974
8.677683830261 -79.814064025879 -148.378036499023 8.408879280090
-100.097000122070 -76.074577331543 -107.218421936035 6.089232921600
-131.961349487305 -64.383003234863 -197.231811523438 1.261035084724
-62.964889526367 -72.622016906738 -123.823478698730 5.071667194366
-130.482635498047 -75.283836364746 -241.478408813477 7.024713516235
42.312469482422 -87.796546936035 -95.959533691406 11.474076271057
-70.690757751465 -69.619781494141 -113.589431762695 5.028856277466
20.610288619995 -90.214500427246 3.543011903763 25.713619232178
-32.457695007324 -78.042877197266 -164.980056762695 2.315148591995
-146.577270507813 -65.297859191895 -222.252243041992 1.817447662354
18.602268218994 -71.626518249512 -211.690826416016 0.697412967682
-92.709106445313 -64.005332946777 -222.514038085938 6.494042396545
-44.089244842529 -80.504928588867 -204.119232177734 3.552898406982
-67.224731445313 -94.700309753418 -67.093139648438 13.793374061584
-140.380813598633 -62.340103149414 -266.529235839844 4.243236064911
0.077730998397 -70.018646240234 -224.958618164063 1.338008046150
20.763690948486 -67.529907226563 -278.099060058594 1.553543329239
30.581815719604 -73.255470275879 -173.836914062500 2.869741916656
-85.419464111328 -72.022674560547 -145.392730712891 5.934508800507
-116.983627319336 -59.114768981934 -314.585021972656 23.513671875000
-139.644592285156 -77.531951904297 -200.796646118164 1.820960998535
0.721126019955 -76.436164855957 -193.053192138672 9.709422111511
-63.126235961914 -78.050971984863 -163.376403808594 1.467368721962
-22.246578216553 -76.501548767090 -203.260406494141 0.917397856712
-75.935462951660 -70.037628173828 -102.242210388184 2.799562692642
38.071819305420 -91.862411499023 -107.674491882324 12.917383193970
-68.344345092773 -62.267044067383 -256.904266357422 10.078655242920
31.921926498413 -60.833686828613 -220.457656860352 16.692394256592
3.691484928131 -66.384574890137 -250.339920043945 5.883913993835
-139.405914306641 -73.073837280273 -194.544448852539 2.730067014694
0.464302003384 -76.288482666016 -156.463592529297 3.670449256897
-131.172439575195 -56.499992370605 -285.062683105469 9.304016113281
12.110770225525 -64.465820312500 -211.809417724609 3.744821310043
-58.532222747803 -63.444229125977 -290.012420654297 6.517941951752
-83.697288513184 -71.867179870605 -119.498260498047 1.495106220245
