-59.619663238525 -76.298553466797 -57.102252960205 1.243808627129
-19.862037658691 -65.059410095215 -67.441589355469 3.891700744629
68.577316284180 -73.359817504883 -80.868736267090 2.523144721985
11.699516296387 -77.029449462891 -200.454803466797 2.222675323486
22.655878067017 -66.669448852539 -275.832336425781 1.809212446213
1.750738024712 -76.346115112305 -208.649780273438 4.830602169037
-9.558828353882 -67.398315429688 -272.786773681641 3.853799104691
1.784289002419 -74.204605102539 -162.390289306641 1.745598435402
-100.693771362305 -66.119644165039 -107.865959167480 3.829552888870
-144.327682495117 -65.169723510742 -193.595947265625 0.928345561028
-66.139106750488 -64.481864929199 -129.539306640625 2.147035598755
-148.460739135742 -81.166191101074 -236.090759277344 3.336022138596
42.162372589111 -75.862121582031 -114.332153320313 2.167076349258
-72.511001586914 -60.334499359131 -118.785858154297 3.940555334091
33.769309997559 -66.710784912109 -13.221259117126 1.594137430191
-41.202045440674 -74.555961608887 -173.477844238281 1.589634537697
-162.082687377930 -69.065246582031 -216.180664062500 1.782373309135
3.144790887833 -73.440101623535 -226.978317260742 1.164749741554
-108.751304626465 -67.592216491699 -223.737670898438 2.239997148514
-57.823360443115 -81.627677917480 -210.178741455078 2.339207172394
-62.478084564209 -79.788581848145 -70.579704284668 1.348638653755
-161.814712524414 -71.282707214355 -260.931182861328 2.486655712128
-16.989826202393 -73.471214294434 -237.766006469727 1.044804334641
-3.515716075897 -77.132263183594 -293.110900878906 2.274677276611
20.022178649902 -70.580207824707 -191.116653442383 1.542820692062
-91.239631652832 -66.501853942871 -147.860977172852 2.107890367508
-144.999923706055 -73.606277465820 -311.715606689453 1.704699277878
-152.154067993164 -78.676712036133 -194.567687988281 2.292443037033
-12.035901069641 -76.109207153320 -205.702697753906 0.618644535542
-71.388153076172 -74.501647949219 -167.827514648438 5.355887889862
-36.139614105225 -77.462135314941 -212.694641113281 4.003089427948
-76.210639953613 -59.443325042725 -106.871177673340 3.062068462372
36.500015258789 -81.287948608398 -124.832290649414 1.290026903152
-89.153472900391 -69.789855957031 -261.026397705078 4.734567165375
14.983958244324 -63.692752838135 -238.622161865234 2.352782964706
-16.812950134277 -72.816856384277 -263.650695800781 1.867648005486
-151.183425903320 -73.516799926758 -188.959228515625 2.080232143402
-7.487308025360 -71.682785034180 -169.666519165039 3.587714672089
-155.236434936523 -67.613464355469 -281.072021484375 3.616080999374
-3.444777965546 -66.369026184082 -227.059921264648 2.271912097931
-83.753990173340 -74.792358398438 -294.784851074219 4.051189422607
-86.134529113770 -63.310874938965 -122.616760253906 1.516830921173
-104.020553588867 -72.170814514160 -97.972534179688 8.302134513855
-68.805404663086 -77.241294860840 -216.356475830078 4.101719856262
15.716864585876 -67.871887207031 -156.161651611328 1.519931793213
12.979955673218 -79.590782165527 -247.705001831055 2.151834964752
-87.796539306641 -74.798522949219 -294.576538085938 4.365492343903
-46.888324737549 -59.409183502197 -51.824398040771 6.411296367645
10.989724159241 -68.793411254883 -186.652130126953 4.599305152893
-13.067896842957 -69.405883789063 -240.819625854492 1.637058734894
-66.301162719727 -57.775821685791 -48.570564270020 5.659466266632
-19.712163925171 -71.812057495117 -200.543884277344 2.613181829453
-97.552642822266 -65.075805664063 -74.978500366211 1.288516998291
-113.971939086914 -69.215309143066 -292.093780517578 1.460488319397
70.872787475586 -77.119514465332 -232.083557128906 3.366305828094
-41.152023315430 -80.281974792480 -84.172706604004 1.432705998421
-68.597419738770 -72.047409057617 -258.407409667969 6.830008506775
7.730837821960 -64.408912658691 -150.834350585938 4.671251773834
40.840919494629 -67.852302551270 -100.822334289551 3.056259393692
-80.456680297852 -71.990158081055 -215.991638183594 2.094352483749
14.576233863831 -80.814544677734 -215.127563476563 1.502865433693
45.701854705811 -68.860931396484 -96.592422485352 1.502216100693
-35.861660003662 -75.757484436035 -167.893173217773 2.851628541946
-7.751667976379 -76.333106994629 -290.909301757813 2.400138139725
-149.239105224609 -66.197555541992 -309.479248046875 1.530238151550
-29.804014205933 -63.268173217773 -68.424804687500 2.060353994370
-150.580978393555 -63.182910919189 -202.031600952148 1.791479825974
59.230392456055 -62.924015045166 -83.833503723145 1.982505202293
-104.494117736816 -58.447700500488 -82.325393676758 5.995298385620
-142.635330200195 -79.589530944824 -197.594787597656 2.412019491196
-19.411401748657 -72.977722167969 -205.487640380859 1.559430718422
-111.778892517090 -67.094848632813 -202.359558105469 1.820136070251
-153.606018066406 -65.825729370117 -192.174713134766 2.671889305115
85.469436645508 -76.931510925293 -99.358940124512 2.625610589981
-149.154190063477 -79.450698852539 -197.628540039063 1.733945727348
90.282699584961 -72.200195312500 -90.261848449707 4.593997478485
10.228528022766 -78.426010131836 -232.390640258789 1.254200816154
-118.519363403320 -61.971973419189 -206.765151977539 4.327587127686
-165.064849853516 -68.416770935059 -253.774276733398 2.722554445267
-70.082275390625 -68.167579650879 -125.597740173340 4.422971248627
-31.072175979614 -78.821586608887 -296.092895507813 5.808443069458
-143.170532226563 -80.279212951660 -204.366668701172 1.469698429108
-1.539747953415 -77.958557128906 -167.356475830078 2.199814558029
42.518115997314 -83.201255798340 -106.392875671387 4.727002620697
-158.022644042969 -68.512092590332 -212.238983154297 1.976561903954
-144.068618774414 -65.526924133301 -209.402893066406 0.851194262505
-152.751235961914 -78.045799255371 -224.592712402344 0.893754303455
118.009742736816 -71.910659790039 -144.641418457031 0.980854332447
32.222202301025 -71.460472106934 -261.104461669922 1.930669069290
58.253425598145 -71.699256896973 -87.094177246094 1.110910177231
-6.848346233368 -61.744300842285 -293.650054931641 5.526881694794
-145.725387573242 -60.606258392334 -191.512649536133 2.194654703140
-143.467529296875 -69.486122131348 -196.897888183594 2.223358631134
52.971790313721 -69.741752624512 -86.675102233887 1.366717696190
-71.424774169922 -65.224365234375 -125.696670532227 2.755856037140
32.625541687012 -82.116859436035 -126.338188171387 3.465833425522
-154.631484985352 -62.271171569824 -188.057785034180 3.606700181961
-55.459770202637 -71.857048034668 -149.601745605469 2.496435642242
-48.845779418945 -75.639373779297 -184.332778930664 0.772809386253
-47.588821411133 -75.003379821777 -150.276458740234 2.367226839066
-141.939880371094 -69.802261352539 -190.093353271484 2.425848960876
4.949233055115 -73.066467285156 -244.520523071289 2.126321792603
38.084312438965 -73.044471740723 -122.978607177734 2.042050600052
-148.480636596680 -63.302204132080 -281.795410156250 1.579463124275
99.041458129883 -61.620754241943 -88.062637329102 5.541805744171
-78.625549316406 -65.123596191406 -148.671737670898 6.302785396576
-150.165618896484 -71.215209960938 -286.347503662109 2.745151758194
-122.575561523438 -64.528480529785 -205.364913940430 1.614249944687
-126.822906494141 -68.672897338867 -210.352401733398 5.128064632416
-161.071975708008 -67.402572631836 -222.203002929688 1.794977664948
-149.105331420898 -79.958190917969 -266.600219726563 2.719408035278
-32.901161193848 -73.946861267090 -164.341369628906 2.104094266891
-149.631393432617 -71.000358581543 -204.358551025391 1.451838493347
83.834541320801 -76.594772338867 -67.911033630371 4.267336368561
49.629768371582 -68.646224975586 -91.481094360352 2.726939916611
58.356678009033 -68.346389770508 -71.572631835938 8.128355979919
-65.880432128906 -69.149993896484 -138.768829345703 3.200435400009
-73.946594238281 -63.789474487305 -111.507957458496 1.264888882637
-76.393737792969 -84.580436706543 -212.232635498047 3.632496833801
-59.571636199951 -75.958709716797 -291.431457519531 1.527787446976
-149.618621826172 -67.808555603027 -180.187667846680 2.562672138214
-151.258285522461 -61.469440460205 -267.318969726563 2.196737289429
-83.273406982422 -67.837814331055 -114.637123107910 1.113027811050
-20.208566665649 -68.036026000977 -69.100181579590 3.762217760086
72.269744873047 -75.366615295410 -90.420196533203 0.313718885183
-146.396057128906 -79.166313171387 -227.122222900391 1.045262098312
8.049004554749 -78.936470031738 -192.881134033203 5.272547245026
0.408349007368 -70.252906799316 -266.704284667969 5.034620285034
63.083831787109 -70.164207458496 -77.913307189941 3.677787542343
18.068943023682 -64.755195617676 -249.332199096680 3.162222146988
81.535148620605 -69.881599426270 -107.518676757813 2.653816461563
-145.161544799805 -85.329460144043 -226.662612915039 1.891926288605
-66.693725585938 -83.373847961426 -207.986618041992 2.003830909729
-99.898887634277 -70.800643920898 -91.279594421387 4.587746143341
-76.005729675293 -73.359375000000 -47.869361877441 3.747252702713
-77.751640319824 -68.313156127930 -142.891708374023 2.314827442169
-166.611358642578 -67.001914978027 -210.241546630859 1.877341628075
-97.327697753906 -67.625732421875 -73.980072021484 2.722155332565
-153.599060058594 -71.493911743164 -285.452178955078 1.937625885010
-68.025611877441 -72.476524353027 -137.773300170898 4.248861789703
-14.584511756897 -75.126701354980 -211.263824462891 1.916429042816
-69.177207946777 -74.442863464355 -150.686614990234 0.770784258842
-154.024749755859 -65.831542968750 -192.334945678711 2.328732728958
-165.754486083984 -66.112899780273 -255.472335815430 5.060990810394
-153.409698486328 -83.881454467773 -292.305755615234 1.128654837608
72.469375610352 -64.114356994629 -61.571315765381 0.933823704720
78.724861145020 -65.827445983887 -65.236213684082 3.003369092941
-24.911745071411 -76.992118835449 -241.577453613281 1.725726127625
28.230007171631 -63.896781921387 -42.466537475586 1.989230990410
52.983264923096 -69.892578125000 -99.061775207520 2.578499078751
26.372560501099 -75.518859863281 -132.491180419922 3.061407566071
-150.201828002930 -68.092903137207 -264.838562011719 2.410762071609
-61.648666381836 -71.509918212891 -91.811584472656 2.431658029556
-11.559955596924 -79.747474670410 -241.293411254883 6.104505538940
-156.374481201172 -72.679153442383 -247.065139770508 1.214516639709
-112.849998474121 -59.464439392090 -179.289398193359 4.347572326660
-88.604324340820 -70.711585998535 -117.688194274902 2.016762256622
-37.924877166748 -65.300209045410 -49.828327178955 3.325489282608
89.705558776855 -77.030220031738 -80.862693786621 1.237975120544
-150.985168457031 -80.325363159180 -273.000366210938 1.841585040092
-87.196716308594 -79.220214843750 -114.010971069336 2.244648694992
-57.613292694092 -81.811553955078 -250.171691894531 3.610172510147
-50.074344635010 -72.844642639160 -168.971527099609 6.271526813507
-102.067764282227 -65.938163757324 -225.163650512695 2.465976953506
-154.696166992188 -67.900566101074 -202.042648315430 0.640654921532
-0.768958985806 -74.833457946777 -229.560043334961 3.516388416290
15.064134597778 -77.569038391113 -174.972351074219 2.981361150742
-152.006256103516 -64.410072326660 -182.171630859375 2.210316896439
-151.058456420898 -86.943077087402 -263.071960449219 1.483562469482
-46.016510009766 -87.948211669922 -200.657760620117 1.839302778244
-134.701324462891 -64.048912048340 -264.346374511719 2.685124397278
-6.627315998077 -69.139625549316 -236.273803710938 1.654422163963
-144.982070922852 -70.390289306641 -202.067062377930 1.701757311821
-30.559612274170 -80.038749694824 -187.613143920898 1.814004063606
-74.344329833984 -77.156768798828 -210.692779541016 1.652698636055
-134.881118774414 -62.002796173096 -209.725219726563 4.874814510345
-17.951122283936 -74.767959594727 -216.653549194336 2.150081396103
-25.804275512695 -71.551307678223 -223.651397705078 2.249000787735
-29.509025573730 -74.225204467773 -201.222839355469 3.851315259933
21.384040832520 -78.515312194824 -186.137390136719 1.436692714691
-156.180816650391 -75.964347839355 -266.180786132813 1.946039438248
-13.460503578186 -70.168106079102 -292.542144775391 2.509070396423
23.117885589600 -80.989547729492 -149.876876831055 2.651424884796
-137.988693237305 -77.200210571289 -234.710342407227 3.650267124176
-127.162185668945 -65.454887390137 -211.433639526367 6.622430324554
101.109230041504 -73.662506103516 -96.484405517578 1.905858397484
-19.099840164185 -73.339958190918 -213.544204711914 1.908698320389
-156.305892944336 -72.412940979004 -266.004425048828 1.710484504700
-46.719116210938 -69.354400634766 -148.879180908203 0.626091122627
36.370838165283 -76.867355346680 -128.848251342773 3.288939237595
-95.028686523438 -66.789001464844 -116.210647583008 3.317145824432
-159.153244018555 -64.025573730469 -200.728469848633 2.213328599930
2.847492933273 -68.326507568359 -238.961975097656 1.123817205429
-44.043025970459 -58.981544494629 -46.999828338623 1.819457530975
25.032865524292 -73.330635070801 -174.220153808594 1.855574369431
79.412651062012 -75.794845581055 -92.867904663086 2.049871444702
-9.180276870728 -79.757911682129 -168.124832153320 1.277055144310
-149.310134887695 -66.538520812988 -290.508697509766 0.834842443466
12.731790542603 -75.553131103516 -206.277313232422 2.878109455109
-149.706420898438 -73.919944763184 -319.782287597656 6.673880577087
11.183233261108 -67.536064147949 -156.281219482422 1.320058822632
-103.840461730957 -70.591018676758 -295.652709960938 5.201949119568
17.477855682373 -75.236320495605 -195.473251342773 2.650063037872
6.567989826202 -71.558746337891 -163.942016601563 2.444670438766
14.238347053528 -66.303779602051 -32.129898071289 7.373254299164
-44.901527404785 -72.018730163574 -141.618011474609 1.744292140007
-5.172669887543 -66.632423400879 -221.495376586914 0.966549873352
-169.723922729492 -68.674049377441 -284.381866455078 2.766454935074
-103.193901062012 -61.715480804443 -156.818969726563 2.694649696350
-36.107486724854 -75.810920715332 -245.937728881836 1.526995897293
-69.668167114258 -79.325492858887 -104.630126953125 4.555812358856
95.470222473145 -77.361282348633 -87.368850708008 2.926238298416
99.204627990723 -65.979721069336 -84.326675415039 2.721058607101
-146.548278808594 -67.317443847656 -316.667968750000 4.156087398529
4.347982883453 -86.391456604004 -275.213226318359 3.759902238846
-13.819989204407 -77.244499206543 -263.985778808594 2.393004179001
-148.092147827148 -76.397369384766 -193.103927612305 2.432583093643
-31.441942214966 -77.191505432129 -195.938827514648 3.379221439362
-66.440818786621 -78.692733764648 -180.775451660156 7.075901985168
-53.340175628662 -68.913429260254 -160.697860717773 5.422368049622
19.067604064941 -70.693534851074 -212.583084106445 1.082427620888
18.349647521973 -74.860122680664 -171.385818481445 1.907825827599
90.759063720703 -76.761192321777 -204.743652343750 2.409246206284
20.419248580933 -73.447006225586 -243.137466430664 2.220291852951
-58.929347991943 -73.849395751953 -296.608337402344 6.225395202637
-154.631591796875 -74.575660705566 -214.463623046875 4.160066127777
-15.839288711548 -63.051609039307 -211.194000244141 4.376588821411
-134.099472045898 -70.714202880859 -260.220153808594 2.363098382950
87.039627075195 -78.929664611816 -205.831146240234 6.584429264069
56.610900878906 -68.186134338379 -240.893554687500 0.468503147364
-99.546279907227 -58.745941162109 -60.394218444824 1.885184764862
-88.112854003906 -75.846061706543 -69.769035339355 2.956941366196
-39.369815826416 -72.649848937988 -174.716156005859 2.031359910965
-4.246236801147 -76.634071350098 -288.796264648438 0.992827177048
-171.872055053711 -67.886352539063 -211.780197143555 5.986780643463
-69.647811889648 -72.910881042480 -258.807128906250 6.555107116699
-88.871147155762 -65.035942077637 -62.866729736328 3.649673938751
21.553668975830 -66.240097045898 -160.569412231445 2.695240497589
12.848902702332 -74.863059997559 -214.109344482422 3.949685573578
13.380562782288 -85.744392395020 -218.978103637695 4.612976551056
-1.434882044792 -66.490890502930 -281.112548828125 2.426051616669
5.246070861816 -64.048576354980 -235.662475585938 1.824878811836
-164.153594970703 -66.090576171875 -264.250671386719 2.508250236511
-121.469322204590 -67.083580017090 -237.815551757813 3.668420553207
-28.511331558228 -70.787773132324 -182.612350463867 2.255178689957
-64.796600341797 -67.701194763184 -123.193122863770 3.087714672089
-22.270822525024 -80.475028991699 -228.441940307617 4.360460281372
-84.194831848145 -63.949222564697 -49.334556579590 1.669439792633
-19.330554962158 -84.680656433105 -193.223175048828 5.249974250793
29.255977630615 -66.695678710938 -39.790744781494 2.661258935928
-37.404457092285 -70.783302307129 -183.912918090820 3.076029300690
-14.650797843933 -73.947090148926 -250.250823974609 2.393133640289
-147.060180664063 -64.502655029297 -267.104644775391 1.891163349152
-130.858642578125 -73.116699218750 -234.966262817383 1.899845361710
-43.118221282959 -69.871444702148 -169.712066650391 2.488044261932
1.899273991585 -89.137077331543 -271.945037841797 5.344730854034
64.277694702148 -61.354644775391 -62.031936645508 5.016918182373
99.305732727051 -75.326400756836 -182.860168457031 4.448399066925
95.902969360352 -70.374389648438 -207.543457031250 1.493189454079
-150.520660400391 -78.774909973145 -194.824722290039 1.446764826775
82.823280334473 -77.252914428711 -78.825012207031 2.285990715027
-65.248947143555 -72.205490112305 -133.146606445313 4.198719024658
10.784609794617 -83.029533386230 -257.992248535156 2.715007781982
-154.819900512695 -67.118698120117 -186.709976196289 2.148108720779
106.676208496094 -72.838623046875 -178.726882934570 0.534431695938
33.932891845703 -67.733169555664 -31.318347930908 4.466216087341
-146.945938110352 -76.384269714355 -283.687438964844 1.206501245499
-21.139299392700 -73.021644592285 -224.856536865234 0.761239588261
-50.911769866943 -82.730934143066 -84.771331787109 2.612508296967
31.378427505493 -61.707435607910 -124.489311218262 2.095554590225
16.664613723755 -75.526824951172 -158.295135498047 3.402964353561
109.151107788086 -72.343727111816 -132.113204956055 1.356184720993
98.308052062988 -62.544200897217 -102.125167846680 2.585829019547
-79.173141479492 -82.501174926758 -87.180854797363 1.892202854156
-92.513504028320 -65.045791625977 -120.561996459961 1.589068651199
-147.723709106445 -65.870498657227 -273.259887695313 0.989767611027
-7.375484943390 -70.886795043945 -239.002700805664 1.629385471344
100.327713012695 -70.281677246094 -163.573837280273 8.247720718384
-27.823080062866 -73.115043640137 -194.767272949219 2.581082344055
100.807571411133 -69.076911926270 -88.981613159180 1.163043022156
-70.228919982910 -76.202163696289 -254.964797973633 3.489224910736
12.148839950562 -81.312652587891 -232.708282470703 1.528069615364
-166.285583496094 -63.910308837891 -220.547958374023 3.319822549820
-81.947357177734 -70.062889099121 -138.628021240234 2.608491897583
84.350929260254 -73.973358154297 -223.397933959961 1.064973354340
-54.189754486084 -75.780532836914 -197.014572143555 5.946424961090
115.057579040527 -79.402954101563 -123.697784423828 5.831519126892
-76.687240600586 -68.128349304199 -159.553726196289 6.985472679138
-67.842666625977 -77.234863281250 -185.135528564453 9.632822990417
21.283264160156 -65.389030456543 -165.928436279297 3.415668964386
-18.502691268921 -69.052742004395 -216.182006835938 3.516432523727
69.689620971680 -76.703674316406 -234.283538818359 0.986455082893
-140.063934326172 -64.155677795410 -226.868270874023 1.051759958267
-16.992111206055 -75.630065917969 -203.505187988281 2.064196109772
14.600307464600 -71.962959289551 -178.980361938477 2.730947971344
-157.127212524414 -76.362388610840 -209.220718383789 5.402858734131
11.620757102966 -82.461029052734 -248.823684692383 2.060858964920
32.169918060303 -62.140617370605 -122.140602111816 3.291944742203
-91.517158508301 -70.484100341797 -256.121948242188 2.810826301575
98.103721618652 -70.121986389160 -93.750556945801 1.779919743538
26.411882400513 -60.178718566895 -41.651866912842 2.804505586624
-125.251655578613 -65.721481323242 -204.967483520508 1.630949616432
5.618656158447 -66.825347900391 -291.475555419922 1.706288099289
16.454545974731 -70.854850769043 -188.641983032227 1.730019927025
-159.698394775391 -67.287872314453 -206.388015747070 1.927182435989
-99.397087097168 -69.916748046875 -72.613876342773 5.021593570709
-25.185974121094 -83.836380004883 -185.403549194336 1.081794857979
100.659919738770 -78.895683288574 -207.875198364258 3.400799274445
-144.437530517578 -71.093505859375 -273.262145996094 1.651781439781
13.385734558105 -91.848152160645 -259.692932128906 7.602427482605
-102.039459228516 -65.167587280273 -120.653282165527 4.480677127838
-66.618400573730 -76.515426635742 -159.438995361328 1.409919142723
20.292457580566 -76.417320251465 -143.764251708984 3.610611438751
-160.624465942383 -74.893157958984 -268.674804687500 4.110593318939
17.564765930176 -71.335174560547 -235.873550415039 1.824297189713
20.522611618042 -62.392349243164 -254.198348999023 3.586284875870
-71.027404785156 -65.036102294922 -97.542114257813 2.226852178574
28.613067626953 -81.834457397461 -139.946899414063 1.854579806328
-49.019016265869 -70.902229309082 -162.471313476563 2.273377895355
40.792354583740 -76.650444030762 -125.131462097168 1.459027528763
-67.869094848633 -72.265647888184 -143.860336303711 1.984241127968
-146.505310058594 -74.403106689453 -269.069244384766 1.983690619469
12.623104095459 -76.111557006836 -192.676742553711 2.107496976852
73.278289794922 -78.615386962891 -96.101272583008 3.653673171997
-35.746963500977 -72.447204589844 -165.700653076172 1.493393301964
-156.351043701172 -73.917709350586 -300.541717529297 1.430380225182
-15.227595329285 -79.134490966797 -266.395050048828 4.210072517395
-21.729234695435 -67.218597412109 -208.725082397461 2.763574838638
-119.720001220703 -74.316192626953 -296.261566162109 4.504703998566
-86.905578613281 -60.827468872070 -126.298385620117 3.252639532089
-22.087911605835 -70.747802734375 -204.846282958984 1.822274208069
-52.371223449707 -70.606445312500 -140.877166748047 3.451173067093
13.573821067810 -66.459892272949 -288.635894775391 1.266880035400
-48.229690551758 -75.558326721191 -85.897994995117 2.124222040176
59.956668853760 -73.940734863281 -240.765548706055 1.590172886848
-153.051452636719 -57.351303100586 -202.890029907227 2.934413433075
-50.255496978760 -81.548500061035 -195.933685302734 2.644563436508
7.894546031952 -71.662048339844 -150.432632446289 1.376885056496
-134.403900146484 -65.226646423340 -233.602752685547 1.292203783989
-17.959754943848 -73.780044555664 -215.275192260742 2.050462722778
-125.325439453125 -72.742019653320 -270.597625732422 4.932147502899
113.159904479980 -74.282638549805 -119.466476440430 1.524721860886
21.947404861450 -74.672431945801 -190.351089477539 1.689129590988
81.898612976074 -83.980735778809 -91.994064331055 4.956406116486
-47.348419189453 -76.718246459961 -248.976776123047 2.530578136444
3.827313899994 -71.403671264648 -160.225753784180 1.634424924850
-83.964271545410 -73.807601928711 -130.162445068359 4.552152633667
95.518836975098 -65.350189208984 -70.773101806641 3.697282314301
-5.512729167938 -69.868705749512 -288.289459228516 0.939715623856
-72.656364440918 -76.701896667480 -74.248245239258 3.445860862732
15.338317871094 -82.404418945313 -242.944427490234 3.743476867676
29.019079208374 -69.201431274414 -170.249176025391 2.063021898270
20.783416748047 -74.403602600098 -32.474483489990 2.321714401245
33.057716369629 -80.223190307617 -109.843940734863 6.237039089203
94.016624450684 -74.235939025879 -78.553016662598 1.640069127083
-142.260757446289 -73.652923583984 -206.551895141602 3.526869535446
-71.768386840820 -60.051200866699 -89.356040954590 5.449934005737
36.008468627930 -70.086990356445 -13.403363227844 1.022909283638
-23.259990692139 -80.197433471680 -198.692184448242 3.113551139832
-20.346992492676 -83.054039001465 -258.903594970703 8.141244888306
-156.144241333008 -70.470123291016 -309.172851562500 2.004816770554
6.528964996338 -74.516761779785 -249.002914428711 4.555738449097
15.651363372803 -80.330085754395 -215.489898681641 1.900705099106
-73.066711425781 -66.559661865234 -141.417755126953 1.238951206207
44.406726837158 -72.343940734863 -98.289390563965 1.452998876572
-23.881055831909 -68.749427795410 -241.267990112305 3.958827733994
-61.329010009766 -66.259185791016 -50.065109252930 4.700724601746
-63.913093566895 -67.700553894043 -129.286331176758 2.336306571960
-75.346565246582 -81.623657226563 -74.433166503906 1.012549757957
38.453083038330 -69.939643859863 -26.842660903931 5.244557380676
-71.098655700684 -62.403236389160 -117.286575317383 2.736181497574
-148.123703002930 -63.184947967529 -207.037200927734 2.730946540833
-111.700355529785 -71.237640380859 -188.543960571289 2.675257205963
-145.335311889648 -63.313400268555 -195.280654907227 1.690290808678
-5.871078968048 -62.638305664063 -242.722091674805 2.337989330292
-131.466842651367 -65.590782165527 -208.916534423828 4.403877735138
-89.123672485352 -69.675682067871 -124.257812500000 2.849967956543
25.967054367065 -67.156723022461 -153.271606445313 2.777239084244
-14.111934661865 -75.208961486816 -298.190246582031 5.588464736938
-150.412979125977 -84.581901550293 -229.371704101563 1.774063229561
106.557525634766 -79.564010620117 -120.711997985840 4.936716556549
-147.756515502930 -82.623634338379 -228.633499145508 1.296280026436
20.256021499634 -66.085006713867 -284.485778808594 2.906333446503
-18.481534957886 -67.812377929688 -209.586288452148 1.978835344315
-90.915939331055 -75.258666992188 -72.838882446289 1.763881683350
98.666053771973 -73.077743530273 -101.718864440918 2.706575155258
-66.342788696289 -82.430007934570 -218.578659057617 6.522230148315
-17.372671127319 -74.036552429199 -225.307983398438 1.152614593506
-168.082458496094 -71.042747497559 -234.347579956055 1.842800855637
3.797638893127 -72.453353881836 -218.502990722656 2.928326845169
-67.673377990723 -80.015739440918 -175.211944580078 5.823188304901
-40.464576721191 -63.628124237061 -56.243835449219 8.997974395752
-71.566467285156 -73.132827758789 -149.405578613281 0.863985538483
23.832899093628 -68.902763366699 -156.794937133789 2.238631725311
-22.689817428589 -74.468643188477 -216.791854858398 0.815378785133
12.077754020691 -66.789131164551 -213.451995849609 2.210051298141
-111.470298767090 -63.760467529297 -181.887496948242 2.895772933960
-136.062118530273 -74.139610290527 -203.297164916992 2.157930374146
-65.711433410645 -86.343986511230 -87.925018310547 1.113873958588
-63.245754241943 -77.104293823242 -135.834091186523 6.171316146851
89.835235595703 -72.322845458984 -209.853347778320 0.856983542442
3.197298049927 -82.498458862305 -225.509338378906 4.115011692047
-82.552780151367 -85.529739379883 -94.162170410156 3.815299749374
-22.760215759277 -80.346267700195 -181.438034057617 1.294724941254
80.658966064453 -77.924850463867 -77.020233154297 2.608155250549
-83.060615539551 -72.335762023926 -101.407669067383 3.151288986206
-118.242637634277 -71.595741271973 -201.233062744141 3.176275491714
0.657782971859 -66.221702575684 -237.519760131836 2.252406835556
98.033576965332 -66.059974670410 -102.287178039551 0.789510130882
22.062515258789 -70.700042724609 -155.213195800781 1.909598350525
-64.477561950684 -72.862648010254 -50.057212829590 2.298120975494
-16.434755325317 -76.455909729004 -289.976440429688 1.566021203995
-146.955810546875 -77.709854125977 -307.125579833984 1.509677648544
-154.748275756836 -64.654518127441 -272.104949951172 4.518330097198
23.157749176025 -73.429237365723 -147.565765380859 1.112294793129
-61.872173309326 -61.397563934326 -120.478561401367 1.991640806198
93.763565063477 -79.381683349609 -210.774490356445 3.133563756943
-66.145584106445 -66.250717163086 -96.648071289063 1.353876233101
-71.297859191895 -70.979759216309 -52.022048950195 2.004040718079
-58.430347442627 -83.653495788574 -90.048370361328 3.025213718414
105.270103454590 -69.641555786133 -118.774429321289 3.070056676865
88.029365539551 -63.619388580322 -66.954391479492 4.072744846344
-53.377006530762 -72.989128112793 -146.367645263672 2.774363517761
-81.327232360840 -74.026100158691 -213.913055419922 1.305888175964
-169.054092407227 -71.084716796875 -288.931701660156 3.090661764145
21.522146224976 -64.169761657715 -38.119964599609 1.393850564957
-42.252799987793 -74.682937622070 -185.835617065430 5.130893707275
-81.866943359375 -72.277130126953 -143.411315917969 4.832128047943
-112.403518676758 -71.354270935059 -297.149658203125 3.319259166718
-52.269683837891 -73.967842102051 -160.573013305664 2.809613227844
-63.610404968262 -79.444847106934 -174.052902221680 2.728431701660
-129.787704467773 -68.145584106445 -289.088348388672 2.515182018280
-19.172052383423 -71.356773376465 -231.449188232422 3.144948482513
18.761009216309 -68.805633544922 -11.453325271606 8.472905158997
-150.744567871094 -67.532432556152 -297.330139160156 2.072352170944
-146.297271728516 -72.235290527344 -290.411346435547 3.080527067184
-61.786586761475 -60.375926971436 -123.876182556152 3.366658449173
18.201007843018 -77.359779357910 -191.823654174805 1.692373752594
-77.216575622559 -72.705787658691 -52.116867065430 2.488028049469
-48.361034393311 -75.807556152344 -59.049423217773 1.330628037453
49.493309020996 -61.359771728516 -92.266815185547 3.394712448120
-60.986335754395 -66.417198181152 -150.011260986328 6.278145313263
22.195547103882 -70.252189636230 -39.541835784912 2.674966573715
-91.228141784668 -72.491516113281 -220.550308227539 2.298248767853
96.970367431641 -75.418258666992 -76.989723205566 2.276278018951
-51.129234313965 -66.209518432617 -88.345680236816 1.588274121284
-3.440006971359 -79.792556762695 -274.145172119141 1.679334402084
18.926557540894 -73.739929199219 -167.237747192383 0.800815403461
29.335084915161 -64.235847473145 -17.099407196045 2.505900382996
112.483375549316 -80.076499938965 -166.778808593750 2.703024387360
72.963821411133 -80.523704528809 -94.383186340332 5.439555644989
7.583202838898 -83.482353210449 -216.721954345703 4.131760120392
-79.037269592285 -65.762115478516 -51.122272491455 3.584084510803
-131.114624023438 -75.650863647461 -237.981750488281 4.784669876099
-28.635896682739 -70.625160217285 -199.544662475586 3.539847135544
111.341171264648 -71.525833129883 -146.178359985352 2.036531925201
-153.157821655273 -81.071029663086 -203.882003784180 2.272917509079
-16.993846893311 -75.955802917480 -221.455230712891 2.723315238953
-41.653728485107 -72.654380798340 -217.991195678711 9.999167442322
-140.603805541992 -74.133857727051 -296.285675048828 4.326051712036
56.415607452393 -67.488578796387 -68.517250061035 9.590984344482
-141.818115234375 -82.976600646973 -261.015228271484 2.342476844788
15.301833152771 -75.383888244629 -175.421829223633 2.891389846802
-26.566740036011 -66.037483215332 -189.241775512695 2.386890649796
-62.960624694824 -70.598411560059 -93.665542602539 1.216410756111
-46.435363769531 -81.292198181152 -70.894218444824 0.882115721703
18.058874130249 -73.631416320801 -221.535995483398 1.679619431496
-88.395889282227 -74.151268005371 -108.815109252930 3.887140274048
13.986202239990 -79.473785400391 -274.167419433594 3.087520360947
-128.501129150391 -69.177101135254 -227.519256591797 3.728908777237
-105.816833496094 -72.132575988770 -263.916320800781 3.419972419739
19.039613723755 -71.035888671875 -166.258041381836 1.464752197266
24.816368103027 -66.897293090820 -254.211166381836 0.938825070858
21.363353729248 -72.615196228027 -154.673416137695 0.530325055122
9.763384819031 -79.135887145996 -229.418075561523 1.355512619019
-41.202701568604 -79.419128417969 -86.085952758789 2.029361486435
-142.728393554688 -72.554824829102 -296.819488525391 2.591045618057
49.487598419189 -65.796218872070 -88.832733154297 2.746771574020
10.342760086060 -69.013755798340 -212.232559204102 1.225058794022
-46.954368591309 -82.325355529785 -159.279373168945 4.738159179688
87.339973449707 -78.020080566406 -97.796073913574 2.762529850006
3.440568923950 -69.653053283691 -228.405548095703 0.336527526379
26.252296447754 -77.452491760254 -129.007446289063 1.838098168373
-66.267311096191 -75.870681762695 -59.754699707031 1.822294235229
-1.469828963280 -72.685623168945 -239.952758789063 0.661487698555
22.458829879761 -72.703041076660 -166.339309692383 1.508859276772
-156.027908325195 -71.311172485352 -277.771118164063 3.573205709457
-153.025558471680 -84.155075073242 -287.021484375000 1.249226331711
-17.276660919189 -62.904888153076 -63.638412475586 3.928169250488
106.959197998047 -72.282257080078 -108.370101928711 1.246927261353
-28.124341964722 -77.448570251465 -242.820449829102 0.851233899593
-147.877746582031 -84.733268737793 -235.869247436523 2.061454057693
107.101303100586 -73.271270751953 -141.068481445313 2.443936824799
4.342841148376 -77.156173706055 -232.039581298828 0.996164917946
20.923101425171 -70.501480102539 -166.345199584961 2.027607917786
-102.690353393555 -72.806152343750 -265.381805419922 4.684168338776
22.959190368652 -65.680892944336 -37.228260040283 1.262888193130
86.700813293457 -77.072471618652 -214.920730590820 3.041914224625
-132.746353149414 -77.072868347168 -236.565963745117 4.246176242828
-91.925033569336 -67.381515502930 -49.800239562988 6.391488552094
21.131080627441 -62.738494873047 -37.371200561523 2.456311464310
11.419812202454 -80.885322570801 -282.483123779297 2.573865890503
-113.409774780273 -62.595500946045 -204.202728271484 3.529809236526
-3.718210935593 -81.363517761230 -235.582427978516 3.924312591553
-48.966808319092 -67.961219787598 -291.765319824219 3.973726272583
-86.351974487305 -71.989311218262 -252.578277587891 2.036456584930
105.845588684082 -76.495948791504 -133.670654296875 5.448128223419
-151.918533325195 -72.930511474609 -301.527435302734 3.489931106567
-153.745254516602 -71.836868286133 -295.059570312500 1.372631311417
64.875846862793 -73.396308898926 -235.020919799805 1.921389579773
4.688823223114 -81.317115783691 -240.815658569336 4.200120449066
36.876529693604 -78.319084167480 -128.600509643555 3.235266208649
37.964328765869 -75.918884277344 -254.672851562500 4.261253833771
26.367628097534 -70.294807434082 -12.035761833191 2.608398914337
34.233776092529 -73.947776794434 -113.712577819824 1.951077103615
15.724454879761 -76.606193542480 -210.336120605469 1.803726196289
4.991327762604 -75.316795349121 -161.773361206055 2.278666019440
63.067756652832 -70.306350708008 -69.304199218750 6.886718750000
87.348220825195 -76.987892150879 -94.562423706055 1.255549073219
1.176787972450 -80.118270874023 -159.589080810547 3.303677320480
19.128786087036 -78.276992797852 -196.445953369141 1.294062256813
20.824020385742 -74.128791809082 -255.802017211914 1.784892559052
-55.890209197998 -84.663253784180 -90.612373352051 1.455416560173
-45.232662200928 -76.262275695801 -85.317077636719 2.488115072250
29.957220077515 -75.321388244629 -158.808517456055 2.115342617035
-33.161430358887 -83.984878540039 -176.820327758789 5.215866565704
-146.004821777344 -80.246574401855 -275.267547607422 1.737425804138
-138.517227172852 -86.760131835938 -229.945617675781 3.769706249237
-82.789207458496 -89.149971008301 -105.353340148926 4.671768665314
-21.547794342041 -72.929840087891 -217.779602050781 0.478550970554
-14.369027137756 -81.734336853027 -218.275817871094 4.294886589050
-103.403793334961 -74.618148803711 -298.858245849609 8.164425849915
-85.809371948242 -64.110389709473 -128.974792480469 1.664659857750
-152.577026367188 -59.977912902832 -226.969192504883 2.065095424652
-151.658706665039 -67.323242187500 -195.721969604492 1.307330965996
-34.749603271484 -79.785751342773 -194.849426269531 2.574951887131
72.547080993652 -71.567596435547 -238.885070800781 1.424619793892
53.853366851807 -66.248878479004 -251.274719238281 1.804439067841
-17.994869232178 -77.433334350586 -229.550933837891 1.392455220222
-96.791847229004 -75.249168395996 -266.053161621094 8.258260726929
67.376518249512 -71.983352661133 -235.964996337891 1.266253113747
-3.393372058868 -66.804313659668 -232.993423461914 1.932527780533
86.276382446289 -66.887634277344 -59.682193756104 3.741161346436
14.782748222351 -66.620239257813 -177.711120605469 3.324079751968
1.899801015854 -59.857044219971 -243.654006958008 0.947009325027
-140.644683837891 -82.897338867188 -290.703491210938 2.738351106644
-145.530532836914 -77.922576904297 -263.531280517578 2.602826356888
16.587953567505 -71.009201049805 -189.598983764648 2.549597978592
33.220279693604 -70.490859985352 -134.954193115234 2.276786327362
-16.030385971069 -70.635635375977 -293.920379638672 2.079392910004
-80.229377746582 -64.247741699219 -134.185394287109 2.570751667023
-160.303161621094 -69.327697753906 -228.732696533203 2.609954357147
-3.639652967453 -80.654792785645 -223.485610961914 2.102980613708
-146.160980224609 -87.281295776367 -293.681243896484 0.706958830357
-174.673431396484 -64.727264404297 -267.633483886719 8.547917366028
66.723258972168 -66.456230163574 -104.844161987305 4.142152309418
83.747116088867 -68.194015502930 -207.373413085938 6.964620590210
18.682067871094 -64.416206359863 -138.577407836914 2.805301666260
-155.778686523438 -65.936584472656 -208.277679443359 3.358706235886
18.764328002930 -69.663337707520 -163.173812866211 3.142970800400
-49.233657836914 -82.575279235840 -192.851272583008 3.263337850571
-51.883045196533 -73.238922119141 -139.848754882813 1.233509898186
-17.870613098145 -66.693733215332 -212.252655029297 3.073539018631
-73.278106689453 -72.988616943359 -263.857055664063 9.474650382996
-160.187835693359 -71.924102783203 -209.203079223633 4.144988059998
-150.771514892578 -69.155494689941 -312.537170410156 1.958750128746
-106.815597534180 -71.364379882813 -296.543304443359 4.533476352692
5.796216011047 -75.152473449707 -245.594146728516 1.938267827034
-156.100326538086 -65.883224487305 -227.925842285156 3.359185218811
-69.126556396484 -66.710029602051 -93.630699157715 3.916771411896
-28.299219131470 -80.243644714355 -202.944610595703 3.765676259995
83.098731994629 -61.822879791260 -112.334625244141 5.084479331970
-123.828025817871 -74.102561950684 -211.969436645508 7.137465953827
-144.644897460938 -77.263549804688 -207.326934814453 2.389753103256
-31.132457733154 -77.812705993652 -178.596618652344 1.173344731331
-68.242080688477 -85.154754638672 -96.388366699219 2.106585502625
-158.524581909180 -71.099929809570 -223.838378906250 2.692357778549
6.423634052277 -68.744232177734 -245.002182006836 3.121145725250
-84.019905090332 -62.753898620605 -129.906219482422 2.691343545914
-75.560684204102 -67.697296142578 -111.579147338867 1.259773731232
-52.057811737061 -74.300727844238 -297.466827392578 6.640039920807
-149.248397827148 -65.348327636719 -231.650329589844 1.934131503105
-148.522262573242 -59.694442749023 -204.768295288086 1.196820378304
96.343696594238 -71.694023132324 -203.957107543945 2.369553804398
16.760034561157 -67.112129211426 -182.086318969727 3.315023899078
111.853614807129 -69.934455871582 -129.773452758789 1.396734595299
15.015623092651 -71.337448120117 -24.677671432495 5.372020721436
90.693794250488 -72.324424743652 -102.255645751953 1.416035175323
-141.367080688477 -58.633777618408 -210.930160522461 6.429427146912
-24.003599166870 -70.636222839355 -215.910919189453 1.649146914482
-33.607032775879 -82.982025146484 -195.523117065430 1.578286886215
-77.870407104492 -62.152317047119 -137.608657836914 3.440841674805
48.774650573730 -80.110404968262 -101.062866210938 2.745401382446
-8.908165931702 -80.602951049805 -275.634674072266 3.291811704636
-66.882026672363 -71.940711975098 -60.727237701416 5.144906997681
-49.142635345459 -69.781929016113 -150.116317749023 1.412862896919
-155.688446044922 -63.227760314941 -297.136444091797 4.057734489441
-6.332962989807 -80.414207458496 -227.109313964844 2.097576379776
-58.583614349365 -89.124496459961 -207.871902465820 5.535812377930
-51.657005310059 -72.422416687012 -149.197357177734 1.622754812241
96.856674194336 -67.566734313965 -98.782508850098 2.801331043243
22.007926940918 -71.897247314453 -194.212982177734 1.810403704643
102.342338562012 -72.861763000488 -120.183921813965 3.714987039566
-146.594924926758 -61.749134063721 -222.982574462891 0.826151847839
-77.809402465820 -70.298439025879 -103.075202941895 2.723068237305
-10.707727432251 -76.235115051270 -239.157089233398 3.499052524567
-135.423507690430 -62.961360931396 -270.977508544922 8.371041297913
-59.943775177002 -65.589416503906 -142.614028930664 2.924638748169
-31.713582992554 -69.287712097168 -188.161697387695 1.749476432800
97.157928466797 -64.520004272461 -98.619720458984 3.353370428085
-148.243972778320 -81.512329101563 -210.192916870117 1.039366960526
58.759605407715 -69.145545959473 -240.331817626953 1.795409679413
16.636238098145 -72.928405761719 -181.177947998047 1.924280524254
-148.230316162109 -67.039749145508 -263.598083496094 2.075709819794
9.852739334106 -59.442237854004 -243.812271118164 2.808262586594
-83.186080932617 -69.420730590820 -123.473464965820 2.094429254532
-132.677429199219 -68.734207153320 -298.414459228516 4.960568428040
-142.237182617188 -77.320655822754 -297.177947998047 5.362461090088
-96.990463256836 -74.488662719727 -71.842079162598 5.670364379883
49.601810455322 -75.295845031738 -95.445686340332 1.096512436867
-26.767183303833 -80.081001281738 -228.125564575195 6.660870075226
-47.873558044434 -77.713485717773 -252.190185546875 5.736256122589
-39.001895904541 -67.545669555664 -84.736770629883 5.659164905548
3.791485071182 -63.742889404297 -276.904174804688 3.679156541824
47.020549774170 -72.381172180176 -110.230155944824 2.116589069366
-32.526195526123 -83.563476562500 -181.783020019531 4.500566959381
-40.316978454590 -74.481513977051 -61.971843719482 2.600617408752
19.892490386963 -71.817504882813 -180.385787963867 2.702583789825
-33.136905670166 -75.168876647949 -183.370315551758 0.963156223297
13.175820350647 -83.471038818359 -242.919494628906 2.014680862427
13.400062561035 -59.545787811279 -35.090744018555 7.009662151337
-154.954559326172 -79.099807739258 -237.088638305664 4.847442150116
36.025112152100 -74.580062866211 -26.649196624756 8.503474235535
18.170940399170 -73.009071350098 -191.025909423828 3.201380968094
-41.917015075684 -74.255775451660 -157.921218872070 3.002141714096
18.495288848877 -75.629783630371 -143.999237060547 4.744426250458
-134.579452514648 -69.308135986328 -287.035034179688 0.546101093292
29.990491867065 -68.390632629395 -121.319686889648 2.964612960815
93.343345642090 -71.036567687988 -96.379997253418 3.957686901093
-35.434276580811 -78.388236999512 -183.474975585938 2.491139650345
-141.929946899414 -76.026336669922 -205.459396362305 1.338597297668
-76.911056518555 -67.857208251953 -137.636001586914 1.028583884239
52.145187377930 -75.636108398438 -244.280548095703 4.036050796509
0.681375980377 -80.364982604980 -240.454086303711 3.241649866104
-148.167495727539 -79.020820617676 -224.656890869141 2.339200019836
-118.771537780762 -71.376991271973 -299.847778320313 7.212204933167
35.112026214600 -60.503158569336 -119.891708374023 2.304728507996
-66.010391235352 -78.338699340820 -76.632881164551 4.665705204010
-49.809879302979 -68.852294921875 -158.414474487305 1.701507806778
-126.895332336426 -74.846443176270 -205.117538452148 3.638284683228
-15.388749122620 -78.392555236816 -228.794326782227 3.054907083511
-60.765274047852 -75.481185913086 -179.905288696289 2.201285600662
-47.799476623535 -80.385482788086 -166.824295043945 3.565686464310
-113.555633544922 -70.768218994141 -299.930175781250 6.211179733276
-102.920211791992 -70.560211181641 -293.649414062500 3.886656045914
-28.174432754517 -79.569450378418 -194.012527465820 3.486337661743
-1.774778962135 -69.442657470703 -281.526306152344 4.282353401184
-92.510688781738 -64.477691650391 -294.823333740234 5.984398841858
4.575568199158 -77.902107238770 -159.482208251953 1.876094460487
-114.523956298828 -73.310859680176 -300.526214599609 7.450941085815
-60.299720764160 -65.357429504395 -80.312515258789 4.063777446747
-80.876815795898 -66.925964355469 -140.496276855469 3.145334720612
39.469669342041 -70.256805419922 -112.618804931641 1.875155568123
-91.669502258301 -63.032020568848 -121.572479248047 1.250999212265
34.083412170410 -60.415367126465 -42.782455444336 1.553442120552
-96.632003784180 -71.717315673828 -123.438896179199 4.656264781952
-23.812656402588 -73.341659545898 -193.574371337891 2.523623943329
41.375411987305 -76.601608276367 -105.834060668945 2.188949346542
-62.586673736572 -67.543746948242 -132.486373901367 0.571050226688
-149.318481445313 -73.609001159668 -216.218902587891 1.443014025688
50.758838653564 -69.578742980957 -104.692665100098 1.821892380714
-152.878662109375 -78.085945129395 -254.684646606445 2.143673181534
27.783664703369 -79.194694519043 -159.834274291992 0.968857347965
-45.362327575684 -69.785530090332 -85.112571716309 1.749173402786
-151.251541137695 -77.008361816406 -243.580688476563 2.282627582550
46.052795410156 -66.125411987305 -23.004413604736 3.238523483276
-155.462966918945 -73.873504638672 -306.670684814453 2.073966026306
27.332500457764 -67.940025329590 -256.559692382813 1.538329124451
-130.786453247070 -69.801956176758 -292.551849365234 1.700554490089
-42.163417816162 -68.244201660156 -170.788726806641 1.981834769249
108.417778015137 -72.434783935547 -125.681716918945 1.898374795914
-48.161098480225 -82.460975646973 -66.441101074219 3.245283365250
-150.775054931641 -78.318771362305 -261.319915771484 2.622956275940
26.014122009277 -75.643424987793 -43.601081848145 6.254651069641
-149.765823364258 -73.988281250000 -229.807540893555 1.510042548180
26.011974334717 -79.061561584473 -162.568054199219 1.041678428650
-27.375604629517 -74.153923034668 -225.204299926758 3.448730230331
-22.635869979858 -78.690605163574 -242.331146240234 1.760293841362
-3.886324882507 -74.482299804688 -234.564010620117 1.553251266479
15.537886619568 -75.541984558105 -26.042556762695 6.479126453400
-136.688003540039 -73.446228027344 -240.003601074219 6.656621932983
16.809196472168 -65.890930175781 -31.768095016479 5.869007110596
-84.466491699219 -60.248718261719 -129.407531738281 4.306711196899
7.234869003296 -64.833053588867 -246.855239868164 1.364482283592
20.376508712769 -76.183334350586 -186.477081298828 2.167602062225
-81.672904968262 -62.732402801514 -127.162803649902 1.958465576172
42.182144165039 -80.773918151855 -115.202407836914 1.969055771828
-166.870574951172 -72.707695007324 -221.397628784180 2.789460420609
104.237014770508 -77.553535461426 -114.833160400391 3.657777309418
103.562965393066 -68.715835571289 -114.509544372559 2.127325773239
-14.853906631470 -82.639526367188 -215.108825683594 4.878167629242
-85.628631591797 -80.506889343262 -96.680152893066 1.772567391396
3.434422016144 -64.538024902344 -260.800170898438 2.116473436356
-149.543441772461 -69.299560546875 -206.676513671875 2.557161092758
-55.292678833008 -75.485076904297 -153.619491577148 4.169807910919
-27.087783813477 -80.869583129883 -192.400558471680 3.684859275818
-0.588068008423 -62.031791687012 -234.385772705078 2.836083173752
-33.548572540283 -77.484336853027 -194.776565551758 3.544850587845
-25.308761596680 -68.098739624023 -207.337707519531 4.074946880341
27.700548171997 -73.907020568848 -260.494842529297 4.119333744049
-145.346542358398 -77.057083129883 -252.106994628906 0.693757176399
-74.560791015625 -71.496025085449 -253.459915161133 2.057492256165
-27.695215225220 -78.500251770020 -185.051681518555 1.509859442711
-96.000190734863 -67.721069335938 -224.497009277344 3.143261909485
-145.698944091797 -76.488212585449 -289.944915771484 2.698133945465
59.517524719238 -68.632682800293 -99.350601196289 1.878387331963
-102.517112731934 -60.379314422607 -80.791290283203 3.398884773254
-149.521392822266 -73.205131530762 -262.891204833984 2.308143615723
48.145183563232 -73.929336547852 -102.194488525391 3.465776205063
-39.631683349609 -77.526069641113 -68.976440429688 3.064150810242
