-87.084770202637 -61.884094238281 -19.028594970703 27.266620635986
66.740898132324 -66.781776428223 -116.285461425781 12.030166625977
9.234138488770 -61.498313903809 -69.472381591797 19.909824371338
5.192802429199 -63.130516052246 -66.075927734375 15.168039321899
22.269371032715 -63.255661010742 -78.087585449219 30.260978698730
34.958778381348 -64.539215087891 -90.679321289063 13.119965553284
-10.178169250488 -62.376068115234 -41.446533203125 11.751221656799
35.557838439941 -68.108886718750 -83.592895507813 15.839179992676
56.373222351074 -72.994911193848 -103.301162719727 1.290182471275
-70.023162841797 -56.775405883789 -0.875335693359 41.720787048340
48.702415466309 -64.845733642578 -91.582244873047 1.850199103355
66.599464416504 -72.618446350098 -105.443267822266 7.529921531677
73.172203063965 -74.371551513672 -108.769775390625 7.165682792664
18.178657531738 -63.281105041504 -65.528015136719 27.582128524780
36.341072082520 -62.575805664063 -86.551681518555 14.704439163208
72.990135192871 -71.523231506348 -110.475173950195 6.841175556183
9.415275573730 -62.275077819824 -56.494781494141 18.244750976563
30.976768493652 -66.319046020508 -77.578674316406 23.197029113770
48.603553771973 -68.117286682129 -89.500808715820 2.815338850021
69.744636535645 -68.782707214355 -105.790390014648 3.400478363037
49.405372619629 -64.070198059082 -93.312896728516 1.323976993561
67.197792053223 -70.408012390137 -102.557937622070 4.315896511078
71.792625427246 -68.199798583984 -106.404388427734 2.878541946411
-44.994598388672 -57.354499816895 -19.151763916016 24.791311264038
-43.307289123535 -57.954917907715 -5.874877929688 38.054805755615
-45.132835388184 -54.609863281250 6.144683837891 49.903533935547
-78.676315307617 -82.946960449219 -344.380981445313 53.897472381592
-86.934677124023 -74.836532592773 -342.138885498047 50.528003692627
-75.543632507324 -74.865180969238 -343.307617187500 52.145191192627
-86.739730834961 -73.583229064941 -326.538543701172 34.913024902344
-67.313613891602 -74.817932128906 -336.099761962891 45.199325561523
-87.701385498047 -76.453857421875 -327.932678222656 36.465717315674
-78.753219604492 -69.586700439453 -321.470611572266 30.518417358398
-76.655685424805 -70.932373046875 -315.849670410156 24.836069107056
-62.323917388916 -78.017364501953 -329.593109130859 38.891380310059
-71.701324462891 -74.637123107910 -316.787231445313 25.639780044556
-65.326004028320 -74.320358276367 -329.571685791016 38.590251922607
-67.002365112305 -77.535224914551 -321.497985839844 30.752687454224
-67.073974609375 -73.636032104492 -317.557128906250 26.680883407593
-65.297927856445 -76.176490783691 -317.481933593750 26.599201202393
-54.888336181641 -74.939064025879 -322.588134765625 31.738243103027
-62.112598419189 -78.837333679199 -315.730651855469 25.355764389038
-112.588119506836 -74.627639770508 -262.833587646484 2.753162860870
-112.648742675781 -75.230712890625 -277.079254150391 10.356619834900
-152.689468383789 -68.688705444336 -232.227111816406 1.474812865257
-145.993408203125 -64.524826049805 -227.459777832031 1.967003107071
-11.628593444824 -76.529960632324 -327.261535644531 35.227069854736
-7.963836669922 -75.948432922363 -324.668182373047 32.647563934326
-82.096969604492 -68.365882873535 -262.036956787109 7.428956031799
-140.050201416016 -64.774147033691 -222.558288574219 4.892855644226
-86.806365966797 -70.565750122070 -253.091033935547 2.046942949295
-100.366195678711 -63.639198303223 -229.650115966797 6.411247730255
-14.300834655762 -75.651367187500 -301.578765869141 9.792216300964
-16.865745544434 -78.496017456055 -292.110321044922 2.131651639938
13.848625183105 -76.349929809570 -320.123596191406 25.989774703979
1.268402099609 -73.205429077148 -300.914093017578 8.649993896484
-110.273414611816 -63.755981445313 -219.238052368164 6.616878986359
-109.148056030273 -69.539199829102 -215.247207641602 7.342573642731
-22.029388427734 -73.402084350586 -281.297576904297 6.653884887695
2.401367187500 -69.625350952148 -295.025177001953 2.991860389709
-14.204032897949 -70.034263610840 -281.412811279297 4.528645038605
23.909675598145 -73.575180053711 -315.768646240234 23.626291275024
-121.581932067871 -65.048072814941 -191.781250000000 3.737982511520
-17.446311950684 -66.917373657227 -268.001525878906 4.432870864868
34.765434265137 -79.649185180664 -310.365570068359 26.157022476196
-12.493667602539 -77.223258972168 -271.250854492188 3.021827459335
31.014610290527 -79.968338012695 -309.014465332031 22.636362075806
-112.533561706543 -67.462364196777 -188.859497070313 1.510417699814
-16.811363220215 -74.872665405273 -260.255859375000 2.629145860672
44.192207336426 -75.070404052734 -304.029876708984 30.290830612183
35.438270568848 -77.134040832520 -300.224212646484 20.958917617798
38.906990051270 -73.839813232422 -305.188354492188 25.980932235718
41.606849670410 -72.326759338379 -306.226898193359 28.903030395508
-19.978134155273 -71.633384704590 -259.996612548828 5.133600711823
-17.495765686035 -68.106323242188 -257.503479003906 3.723670244217
-12.587486267090 -74.043663024902 -268.334564208984 0.995009839535
46.462898254395 -76.784667968750 -299.359130859375 31.060462951660
-8.269531250000 -74.969146728516 -257.339996337891 4.683275699615
52.410514831543 -74.928131103516 -293.614196777344 35.247467041016
53.013206481934 -79.309661865234 -298.738708496094 37.404117584229
-17.053184509277 -73.820472717285 -255.088836669922 3.123069763184
-100.743644714355 -63.282356262207 -184.731414794922 6.136892795563
59.586540222168 -72.642410278320 -294.725463867188 41.510509490967
-76.961563110352 -60.822166442871 -182.509735107422 22.152145385742
-6.182716369629 -70.583045959473 -243.614868164063 2.693737745285
-89.629211425781 -66.139984130859 -175.371475219727 12.756659507751
-10.744987487793 -74.106300354004 -241.819625854492 1.807344317436
-87.191062927246 -63.890258789063 -174.307144165039 14.854165077209
-59.715202331543 -64.896011352539 -187.322097778320 11.386493682861
-91.108734130859 -62.228775024414 -179.423339843750 13.356643676758
54.964332580566 -82.669113159180 -288.260437011719 36.446826934814
62.166236877441 -76.109390258789 -291.009826660156 40.122650146484
71.059806823730 -77.550994873047 -290.343566894531 44.047492980957
-84.649604797363 -64.238052368164 -172.288574218750 16.690118789673
-17.741058349609 -71.885414123535 -217.121734619141 1.857853055000
-68.346801757813 -68.932060241699 -173.600204467773 7.557929515839
-59.391792297363 -64.297134399414 -181.188400268555 10.067194938660
67.267555236816 -78.790100097656 -270.794769287109 25.906785964966
-54.925399780273 -64.917457580566 -187.023040771484 9.744971275330
-9.684501647949 -72.918579101563 -209.705215454102 1.021641135216
-0.914482116699 -72.975280761719 -218.035675048828 1.705605149269
73.515830993652 -75.656578063965 -269.976928710938 27.296932220459
6.735252380371 -76.597221374512 -223.621292114258 2.734620094299
-20.984077453613 -65.449539184570 -203.358123779297 2.241463661194
8.208427429199 -72.877189636230 -220.476486206055 1.187240958214
-74.558074951172 -72.717437744141 -163.171264648438 5.958609104156
-68.579063415527 -68.545089721680 -167.350265502930 5.408222675323
-69.854629516602 -67.795204162598 -161.673370361328 4.264937877655
71.158088684082 -77.939712524414 -271.227905273438 27.689226150513
-52.989074707031 -70.413696289063 -173.055389404297 4.772581100464
1.991798400879 -66.042510986328 -206.011077880859 8.174564361572
-59.549934387207 -63.189804077148 -154.796859741211 9.862875938416
-57.264869689941 -63.633598327637 -156.737701416016 9.513994216919
-51.093482971191 -65.407760620117 -176.156341552734 9.461541175842
-43.791603088379 -74.940002441406 -175.747573852539 4.163431167603
79.877174377441 -81.285102844238 -261.502807617188 25.274414062500
-37.440002441406 -66.913337707520 -171.783752441406 2.741008520126
0.530311584473 -71.657005310059 -205.852310180664 7.360118389130
84.448539733887 -70.841255187988 -245.454803466797 13.445715904236
-128.961318969727 -58.310920715332 -98.086685180664 28.784379959106
-123.005622863770 -60.323944091797 -105.894866943359 23.762708663940
-128.244628906250 -62.452178955078 -97.905059814453 28.661363601685
-120.208518981934 -65.559783935547 -99.916763305664 21.354110717773
-27.124740600586 -70.386383056641 -170.860977172852 2.719412803650
-23.476577758789 -69.300621032715 -169.518859863281 5.789660930634
18.150291442871 -74.896774291992 -193.631500244141 3.335877895355
-114.156600952148 -61.777236938477 -96.561050415039 14.666089057922
-118.368873596191 -63.406265258789 -97.598831176758 19.006681442261
-20.260955810547 -76.701354980469 -168.699737548828 7.825637340546
6.545555114746 -66.529724121094 -195.509521484375 6.053152561188
-110.106918334961 -60.688308715820 -92.821640014648 10.469165802002
-33.521163940430 -63.576347351074 -165.614700317383 6.538280010223
79.950538635254 -72.392707824707 -242.933609008789 9.045851707458
86.985008239746 -78.124771118164 -242.189193725586 13.861396789551
15.704231262207 -71.358131408691 -193.375579833984 3.015306711197
-16.473709106445 -63.479949951172 -168.119216918945 14.407217025757
-15.046501159668 -64.417297363281 -158.905364990234 16.710525512695
-113.152572631836 -64.763191223145 -84.966629028320 14.455148696899
-101.492919921875 -63.287551879883 -91.741058349609 3.410800457001
-94.974365234375 -63.846961975098 -101.984771728516 3.313433170319
-93.738937377930 -59.925964355469 -99.140289306641 6.043919563293
-11.636062622070 -69.780700683594 -165.276977539063 7.859930038452
10.850914001465 -67.879035949707 -185.295043945313 3.947342634201
79.937812805176 -79.668380737305 -229.590469360352 4.249979972839
-112.790580749512 -60.679779052734 -86.936523437500 13.323817253113
-108.736709594727 -64.268119812012 -81.355850219727 10.713996887207
-111.456214904785 -67.307975769043 -84.288909912109 13.367367744446
-117.051803588867 -65.395538330078 -76.847808837891 18.671178817749
-16.816108703613 -69.050468444824 -154.124923706055 18.091518402100
-8.694854736328 -63.283592224121 -169.277557373047 11.736689567566
-111.352676391602 -68.310104370117 -87.487152099609 13.771926879883
-11.806251525879 -65.682586669922 -164.434570312500 11.556118011475
-123.765457153320 -59.307464599609 -73.605072021484 24.304735183716
-98.698043823242 -62.125053405762 -93.337799072266 1.817638158798
20.742149353027 -73.536857604980 -171.827636718750 2.678574800491
-121.113052368164 -61.770103454590 -71.463958740234 22.243011474609
-106.308685302734 -59.573173522949 -83.012329101563 6.894160747528
15.160438537598 -68.332778930664 -178.513595581055 2.393726110458
-113.618400573730 -57.636779785156 -72.875518798828 14.119288444519
-11.820495605469 -66.962028503418 -157.344329833984 13.695270538330
87.040931701660 -75.699966430664 -235.144348144531 8.347079277039
-107.057800292969 -60.847389221191 -67.602539062500 8.822426795959
-115.145652770996 -59.373550415039 -62.805999755859 17.065502166748
-49.004730224609 -67.216270446777 -113.060333251953 10.802145004272
84.796943664551 -75.355163574219 -220.779815673828 1.478103637695
10.506355285645 -69.435646057129 -159.870178222656 2.288548707962
-109.241409301758 -60.766952514648 -70.587951660156 10.582140922546
-55.645408630371 -70.058494567871 -105.195404052734 12.154099464417
6.615409851074 -69.292381286621 -161.352691650391 1.709745407104
31.200584411621 -73.033256530762 -164.118423461914 1.451632380486
-96.868431091309 -59.835472106934 -70.394042968750 1.850255608559
15.534767150879 -67.364746093750 -155.312774658203 2.242810964584
5.139717102051 -73.986549377441 -146.962493896484 7.403275489807
1.726608276367 -72.364662170410 -145.777877807617 9.722388267517
83.783241271973 -73.517936706543 -213.671112060547 3.079585790634
-3.015518188477 -72.818969726563 -146.951110839844 12.355026245117
-5.899757385254 -67.679748535156 -140.684539794922 18.857250213623
-63.249481201172 -63.916702270508 -92.771820068359 1.763103127480
9.316535949707 -69.356079101563 -143.206222534180 6.298430442810
88.024253845215 -76.009712219238 -212.014251708984 0.607675790787
81.320732116699 -75.589233398438 -207.359130859375 7.801380634308
26.399299621582 -65.598800659180 -157.631210327148 3.524551153183
11.771598815918 -69.658256530762 -143.947586059570 4.335617065430
82.079582214355 -66.634635925293 -203.309478759766 11.123600006104
-81.816726684570 -62.430740356445 -76.373138427734 14.436602592468
0.125503540039 -66.153335571289 -141.054229736328 14.537887573242
-59.892768859863 -65.911209106445 -89.973495483398 1.642429947853
-61.441871643066 -60.834091186523 -84.563171386719 0.766448140144
-83.568801879883 -63.346015930176 -68.614990234375 10.714657783508
82.372779846191 -73.330520629883 -201.543777465820 10.084069252014
-77.351776123047 -60.163681030273 -73.148712158203 11.336211204529
25.230262756348 -70.142471313477 -149.382064819336 1.640246391296
78.679039001465 -73.834579467773 -198.877700805664 14.605628013611
12.155799865723 -67.268791198730 -139.683898925781 6.355622768402
16.971885681152 -67.385551452637 -143.013702392578 1.404242277145
21.144676208496 -70.734077453613 -143.197723388672 2.802284479141
29.927192687988 -68.895584106445 -153.347885131836 2.247785091400
86.913566589355 -74.029579162598 -202.848907470703 6.009169101715
37.457817077637 -69.554611206055 -156.159194946289 5.339628696442
27.155723571777 -68.190170288086 -148.938186645508 1.542317986488
17.059196472168 -66.997459411621 -148.776779174805 2.994498968124
21.623222351074 -71.171325683594 -141.826293945313 3.915936708450
37.826942443848 -72.088172912598 -156.401000976563 4.911644458771
19.584968566895 -71.520278930664 -138.596694946289 5.598257541656
86.232566833496 -74.258644104004 -188.628372192383 13.309450149536
19.816902160645 -71.422561645508 -139.976669311523 4.873535156250
40.864128112793 -70.376197814941 -162.578903198242 9.294632911682
-96.170555114746 -63.661163330078 -39.599548339844 14.363745689392
27.467247009277 -69.268066406250 -135.658279418945 1.529112100601
22.674949645996 -69.439170837402 -133.581756591797 5.557216644287
-91.254180908203 -61.200805664063 -24.732330322266 23.571966171265
24.883293151855 -67.644493103027 -131.823440551758 4.731437683105
47.233222961426 -67.789840698242 -149.582626342773 13.319756507874
-79.402114868164 -57.653762817383 -41.916961669922 2.781412363052
-17.929145812988 -65.723175048828 -93.150329589844 18.893369674683
-10.588935852051 -67.977600097656 -98.402877807617 26.338445663452
77.689216613770 -73.810653686523 -167.691757202148 28.354434967041
-27.059379577637 -64.455802917480 -88.909210205078 12.076842308044
45.158149719238 -69.972480773926 -145.432037353516 9.767365455627
-24.048736572266 -64.006729125977 -85.318481445313 10.684615135193
20.117469787598 -67.646484375000 -123.368545532227 11.736914634705
-78.919296264648 -59.243347167969 -38.046295166016 6.561732292175
73.516685485840 -74.248588562012 -163.023559570313 33.730201721191
-30.226287841797 -68.115036010742 -82.845962524414 5.510834693909
-36.387977600098 -63.092704772949 -69.743927001953 5.009803295135
-37.760597229004 -57.483551025391 -72.552795410156 2.217293262482
-55.671798706055 -61.304489135742 -50.577117919922 7.609385490417
-45.486206054688 -65.297485351563 -60.901580810547 11.733304977417
-42.849090576172 -65.206962585449 -59.296508789063 10.717288017273
55.520042419434 -70.423233032227 -136.655822753906 16.183418273926
-55.998695373535 -65.110778808594 -41.166351318359 3.442079067230
45.974021911621 -65.344612121582 -106.242568969727 1.603938937187
-59.842781066895 -57.210281372070 -18.070465087891 24.175674438477
-77.788681030273 -60.184738159180 -3.914764404297 39.501022338867
-41.841178894043 -60.745147705078 -25.012145996094 19.753719329834
-36.912849426270 -60.377655029297 -38.029510498047 8.659228324890
-3.679893493652 -68.563423156738 -54.313415527344 9.841326713562
15.702644348145 -70.746864318848 -66.818603515625 26.743783950806
23.077262878418 -67.396492004395 -76.704284667969 29.983798980713
49.752967834473 -69.374214172363 -93.277404785156 1.445877909660
50.451469421387 -69.845230102539 -96.018249511719 3.058619976044
32.557121276855 -66.063674926758 -79.925201416016 20.538797378540
31.655281066895 -67.895736694336 -81.860198974609 20.067270278931
45.992149353027 -71.017364501953 -86.644042968750 5.955528259277
4.338768005371 -62.416694641113 -54.823913574219 13.682213783264
20.312507629395 -68.830032348633 -64.345092773438 25.757129669189
50.536460876465 -72.749229431152 -91.828140258789 1.809230208397
49.560157775879 -68.056541442871 -91.104019165039 1.456973671913
57.822105407715 -69.597610473633 -96.666168212891 1.084182977676
66.400810241699 -73.513626098633 -98.739868164063 5.289402008057
-11.531959533691 -65.030281066895 -51.108703613281 5.075046062469
-56.526634216309 -62.726493835449 -13.112884521484 29.698093414307
-28.858428955078 -61.143272399902 -24.842254638672 23.116798400879
-53.582221984863 -56.076019287109 1.941802978516 44.545299530029
-56.797164916992 -58.802337646484 0.569763183594 42.920459747314
-45.142951965332 -60.504638671875 -3.027862548828 40.571514129639
-64.779052734375 -73.133445739746 -339.067291259766 48.083080291748
-87.396804809570 -74.024368286133 -322.449066162109 30.824365615845
-60.945220947266 -73.818290710449 -340.812469482422 49.957660675049
-57.490699768066 -71.917221069336 -334.479125976563 43.661193847656
-7.233970642090 -81.815620422363 -329.821350097656 38.303668975830
6.536231994629 -79.904304504395 -330.236083984375 37.229129791260
9.453300476074 -79.046218872070 -326.028411865234 32.480762481689
12.962074279785 -79.328643798828 -319.280792236328 25.487619400024
-23.076217651367 -74.781585693359 -292.138854980469 3.080062150955
-20.438163757324 -74.611427307129 -288.373535156250 3.515602350235
-12.053695678711 -77.846664428711 -294.440399169922 3.118643760681
-111.598419189453 -72.320571899414 -217.696746826172 7.151585578918
-4.299850463867 -75.051849365234 -303.153015136719 10.980499267578
21.246925354004 -79.271911621094 -319.925903320313 26.928470611572
2.862281799316 -72.706359863281 -296.873352050781 4.749742031097
16.671653747559 -80.956008911133 -311.259704589844 18.144229888916
-118.812133789063 -65.654838562012 -201.074539184570 1.472252249718
-16.673591613770 -74.135665893555 -276.199676513672 5.578112602234
-119.262023925781 -63.393348693848 -190.981262207031 6.356474399567
-7.559692382813 -73.203407287598 -271.861724853516 4.400331974030
-18.546829223633 -78.314933776855 -272.065856933594 7.176038742065
29.484947204590 -75.341499328613 -309.637329101563 21.540134429932
-18.527153015137 -77.144073486328 -269.059143066406 6.072809696198
-13.669769287109 -71.509811401367 -264.783538818359 1.675798773766
-13.129562377930 -77.181480407715 -263.670043945313 2.300544261932
37.146476745605 -82.759933471680 -300.767883300781 23.542274475098
-107.714225769043 -67.916923522949 -186.448486328125 1.805407524109
47.773414611816 -76.101478576660 -303.247039794922 33.431587219238
-13.769119262695 -79.339530944824 -260.755157470703 2.204465627670
-10.533935546875 -73.314811706543 -264.851104736328 3.524489641190
-16.857795715332 -72.554878234863 -255.657104492188 2.851972341537
-80.125671386719 -69.050605773926 -193.039077758789 17.069784164429
-18.549880981445 -74.772018432617 -251.892303466797 4.595260620117
-94.631027221680 -65.215034484863 -175.165557861328 8.293812751770
-82.110977172852 -68.783401489258 -187.907165527344 22.319795608521
-96.917327880859 -69.128829956055 -180.086608886719 7.971098423004
-12.130134582520 -74.173789978027 -251.017669677734 1.676175951958
-80.367568969727 -70.132965087891 -191.677536010742 18.162639617920
-4.830513000488 -73.801513671875 -249.615554809570 3.792240142822
-92.163085937500 -66.612579345703 -174.548965454102 10.125957489014
-76.089546203613 -65.347099304199 -184.659851074219 19.943096160889
-9.027320861816 -74.142906188965 -238.563217163086 1.704927206039
61.056816101074 -74.086006164551 -283.265899658203 32.457817077637
61.717277526855 -78.056152343750 -293.908996582031 42.753818511963
-4.386833190918 -74.292457580566 -239.961547851563 1.535012960434
-66.355377197266 -71.049072265625 -187.561859130859 11.707841873169
66.254295349121 -77.990447998047 -272.290039062500 26.643640518188
-83.961105346680 -67.531127929688 -168.544647216797 15.470550537109
-71.564163208008 -66.842803955078 -190.277786254883 18.806728363037
3.639839172363 -69.141647338867 -231.865417480469 1.680533289909
-84.279617309570 -65.954208374023 -174.444992065430 17.565708160400
-82.770149230957 -65.211929321289 -172.527709960938 18.311704635620
65.971199035645 -82.178070068359 -285.106628417969 38.481880187988
-75.951110839844 -69.350822448730 -174.354278564453 13.144145965576
-56.652351379395 -70.554039001465 -186.733840942383 5.262462139130
0.902832031250 -78.015914916992 -228.597625732422 1.539212465286
-85.687942504883 -67.682342529297 -167.123748779297 13.378993988037
-12.576316833496 -69.562667846680 -210.104476928711 1.612645268440
5.518608093262 -76.680923461914 -227.712615966797 0.862619161606
-3.801872253418 -72.057228088379 -227.286254882813 2.293092489243
-16.323402404785 -67.679618835449 -212.190917968750 2.285927295685
-60.827033996582 -70.990295410156 -180.038940429688 4.824534416199
-4.208923339844 -73.135429382324 -225.859558105469 2.573145627975
-62.675975799561 -66.696022033691 -183.653030395508 9.837727546692
-19.612709045410 -69.706825256348 -215.744995117188 3.265844821930
-9.474433898926 -71.559791564941 -226.160369873047 2.080429792404
-80.234504699707 -63.309501647949 -165.549560546875 15.221601486206
-57.449592590332 -68.518394470215 -180.731033325195 5.755637645721
-74.208999633789 -70.079559326172 -159.829574584961 5.263195991516
-7.517044067383 -78.529342651367 -207.036026000977 2.526214122772
-11.982650756836 -71.869186401367 -227.109802246094 0.713424623013
-16.253662109375 -73.472137451172 -202.721511840820 2.852219343185
-4.703781127930 -76.263526916504 -221.335296630859 2.512088060379
5.289237976074 -72.285552978516 -219.968078613281 0.759240627289
-53.942352294922 -66.196197509766 -174.028121948242 7.921352863312
-44.490173339844 -69.755508422852 -183.879928588867 6.960195541382
-47.644760131836 -70.568428039551 -180.749023437500 5.808695316315
7.260200500488 -71.740859985352 -220.087417602539 1.515627384186
-51.665718078613 -68.578659057617 -171.762329101563 7.293742179871
-51.504501342773 -68.204048156738 -175.989700317383 6.986865997314
-1.008644104004 -69.901733398438 -214.699340820313 2.921373128891
-44.639694213867 -69.123596191406 -168.403396606445 2.849968433380
14.908576965332 -75.934707641602 -213.162445068359 1.956791996956
76.011360168457 -80.624168395996 -272.636199951172 32.017253875732
-36.367874145508 -70.131797790527 -173.946578979492 1.566295146942
70.713142395020 -80.424621582031 -260.387817382813 19.687973022461
-34.747558593750 -72.770774841309 -169.603225708008 2.579691171646
-37.457473754883 -68.030082702637 -165.267974853516 2.260619640350
4.181724548340 -70.240341186523 -203.372406005859 4.925738811493
73.706367492676 -80.171142578125 -251.936676025391 14.545568466187
-27.870521545410 -70.148246765137 -168.521240234375 2.630916118622
-35.149688720703 -75.603775024414 -173.940078735352 3.141128063202
-20.309295654297 -67.151504516602 -169.727966308594 9.244497299194
-117.483779907227 -57.638206481934 -93.593017578125 17.473104476929
5.121009826660 -69.143615722656 -194.664810180664 6.041232585907
85.850456237793 -78.816825866699 -242.472183227539 13.712417602539
-123.737449645996 -61.994117736816 -80.560836791992 24.572643280029
-20.802368164063 -69.090530395508 -164.460937500000 10.151015281677
-88.929077148438 -66.800941467285 -106.559722900391 4.150131702423
-99.644470214844 -62.799362182617 -94.911926269531 0.948735892773
-78.423294067383 -66.951797485352 -105.349639892578 1.786887049675
-82.230468750000 -68.810440063477 -105.561279296875 2.106606006622
-7.767013549805 -73.597785949707 -163.110031127930 5.390476703644
19.145362854004 -70.057052612305 -185.926605224609 2.661717891693
-11.510017395020 -77.451065063477 -158.558929443359 9.809230804443
-92.386688232422 -66.122390747070 -93.877059936523 5.476640224457
-10.934272766113 -71.283515930176 -150.812698364258 15.388763427734
-95.053787231445 -59.414863586426 -91.413558959961 4.959204673767
-2.952308654785 -74.313644409180 -164.581237792969 1.176214814186
-106.682586669922 -62.650939941406 -82.065536499023 8.157217025757
82.857292175293 -76.809448242188 -219.990814208984 2.024141311646
-122.916267395020 -61.336990356445 -69.029754638672 24.285896301270
13.526176452637 -69.131820678711 -161.808822631836 2.726788759232
23.125297546387 -78.112449645996 -170.833587646484 1.398032307625
22.279319763184 -75.977645874023 -164.802856445313 2.226005792618
82.539039611816 -76.177703857422 -208.603027343750 6.272906303406
18.074256896973 -75.236663818359 -161.378524780273 2.516201496124
25.902229309082 -71.335685729980 -171.238494873047 1.437162876129
1.654289245605 -64.868110656738 -154.563903808594 7.018086433411
-55.902282714844 -65.527725219727 -107.231887817383 8.102339744568
-64.127532958984 -63.109130859375 -96.822204589844 1.110235571861
15.826881408691 -71.612457275391 -154.025726318359 1.242389321327
-109.392288208008 -60.429153442383 -45.164855957031 19.074007034302
26.404655456543 -74.119163513184 -164.399948120117 3.312627792358
-93.412460327148 -60.927032470703 -67.547454833984 4.281492233276
30.706642150879 -74.591468811035 -159.315658569336 2.248617410660
-87.802215576172 -62.127914428711 -73.838867187500 9.818766593933
-68.713424682617 -64.784774780273 -79.546524047852 8.934650421143
35.983451843262 -77.822509765625 -164.675445556641 5.318352699280
82.286994934082 -75.938705444336 -194.341857910156 14.042298316956
23.850639343262 -73.807319641113 -154.272186279297 0.566478788853
-72.867057800293 -61.800231933594 -85.943161010742 8.887346267700
80.211570739746 -76.121597290039 -196.382507324219 15.292671203613
87.211097717285 -73.524688720703 -195.917449951172 8.713125228882
-72.700027465820 -62.921508789063 -74.185241699219 9.193054199219
-69.629585266113 -61.211273193359 -73.858673095703 5.924600601196
15.740440368652 -70.681694030762 -140.900863647461 4.725872516632
77.628684997559 -71.968055725098 -192.585296630859 18.879613876343
80.471931457520 -76.580833435059 -184.956848144531 20.044893264771
83.207435607910 -76.241889953613 -189.999420166016 15.343217849731
-76.981178283691 -60.122482299805 -61.151977539063 12.711914062500
80.845771789551 -69.487388610840 -187.933258056641 18.883737564087
78.253730773926 -70.944076538086 -184.085632324219 22.484779357910
-110.402770996094 -57.927764892578 -49.034942626953 17.492988586426
30.432945251465 -68.201766967773 -139.076278686523 2.629192352295
45.033729553223 -72.416725158691 -145.892349243164 9.157808303833
28.987907409668 -67.901771545410 -136.744384765625 2.268654584885
43.797264099121 -67.722061157227 -146.937957763672 9.636419296265
84.838218688965 -72.935058593750 -182.612487792969 17.072399139404
37.886024475098 -66.805603027344 -147.406188964844 5.508486747742
26.478965759277 -73.127418518066 -132.699310302734 2.889827489853
30.076316833496 -68.722648620605 -133.241363525391 1.159773349762
85.540794372559 -75.012023925781 -176.982727050781 18.317607879639
38.644844055176 -67.842330932617 -139.973632812500 4.054049015045
21.717369079590 -69.801704406738 -134.895599365234 5.795343875885
46.024192810059 -68.846138000488 -144.565444946289 10.478974342346
-100.647789001465 -66.031440734863 -39.040802001953 18.099750518799
84.270957946777 -75.901222229004 -170.202224731445 21.416372299194
78.650230407715 -74.177360534668 -163.564437866211 28.578578948975
75.838432312012 -69.873107910156 -174.379379272461 28.483537673950
26.188819885254 -70.333366394043 -122.043411254883 5.662112712860
75.996315002441 -70.012619018555 -169.617584228516 29.777715682983
-23.289199829102 -63.723495483398 -88.969451904297 13.996332168579
77.736656188965 -71.495895385742 -163.386047363281 29.555341720581
-31.080078125000 -62.477622985840 -74.909271240234 2.409538030624
-63.090095520020 -59.924896240234 -52.018402099609 9.367537498474
-69.905334472656 -67.467460632324 -48.934783935547 2.152678489685
81.029640197754 -74.908561706543 -158.351226806641 27.196804046631
-69.076049804688 -64.997787475586 -43.234191894531 1.512171506882
-46.171104431152 -56.432830810547 -67.014129638672 10.377617835999
-47.519317626953 -64.557975769043 -58.562438964844 10.986736297607
-30.368148803711 -64.435020446777 -80.570220947266 3.425416707993
-44.922790527344 -61.483192443848 -53.841827392578 8.029082298279
-53.303848266602 -65.985549926758 -43.939422607422 3.105468273163
-68.731101989746 -61.836921691895 -32.418792724609 10.822699546814
32.564125061035 -67.563644409180 -117.335815429688 4.774597644806
-90.239730834961 -61.160995483398 -13.993896484375 32.901798248291
41.719200134277 -65.693229675293 -110.651275634766 1.960363149643
-79.945922851563 -66.451995849609 -24.066528320313 21.549821853638
-73.140716552734 -64.886016845703 -21.014221191406 23.182937622070
-83.823287963867 -66.334167480469 -10.967773437500 34.645309448242
42.099540710449 -72.083915710449 -104.282608032227 1.767991900444
-49.452232360840 -61.803413391113 -25.261749267578 18.133644104004
-65.206573486328 -64.327560424805 -6.603790283203 36.157070159912
-57.869934082031 -62.313255310059 -20.459777832031 22.241897583008
-50.946464538574 -59.409065246582 -22.596984863281 20.320415496826
47.685310363770 -68.840126037598 -102.650512695313 1.432098865509
-42.120254516602 -57.902465820313 -31.715057373047 13.738208770752
-54.496620178223 -60.869888305664 -18.225891113281 24.450962066650
-32.871276855469 -65.173591613770 -35.399078369141 12.028164863586
-1.454666137695 -67.783271789551 -53.315307617188 11.374076843262
7.166419982910 -65.764350891113 -69.140167236328 18.236042022705
55.142784118652 -68.541160583496 -99.334472656250 1.676977515221
21.136299133301 -65.260452270508 -70.858367919922 31.609361648560
9.485542297363 -64.083503723145 -65.604003906250 19.231931686401
5.938926696777 -67.803924560547 -57.791870117188 16.133197784424
-4.712776184082 -63.490478515625 -43.310821533203 12.964802742004
-23.977622985840 -69.763015747070 -38.168151855469 12.907562255859
-65.511032104492 -60.990127563477 -3.666107177734 38.774879455566
-63.801067352295 -62.179344177246 -7.497375488281 34.899341583252
-35.696617126465 -59.974029541016 -18.502044677734 28.052675247192
-52.634353637695 -61.590568542480 -10.429534912109 32.309013366699
-59.034309387207 -62.531120300293 1.848968505859 44.225654602051
-39.434089660645 -60.538955688477 9.895690917969 54.164314270020
-67.385955810547 -77.798782348633 -342.760742187500 51.974193572998
-85.037651062012 -66.627311706543 -322.964263916016 31.921838760376
-57.675712585449 -74.864929199219 -329.139404296875 38.362861633301
-91.594451904297 -70.040023803711 -267.246643066406 9.427218437195
-12.177627563477 -78.774291992188 -327.208679199219 35.356956481934
-5.355827331543 -84.148651123047 -325.781188964844 34.649196624756
-11.684486389160 -79.083450317383 -319.321380615234 27.585941314697
-13.625930786133 -77.972396850586 -324.391784667969 32.506538391113
5.416938781738 -77.312759399414 -331.441314697266 38.362071990967
-147.889114379883 -64.928718566895 -214.271591186523 3.075521945953
-14.099601745605 -74.603561401367 -310.865631103516 18.889982223511
-97.986610412598 -73.895156860352 -248.439331054688 5.773253440857
15.002922058105 -77.518096923828 -322.247253417969 28.176828384399
-10.570831298828 -70.314125061035 -300.299804687500 9.192523956299
26.275398254395 -79.886840820313 -326.104187011719 34.352165222168
27.609626770020 -75.503089904785 -317.940429687500 27.151985168457
-0.453910827637 -74.405242919922 -297.991149902344 5.922835350037
-118.099151611328 -66.813835144043 -204.802825927734 2.264759063721
-5.619682312012 -73.917205810547 -278.816711425781 2.822002649307
33.674171447754 -77.312835693359 -312.929809570313 26.906227111816
-7.590133666992 -69.211418151855 -270.357635498047 2.123383998871
13.260017395020 -76.682510375977 -302.218353271484 8.269231796265
-14.302604675293 -69.580635070801 -270.143798828125 1.063510417938
28.601768493652 -80.962249755859 -316.494873046875 27.015449523926
-12.421257019043 -76.496025085449 -275.202758789063 2.756562709808
41.155281066895 -75.654663085938 -309.889892578125 30.398775100708
39.698600769043 -78.981338500977 -304.464660644531 26.713720321655
-109.636291503906 -76.018417358398 -192.477432250977 5.664875984192
-106.795906066895 -68.677856445313 -193.572280883789 1.660846114159
-10.537956237793 -74.717208862305 -263.380126953125 3.396979093552
47.146034240723 -83.505340576172 -308.517791748047 35.735198974609
49.791908264160 -81.952590942383 -304.919830322266 36.437141418457
-103.129058837891 -67.965301513672 -182.117324829102 2.750207185745
43.790580749512 -79.641647338867 -300.499481201172 29.121824264526
-85.990074157715 -68.109977722168 -183.910263061523 19.154575347900
-109.167457580566 -70.289520263672 -176.155761718750 3.025850296021
-96.738365173340 -69.941421508789 -183.489501953125 9.430383682251
-85.839828491211 -75.109413146973 -197.095855712891 14.288044929504
-8.489952087402 -75.357192993164 -249.527832031250 1.636875748634
-0.622222900391 -75.807113647461 -250.654846191406 4.500051975250
-93.272735595703 -66.927856445313 -178.550979614258 10.504238128662
-14.549552917480 -76.545547485352 -245.133331298828 4.217721939087
49.710624694824 -75.973625183105 -287.940368652344 30.920688629150
-56.194229125977 -69.439361572266 -189.504592895508 7.263964176178
-7.357810974121 -74.741279602051 -231.175933837891 1.248559117317
60.324790954590 -84.969779968262 -282.011749267578 34.526062011719
-0.240974426270 -72.256675720215 -238.468185424805 1.527858495712
59.472099304199 -77.053451538086 -284.820251464844 33.802104949951
-70.122634887695 -68.594261169434 -180.588455200195 12.051882743835
-77.855834960938 -65.626091003418 -171.947082519531 15.104165077209
-64.343765258789 -66.011375427246 -176.153671264648 9.078117370605
-49.258567810059 -70.552963256836 -169.728500366211 6.293378829956
-21.652435302734 -74.496177673340 -210.234558105469 2.434378623962
64.883842468262 -83.726875305176 -275.291625976563 30.725975036621
67.302009582520 -80.186454772949 -268.708862304688 24.560432434082
-11.562515258789 -78.267967224121 -209.593170166016 1.762218594551
-17.910423278809 -73.248519897461 -204.668624877930 2.364957571030
-7.237121582031 -76.351516723633 -213.479598999023 1.343750000000
-9.225997924805 -74.845771789551 -225.460327148438 2.177229881287
76.205940246582 -74.793312072754 -270.283905029297 28.705099105835
73.663124084473 -76.095611572266 -258.929870605469 18.286750793457
10.449699401855 -74.753204345703 -209.706329345703 2.036919593811
5.348457336426 -75.109710693359 -217.232818603516 2.500743865967
73.981880187988 -78.991279602051 -272.612915039063 30.520982742310
-35.319808959961 -72.206573486328 -174.222030639648 2.554529428482
76.966743469238 -80.490425109863 -263.887573242188 25.227167129517
8.519981384277 -78.109527587891 -201.782348632813 1.903385639191
-2.768486022949 -70.491058349609 -210.033111572266 4.209275722504
78.095710754395 -79.646545410156 -255.911636352539 19.385612487793
5.916923522949 -73.335647583008 -210.491119384766 1.328025579453
81.068763732910 -81.706230163574 -254.210342407227 20.534957885742
-40.591087341309 -72.173210144043 -166.172225952148 1.713250994682
9.932487487793 -77.249336242676 -211.170867919922 1.599014878273
82.469947814941 -79.043037414551 -249.517883300781 16.754739761353
10.643424987793 -75.927963256836 -205.332443237305 1.108959078789
-127.824424743652 -67.405807495117 -94.272644042969 29.020263671875
-27.367584228516 -69.972709655762 -162.098876953125 5.757700920105
16.815956115723 -71.698814392090 -199.100814819336 2.866744041443
-86.965873718262 -65.755004882813 -108.048110961914 3.087306499481
-90.241378784180 -64.106826782227 -112.112411499023 3.406782627106
17.930229187012 -76.910842895508 -191.052505493164 1.410700798035
7.157066345215 -71.718200683594 -190.473220825195 4.645500659943
-20.229057312012 -67.695907592773 -162.903488159180 11.726875305176
-24.981735229492 -69.947990417480 -165.688262939453 5.834945201874
-23.191909790039 -68.850959777832 -168.547012329102 6.551266670227
9.287330627441 -70.144309997559 -202.306259155273 0.532409906387
-120.073753356934 -63.942092895508 -84.712295532227 20.873481750488
-110.299392700195 -61.450088500977 -83.471572875977 10.888322830200
-110.939056396484 -64.375679016113 -91.961807250977 11.933021545410
-14.217422485352 -74.834922790527 -167.669723510742 5.555223941803
17.161018371582 -73.238250732422 -182.770843505859 2.063441753387
81.638359069824 -76.251068115234 -235.536285400391 5.241304397583
-84.372375488281 -65.899780273438 -99.397323608398 5.305500984192
20.194664001465 -75.243766784668 -180.918014526367 2.379327297211
-10.360717773438 -72.628913879395 -166.084762573242 4.891152381897
-12.064254760742 -72.351478576660 -164.453750610352 7.062156677246
82.843223571777 -78.086730957031 -229.935913085938 5.002122402191
11.248924255371 -70.184700012207 -178.378097534180 3.992189168930
-19.108978271484 -71.461235046387 -160.412124633789 12.849242210388
-89.284378051758 -63.338928222656 -96.499984741211 9.211545944214
-101.377578735352 -66.173339843750 -90.950866699219 4.642570018768
-76.880249023438 -68.324523925781 -99.640655517578 1.938242197037
-107.644973754883 -63.413650512695 -80.357711791992 9.219187736511
20.577323913574 -71.774490356445 -187.311676025391 2.593978404999
86.194953918457 -74.710380554199 -224.518218994141 2.147961139679
-123.059127807617 -63.701858520508 -66.245422363281 24.986206054688
87.823677062988 -77.318229675293 -231.376922607422 6.924317836761
-0.745925903320 -71.304611206055 -154.197463989258 5.947903633118
86.733299255371 -70.571121215820 -216.791992187500 1.955763936043
88.625190734863 -79.755599975586 -212.980987548828 3.392540931702
21.172218322754 -73.977226257324 -169.867797851563 2.827364206314
23.766197204590 -72.232276916504 -173.195953369141 3.026415348053
20.788825988770 -72.196067810059 -168.606811523438 1.090511560440
9.542350769043 -72.507598876953 -151.836166381836 1.634552955627
-61.277565002441 -67.158363342285 -97.502426147461 4.147086143494
12.073661804199 -69.305038452148 -152.396942138672 2.530828237534
86.593330383301 -78.374465942383 -216.833374023438 1.749546885490
-54.282875061035 -63.837478637695 -99.399551391602 11.071363449097
-62.435161590576 -63.307647705078 -93.796951293945 2.631919622421
-58.019706726074 -67.889053344727 -98.906051635742 7.706366539001
89.470069885254 -73.008911132813 -209.311904907227 1.276944398880
-84.544410705566 -61.010704040527 -69.355255126953 11.735909461975
-80.910530090332 -71.952934265137 -66.221618652344 5.445549964905
-72.745162963867 -65.659484863281 -77.507751464844 12.404639244080
-68.525596618652 -67.745391845703 -83.356430053711 8.733153343201
-86.706130981445 -67.079284667969 -75.132354736328 7.729025840759
-62.287925720215 -58.307113647461 -86.103408813477 0.811656713486
-67.888809204102 -68.707244873047 -80.147171020508 10.169030189514
10.687446594238 -73.777191162109 -145.791442871094 5.512890338898
5.411384582520 -67.934524536133 -139.090103149414 11.784179687500
24.787757873535 -71.071693420410 -145.524215698242 0.718036830425
16.340721130371 -73.232452392578 -143.664321899414 4.858903408051
37.426597595215 -70.512931823730 -156.652542114258 5.054409027100
7.446388244629 -69.337432861328 -139.485763549805 10.365830421448
-107.760383605957 -61.918472290039 -55.573364257813 13.235577583313
22.161796569824 -72.736366271973 -146.735229492188 2.172076940536
88.310478210449 -75.471420288086 -199.485870361328 6.879621982574
34.006172180176 -73.480163574219 -147.791397094727 0.874276161194
14.636192321777 -72.143470764160 -143.686889648438 5.049301624298
-97.477561950684 -67.457603454590 -51.764129638672 9.613417625427
-83.482925415039 -61.844100952148 -61.618347167969 8.370896339417
82.587364196777 -79.835655212402 -185.560714721680 18.583700180054
19.885612487793 -72.012916564941 -140.995407104492 5.186627388000
28.237617492676 -72.940940856934 -145.381210327148 2.662208080292
87.193687438965 -76.087722778320 -185.804931640625 13.521591186523
88.995658874512 -74.832794189453 -190.549682617188 10.254640579224
80.435234069824 -71.803680419922 -184.215438842773 20.348354339600
24.855262756348 -74.378250122070 -141.995452880859 1.071311235428
72.121040344238 -74.546226501465 -175.039398193359 31.574558258057
16.405113220215 -71.366806030273 -132.064300537109 10.904046058655
17.450019836426 -72.656967163086 -130.955459594727 10.275876998901
36.532386779785 -71.614486694336 -146.880035400391 2.443277597427
85.812904357910 -75.529678344727 -176.311691284180 18.392629623413
76.563011169434 -74.444580078125 -177.417755126953 26.653112411499
76.249137878418 -78.434555053711 -167.195816040039 30.201755523682
81.721443176270 -72.082969665527 -174.802246093750 22.684238433838
20.230567932129 -73.700347900391 -124.822341918945 9.443845748901
-32.313171386719 -69.598091125488 -83.407577514648 5.932410240173
-23.574897766113 -71.647682189941 -82.686340332031 6.038489341736
69.466239929199 -74.206954956055 -157.469207763672 35.458793640137
-78.262176513672 -67.319335937500 -46.194396972656 3.148448705673
73.206550598145 -73.118652343750 -150.400680541992 36.144653320313
-30.444572448730 -66.167167663574 -79.163940429688 1.671890735626
-82.073898315430 -62.040512084961 -34.187286376953 11.838006019592
-74.494918823242 -64.534164428711 -40.594146728516 4.518364429474
75.330741882324 -72.659591674805 -160.578384399414 32.446029663086
-63.647464752197 -66.240615844727 -53.507781982422 6.740262031555
-53.408485412598 -65.255554199219 -56.013397216797 9.318172454834
-37.598716735840 -66.837860107422 -71.280120849609 6.339084148407
25.078224182129 -64.810752868652 -118.789596557617 10.242486953735
67.355415344238 -72.677909851074 -144.297546386719 29.561077117920
60.027214050293 -68.993133544922 -136.680313110352 20.480257034302
-84.051231384277 -63.485794067383 -33.413574218750 13.437204360962
-45.449539184570 -64.977638244629 -52.709899902344 6.397087097168
31.611686706543 -69.552894592285 -118.100219726563 3.231499195099
-61.332527160645 -64.929351806641 -38.311248779297 6.162078857422
39.824470520020 -72.545875549316 -107.151275634766 1.576583862305
-75.256439208984 -62.456382751465 -10.764984130859 32.684188842773
44.045249938965 -74.751014709473 -105.656600952148 2.003328800201
-68.914566040039 -64.244445800781 -1.097106933594 42.076175689697
-72.732994079590 -62.945777893066 -14.943603515625 28.471620559692
-61.717365264893 -64.599914550781 -12.985504150391 29.710336685181
-77.968795776367 -62.540328979492 -2.934234619141 40.743614196777
74.109443664551 -76.963340759277 -113.978332519531 12.277149200439
-24.958740234375 -61.055816650391 -40.023773193359 9.046379089355
-12.582305908203 -68.076202392578 -50.463623046875 6.963864326477
-78.160751342773 -62.558174133301 -1.997161865234 41.693344116211
-10.626472473145 -64.637100219727 -46.901214599609 7.997736454010
-64.160400390625 -57.846786499023 -6.618041992188 35.648796081543
1.618270874023 -65.136718750000 -53.473205566406 12.331275939941
6.997611999512 -67.249473571777 -59.908691406250 16.746191024780
-4.382789611816 -68.202590942383 -50.723785400391 10.727297782898
56.446632385254 -76.052978515625 -100.393554687500 2.128966093063
-5.460586547852 -65.280929565430 -47.692687988281 10.543953895569
-16.086242675781 -65.195312500000 -40.599761962891 11.424701690674
-31.093444824219 -65.483650207520 -26.680786132813 20.839561462402
-28.882171630859 -66.580520629883 -25.875122070313 22.246898651123
-48.401962280273 -68.351058959961 -13.973541259766 30.322755813599
-45.982711791992 -56.259880065918 -6.850799560547 36.902778625488
-41.919502258301 -57.655067443848 3.730438232422 47.759395599365
-85.436843872070 -75.854553222656 -332.365570068359 40.969337463379
-78.670150756836 -79.421226501465 -330.073059082031 39.214569091797
-82.107070922852 -73.063171386719 -335.460540771484 44.272079467773
-63.477436065674 -75.532424926758 -337.982421875000 47.034919738770
-79.892608642578 -73.493789672852 -318.889038085938 27.672981262207
-148.916824340820 -71.434425354004 -241.951843261719 3.038938283920
-9.447708129883 -79.749404907227 -331.049835205078 39.376632690430
-85.342796325684 -74.135940551758 -269.357299804688 13.160214424133
7.723777770996 -78.079277038574 -335.483276367188 41.964698791504
7.059745788574 -82.904724121094 -326.041595458984 33.610908508301
-8.395286560059 -72.714843750000 -310.421173095703 18.366502761841
-9.809982299805 -79.666755676270 -303.218231201172 12.014166831970
-105.413246154785 -72.036422729492 -235.540283203125 7.130670070648
-19.804023742676 -77.423385620117 -302.153533935547 10.555852890015
-141.201477050781 -68.041763305664 -199.915557861328 3.481079816818
-101.354881286621 -70.958404541016 -230.771453857422 4.871732711792
-109.296592712402 -66.667335510254 -228.979446411133 0.726169884205
18.298149108887 -78.437843322754 -312.100677490234 18.604589462280
-10.053161621094 -75.955230712891 -284.753936767578 2.240870714188
-12.136337280273 -80.462051391602 -295.418701171875 5.585091114044
-133.960922241211 -69.954498291016 -197.434295654297 1.610715985298
27.033348083496 -83.447761535645 -322.090057373047 31.681030273438
-21.458045959473 -77.100563049316 -284.753692626953 3.022071838379
22.912010192871 -81.798187255859 -315.066253662109 23.455774307251
32.688575744629 -80.495658874512 -310.444152832031 24.874706268311
26.453712463379 -80.994750976563 -309.217987060547 20.054721832275
6.451362609863 -79.160385131836 -293.183959960938 2.256914138794
16.737831115723 -79.332054138184 -297.665802001953 5.304424762726
-12.259132385254 -73.650382995605 -271.617248535156 1.495648980141
34.483528137207 -82.163803100586 -310.762207031250 26.621494293213
-13.069786071777 -76.062179565430 -272.257446289063 3.101768016815
-18.134536743164 -79.392684936523 -278.291625976563 9.302829742432
39.099006652832 -77.532653808594 -303.738037109375 25.724084854126
-113.798538208008 -72.736808776855 -196.702224731445 2.088427782059
-9.190216064453 -78.634902954102 -268.725250244141 1.556205630302
-20.308197021484 -75.271759033203 -263.675415039063 5.918317794800
33.913993835449 -79.063049316406 -309.835388183594 25.122474670410
-13.460693359375 -77.444213867188 -266.990722656250 1.677033901215
-115.285491943359 -70.084915161133 -181.801376342773 5.219482898712
-123.024604797363 -69.476531982422 -178.922821044922 12.234284400940
44.013618469238 -82.719543457031 -299.804260253906 29.609558105469
-118.662246704102 -64.684638977051 -182.539093017578 6.855402946472
-10.144950866699 -77.093444824219 -256.752014160156 2.247925043106
-15.882858276367 -76.571647644043 -260.121551513672 2.735923051834
-103.696395874023 -68.215179443359 -185.252655029297 2.782411813736
-15.229034423828 -78.674293518066 -245.348937988281 4.940910339355
51.511787414551 -80.009452819824 -290.929534912109 34.685497283936
-70.487091064453 -70.462745666504 -192.089935302734 17.047285079956
-107.262275695801 -67.452522277832 -172.445037841797 1.418718457222
-4.693855285645 -75.142456054688 -242.706192016602 2.255058288574
-103.154724121094 -68.760322570801 -170.202575683594 1.082807421684
-106.125534057617 -66.068572998047 -168.621185302734 1.587955117226
-71.502456665039 -68.262382507324 -194.126480102539 16.940938949585
-89.506866455078 -68.519241333008 -176.490966796875 13.587169647217
-71.779365539551 -71.143959045410 -190.544036865234 17.396018981934
57.975120544434 -82.606231689453 -290.130004882813 39.178340911865
-90.490097045898 -73.950035095215 -173.084548950195 13.256726264954
-9.204612731934 -74.681175231934 -249.847000122070 1.368169903755
-92.179428100586 -73.485000610352 -174.511398315430 12.259588241577
