80.829338073730 -71.506134033203 -212.064254760742 5.680154323578
-153.107940673828 -74.394157409668 -223.719711303711 2.064077377319
-166.992355346680 -68.815521240234 -216.405670166016 0.778800785542
-163.135635375977 -72.932876586914 -224.271530151367 1.115683674812
-22.504369735718 -74.062026977539 -227.034042358398 2.389604568481
-155.055511474609 -73.511840820313 -224.657592773438 1.842765331268
-6.870823860168 -74.581298828125 -224.432891845703 2.004140138626
5.351503849030 -74.635192871094 -218.195526123047 2.250021934509
-168.228256225586 -70.293029785156 -227.666870117188 1.207696199417
-159.864685058594 -70.947898864746 -229.396209716797 3.249480009079
78.170150756836 -78.125053405762 -230.263275146484 2.535614728928
-0.807081997395 -72.433914184570 -226.552795410156 1.676014184952
-158.530181884766 -66.032814025879 -228.214889526367 1.487618088722
-143.612838745117 -72.432991027832 -226.168426513672 2.241665601730
-20.298509597778 -72.235885620117 -224.080413818359 1.791366696358
-1.605517029762 -77.652511596680 -222.313674926758 1.848021626472
78.987243652344 -72.600242614746 -224.495697021484 0.503240048885
-162.280029296875 -68.916519165039 -229.961837768555 3.445327997208
-144.965637207031 -68.629577636719 -232.733718872070 2.467145204544
-126.096282958984 -69.658226013184 -232.517684936523 2.665103197098
77.672691345215 -76.353523254395 -225.520080566406 2.168921709061
-116.661445617676 -71.296188354492 -230.640548706055 0.975968003273
-147.428558349609 -70.755264282227 -231.172821044922 2.918543338776
-151.484069824219 -69.447959899902 -233.378143310547 2.447727203369
-150.028671264648 -71.519836425781 -233.252197265625 2.945727109909
-156.858505249023 -71.158470153809 -231.111618041992 1.892653107643
-166.108383178711 -70.915954589844 -231.159530639648 1.263873577118
-134.652908325195 -71.259757995605 -237.064178466797 2.617220878601
-134.267303466797 -72.225158691406 -234.845855712891 1.880521297455
-154.217178344727 -74.335311889648 -234.842910766602 2.823963403702
-146.247039794922 -67.460762023926 -238.759521484375 3.252356529236
-152.560577392578 -71.247200012207 -237.284530639648 2.033819437027
73.896896362305 -76.899940490723 -231.313262939453 2.285717725754
66.486312866211 -70.081909179688 -235.038192749023 0.633048176765
-157.910934448242 -69.273536682129 -237.443511962891 1.477805852890
70.841621398926 -70.548385620117 -232.266937255859 0.821801662445
-20.664634704590 -71.846878051758 -236.843978881836 2.083397626877
10.490666389465 -75.009529113770 -236.831420898438 1.162957906723
6.001054763794 -74.494216918945 -235.828704833984 2.332141399384
-155.322250366211 -70.903511047363 -244.677413940430 1.372348070145
13.750061035156 -73.331031799316 -240.823318481445 1.527454972267
60.083427429199 -73.507659912109 -237.089187622070 2.357110261917
12.568527221680 -71.430557250977 -237.705734252930 1.642198443413
4.515292167664 -74.180763244629 -241.409637451172 1.554986596107
-7.323050022125 -71.453598022461 -240.382324218750 0.293122798204
-21.936189651489 -71.845199584961 -243.067382812500 2.428046226501
-2.549175024033 -73.514427185059 -241.914779663086 1.261318325996
2.992515087128 -76.350135803223 -244.836456298828 1.415174245834
56.564666748047 -75.641181945801 -240.715164184570 2.387602090836
-56.284282684326 -75.952995300293 -245.406188964844 2.049821138382
18.852029800415 -72.980102539063 -247.021011352539 0.575353801250
-60.397586822510 -73.480995178223 -242.542129516602 2.438714742661
-10.632968902588 -73.656379699707 -247.957717895508 1.392071485519
-66.756278991699 -69.183807373047 -251.161865234375 3.472846746445
-86.715034484863 -70.600341796875 -254.272766113281 2.148455142975
-83.338508605957 -73.144325256348 -253.193252563477 2.285655021667
-10.518656730652 -72.906517028809 -254.873382568359 2.163331747055
-124.498268127441 -71.359817504883 -260.692871093750 1.439364552498
-14.833436012268 -74.327758789063 -253.110946655273 2.030198335648
-117.659317016602 -71.660301208496 -257.257385253906 1.132311582565
-117.110359191895 -70.375228881836 -260.197723388672 2.954788923264
-104.217407226563 -71.706611633301 -257.911743164063 2.019915103912
-144.463989257813 -70.273353576660 -263.771392822266 1.980009675026
-145.549362182617 -70.715995788574 -269.184356689453 3.702071666718
-169.240631103516 -70.834518432617 -265.871032714844 3.030072689056
18.916044235229 -77.682701110840 -279.925781250000 2.831198453903
-58.345729827881 -71.069961547852 -286.161865234375 1.487676739693
-67.570617675781 -71.754249572754 -284.592132568359 1.748779177666
-42.531673431396 -74.892662048340 -284.396606445313 2.608900547028
-28.396762847900 -74.403282165527 -286.810150146484 1.283232092857
-96.648849487305 -74.149604797363 -290.487854003906 2.103080749512
-31.152770996094 -71.508621215820 -286.122314453125 1.855083703995
-4.457285881042 -73.914871215820 -286.196899414063 1.040442466736
-167.670883178711 -71.068183898926 -291.564117431641 3.698471784592
-16.259332656860 -75.735221862793 -286.044006347656 2.275315999985
6.004109859467 -75.251609802246 -287.806610107422 0.696545779705
13.666254997253 -78.493942260742 -283.333099365234 2.005769491196
-57.336154937744 -75.248992919922 -288.338134765625 1.570365548134
-33.528079986572 -73.845680236816 -291.891418457031 1.572372317314
13.946532249451 -72.403640747070 -292.863372802734 1.303844571114
-71.172821044922 -71.401824951172 -293.871459960938 2.550187826157
-40.545646667480 -70.777030944824 -289.689910888672 1.650227427483
-18.154880523682 -71.693923950195 -290.220245361328 1.471945166588
14.693982124329 -76.461608886719 -290.753875732422 0.832272469997
-11.871474266052 -75.459335327148 -294.319824218750 2.414320945740
3.677067995071 -72.927925109863 -293.724853515625 0.767695784569
13.897018432617 -76.182365417480 -290.339569091797 1.543350577354
-135.140319824219 -70.670158386230 -296.152893066406 2.453707218170
-145.204452514648 -73.826850891113 -301.054718017578 0.670022070408
-151.048645019531 -71.948791503906 -315.216583251953 2.659908056259
39.535957336426 -71.104614257813 -13.136166572571 2.344765663147
26.609159469604 -71.290672302246 -11.407041549683 2.231769084930
35.798679351807 -71.754402160645 -14.878354072571 1.265460729599
18.591493606567 -68.238677978516 -18.450580596924 3.303471803665
41.582546234131 -69.785041809082 -21.788337707520 1.071964263916
22.192684173584 -69.683555603027 -23.639074325562 2.197442531586
20.411087036133 -71.750717163086 -27.164201736450 1.019646048546
21.568513870239 -72.421707153320 -37.924545288086 2.593054294586
36.203067779541 -73.821380615234 -30.234844207764 6.019220352173
22.992107391357 -75.047271728516 -35.921638488770 3.361486196518
39.857654571533 -70.636657714844 -37.092792510986 2.113300085068
28.641120910645 -72.253089904785 -38.970127105713 1.641229510307
35.501380920410 -73.155143737793 -35.385421752930 2.120844364166
27.758026123047 -70.869606018066 -39.530139923096 0.897170841694
40.405708312988 -71.918579101563 -40.577697753906 0.897610545158
30.507396697998 -71.263313293457 -38.531116485596 2.072829484940
-44.046283721924 -68.810348510742 -48.782520294189 2.085485458374
-33.096813201904 -65.855453491211 -51.074760437012 3.812253475189
-92.400337219238 -68.195671081543 -55.915237426758 4.253693103790
-91.991539001465 -70.650489807129 -66.649932861328 0.984375357628
74.938789367676 -75.130363464355 -65.504051208496 5.019245624542
81.455406188965 -72.620529174805 -71.263732910156 2.012935638428
-22.461200714111 -69.124351501465 -73.766403198242 1.189690709114
-91.093612670898 -69.947479248047 -72.806213378906 2.376357793808
-27.973493576050 -70.304161071777 -77.001449584961 0.794278144836
-52.395870208740 -71.653961181641 -85.502319335938 2.878130674362
63.270866394043 -68.950523376465 -85.248397827148 2.452708244324
50.102344512939 -71.472015380859 -92.379837036133 1.674372673035
96.878074645996 -71.461677551270 -89.939552307129 2.473773479462
66.837936401367 -74.259429931641 -95.464126586914 4.303631305695
-70.882041931152 -71.708404541016 -91.813323974609 6.495724678040
-64.719764709473 -68.645698547363 -98.609519958496 1.204562783241
42.240612030029 -72.789138793945 -96.622680664063 2.762523412704
74.891777038574 -71.497116088867 -98.647392272949 1.700354337692
51.890007019043 -79.510597229004 -104.005714416504 1.305767536163
98.693000793457 -72.887550354004 -95.048332214355 1.630595684052
-97.675163269043 -71.565345764160 -108.364616394043 2.669468879700
37.436275482178 -72.612144470215 -109.927108764648 0.587005138397
104.583106994629 -74.274330139160 -107.032478332520 1.766088128090
46.089485168457 -72.372215270996 -110.386802673340 2.816197872162
99.035926818848 -74.296134948730 -108.103637695313 4.248949527740
-87.801475524902 -70.241744995117 -116.291374206543 1.660794496536
33.373241424561 -75.426300048828 -111.134254455566 3.414638996124
104.287528991699 -72.384109497070 -115.105720520020 1.347086429596
102.390258789063 -70.879165649414 -114.141479492188 2.658773183823
103.142242431641 -73.799270629883 -113.410461425781 2.036083698273
108.153343200684 -72.540069580078 -112.816139221191 1.222725868225
37.461753845215 -74.008796691895 -109.388771057129 1.326541662216
29.747718811035 -69.887931823730 -116.663192749023 4.378064155579
38.552242279053 -72.007560729980 -113.347557067871 1.512144207954
104.472625732422 -74.798614501953 -120.039779663086 2.952994346619
37.868679046631 -70.848838806152 -122.466773986816 1.682650804520
106.904968261719 -72.798774719238 -130.403976440430 2.687594175339
108.771255493164 -72.401275634766 -129.271942138672 1.735201478004
31.301576614380 -70.152084350586 -119.940414428711 2.513403892517
-80.237518310547 -70.286582946777 -126.215232849121 1.635987997055
111.745285034180 -71.273262023926 -132.433486938477 1.688447475433
-56.589614868164 -71.054710388184 -137.930084228516 1.103879332542
33.316478729248 -73.220466613770 -133.988845825195 3.287405252457
-75.492782592773 -70.954040527344 -136.127899169922 1.424893856049
24.663810729980 -74.395690917969 -131.021575927734 4.323569297791
-81.733901977539 -71.096397399902 -143.582977294922 4.588058948517
-47.514381408691 -74.055046081543 -142.212524414063 2.729308366776
-76.181571960449 -71.328781127930 -138.873046875000 1.222242116928
108.004280090332 -72.829910278320 -135.268997192383 2.732315063477
115.055671691895 -72.034584045410 -139.731719970703 1.121863842010
115.933738708496 -76.896614074707 -144.463439941406 2.864815711975
-79.451454162598 -69.704536437988 -144.393722534180 3.141329050064
5.980515003204 -68.365013122559 -150.442916870117 3.862273931503
-54.130432128906 -71.721099853516 -149.748977661133 1.196738004684
-52.850940704346 -72.090614318848 -155.638748168945 2.296748161316
104.931968688965 -74.162353515625 -159.912841796875 3.430030107498
-43.569442749023 -73.053138732910 -149.462631225586 0.942159235477
12.013260841370 -70.236427307129 -157.228759765625 1.293979763985
20.291278839111 -74.037452697754 -156.986465454102 0.666640102863
112.792755126953 -73.334495544434 -162.782928466797 1.181711673737
27.884195327759 -72.104385375977 -165.040115356445 2.355574607849
-2.856853961945 -73.415390014648 -163.181259155273 1.714702963829
29.846113204956 -73.410293579102 -160.065673828125 2.813501358032
-69.766143798828 -69.315170288086 -158.266769409180 3.209920167923
-67.768844604492 -70.622116088867 -159.668106079102 2.114168167114
-70.770202636719 -69.644561767578 -166.232498168945 4.593081474304
112.795532226563 -70.637649536133 -159.610260009766 0.894644737244
-46.523525238037 -71.518714904785 -163.241409301758 0.839998722076
15.820821762085 -72.600761413574 -164.958908081055 2.555361986160
-65.805145263672 -70.066665649414 -170.143920898438 3.386669397354
-64.892707824707 -69.389953613281 -171.895172119141 4.050717353821
-43.303016662598 -72.224700927734 -160.453369140625 1.592918038368
-35.476840972900 -73.674705505371 -168.695831298828 3.389362335205
113.087707519531 -76.098571777344 -169.400650024414 2.076851844788
-38.718494415283 -67.116851806641 -179.965866088867 5.322768211365
11.882464408875 -73.424514770508 -172.616836547852 5.328653812408
108.959388732910 -76.707077026367 -182.452819824219 2.006455421448
-149.425720214844 -71.377723693848 -177.549972534180 2.316792488098
-147.717910766602 -69.464393615723 -175.047698974609 1.548902988434
-150.356399536133 -67.951042175293 -181.472610473633 2.344309806824
-144.150451660156 -71.152786254883 -184.181915283203 2.907001972198
-33.514129638672 -70.454704284668 -185.568283081055 1.213000774384
-24.780717849731 -71.994651794434 -185.662353515625 1.546084284782
21.709190368652 -69.226638793945 -190.459960937500 2.262396335602
-143.066192626953 -69.038108825684 -188.142639160156 1.428446650505
-148.901855468750 -70.059226989746 -190.036956787109 2.567086219788
-22.925834655762 -69.421836853027 -186.400527954102 0.530872464180
9.389407157898 -72.758079528809 -182.044479370117 4.950984954834
-150.895767211914 -69.696937561035 -195.765228271484 1.537467360497
-33.226760864258 -72.441673278809 -188.004257202148 2.167813301086
98.469917297363 -74.026168823242 -186.675354003906 3.989691019058
104.651557922363 -73.141540527344 -188.073669433594 1.339027762413
22.662378311157 -68.477134704590 -192.813720703125 2.270608186722
-15.138092041016 -72.281974792480 -188.305618286133 4.552850246429
-29.339605331421 -73.749404907227 -193.336486816406 1.556819915771
-156.829986572266 -70.680221557617 -200.713989257813 1.967109203339
-134.143844604492 -70.935234069824 -198.150253295898 1.262476444244
-126.669013977051 -67.536460876465 -196.279022216797 3.295792818069
-126.164192199707 -68.551795959473 -198.847457885742 4.067460060120
-23.947412490845 -67.923744201660 -196.129119873047 0.956618010998
11.061798095703 -74.481483459473 -191.913452148438 0.375483006239
91.107582092285 -77.443389892578 -199.605346679688 5.285422325134
-151.518142700195 -66.115234375000 -196.995727539063 2.151050806046
-146.503067016602 -67.387390136719 -200.228469848633 2.477256059647
-152.344833374023 -69.106018066406 -201.692489624023 1.598725318909
-156.386199951172 -67.367912292480 -199.076644897461 2.937772512436
-26.243160247803 -71.452072143555 -199.604934692383 2.045859575272
-12.234459877014 -70.695045471191 -195.208496093750 2.074977397919
-147.740570068359 -65.974311828613 -203.662963867188 3.212301731110
-19.912324905396 -71.279701232910 -201.091018676758 2.326961517334
-162.851074218750 -68.756446838379 -202.333145141602 1.994824290276
-135.814437866211 -69.713737487793 -200.742691040039 2.593219280243
14.294110298157 -74.454833984375 -206.498947143555 3.446458578110
-162.649597167969 -66.328292846680 -205.810699462891 2.381060361862
-147.519042968750 -71.146667480469 -207.962173461914 2.382238149643
6.820464134216 -70.663810729980 -202.438552856445 2.604703664780
-155.501968383789 -67.087364196777 -204.274505615234 3.103779077530
-26.028812408447 -71.348838806152 -201.841751098633 3.146045446396
95.863540649414 -74.667655944824 -197.789672851563 2.453988313675
-159.777954101563 -70.467445373535 -214.123214721680 1.870578408241
-165.904251098633 -72.385261535645 -209.374511718750 1.915854573250
-78.203628540039 -69.022872924805 -208.994949340820 3.329763412476
87.910758972168 -73.306106567383 -207.640869140625 3.288181304932
-5.065904140472 -71.223442077637 -218.191284179688 2.532921075821
-155.812911987305 -68.473983764648 -214.512863159180 2.713902711868
-88.915145874023 -70.901130676270 -214.273208618164 1.877552390099
-10.704313278198 -74.780967712402 -211.127075195313 2.721869468689
14.328026771545 -72.542800903320 -219.459121704102 1.761839866638
-146.156967163086 -70.498382568359 -221.563018798828 1.976244211197
-4.895957946777 -76.224143981934 -220.646820068359 1.388149738312
-20.666715621948 -73.079315185547 -218.212295532227 0.881495773792
-15.823439598083 -69.151435852051 -220.413482666016 1.734019398689
88.973846435547 -74.081123352051 -217.745849609375 1.189596295357
-22.010290145874 -70.819000244141 -216.843353271484 1.438444137573
-33.012809753418 -71.320167541504 -217.288528442383 3.169958591461
-108.693298339844 -66.361907958984 -225.889434814453 1.705045819283
-17.322692871094 -70.625083923340 -223.209869384766 0.769167661667
91.177513122559 -72.157669067383 -217.640121459961 1.983624815941
76.226852416992 -74.641586303711 -219.293685913086 4.642989158630
5.916796207428 -73.772872924805 -219.009002685547 2.539499521255
-12.338029861450 -70.224037170410 -225.348739624023 2.388502359390
77.380897521973 -74.457252502441 -220.855926513672 2.786736726761
-123.608917236328 -73.381988525391 -226.423370361328 1.008895277977
-21.218112945557 -70.268524169922 -223.261581420898 2.592974424362
-98.336074829102 -70.053520202637 -224.608612060547 0.911632478237
-103.704177856445 -70.676803588867 -225.216674804688 1.561112880707
-132.744003295898 -72.026359558105 -230.063766479492 2.140338659286
80.093086242676 -74.049789428711 -222.458801269531 1.022879958153
-124.355735778809 -70.808616638184 -228.584213256836 2.640171527863
3.584222078323 -72.035224914551 -228.539016723633 2.011406421661
80.040267944336 -72.602500915527 -223.286483764648 1.923203468323
-16.872955322266 -73.284111022949 -230.550918579102 1.784178376198
-14.724811553955 -73.004051208496 -227.413848876953 1.234933376312
-3.086482048035 -77.401008605957 -229.717437744141 1.710333347321
9.086885452271 -74.524482727051 -227.109970092773 2.182844161987
87.677062988281 -75.342666625977 -225.226119995117 2.687188386917
8.863493919373 -71.304794311523 -231.150238037109 1.908742547035
4.413813114166 -72.361114501953 -229.225692749023 1.699124813080
-10.144133567810 -72.948493957520 -231.201019287109 1.421364545822
-7.897647857666 -73.264938354492 -230.056503295898 2.253950834274
17.658260345459 -71.732147216797 -232.384735107422 1.733180999756
-13.514524459839 -69.966796875000 -233.264419555664 2.144093036652
69.991638183594 -74.469909667969 -238.767745971680 1.888666987419
-10.133486747742 -71.014297485352 -238.812820434570 2.217059850693
17.925674438477 -73.962608337402 -235.371536254883 1.464625239372
-163.844833374023 -68.354492187500 -242.214508056641 2.329684972763
-6.591948032379 -70.451995849609 -237.039901733398 1.647176742554
-9.124683380127 -73.278892517090 -240.163772583008 1.248038530350
-168.559112548828 -70.197364807129 -252.595458984375 1.524938821793
-11.789306640625 -70.949996948242 -244.434555053711 1.368480682373
14.646588325500 -70.468841552734 -245.224685668945 2.036999702454
-148.555465698242 -71.896141052246 -253.371994018555 2.912537574768
-74.180999755859 -70.777671813965 -251.141006469727 1.484149575233
-62.596714019775 -72.396492004395 -247.605941772461 1.611026883125
51.400871276855 -71.544654846191 -246.094268798828 2.331542491913
-75.628028869629 -70.910408020020 -247.563751220703 2.434402942657
15.928907394409 -73.686653137207 -249.197296142578 3.130736351013
-74.006629943848 -71.752281188965 -252.022857666016 1.973683357239
-16.310224533081 -70.810478210449 -246.018035888672 3.733710289001
-146.438385009766 -72.701904296875 -254.260299682617 1.675224184990
45.717685699463 -70.387542724609 -249.360885620117 1.621527671814
-80.956245422363 -73.414291381836 -256.496398925781 1.953588008881
-103.595436096191 -68.035751342773 -256.101531982422 2.575315952301
-100.269386291504 -72.481605529785 -255.585708618164 0.804541647434
-120.772140502930 -68.664260864258 -254.280853271484 3.261642932892
-106.671096801758 -68.460166931152 -258.249664306641 2.525752305984
-106.699958801270 -70.539146423340 -259.211303710938 2.058147907257
20.742778778076 -70.787155151367 -258.199676513672 3.617383480072
-130.126785278320 -68.182983398438 -266.454315185547 3.297377109528
-14.596559524536 -73.553283691406 -275.605041503906 3.143497467041
-148.302658081055 -67.917991638184 -284.896636962891 2.520688772202
-169.403076171875 -71.531089782715 -287.318176269531 2.519984245300
-125.671974182129 -71.667098999023 -285.415496826172 0.344862282276
-114.826393127441 -67.959587097168 -288.067108154297 1.220288872719
-76.242561340332 -67.534721374512 -285.301605224609 2.980059146881
-58.259429931641 -72.547775268555 -287.233062744141 2.417189836502
-42.642997741699 -71.158256530762 -286.453063964844 1.760372400284
-16.137359619141 -75.647933959961 -289.851440429688 1.971097826958
-14.507263183594 -70.422248840332 -291.819061279297 1.949055433273
-39.182937622070 -74.102630615234 -290.507415771484 2.007185220718
-35.167484283447 -72.134414672852 -289.075836181641 1.517776846886
-19.741889953613 -69.653816223145 -288.912475585938 3.593206882477
-72.557525634766 -70.716880798340 -293.736663818359 3.480986118317
-56.323505401611 -71.292709350586 -291.614593505859 2.514509916306
-18.384071350098 -69.280380249023 -291.642242431641 3.435742139816
-14.584422111511 -74.222251892090 -289.769653320313 1.831193447113
-4.502245903015 -72.101554870605 -292.347717285156 2.917411088943
1.717877984047 -69.793861389160 -292.125640869141 1.335595130920
-92.953102111816 -71.415573120117 -293.906372070313 3.094334363937
-140.577606201172 -72.117568969727 -296.469787597656 3.490167617798
-117.134094238281 -71.826049804688 -293.850799560547 2.300169229507
-154.331695556641 -69.113418579102 -296.573181152344 1.508737087250
-152.736068725586 -70.999374389648 -301.128540039063 1.685786724091
-147.460021972656 -68.871131896973 -301.613708496094 2.835304021835
41.053913116455 -68.444702148438 -20.458375930786 0.985001444817
16.420682907104 -72.899131774902 -22.944316864014 5.204366207123
46.137233734131 -68.051254272461 -24.226472854614 2.699379205704
43.759151458740 -71.625068664551 -34.236064910889 2.837118625641
84.632728576660 -71.583328247070 -68.865219116211 0.845953941345
92.604454040527 -73.540473937988 -72.486412048340 1.244343757629
98.324058532715 -71.646820068359 -76.645545959473 1.871047854424
95.449951171875 -72.569305419922 -82.023521423340 2.858530759811
53.905006408691 -72.337188720703 -88.456069946289 0.959298133850
42.714351654053 -76.257759094238 -90.331352233887 6.992544174194
60.565677642822 -70.451721191406 -89.773376464844 2.113899707794
-67.899070739746 -66.904777526855 -93.771278381348 3.771236658096
68.018661499023 -71.073402404785 -86.728630065918 2.850909233093
98.255218505859 -66.178314208984 -97.514045715332 2.163316488266
71.860305786133 -72.530097961426 -99.967987060547 1.917228937149
91.665260314941 -71.117591857910 -101.200584411621 1.983694076538
-87.193840026855 -69.964553833008 -104.308540344238 3.330924510956
42.465152740479 -70.280891418457 -97.374275207520 2.897949457169
-89.143623352051 -70.341819763184 -103.146156311035 5.175006389618
48.573078155518 -72.830734252930 -109.514686584473 0.656051635742
35.046699523926 -76.188743591309 -102.913848876953 5.863160610199
99.512626647949 -71.373641967773 -101.834251403809 2.158998966217
34.575904846191 -70.953300476074 -105.316375732422 5.183394908905
40.085651397705 -72.419677734375 -117.840751647949 2.450614690781
40.196781158447 -71.125801086426 -112.350769042969 1.240543365479
107.537353515625 -71.224723815918 -110.862266540527 1.456422924995
-83.834968566895 -73.143989562988 -122.337852478027 3.369941234589
109.717903137207 -75.727287292480 -122.419517517090 2.582141637802
37.633884429932 -67.996658325195 -124.127555847168 2.711046218872
38.057880401611 -70.640510559082 -119.578765869141 1.584478378296
32.498722076416 -71.653884887695 -120.287719726563 2.387181282043
-58.207683563232 -73.807144165039 -130.063980102539 1.757818579674
27.721792221069 -70.330360412598 -122.948097229004 3.148832321167
-79.698867797852 -67.847068786621 -138.639694213867 1.186139106750
-57.787616729736 -72.996070861816 -133.117828369141 0.545718669891
-81.840301513672 -67.407402038574 -135.737319946289 1.884486913681
33.179698944092 -69.542915344238 -130.182662963867 1.201177239418
-62.029262542725 -70.808059692383 -134.198852539063 1.650855898857
32.748584747314 -70.657676696777 -132.814727783203 1.882732868195
-74.287239074707 -67.810081481934 -140.396667480469 1.421601414680
-61.543930053711 -67.506401062012 -141.378936767578 2.298481464386
23.349414825439 -71.999549865723 -142.188812255859 1.946969747543
108.519287109375 -75.271186828613 -141.626724243164 1.667217850685
112.931457519531 -68.960418701172 -135.661117553711 0.974363207817
28.372354507446 -71.377937316895 -141.012908935547 1.754082441330
-50.572246551514 -71.290893554688 -140.680328369141 2.813940525055
104.576789855957 -70.712135314941 -150.841812133789 5.822279930115
-77.894752502441 -69.398315429688 -143.887741088867 2.131683349609
-60.974571228027 -69.862373352051 -142.919616699219 1.721376657486
29.352788925171 -67.622657775879 -146.983154296875 1.365281581879
-79.881652832031 -70.796379089355 -146.998825073242 4.114501953125
-72.914199829102 -69.609436035156 -151.020874023438 1.736655831337
112.541694641113 -76.362823486328 -148.055023193359 1.647645235062
-66.880821228027 -69.194946289063 -155.810104370117 1.204466819763
-41.577186584473 -67.646850585938 -152.647598266602 2.542307853699
23.382888793945 -69.781997680664 -145.585937500000 3.032451152802
-75.538726806641 -70.004898071289 -146.837997436523 0.966496348381
10.090451240540 -70.646697998047 -149.532501220703 1.286066770554
29.613691329956 -70.903816223145 -156.470886230469 1.211689114571
28.712350845337 -69.187667846680 -149.791961669922 2.093360185623
12.881451606750 -75.337219238281 -153.842453002930 2.725764513016
-52.210777282715 -71.460952758789 -153.760101318359 0.832733511925
22.450822830200 -72.590690612793 -152.771514892578 1.832816362381
-48.503612518311 -69.219581604004 -150.666442871094 0.829651534557
2.432615041733 -71.174766540527 -153.923416137695 4.351949214935
18.137865066528 -70.426719665527 -149.651718139648 1.515001416206
-71.145553588867 -69.108535766602 -158.174636840820 3.845798015594
-48.906726837158 -67.344017028809 -154.625869750977 3.265549898148
-70.480216979980 -69.227401733398 -154.519958496094 1.773237586021
15.882975578308 -70.082702636719 -158.200683593750 1.464237928391
21.880617141724 -70.439056396484 -149.742782592773 2.445602416992
0.307251006365 -71.013092041016 -164.424652099609 1.394925117493
19.004825592041 -71.038421630859 -153.257308959961 2.625134468079
28.548866271973 -71.187393188477 -166.737045288086 1.378468275070
-49.582523345947 -71.415565490723 -163.713287353516 2.750881195068
-39.149421691895 -76.269973754883 -163.550933837891 3.257672548294
-43.138843536377 -70.967849731445 -161.252029418945 0.918166875839
25.519983291626 -71.656349182129 -158.290374755859 0.973165690899
-46.483440399170 -68.594001770020 -167.270309448242 4.706367015839
-41.997005462646 -68.852607727051 -166.809326171875 2.699403762817
19.123838424683 -70.014801025391 -165.456115722656 2.145627498627
-42.031723022461 -70.859313964844 -175.608001708984 3.735599994659
25.754343032837 -68.061592102051 -169.735275268555 1.097152590752
109.448394775391 -69.754264831543 -163.555084228516 0.914031326771
-35.730575561523 -70.324234008789 -172.348571777344 1.800395965576
100.583793640137 -70.419868469238 -171.993087768555 5.662995815277
-36.729125976563 -70.053237915039 -177.759750366211 1.469764113426
-39.582515716553 -73.247856140137 -181.762207031250 3.856997966766
18.938840866089 -74.058227539063 -176.672622680664 1.130340933800
103.681625366211 -73.124908447266 -180.693420410156 1.818705201149
-33.582126617432 -69.002990722656 -183.218811035156 1.840112090111
-37.342910766602 -69.879440307617 -177.854217529297 1.932450771332
-25.332620620728 -74.034706115723 -187.002304077148 1.962806463242
-151.088912963867 -69.246520996094 -190.582458496094 2.609025001526
10.826109886169 -70.989746093750 -183.144958496094 3.711703062057
102.956878662109 -71.460655212402 -189.822540283203 1.528014779091
-160.951721191406 -68.160591125488 -194.858108520508 1.180504798889
-24.985557556152 -67.771575927734 -189.751663208008 1.154128551483
-117.617820739746 -70.874176025391 -198.619247436523 3.110946893692
-132.796493530273 -70.390785217285 -197.032638549805 0.916419863701
-109.823478698730 -69.921371459961 -200.992324829102 2.189597845078
-115.566009521484 -68.540641784668 -201.499511718750 2.948146820068
-14.318839073181 -71.704795837402 -196.430877685547 1.209066152573
18.139472961426 -70.283500671387 -195.820037841797 0.960760354996
-17.669500350952 -67.328071594238 -202.031387329102 2.561164379120
-128.585021972656 -69.177536010742 -206.979751586914 3.706203699112
-22.691345214844 -67.253578186035 -203.216049194336 2.558367252350
-131.231216430664 -67.982337951660 -204.388961791992 1.133152365685
-17.346393585205 -71.002738952637 -200.372817993164 1.246925592422
-147.948211669922 -67.677253723145 -204.475616455078 3.680555820465
90.008529663086 -68.977005004883 -205.355285644531 4.280820846558
-166.350280761719 -63.845748901367 -203.393096923828 3.112468719482
-4.499204158783 -72.818191528320 -217.807998657227 1.901376962662
9.640403747559 -72.499443054199 -209.679107666016 0.693369626999
8.570296287537 -73.480140686035 -216.814010620117 1.080469250679
80.924095153809 -72.499900817871 -215.669982910156 2.757177591324
6.740179061890 -72.307144165039 -212.891220092773 0.877589166164
10.897223472595 -70.532707214355 -214.556152343750 1.073779821396
-17.605808258057 -74.147300720215 -215.999801635742 2.231885671616
-92.198692321777 -70.125015258789 -215.459915161133 1.764366984367
-99.697563171387 -69.751808166504 -217.686401367188 1.310927748680
-1.655591011047 -70.203208923340 -219.085906982422 0.954707801342
-168.117355346680 -70.408905029297 -223.860671997070 2.502008438110
13.501972198486 -69.481605529785 -219.404098510742 0.571772992611
-146.251235961914 -68.284111022949 -222.911270141602 2.329631567001
11.356217384338 -71.787918090820 -224.738769531250 2.392013788223
-136.250701904297 -70.449157714844 -226.387008666992 2.193794012070
-117.497062683105 -70.384475708008 -228.495300292969 1.274968028069
15.130094528198 -70.748527526855 -220.638183593750 1.957293748856
76.750389099121 -72.510452270508 -220.379806518555 3.955640792847
5.130821228027 -71.349990844727 -223.338546752930 2.674126625061
-111.379943847656 -68.857559204102 -232.157897949219 0.617820441723
70.781303405762 -73.342956542969 -226.883178710938 3.086410999298
82.447959899902 -73.701972961426 -228.426864624023 1.409353137016
-126.662666320801 -69.128166198730 -236.514480590820 2.932496070862
-118.550521850586 -69.450454711914 -231.780761718750 1.999505877495
-11.544036865234 -68.007560729980 -227.913070678711 1.264799952507
70.455268859863 -73.168327331543 -230.483612060547 1.434838414192
63.143161773682 -72.956245422363 -232.379943847656 4.725942611694
71.750968933105 -71.981956481934 -228.581924438477 1.692004203796
-136.678726196289 -65.912063598633 -235.669433593750 2.715517997742
68.647773742676 -73.535385131836 -231.471023559570 1.089275956154
64.733070373535 -70.264572143555 -234.519531250000 2.330918312073
-167.621383666992 -67.258453369141 -232.464447021484 3.117201805115
-0.064035996795 -77.715843200684 -240.842102050781 2.587510585785
17.923248291016 -72.923858642578 -239.218383789063 1.151949524879
-7.388064861298 -68.761390686035 -240.746368408203 1.758879661560
14.414063453674 -66.806716918945 -239.119201660156 3.743860006332
64.772399902344 -73.385383605957 -237.313766479492 1.596763968468
7.571080207825 -69.781410217285 -243.272094726563 1.635008096695
-12.246593475342 -65.345855712891 -240.955429077148 1.829692840576
-1.933792948723 -68.256347656250 -237.476089477539 1.164984345436
63.546993255615 -73.089431762695 -241.637557983398 1.099150896072
1.664824008942 -71.972923278809 -242.507278442383 1.539531588554
-8.382722854614 -72.040847778320 -243.198715209961 1.938455939293
12.857794761658 -73.989677429199 -242.689926147461 1.376205563545
-168.889907836914 -70.287170410156 -243.055465698242 2.922766685486
54.680896759033 -72.664993286133 -246.571136474609 2.186940908432
48.736896514893 -66.808792114258 -250.279190063477 1.561107277870
56.795635223389 -73.062072753906 -242.097290039063 1.445071935654
-13.464860916138 -69.565139770508 -248.055587768555 1.391045689583
55.831974029541 -72.169395446777 -244.993972778320 0.914322078228
-75.186317443848 -69.771812438965 -250.718215942383 1.369874238968
49.443096160889 -72.664146423340 -248.034530639648 0.598071813583
-90.018936157227 -69.827857971191 -253.514694213867 1.793274998665
-124.455543518066 -70.561927795410 -258.078552246094 2.653136968613
-133.668395996094 -69.264244079590 -254.461029052734 1.784019708633
44.799823760986 -73.752868652344 -251.289077758789 2.391521453857
-133.871215820313 -71.786636352539 -254.689041137695 1.378977298737
-110.420394897461 -67.937416076660 -256.357940673828 0.713106036186
-117.265846252441 -67.374313354492 -258.805664062500 0.271939009428
-85.014862060547 -70.504386901855 -255.631347656250 1.731404900551
-112.178039550781 -67.993011474609 -260.427703857422 1.914370894432
-125.299720764160 -72.685119628906 -263.821105957031 1.500696778297
-147.582229614258 -66.676620483398 -269.313842773438 3.307976007462
-16.435995101929 -69.947357177734 -265.796447753906 2.256396532059
-172.512985229492 -70.687835693359 -266.420166015625 5.119184494019
-15.648139953613 -70.771736145020 -273.940307617188 1.831109285355
-160.071884155273 -65.751388549805 -269.133666992188 4.082853794098
-153.760879516602 -69.291511535645 -275.181823730469 2.774362325668
-170.946914672852 -68.749732971191 -279.478027343750 5.228705406189
-15.255042076111 -71.409912109375 -279.490844726563 4.197532176971
-131.199554443359 -71.772705078125 -284.630554199219 2.956290960312
-158.974441528320 -68.766815185547 -288.035125732422 2.597903013229
-144.946746826172 -68.290534973145 -282.618072509766 1.449769258499
-135.933776855469 -72.148757934570 -282.024139404297 2.961483240128
-9.093379974365 -65.830535888672 -284.589569091797 3.437804222107
-126.903411865234 -72.952354431152 -284.834075927734 1.486125707626
-141.961318969727 -67.295982360840 -287.233825683594 0.619353353977
-116.740882873535 -72.553100585938 -287.024017333984 1.628994584084
-79.912307739258 -68.446067810059 -288.952484130859 1.719208836555
-61.679241180420 -71.239051818848 -287.737854003906 2.271224021912
-7.984711170197 -72.426719665527 -287.895660400391 2.687111377716
-54.887752532959 -69.524612426758 -286.327911376953 2.438715457916
-58.128097534180 -68.375785827637 -289.284790039063 1.705777168274
-71.312713623047 -68.728157043457 -291.126342773438 3.322893619537
-88.939537048340 -69.260581970215 -294.784210205078 2.771667003632
-95.953720092773 -67.807289123535 -290.079345703125 2.373101234436
-161.237762451172 -68.106826782227 -293.301940917969 3.174228668213
-162.000762939453 -69.903663635254 -295.544311523438 2.978966474533
-125.569160461426 -72.319335937500 -295.281646728516 1.298033833504
-145.548828125000 -69.447380065918 -296.630218505859 2.226091623306
-153.895080566406 -71.420097351074 -305.456604003906 1.939204216003
-151.232223510742 -71.589622497559 -313.835815429688 1.240151643753
44.066318511963 -68.798347473145 -14.082928657532 2.560212135315
13.007344245911 -71.488662719727 -29.556419372559 7.080846786499
38.330856323242 -66.939788818359 -34.185771942139 0.916804194450
-18.857646942139 -72.653167724609 -66.494728088379 2.272123098373
78.477081298828 -69.247200012207 -64.182548522949 2.204232931137
85.390853881836 -67.228996276855 -64.960815429688 2.232437610626
74.513801574707 -73.995285034180 -64.536315917969 5.360760211945
69.412109375000 -72.099777221680 -68.363502502441 3.458322763443
87.921363830566 -73.525337219238 -73.855117797852 2.680170536041
-99.357955932617 -65.266418457031 -71.345039367676 3.375661134720
64.570877075195 -71.447967529297 -74.594200134277 4.677586555481
-39.771961212158 -70.310981750488 -77.748229980469 1.450153946877
95.788078308105 -71.234077453613 -84.716506958008 3.104013442993
58.427913665771 -68.196807861328 -89.681510925293 2.929867982864
103.993293762207 -75.807197570801 -92.366172790527 5.365756034851
98.485343933105 -74.795745849609 -97.198936462402 2.026540279388
69.324836730957 -70.780685424805 -99.789489746094 2.136400938034
-83.137451171875 -67.550140380859 -102.403228759766 1.378215551376
51.393543243408 -70.592941284180 -103.582305908203 2.197934389114
104.199195861816 -68.853935241699 -104.797561645508 1.881556749344
44.174320220947 -71.221611022949 -111.822158813477 1.189848303795
76.959495544434 -69.918235778809 -104.480049133301 0.505810737610
38.698200225830 -70.081619262695 -106.940299987793 0.732757449150
101.263648986816 -70.956291198730 -102.017723083496 1.124401569366
44.620967864990 -69.960510253906 -107.213600158691 1.324797391891
104.251686096191 -76.060752868652 -108.619636535645 1.855136036873
107.183471679688 -74.246101379395 -110.021537780762 1.074056982994
-82.279739379883 -66.765129089355 -115.038520812988 2.056731462479
-85.766143798828 -66.931480407715 -120.270614624023 0.727199733257
41.050472259521 -73.410713195801 -119.486686706543 2.944923639297
110.951942443848 -73.003547668457 -119.957717895508 1.603048801422
110.881546020508 -71.154479980469 -122.258796691895 1.024592757225
-90.003562927246 -67.717414855957 -127.922325134277 1.938242077827
103.164207458496 -73.124404907227 -124.516754150391 5.218602180481
-62.131362915039 -73.155738830566 -132.391769409180 3.345013141632
-88.947563171387 -68.918151855469 -128.217697143555 0.451190620661
-75.321266174316 -68.962181091309 -127.916648864746 1.159444212914
-61.925827026367 -65.263053894043 -127.411849975586 1.446566939354
28.886756896973 -69.946670532227 -129.764114379883 1.697631120682
39.703216552734 -68.909027099609 -134.182708740234 1.995251774788
-75.805206298828 -68.474937438965 -137.384689331055 1.601889371872
26.024929046631 -68.347000122070 -130.576492309570 4.388054847717
109.076309204102 -71.434494018555 -141.592453002930 0.750597536564
-42.712535858154 -69.365798950195 -148.674209594727 1.316900014877
27.840887069702 -71.131111145020 -148.434524536133 0.713673830032
111.366012573242 -69.890388488770 -146.361984252930 2.295417070389
32.946563720703 -70.905899047852 -142.273086547852 1.557655215263
107.766761779785 -70.201629638672 -139.510787963867 2.453998565674
-54.855987548828 -69.377899169922 -149.917221069336 1.945779919624
-73.736610412598 -66.381256103516 -151.736358642578 2.701349735260
-57.603767395020 -69.585067749023 -153.105895996094 5.043899536133
-44.471134185791 -72.706779479980 -165.344848632813 2.282092809677
2.237848043442 -71.231689453125 -155.727783203125 3.125751256943
107.352111816406 -71.628364562988 -152.192459106445 3.578444242477
106.563415527344 -71.311370849609 -158.312118530273 3.888543844223
7.625438213348 -69.432952880859 -157.256607055664 0.944165170193
0.921649992466 -69.996589660645 -161.190567016602 2.419220924377
16.786314010620 -69.419090270996 -154.959075927734 2.100227594376
23.224887847900 -68.939071655273 -155.296691894531 1.213549256325
106.398933410645 -71.023124694824 -164.315979003906 3.084391117096
107.208389282227 -74.493553161621 -166.373916625977 1.573390722275
21.737564086914 -67.704933166504 -174.048400878906 2.223118782043
22.605613708496 -72.273963928223 -163.439117431641 1.899568080902
109.870338439941 -69.575141906738 -160.645584106445 2.583847284317
-31.289981842041 -68.412002563477 -177.434494018555 1.946177721024
107.892379760742 -71.680007934570 -166.423248291016 2.428720474243
15.217915534973 -70.645416259766 -167.310409545898 3.567922353745
19.322185516357 -70.097198486328 -167.392181396484 1.829468727112
106.282180786133 -71.638214111328 -171.536056518555 1.803254485130
24.480346679688 -69.449249267578 -169.990249633789 1.585570216179
110.173393249512 -70.881973266602 -182.347808837891 0.168990328908
-40.454914093018 -68.757133483887 -178.057266235352 4.957436561584
22.857070922852 -69.873985290527 -170.731719970703 1.394479393959
105.368545532227 -71.335586547852 -182.549819946289 1.569977521896
20.916637420654 -71.239768981934 -178.203552246094 1.298398375511
-153.903457641602 -66.360252380371 -188.126861572266 0.924728989601
-30.220804214478 -66.646331787109 -189.578903198242 2.533512353897
22.520618438721 -68.263740539551 -184.539459228516 1.704882144928
-115.783866882324 -69.733573913574 -193.064361572266 2.035197734833
-112.833496093750 -65.994140625000 -192.507720947266 1.542546868324
21.714578628540 -70.828575134277 -188.163879394531 1.476279020309
9.601466178894 -68.252685546875 -184.813171386719 5.686373233795
-28.889019012451 -67.034011840820 -190.448837280273 1.318285226822
-31.735643386841 -73.272972106934 -189.430541992188 1.654158473015
-30.078987121582 -69.865486145020 -187.410430908203 2.138577461243
12.680710792542 -68.143875122070 -179.733810424805 3.761718750000
-152.811264038086 -67.739303588867 -196.706817626953 1.565565109253
-147.333892822266 -67.495628356934 -194.417633056641 2.639069318771
-146.353454589844 -70.728096008301 -199.863601684570 2.137011051178
-24.923400878906 -68.673385620117 -191.562927246094 2.004814863205
11.748150825500 -68.022163391113 -199.335021972656 0.942701816559
96.858383178711 -70.538841247559 -192.149642944336 3.328081607819
-115.636199951172 -67.196701049805 -199.563369750977 3.214754104614
19.278278350830 -73.473266601563 -198.009506225586 1.632513880730
-17.275171279907 -68.676582336426 -195.647781372070 1.416434407234
-19.644433975220 -69.064231872559 -198.845458984375 2.143911600113
99.041046142578 -70.265975952148 -198.323471069336 1.032128572464
5.975469112396 -71.908721923828 -199.097213745117 3.043802499771
-23.903316497803 -67.924118041992 -196.666229248047 1.459753513336
-123.258651733398 -71.101547241211 -204.370605468750 1.375417232513
-136.050262451172 -68.150413513184 -204.741744995117 3.169239997864
-115.873291015625 -63.965034484863 -206.187149047852 3.311904668808
-144.077453613281 -70.627189636230 -204.908645629883 1.927886962891
15.567841529846 -69.813194274902 -197.481506347656 1.825155258179
91.884681701660 -72.532371520996 -200.720169067383 1.832888364792
-167.750183105469 -63.119422912598 -203.301681518555 3.881821870804
98.095291137695 -71.046897888184 -200.994491577148 2.354486942291
-23.537929534912 -73.216537475586 -206.214187622070 3.357557058334
92.816658020020 -69.344139099121 -209.440673828125 1.878719925880
86.246238708496 -72.665000915527 -210.474212646484 2.006197929382
10.256022453308 -71.796203613281 -205.772750854492 1.921580910683
17.988958358765 -69.704246520996 -211.728866577148 1.365635037422
11.041024208069 -67.368545532227 -207.679092407227 1.093899130821
-12.541456222534 -70.218368530273 -222.482391357422 2.694403409958
-96.154289245605 -70.546142578125 -219.610534667969 2.656789302826
-12.248809814453 -71.856307983398 -212.351242065430 3.108954668045
87.304626464844 -71.533607482910 -215.278167724609 1.867459297180
-95.288246154785 -70.757804870605 -218.677108764648 2.563000202179
-102.784004211426 -66.333740234375 -222.327484130859 1.718626618385
-96.149864196777 -69.274345397949 -220.520919799805 2.187671899796
86.522827148438 -72.912704467773 -220.948501586914 1.688863873482
-136.925338745117 -68.493469238281 -226.645309448242 2.173892498016
-134.110855102539 -71.966888427734 -228.152557373047 2.290547847748
-118.287452697754 -68.245155334473 -226.104431152344 2.565681934357
-114.728240966797 -65.806060791016 -224.449234008789 2.361782312393
-134.931915283203 -66.718841552734 -228.685348510742 2.294571876526
-113.400421142578 -74.973457336426 -228.692489624023 1.760194659233
-113.804756164551 -68.303138732910 -229.293914794922 2.408619642258
-8.558221817017 -73.158248901367 -224.679229736328 1.192895412445
-17.636306762695 -72.063529968262 -223.317123413086 1.818790435791
-2.529488086700 -68.190750122070 -230.459976196289 1.312528729439
-11.741944313049 -67.184341430664 -227.122482299805 1.379098534584
13.831195831299 -71.129798889160 -233.335418701172 0.809031128883
-20.427879333496 -68.209213256836 -229.346420288086 4.312912940979
-168.477767944336 -66.042411804199 -224.140762329102 3.013311862946
-5.654364109039 -70.088630676270 -233.511428833008 0.606447279453
79.268203735352 -68.596084594727 -230.316101074219 1.651741743088
9.396670341492 -72.088439941406 -233.520675659180 2.227867603302
-7.416718006134 -69.389076232910 -234.849731445313 1.952577829361
-158.330184936523 -65.658332824707 -238.258224487305 2.946623325348
-143.832000732422 -66.623001098633 -231.995758056641 1.436286211014
61.084850311279 -69.885437011719 -235.212829589844 2.089430332184
-7.207807064056 -71.021713256836 -234.177093505859 1.464085936546
7.704296112061 -72.313491821289 -230.610061645508 1.753000140190
67.813232421875 -73.351394653320 -229.498764038086 2.132819890976
75.410469055176 -71.741676330566 -233.455383300781 2.804587364197
69.560111999512 -72.419120788574 -240.582382202148 0.960880398750
-3.131314992905 -72.936798095703 -235.697235107422 1.384766459465
56.567123413086 -69.457702636719 -237.331314086914 3.373180150986
-20.524059295654 -72.459320068359 -239.921798706055 0.725452721119
-16.708011627197 -67.737274169922 -240.570922851563 2.332022905350
6.749452114105 -70.253150939941 -239.266555786133 2.715887069702
63.238723754883 -74.322570800781 -237.165679931641 2.350330591202
63.990619659424 -69.769180297852 -239.951339721680 1.464062571526
48.206222534180 -71.237098693848 -245.579284667969 2.511476278305
59.645137786865 -74.232978820801 -242.043228149414 1.153694629669
-16.951311111450 -74.443176269531 -249.798233032227 3.598110914230
-84.871368408203 -66.527420043945 -255.102798461914 2.605041503906
-78.145950317383 -67.187675476074 -253.786010742188 2.811474084854
42.836551666260 -73.704238891602 -247.276855468750 3.506850957870
-150.482254028320 -69.189674377441 -252.281463623047 1.762162685394
34.714645385742 -70.889251708984 -255.831314086914 2.710823535919
-93.420379638672 -72.372772216797 -252.878234863281 1.292936682701
-157.494903564453 -64.346221923828 -256.417663574219 1.984123706818
-141.556259155273 -62.192520141602 -254.878204345703 2.290825366974
43.846157073975 -70.846633911133 -253.018463134766 1.207391619682
-126.197547912598 -64.698738098145 -259.249847412109 0.821799278259
-118.174354553223 -68.827880859375 -256.613494873047 2.160875558853
-93.589256286621 -65.060539245605 -258.104553222656 2.957790851593
-15.010747909546 -66.963714599609 -250.550216674805 1.888850927353
30.596069335938 -70.527603149414 -256.852294921875 1.243861794472
23.724100112915 -68.220794677734 -259.199432373047 1.036951899529
-160.137908935547 -63.643428802490 -262.060150146484 4.553314685822
-115.998054504395 -71.241546630859 -263.895629882813 1.016472697258
-15.150041580200 -69.836990356445 -262.092193603516 0.945704162121
-133.973419189453 -68.158256530762 -266.816833496094 2.886277675629
-15.265066146851 -68.969505310059 -270.457336425781 1.835962057114
-165.992752075195 -67.150253295898 -274.304443359375 3.379692554474
-8.384117126465 -71.273422241211 -279.539520263672 2.371932744980
-161.850448608398 -68.355102539063 -289.532043457031 1.866369843483
-164.958999633789 -69.745353698730 -279.644073486328 2.807560682297
-143.614929199219 -68.514389038086 -286.742889404297 1.792169332504
-171.212371826172 -69.804222106934 -286.480010986328 3.314576148987
13.005371093750 -72.878898620605 -287.802703857422 1.653152704239
-104.184341430664 -69.903373718262 -287.651245117188 2.224314928055
-88.149475097656 -65.119400024414 -286.966033935547 4.360863208771
-168.761489868164 -65.178787231445 -286.404907226563 4.815006732941
-93.121879577637 -72.857192993164 -284.970947265625 3.303179740906
-154.708404541016 -68.599159240723 -290.132019042969 2.566702604294
-76.437973022461 -70.267822265625 -294.429077148438 4.183039665222
-71.630577087402 -68.739883422852 -289.487854003906 3.048494577408
-83.527702331543 -70.248237609863 -292.203735351563 2.335460424423
-4.685057163239 -67.877151489258 -288.996154785156 1.720935463905
-89.035980224609 -69.104278564453 -289.594665527344 2.038053750992
-100.010017395020 -70.373474121094 -291.995513916016 1.077045440674
