-66.467163085938 -76.073150634766 -285.496520996094 2.450387239456
-80.850959777832 -76.126365661621 -285.966156005859 1.575837969780
-3.387361049652 -75.744415283203 -284.206634521484 2.889068603516
4.572328090668 -75.873497009277 -290.157257080078 1.539936661720
-138.745712280273 -72.110984802246 -287.179901123047 2.150841474533
-80.027160644531 -71.815597534180 -286.696594238281 2.387753009796
-147.830978393555 -72.401390075684 -287.360137939453 2.723910331726
-95.001358032227 -78.669128417969 -286.276519775391 4.556715488434
-79.144905090332 -73.380653381348 -286.675689697266 2.686213254929
-85.588165283203 -71.614646911621 -293.193878173828 1.923215389252
-62.323493957520 -73.611076354980 -290.805236816406 2.318886518478
-29.360366821289 -70.163322448730 -293.364105224609 3.526420354843
-7.088610172272 -74.304862976074 -290.780364990234 1.634068965912
-152.619247436523 -68.131355285645 -296.612701416016 0.913898468018
-150.579910278320 -71.413162231445 -299.769287109375 2.678683996201
-145.335968017578 -72.514167785645 -302.920959472656 1.632166981697
-157.195495605469 -72.440345764160 -305.166809082031 1.314184427261
-57.215026855469 -73.515579223633 -55.116294860840 1.659042239189
-47.429904937744 -74.829353332520 -52.526016235352 2.299679279327
-39.597938537598 -76.471115112305 -53.996791839600 2.932371139526
-77.033256530762 -76.983085632324 -60.429206848145 2.017607450485
-29.354490280151 -74.930564880371 -63.239151000977 2.878952741623
-33.350078582764 -75.398361206055 -79.048217773438 2.497387647629
74.508819580078 -79.727699279785 -81.448699951172 4.526052951813
74.901634216309 -77.955673217773 -80.093460083008 2.850581407547
73.208648681641 -75.969184875488 -83.402572631836 1.986148476601
98.182472229004 -75.050300598145 -89.691467285156 1.429919838905
69.966651916504 -78.760612487793 -88.996482849121 4.268579959869
49.834762573242 -78.393737792969 -90.156990051270 5.157545089722
49.674869537354 -80.801528930664 -100.175834655762 3.783685445786
-67.300636291504 -74.302688598633 -100.601371765137 2.583788394928
-73.553710937500 -69.793235778809 -101.481422424316 2.025443553925
44.536705017090 -77.624511718750 -102.836639404297 1.869897961617
-82.707687377930 -79.225486755371 -108.931663513184 2.892459154129
-93.614646911621 -73.065498352051 -110.725677490234 1.398684620857
50.633666992188 -76.353881835938 -106.899963378906 1.731932401657
107.046287536621 -76.291664123535 -113.031723022461 1.960290431976
32.322177886963 -77.988662719727 -122.809104919434 0.672676444054
43.510246276855 -77.448753356934 -118.333160400391 0.848740875721
40.665584564209 -75.971084594727 -123.737945556641 0.301944702864
29.420724868774 -77.433753967285 -123.085853576660 2.156912088394
108.627021789551 -77.174835205078 -119.830337524414 1.689294099808
38.864612579346 -78.076210021973 -129.826843261719 2.073400259018
32.341419219971 -73.210502624512 -131.204391479492 1.574621677399
-45.941486358643 -74.387046813965 -142.547332763672 1.369353413582
-71.566490173340 -76.496154785156 -143.844192504883 1.578728914261
-54.176872253418 -73.636283874512 -146.396377563477 2.214389801025
-73.537597656250 -77.234497070313 -145.515060424805 1.915723204613
-40.300559997559 -74.144477844238 -146.943771362305 2.239377021790
106.759346008301 -76.430191040039 -153.598907470703 4.057833671570
-72.290901184082 -76.019554138184 -155.288299560547 3.199714422226
23.227193832397 -78.813407897949 -147.277496337891 2.504094123840
29.966838836670 -77.898628234863 -150.678985595703 0.744538128376
112.145782470703 -79.073684692383 -160.762634277344 2.844165802002
8.847642898560 -77.352066040039 -158.845062255859 1.118448257446
31.968505859375 -74.225944519043 -154.967025756836 1.515197753906
-64.399230957031 -75.810852050781 -158.658630371094 1.999230504036
-42.284900665283 -76.233360290527 -171.012451171875 2.643586874008
19.878810882568 -74.962577819824 -162.816665649414 1.532828211784
-65.132293701172 -73.568817138672 -159.096069335938 1.474807381630
-69.803314208984 -74.725074768066 -164.868637084961 2.845389366150
110.903343200684 -78.212738037109 -165.723648071289 1.892758607864
-8.372578620911 -76.015129089355 -166.107589721680 1.833052396774
-64.482627868652 -73.744949340820 -173.290512084961 2.566517829895
-32.636993408203 -76.177490234375 -167.984268188477 1.677715182304
-55.360183715820 -73.488525390625 -172.091384887695 2.857168197632
28.881383895874 -75.342010498047 -172.121673583984 2.200292825699
110.281478881836 -75.029106140137 -172.412704467773 1.046602368355
101.943138122559 -75.771110534668 -183.081893920898 2.043088197708
105.258827209473 -76.509689331055 -188.878097534180 1.197407245636
106.415016174316 -74.908882141113 -176.551055908203 1.266213297844
-52.806686401367 -73.660484313965 -189.715362548828 1.975781679153
-49.847587585449 -72.004478454590 -182.322509765625 3.697220802307
26.092376708984 -75.902832031250 -182.886993408203 1.235219120979
-49.364200592041 -73.164123535156 -186.429122924805 1.546334862709
-21.026336669922 -75.476333618164 -183.720397949219 2.059375524521
-51.510292053223 -76.353416442871 -190.983779907227 0.497441858053
-151.741851806641 -72.695510864258 -192.261154174805 1.986774802208
100.720947265625 -77.719871520996 -192.465194702148 1.557922959328
-45.258312225342 -72.281539916992 -193.350601196289 2.749571800232
-15.012505531311 -76.346992492676 -197.883666992188 2.071194648743
-140.656906127930 -73.669250488281 -193.879699707031 2.371709823608
-43.767799377441 -72.470687866211 -197.111419677734 3.925906181335
101.484802246094 -75.768379211426 -196.631317138672 1.545493960381
106.400268554688 -75.124748229980 -185.213226318359 2.748058557510
-45.037117004395 -74.389564514160 -195.829757690430 2.638092279434
-23.817628860474 -79.833190917969 -197.477874755859 1.805300831795
-148.605850219727 -77.249572753906 -199.241790771484 1.109078288078
-25.645978927612 -75.233543395996 -196.313186645508 1.544526815414
-158.050033569336 -74.058616638184 -197.277587890625 3.551295995712
-153.440597534180 -78.641296386719 -203.433517456055 1.628206014633
-143.855239868164 -75.257743835449 -201.216186523438 2.079934835434
-39.050254821777 -75.123588562012 -199.265075683594 1.700987219810
100.572135925293 -76.908027648926 -201.237167358398 2.187351226807
-41.591411590576 -72.770256042480 -199.120529174805 2.400834798813
-143.937728881836 -76.656089782715 -204.325256347656 0.609176814556
-38.426937103271 -71.482322692871 -205.153884887695 1.826966762543
-21.422018051147 -78.626251220703 -209.395645141602 4.173339843750
96.384460449219 -77.870246887207 -204.774658203125 1.744153738022
90.655792236328 -76.975807189941 -212.815383911133 1.024745821953
-35.050060272217 -73.083129882813 -216.557159423828 4.237994194031
-88.122428894043 -74.883140563965 -210.382614135742 2.809985399246
-76.333564758301 -74.609603881836 -211.114776611328 1.367861628532
-19.312282562256 -74.855598449707 -213.198211669922 2.631952285767
-150.487945556641 -74.156875610352 -205.221115112305 1.775945544243
89.557739257813 -76.044860839844 -213.002609252930 0.911512672901
88.300415039063 -74.250534057617 -217.736495971680 1.761671781540
89.540283203125 -75.989479064941 -219.623992919922 1.073524355888
-102.936164855957 -73.627502441406 -219.616333007813 1.983874320984
-153.736145019531 -75.443710327148 -221.375167846680 1.933823466301
-20.658143997192 -73.461235046387 -222.070083618164 1.687104344368
79.274734497070 -73.551742553711 -225.540313720703 1.685480117798
-150.334091186523 -76.387435913086 -223.363906860352 0.698690950871
-28.708362579346 -75.648010253906 -218.428604125977 1.598155975342
-134.151977539063 -71.787422180176 -230.652084350586 2.238307476044
-12.541149139404 -76.930671691895 -229.468505859375 2.289132833481
16.802831649780 -74.414970397949 -225.515213012695 0.824353218079
18.973133087158 -75.876396179199 -232.205566406250 1.610637784004
-155.542938232422 -75.996490478516 -233.628524780273 2.784410476685
-126.543106079102 -70.217948913574 -232.112594604492 2.936842203140
-8.905276298523 -73.968795776367 -234.672760009766 1.943128347397
-0.632484018803 -74.047019958496 -236.684753417969 0.940556228161
68.497764587402 -75.310531616211 -232.430999755859 2.160857677460
69.970939636230 -72.978919982910 -237.469573974609 1.832264780998
-1.081326007843 -73.339218139648 -239.721878051758 1.379065632820
15.715858459473 -71.591720581055 -239.159835815430 1.104327201843
-30.843475341797 -68.710563659668 -239.995498657227 6.525164604187
-34.483940124512 -79.727645874023 -240.972167968750 1.136470794678
-47.588279724121 -73.547584533691 -238.135299682617 2.020686388016
-39.970176696777 -72.295036315918 -240.372314453125 3.607328176498
-18.202766418457 -75.624404907227 -242.201309204102 1.454037070274
-53.150417327881 -72.380393981934 -243.262603759766 2.416329145432
1.124174952507 -74.881927490234 -244.567810058594 1.328492164612
-68.931045532227 -74.412277221680 -243.594863891602 3.149860382080
19.949996948242 -75.572471618652 -246.598342895508 0.533124744892
-144.891159057617 -75.031990051270 -244.471939086914 2.554388523102
-73.442398071289 -75.886657714844 -251.110336303711 1.461072921753
14.557826042175 -76.229354858398 -248.665557861328 2.150913715363
-162.082977294922 -71.579109191895 -248.799301147461 2.248185157776
14.281467437744 -77.848098754883 -252.289688110352 2.609256744385
-80.687835693359 -69.840133666992 -250.147476196289 1.880405187607
-75.952148437500 -74.201560974121 -250.270858764648 1.448971390724
18.852336883545 -76.103317260742 -254.533615112305 1.674724459648
-89.947746276855 -72.746963500977 -251.632171630859 1.295410633087
-126.444053649902 -70.478996276855 -254.504486083984 1.978423357010
-134.358184814453 -75.024612426758 -258.936187744141 1.473959684372
-135.870834350586 -75.090705871582 -254.173919677734 1.966391205788
-147.901809692383 -73.255203247070 -260.296600341797 0.741907477379
-145.102264404297 -70.459594726563 -254.469268798828 1.820240378380
-135.623260498047 -71.225257873535 -261.128784179688 1.568517327309
-162.447387695313 -69.962989807129 -260.130249023438 1.370942115784
-127.830215454102 -71.938980102539 -265.577331542969 2.288030862808
-136.107986450195 -69.351539611816 -261.961120605469 1.425038099289
-164.494857788086 -69.895477294922 -266.742004394531 2.192259550095
-157.512054443359 -70.168518066406 -263.504089355469 1.213108539581
-150.132308959961 -70.975868225098 -264.899475097656 2.507328748703
-148.856033325195 -72.881324768066 -265.028686523438 2.981005191803
15.839436531067 -76.843292236328 -278.037963867188 1.387561917305
-166.937530517578 -72.091949462891 -266.452056884766 2.699703931808
-152.738815307617 -73.113639831543 -272.844787597656 1.632778048515
-6.652803897858 -80.962219238281 -272.565460205078 1.645561099052
-158.079071044922 -70.365859985352 -271.925170898438 1.517373323441
11.311965942383 -77.863166809082 -281.436737060547 1.219800233841
-153.117782592773 -71.870613098145 -281.225189208984 1.318709611893
-165.374114990234 -72.832557678223 -287.125976562500 1.373820900917
-155.745162963867 -73.943664550781 -279.669006347656 4.133728027344
-165.949356079102 -70.483581542969 -287.101135253906 1.589826464653
0.473621010780 -76.520233154297 -286.913299560547 1.691647291183
6.435221195221 -78.382141113281 -282.511962890625 1.541966319084
-102.859169006348 -71.290702819824 -290.228790283203 2.534684896469
-154.850982666016 -76.116783142090 -287.096313476563 1.249174952507
-149.134201049805 -70.471710205078 -285.287567138672 2.812172651291
-108.178710937500 -71.698936462402 -290.066253662109 2.155767679214
-153.113967895508 -74.087356567383 -291.257110595703 2.048610925674
-149.365859985352 -74.848693847656 -288.759460449219 0.896310925484
-73.036056518555 -75.327651977539 -291.949554443359 3.827172279358
-166.673492431641 -73.577499389648 -288.851074218750 1.863225817680
-123.968200683594 -69.825706481934 -290.786499023438 1.375985026360
-44.083015441895 -76.753410339355 -287.356384277344 1.796051263809
-154.250747680664 -71.858024597168 -287.860443115234 1.900430679321
-133.988937377930 -68.309730529785 -292.821960449219 2.028738260269
-19.478431701660 -71.848815917969 -293.246856689453 3.122262954712
-128.866973876953 -69.848686218262 -292.782592773438 2.297049283981
4.942543983459 -74.924049377441 -293.819000244141 1.704620242119
14.505220413208 -72.333084106445 -292.001220703125 1.364715337753
-134.428253173828 -69.766387939453 -291.132171630859 1.446653962135
-146.569046020508 -73.341186523438 -296.555664062500 1.471618413925
-157.102050781250 -73.709602355957 -313.245452880859 2.363167524338
-72.455528259277 -70.687240600586 -51.849674224854 1.118431925774
-22.618707656860 -70.560340881348 -63.358425140381 4.133169174194
-20.701099395752 -77.053314208984 -64.634605407715 2.602128028870
72.173393249512 -74.427085876465 -76.593856811523 0.732055544853
90.558174133301 -76.242027282715 -75.335670471191 2.306354761124
-37.460571289063 -74.476440429688 -78.519050598145 1.420730710030
74.825889587402 -75.745513916016 -79.080490112305 1.378827452660
88.990608215332 -79.659072875977 -81.852874755859 3.404368877411
67.475578308105 -76.088745117188 -83.082977294922 3.945847988129
72.206710815430 -75.433753967285 -88.353256225586 2.093305826187
-50.269401550293 -75.955116271973 -85.867790222168 2.132007122040
-92.325721740723 -76.109062194824 -87.942001342773 3.586640119553
58.203525543213 -77.795074462891 -93.441009521484 3.636103868484
49.581222534180 -77.205917358398 -98.599685668945 1.375738263130
93.281822204590 -74.001190185547 -98.788558959961 0.788556873798
-92.662841796875 -70.116790771484 -101.267143249512 4.573404788971
81.450706481934 -73.190498352051 -98.788894653320 2.201148509979
72.573585510254 -76.428237915039 -99.651184082031 3.472834348679
91.158103942871 -77.901458740234 -97.940429687500 3.703713417053
82.701782226563 -75.840171813965 -97.623519897461 0.525993108749
82.465301513672 -78.751235961914 -98.197700500488 3.398195505142
-85.881309509277 -75.660453796387 -102.003028869629 5.437120437622
41.974285125732 -74.303413391113 -106.390251159668 2.087497711182
104.926803588867 -77.204956054688 -110.443244934082 3.235050201416
107.552429199219 -76.857833862305 -110.456001281738 2.511323451996
47.568237304688 -77.850105285645 -118.417884826660 1.294549942017
110.589317321777 -78.467849731445 -120.792442321777 2.897321701050
116.051345825195 -78.851623535156 -134.659332275391 3.371006965637
-51.967082977295 -72.249389648438 -130.871200561523 1.917860269547
26.793172836304 -74.743423461914 -134.147613525391 2.419974327087
40.019039154053 -77.712997436523 -133.249679565430 1.847816705704
24.552173614502 -72.590866088867 -142.382934570313 1.408465266228
112.369491577148 -78.693832397461 -138.141021728516 2.675567865372
111.202537536621 -76.998573303223 -131.553039550781 2.125925302505
-74.198059082031 -73.672317504883 -147.884963989258 1.673570275307
-44.527759552002 -73.509567260742 -142.510040283203 1.506369709969
-71.803527832031 -71.954414367676 -150.953048706055 1.187823414803
19.124011993408 -73.601356506348 -149.347061157227 3.506422758102
111.959922790527 -74.188919067383 -149.204284667969 2.085416555405
-54.247009277344 -75.033737182617 -150.601119995117 1.176060318947
-71.838638305664 -72.409629821777 -150.662536621094 1.217271924019
-39.555938720703 -77.069519042969 -152.151199340820 2.575314283371
31.813255310059 -70.538314819336 -152.887695312500 1.492555141449
109.452842712402 -73.381675720215 -150.982452392578 0.790684342384
114.771881103516 -75.081825256348 -160.387939453125 1.197760462761
-68.814697265625 -70.761535644531 -154.713439941406 0.974873542786
-73.289756774902 -75.041076660156 -160.821456909180 3.007664203644
21.083095550537 -77.913337707520 -163.037094116211 1.834989190102
-60.694572448730 -71.633735656738 -166.511871337891 1.793294429779
-33.400241851807 -72.723045349121 -162.158859252930 1.474273443222
7.239585876465 -75.656013488770 -163.153381347656 1.447925448418
108.160362243652 -74.086090087891 -161.509918212891 1.621031403542
7.192495822906 -77.173988342285 -166.681930541992 3.348905801773
-33.457633972168 -74.288078308105 -165.357757568359 0.999387800694
-2.504360914230 -70.668457031250 -165.446792602539 2.659574270248
107.015487670898 -73.086441040039 -167.908523559570 0.707101523876
-41.984706878662 -71.458503723145 -165.259307861328 2.480352401733
28.604835510254 -72.160797119141 -171.924118041992 1.349892139435
112.342536926270 -78.591323852539 -172.299240112305 3.065249681473
-57.836238861084 -70.771629333496 -175.868408203125 2.825481176376
-28.853290557861 -76.246994018555 -174.362121582031 1.193362951279
102.354484558105 -75.741775512695 -173.978393554688 3.996631145477
28.520700454712 -72.998535156250 -169.429107666016 1.633445024490
106.961723327637 -77.401527404785 -175.044067382813 3.193987369537
-37.498394012451 -70.826843261719 -177.846420288086 1.803206920624
107.716140747070 -78.025268554688 -180.568283081055 2.565123081207
-62.484256744385 -71.176300048828 -177.283035278320 4.145004749298
-26.189424514771 -77.470565795898 -178.585571289063 2.216775894165
-146.983551025391 -67.813934326172 -183.186737060547 1.613588929176
-54.770706176758 -72.632560729980 -180.411224365234 1.863411426544
-147.743927001953 -72.500000000000 -185.900634765625 1.990513324738
-34.675365447998 -71.768280029297 -184.727294921875 1.386825680733
26.218027114868 -78.010543823242 -181.541091918945 1.086398839951
105.848335266113 -76.146492004395 -183.164627075195 0.817520797253
-34.653427124023 -73.889221191406 -183.598876953125 1.689981102943
10.362495422363 -74.827438354492 -190.547790527344 1.522001504898
16.687517166138 -73.822151184082 -203.311080932617 2.585870981216
-148.786697387695 -72.675498962402 -189.374832153320 2.244151592255
104.416732788086 -77.397857666016 -195.433776855469 1.405444383621
-21.919189453125 -71.553436279297 -192.894119262695 2.206533193588
100.718162536621 -76.300109863281 -188.126739501953 2.254039525986
12.299451828003 -72.022773742676 -189.195053100586 0.604317963123
-137.506988525391 -71.785820007324 -203.346069335938 2.441645860672
-139.409774780273 -71.808982849121 -199.526062011719 2.285740613937
99.629104614258 -77.720329284668 -201.219573974609 2.347825050354
-12.555720329285 -77.351142883301 -200.179824829102 2.442053318024
-16.971179962158 -74.612655639648 -202.704391479492 2.641048669815
9.926074981689 -75.947639465332 -207.133636474609 1.552759408951
-150.600402832031 -70.320877075195 -205.522384643555 2.247927427292
-146.861434936523 -73.209960937500 -207.713012695313 2.101505517960
99.527908325195 -71.310295104980 -204.455017089844 1.459467053413
-82.780853271484 -72.356300354004 -207.846649169922 3.766592025757
-36.649196624756 -74.047370910645 -201.372039794922 2.593360900879
18.182243347168 -76.592704772949 -213.124984741211 1.612090110779
-25.801307678223 -73.994567871094 -210.847976684570 1.103103876114
-77.109298706055 -71.291130065918 -207.537353515625 3.165561914444
90.403739929199 -75.143920898438 -209.547119140625 2.190688371658
-80.984474182129 -70.483398437500 -212.033447265625 2.160798072815
-147.949996948242 -72.150939941406 -218.259292602539 1.698730111122
-80.543128967285 -71.539680480957 -212.916595458984 2.282532930374
-13.781044960022 -69.268455505371 -209.580535888672 1.451406836510
-21.226852416992 -71.155807495117 -218.615371704102 1.716639757156
17.906387329102 -73.988838195801 -213.055328369141 0.762813508511
-6.100182056427 -75.055053710938 -219.268692016602 1.888558626175
-88.898719787598 -75.656318664551 -218.537170410156 2.366839170456
92.033508300781 -74.324424743652 -213.460815429688 1.339868545532
-98.967819213867 -71.555160522461 -215.312576293945 1.985186338425
-152.817199707031 -70.937126159668 -223.697937011719 0.770150065422
-25.768344879150 -72.421150207520 -223.375457763672 2.444677829742
17.163354873657 -74.515762329102 -215.799682617188 2.047069072723
-102.621185302734 -72.484802246094 -219.659072875977 1.703172564507
6.841072082520 -70.934936523438 -218.584655761719 3.114189624786
-26.261123657227 -73.517303466797 -215.329788208008 2.334728002548
82.285148620605 -73.268325805664 -224.022232055664 1.931249022484
-145.893234252930 -71.075279235840 -218.781143188477 1.088893532753
9.746623039246 -72.552474975586 -225.526763916016 1.769926905632
-10.118929862976 -76.452392578125 -225.461441040039 1.002693057060
16.974016189575 -68.332122802734 -222.217742919922 1.409339785576
83.013938903809 -75.655403137207 -222.125976562500 0.642127633095
-14.226801872253 -75.644187927246 -228.273666381836 1.256473660469
-131.162399291992 -72.995910644531 -226.191833496094 2.111478328705
-14.443823814392 -73.683700561523 -224.192672729492 1.370329737663
16.139385223389 -74.259170532227 -230.887863159180 1.687577486038
-127.337135314941 -73.922119140625 -226.884384155273 1.372591495514
-152.163284301758 -68.531005859375 -229.154220581055 1.236790299416
-142.981491088867 -70.696289062500 -228.516662597656 3.170851469040
-131.469757080078 -70.058876037598 -227.518051147461 2.484744787216
-13.722003936768 -71.528892517090 -224.938354492188 2.037613153458
71.243103027344 -74.268798828125 -227.996704101563 2.716135740280
-143.856384277344 -68.234832763672 -235.879592895508 1.200592756271
70.163024902344 -75.634193420410 -228.580398559570 3.014547109604
-21.101427078247 -76.440979003906 -229.381317138672 1.921642303467
-142.909408569336 -74.826988220215 -228.975082397461 1.555094480515
76.650711059570 -79.285133361816 -228.707351684570 3.876822948456
9.041524887085 -77.398635864258 -233.244049072266 0.683094501495
-142.274383544922 -75.635520935059 -234.923156738281 2.221222162247
-150.660812377930 -70.558357238770 -233.492874145508 2.731922149658
16.271705627441 -70.685615539551 -231.201004028320 1.426057457924
-3.352325916290 -75.772994995117 -237.434753417969 1.976263642311
-28.307268142700 -72.593070983887 -236.906661987305 2.357812404633
-2.217888116837 -69.657058715820 -237.313629150391 1.411440610886
-161.431884765625 -73.276237487793 -237.335388183594 0.946355640888
7.327693939209 -72.482185363770 -243.274673461914 0.936893999577
-165.349411010742 -71.708297729492 -238.364273071289 1.042158603668
-13.442914009094 -74.435661315918 -237.413253784180 1.744852662086
60.886959075928 -75.080909729004 -238.994537353516 2.981552124023
-13.704206466675 -72.406845092773 -237.832412719727 1.988553881645
-25.518762588501 -72.313171386719 -244.077865600586 2.684162855148
-25.640113830566 -72.591102600098 -241.480270385742 1.334076046944
-13.512537956238 -75.408676147461 -240.606170654297 1.761456727982
-146.944458007813 -71.813064575195 -230.631515502930 1.687978148460
7.455658912659 -72.864395141602 -242.064239501953 0.839491367340
63.610679626465 -73.823143005371 -243.466400146484 1.612041831017
14.089307785034 -71.531341552734 -244.863449096680 1.972341656685
-166.587814331055 -69.529724121094 -241.178726196289 1.919296264648
-51.113033294678 -71.689132690430 -240.484100341797 3.262371778488
3.225367069244 -80.005142211914 -247.910568237305 0.709631562233
16.358924865723 -73.664482116699 -243.989593505859 2.468002557755
-54.838275909424 -71.867622375488 -246.890502929688 0.629905998707
-3.424510002136 -69.498336791992 -247.991256713867 4.059937000275
20.230758666992 -78.318016052246 -247.723510742188 1.592409253120
-169.747009277344 -69.184104919434 -248.374542236328 3.229958772659
-68.249404907227 -75.478202819824 -247.863693237305 1.569634914398
-52.195808410645 -71.464836120605 -247.099121093750 3.037313461304
-81.735626220703 -71.183174133301 -251.008529663086 1.799573183060
-161.655929565430 -71.890197753906 -246.599090576172 1.614113807678
-151.317077636719 -65.451881408691 -249.159011840820 2.603580236435
-60.766815185547 -74.131118774414 -249.376342773438 0.959095001221
-69.399505615234 -72.105468750000 -249.653030395508 2.254266023636
-154.235717773438 -69.179283142090 -252.343734741211 1.442897558212
-152.672363281250 -71.773574829102 -251.962387084961 1.401040792465
-76.463600158691 -69.077827453613 -254.095733642578 2.651308536530
-94.050354003906 -69.453987121582 -254.927200317383 2.042541980743
-164.972351074219 -66.405052185059 -251.873733520508 2.234132051468
-157.473663330078 -71.082824707031 -259.399017333984 1.691764354706
-135.470230102539 -72.620353698730 -257.962615966797 1.708012461662
-83.779541015625 -71.968009948730 -251.077743530273 1.045621514320
-162.773345947266 -68.147399902344 -252.599914550781 2.673555374146
-142.471832275391 -69.382400512695 -256.566558837891 1.808962345123
-85.954780578613 -71.092788696289 -250.985458374023 1.620326638222
-97.323165893555 -69.551231384277 -260.065551757813 1.476752519608
-145.721282958984 -71.882926940918 -255.687255859375 2.465531110764
-94.135261535645 -71.449859619141 -255.845413208008 2.315310239792
-153.220169067383 -69.385757446289 -255.710098266602 1.742480874062
-102.964271545410 -71.159416198730 -255.319076538086 0.696557164192
-169.317657470703 -69.987037658691 -258.540679931641 2.082860946655
-162.154830932617 -72.082839965820 -263.122100830078 2.517488479614
-127.100906372070 -74.008049011230 -256.325714111328 1.476786255836
-152.335998535156 -71.017074584961 -259.148803710938 3.333179473877
-112.468421936035 -68.787925720215 -261.670135498047 2.588906288147
-14.987204551697 -71.680000305176 -261.698059082031 1.231295943260
-142.232376098633 -70.731567382813 -260.744171142578 1.208622217178
-126.491287231445 -70.597770690918 -259.856964111328 2.436122894287
-154.813339233398 -69.281028747559 -262.385009765625 0.749217867851
22.889953613281 -74.176795959473 -270.645874023438 2.475307464600
-149.344818115234 -72.952262878418 -278.394927978516 3.357374191284
-169.068054199219 -70.773918151855 -279.844055175781 3.000136375427
-8.851439476013 -72.977272033691 -279.265869140625 2.242825508118
-146.511459350586 -70.729454040527 -280.250976562500 2.426786899567
-10.178479194641 -71.418266296387 -283.001220703125 1.543389797211
12.161947250366 -73.509902954102 -285.935821533203 1.982070326805
-137.275421142578 -69.468368530273 -285.726379394531 1.825256586075
-68.965927124023 -73.611328125000 -286.752227783203 2.280435323715
-34.006591796875 -74.634719848633 -287.886322021484 1.844931960106
-113.533927917480 -71.121238708496 -284.187072753906 2.094008207321
-96.004058837891 -75.003562927246 -290.039367675781 1.622441887856
-90.270896911621 -71.815498352051 -291.205322265625 1.480501174927
-50.479671478271 -73.458747863770 -291.713806152344 2.427501201630
-116.649208068848 -75.099365234375 -288.386260986328 1.823534607887
-114.369796752930 -72.357284545898 -290.059875488281 1.855184793472
-33.694839477539 -70.127685546875 -289.018707275391 2.877765417099
-115.977249145508 -71.597007751465 -292.805816650391 1.638943076134
-127.666999816895 -67.041587829590 -289.982513427734 1.031792402267
-145.068832397461 -72.623733520508 -293.357727050781 2.056251764297
6.499719142914 -72.839096069336 -291.372558593750 1.695374011993
15.954007148743 -74.887351989746 -293.180328369141 1.143335580826
-160.544265747070 -70.445129394531 -292.597167968750 0.723621070385
-159.002319335938 -73.949157714844 -300.449462890625 3.436539173126
-147.644180297852 -71.895385742188 -310.266143798828 2.402895450592
-152.604263305664 -69.360626220703 -310.606628417969 2.738919019699
-153.231475830078 -71.994857788086 -313.330444335938 2.259109258652
28.608911514282 -77.602973937988 -14.787222862244 5.030245304108
30.604755401611 -72.937141418457 -18.126781463623 1.246302247047
21.215110778809 -74.780746459961 -24.133811950684 2.176680564880
28.741264343262 -72.564117431641 -39.120128631592 1.942798018456
-58.337848663330 -72.247390747070 -49.534408569336 2.617550849915
-65.441169738770 -72.642875671387 -49.965908050537 3.076265096664
-39.129753112793 -76.260559082031 -50.125820159912 4.327613353729
-84.633369445801 -69.027130126953 -62.700428009033 4.406615257263
80.887359619141 -78.197601318359 -74.139495849609 3.125583887100
-15.694311141968 -72.042877197266 -70.888214111328 1.957040071487
88.821144104004 -76.433692932129 -66.325798034668 3.761866331100
99.059768676758 -75.406867980957 -76.928512573242 2.039599657059
-92.832458496094 -70.746780395508 -76.108398437500 2.470130205154
67.346221923828 -75.072509765625 -80.352180480957 4.314847469330
-41.397907257080 -77.087295532227 -85.464248657227 0.493079781532
100.623039245605 -74.731597900391 -82.042694091797 3.004540681839
-55.901435852051 -71.863922119141 -88.444984436035 2.015911817551
50.717933654785 -75.250129699707 -90.484222412109 2.482665538788
70.557243347168 -80.268066406250 -90.716903686523 5.198700904846
55.184226989746 -74.127487182617 -96.225128173828 1.326794266701
52.473281860352 -76.579597473145 -98.500785827637 0.765992403030
74.048591613770 -78.291587829590 -95.629852294922 3.162351369858
46.157154083252 -74.548278808594 -105.140754699707 2.514641523361
100.077102661133 -76.288574218750 -100.758224487305 3.211358308792
105.506072998047 -79.562759399414 -106.432678222656 4.477553844452
79.692825317383 -72.665122985840 -103.378219604492 2.053244590759
91.461631774902 -76.719497680664 -103.434478759766 3.823410272598
100.538604736328 -75.920333862305 -95.118400573730 3.562433958054
109.165122985840 -76.348228454590 -103.698760986328 1.612566947937
39.242839813232 -74.675476074219 -106.042495727539 1.383905529976
112.212532043457 -73.219841003418 -118.605018615723 1.698952794075
113.409294128418 -77.082786560059 -118.859176635742 3.182002782822
30.993549346924 -73.060256958008 -123.425529479980 1.990144610405
44.380599975586 -75.922607421875 -118.790847778320 1.205747365952
114.902999877930 -76.208381652832 -130.170196533203 1.019258022308
35.894340515137 -74.107200622559 -126.551216125488 3.068249940872
114.658363342285 -79.288619995117 -127.718566894531 4.103301525116
108.398071289063 -76.689605712891 -122.408264160156 3.094092130661
26.068767547607 -75.139572143555 -135.453643798828 1.319429039955
-48.287342071533 -73.560249328613 -133.926651000977 1.186581850052
-52.424636840820 -71.513725280762 -134.928054809570 1.632243275642
111.016571044922 -75.095115661621 -134.939147949219 0.565777540207
-69.587608337402 -76.407226562500 -140.306884765625 3.697758913040
-73.148109436035 -73.429046630859 -140.160598754883 1.095327973366
-59.267173767090 -73.518455505371 -141.014099121094 1.087048888206
31.603528976440 -74.424942016602 -143.504074096680 3.092689752579
115.834152221680 -77.475936889648 -145.870101928711 3.795268297195
-69.668403625488 -69.722320556641 -146.905532836914 0.643765926361
-48.282222747803 -72.872810363770 -142.414047241211 3.341558218002
33.081695556641 -75.010833740234 -151.113174438477 1.797582030296
-68.430740356445 -73.934127807617 -147.644683837891 0.997041404247
113.706214904785 -74.776733398438 -141.257522583008 1.741996765137
111.579391479492 -73.842758178711 -157.486709594727 0.987247586250
116.000061035156 -76.832397460938 -152.909667968750 1.021147370338
-38.709083557129 -75.695907592773 -152.903884887695 2.162254333496
-65.014991760254 -72.836204528809 -164.132202148438 1.762981653214
-69.418060302734 -69.704597473145 -156.959075927734 2.535893678665
29.859811782837 -75.422996520996 -146.256622314453 3.016766786575
-2.396311044693 -75.696693420410 -161.935882568359 1.518379569054
108.873908996582 -75.142807006836 -161.544692993164 2.171289205551
111.557861328125 -73.972084045410 -152.945236206055 0.935364723206
111.945487976074 -77.812110900879 -158.325317382813 1.196420550346
-63.960975646973 -70.165306091309 -159.858657836914 1.934808135033
-45.630428314209 -74.977256774902 -165.046035766602 1.177583813667
-2.572710037231 -72.984878540039 -164.884490966797 2.422068119049
-29.509681701660 -73.469314575195 -174.718460083008 2.580469131470
105.718681335449 -74.606887817383 -167.146240234375 1.452344417572
-34.657070159912 -76.199195861816 -159.876937866211 0.750928938389
109.170127868652 -74.000137329102 -168.275085449219 1.310717344284
-42.033359527588 -73.594596862793 -173.428192138672 0.905363142490
108.414497375488 -73.361289978027 -168.540191650391 1.976586580276
-151.734252929688 -72.236755371094 -179.742324829102 1.774415135384
-27.125370025635 -69.597068786621 -176.561508178711 1.244606256485
-20.556430816650 -73.403694152832 -183.153823852539 1.356904745102
24.588445663452 -77.061218261719 -176.977600097656 0.968893647194
14.809464454651 -73.535362243652 -182.987915039063 1.667117595673
27.378664016724 -74.458305358887 -182.887573242188 1.315745830536
103.951499938965 -79.033218383789 -183.642105102539 2.367150068283
-152.017089843750 -68.409782409668 -184.559494018555 2.728565931320
-20.008737564087 -75.520980834961 -184.660568237305 1.709385871887
101.922416687012 -76.141029357910 -178.492553710938 3.735799551010
102.957977294922 -72.142837524414 -189.563995361328 1.563226819038
107.917953491211 -76.484779357910 -177.707138061523 1.751942753792
98.764427185059 -76.788803100586 -193.634918212891 2.956681013107
-151.590713500977 -71.609832763672 -196.214309692383 2.256204128265
99.720176696777 -75.840065002441 -205.387237548828 0.304957747459
-28.478212356567 -70.956573486328 -196.934127807617 2.256083011627
97.253807067871 -74.818466186523 -195.664031982422 1.999275326729
-121.710189819336 -74.623405456543 -199.837570190430 2.428358078003
-30.106195449829 -77.478988647461 -189.929260253906 1.927792429924
-142.149398803711 -67.263969421387 -197.971359252930 1.944902658463
95.038398742676 -75.119239807129 -198.492401123047 2.159506082535
8.336499214172 -74.361396789551 -198.883453369141 3.070868968964
23.598285675049 -72.648902893066 -192.384902954102 1.540875315666
-148.396118164063 -71.452087402344 -202.605484008789 1.662640929222
-139.226699829102 -70.446372985840 -201.749465942383 0.922260224819
-10.353710174561 -72.873748779297 -206.499145507813 1.589638829231
-124.683937072754 -71.223175048828 -203.470397949219 1.283007144928
-144.225250244141 -73.481079101563 -199.420104980469 1.392615914345
3.639626979828 -73.799346923828 -199.387100219727 5.413636207581
-24.580087661743 -75.201156616211 -200.878051757813 0.884486079216
20.322074890137 -76.543525695801 -202.133163452148 0.750595986843
6.285934925079 -74.769996643066 -211.627258300781 1.750548243523
85.144149780273 -72.363990783691 -208.405120849609 3.995807647705
-18.689256668091 -70.575042724609 -211.688507080078 2.095942020416
91.026725769043 -72.709197998047 -208.811874389648 1.783583760262
96.704353332520 -76.773117065430 -206.887130737305 0.963073551655
-149.292587280273 -71.913307189941 -214.239303588867 1.485494971275
95.136215209961 -76.567329406738 -211.450515747070 1.074299931526
4.686212062836 -72.588737487793 -207.089645385742 2.390404701233
3.218163967133 -75.505546569824 -214.213211059570 3.583158016205
-33.288635253906 -72.482704162598 -206.739730834961 1.793333888054
-89.744712829590 -71.303810119629 -212.848266601563 2.592920303345
-26.582427978516 -74.332733154297 -210.619918823242 1.553007960320
84.793151855469 -73.942428588867 -216.743530273438 1.713291287422
88.954345703125 -73.838264465332 -216.856445312500 1.349681973457
-32.165897369385 -72.060394287109 -211.988021850586 2.357136964798
-84.690841674805 -68.992500305176 -218.112182617188 4.052536487579
-1.424332976341 -75.268814086914 -218.496948242188 2.410027980804
81.744514465332 -71.216529846191 -212.979385375977 4.706742286682
-152.319198608398 -74.451049804688 -221.613006591797 1.545056819916
-166.117858886719 -69.025520324707 -214.026596069336 2.236854791641
-162.356292724609 -73.003982543945 -222.009155273438 1.997037053108
-21.771472930908 -73.763671875000 -226.633300781250 1.612514376640
-154.280761718750 -73.557899475098 -222.510604858398 0.951480984688
-6.104039192200 -74.289672851563 -224.246231079102 2.622475385666
6.199313163757 -74.418067932129 -218.171371459961 2.093997716904
-167.498596191406 -70.320343017578 -225.293472290039 2.279000520706
-159.157135009766 -70.927406311035 -227.142852783203 1.971213936806
78.860137939453 -77.541160583496 -231.248611450195 1.270405292511
-0.073183000088 -72.093734741211 -226.409759521484 1.319225072861
-157.817489624023 -66.029365539551 -225.898269653320 1.963722467422
-142.861206054688 -72.427986145020 -224.153320312500 0.960627377033
-19.530790328979 -71.981307983398 -223.679138183594 2.486319303513
-0.804931998253 -77.383216857910 -222.247146606445 1.835415720940
79.741447448730 -72.110153198242 -225.401947021484 1.529893875122
-161.583953857422 -68.892562866211 -227.643203735352 3.249344348907
-144.308135986328 -68.520172119141 -230.636718750000 2.987385988235
-125.435470581055 -69.508781433105 -230.685073852539 3.595823764801
78.421371459961 -75.849082946777 -226.470748901367 1.310888767242
-115.973373413086 -71.155677795410 -228.959045410156 1.142512798309
-146.745880126953 -70.676925659180 -229.078918457031 1.878198981285
-150.832748413086 -69.342842102051 -231.209030151367 3.500360250473
-149.371505737305 -71.413154602051 -231.136367797852 2.779248476028
-156.173339843750 -71.102798461914 -228.900772094727 0.796395719051
-165.423538208008 -70.880821228027 -228.823410034180 1.139325380325
-134.047760009766 -71.054977416992 -235.144775390625 1.223432183266
-133.631011962891 -72.055862426758 -232.947921752930 1.449407458305
-153.574676513672 -74.211708068848 -232.718215942383 2.353425979614
-145.671066284180 -67.255302429199 -236.625122070313 1.773070573807
-151.956771850586 -71.080032348633 -235.130111694336 1.340281724930
74.570907592773 -76.308776855469 -232.222152709961 1.808023452759
67.097778320313 -69.447456359863 -235.736694335938 1.251205563545
-157.312850952148 -69.116340637207 -235.186386108398 1.818899154663
71.490112304688 -69.949447631836 -233.030853271484 1.272774219513
-20.065483093262 -71.383148193359 -236.428649902344 2.878347873688
11.093815803528 -74.473831176758 -236.876678466797 1.567457675934
6.616707801819 -73.985427856445 -235.806823730469 2.727555274963
-154.816085815430 -70.621086120605 -242.479476928711 2.955351591110
14.296941757202 -72.722366333008 -240.882751464844 1.839838504791
60.675655364990 -72.853721618652 -237.759765625000 1.870431542397
13.152530670166 -70.876182556152 -237.719039916992 1.556366562843
5.057056903839 -73.583595275879 -241.361892700195 1.204339861870
-6.772418022156 -70.900970458984 -240.134643554688 1.068421363831
-21.418741226196 -71.281982421875 -242.633987426758 2.398732662201
-2.014812946320 -72.925308227539 -241.763305664063 1.048131346703
3.493892908096 -75.699783325195 -244.803741455078 1.927962422371
57.113990783691 -74.935386657715 -241.373992919922 1.598742365837
-55.785961151123 -75.429824829102 -244.589691162109 1.878138184547
19.316251754761 -72.257743835449 -247.140167236328 0.298234790564
-59.866405487061 -73.014770507813 -241.631591796875 3.488529205322
-10.177033424377 -72.986412048340 -247.701278686523 1.296249508858
-66.346809387207 -68.590965270996 -250.095230102539 3.609168291092
-86.341735839844 -70.002067565918 -252.967117309570 1.047873973846
-82.946006774902 -72.555694580078 -251.974060058594 1.997107982635
-10.155207633972 -72.122581481934 -254.604537963867 2.310063123703
-124.204429626465 -70.742790222168 -258.902984619141 3.005586385727
-14.443470001221 -73.582565307617 -252.809356689453 1.874481916428
-117.320297241211 -71.084030151367 -255.562881469727 2.302337408066
-116.812721252441 -69.749481201172 -258.488586425781 2.363703012466
-103.888084411621 -71.088600158691 -256.394104003906 0.960909903049
-144.211120605469 -69.651794433594 -261.701202392578 2.261365890503
-145.366622924805 -70.007797241211 -267.106018066406 1.610095143318
-169.011993408203 -70.235382080078 -263.484771728516 2.180081367493
18.957511901855 -76.418052673340 -280.115997314453 2.132712364197
-58.393180847168 -69.881507873535 -285.228790283203 1.902153491974
-67.595184326172 -70.612777709961 -283.549774169922 3.173076629639
-42.549343109131 -73.696319580078 -283.734283447266 3.338139057159
-28.448438644409 -73.134742736816 -286.324523925781 0.156036481261
-96.743347167969 -72.977745056152 -289.102447509766 2.229629993439
-31.201200485229 -70.258148193359 -285.552978515625 3.213049411774
-4.504045009613 -72.601364135742 -286.017181396484 1.088941574097
-167.779647827148 -70.042579650879 -289.196594238281 2.957395076752
-16.299236297607 -74.451148986816 -285.739624023438 2.674687147141
5.938051223755 -73.887336730957 -287.785705566406 0.932761132717
13.665088653564 -77.185195922852 -283.467102050781 2.378201246262
-57.403583526611 -74.021827697754 -287.486724853516 2.599546194077
-33.647262573242 -72.505409240723 -291.328216552734 1.947025179863
13.807351112366 -70.938255310059 -292.898529052734 1.093480110168
-71.319793701172 -70.115997314453 -292.774017333984 2.922928571701
-40.641666412354 -69.489570617676 -288.984588623047 2.291696310043
-18.257947921753 -70.346046447754 -289.823486328125 2.439731597900
14.590931892395 -75.028656005859 -290.866180419922 1.333968877792
-12.021135330200 -74.029006958008 -294.066558837891 2.472358465195
3.528567075729 -71.471931457520 -293.633850097656 1.424856424332
13.798903465271 -74.758102416992 -290.436950683594 1.554660677910
-135.313125610352 -69.494178771973 -294.204284667969 0.752098143101
-145.434219360352 -72.592948913574 -299.025115966797 0.640571236610
-151.467987060547 -70.495552062988 -313.076232910156 0.710164546967
43.069042205811 -74.183822631836 -13.547477722168 2.410261869431
30.166511535645 -74.428077697754 -11.652337074280 3.296211481094
39.310550689697 -74.813453674316 -15.250995635986 2.989462852478
22.050596237183 -71.279052734375 -18.538890838623 2.093511343002
44.998958587646 -72.717330932617 -22.202804565430 2.257458925247
25.586275100708 -72.630058288574 -23.797262191772 2.004501819611
23.762807846069 -74.643020629883 -27.332328796387 2.949770689011
24.780076980591 -75.134178161621 -38.116519927979 4.124578952789
39.517337799072 -76.626502990723 -30.643451690674 5.786179065704
26.235353469849 -77.789062500000 -36.176002502441 6.091292381287
43.074806213379 -73.320945739746 -37.495288848877 2.454584598541
31.837959289551 -74.932090759277 -39.251811981201 2.732752561569
38.746616363525 -75.877212524414 -35.772705078125 4.502249240875
30.944694519043 -73.541610717773 -39.777309417725 1.330961465836
43.579669952393 -74.544082641602 -41.007736206055 3.321652412415
33.707778930664 -73.945373535156 -38.821048736572 1.952989220619
-40.979164123535 -71.495727539063 -48.052356719971 2.239805698395
-30.066968917847 -68.478302001953 -50.438922882080 1.287792086601
-89.423980712891 -70.875106811523 -54.539451599121 4.765101909637
-89.151214599609 -73.151985168457 -65.317596435547 2.848928213120
77.788711547852 -77.265701293945 -66.434219360352 6.212872028351
84.223800659180 -74.646415710449 -72.236679077148 1.611258864403
-19.723777770996 -71.348831176758 -73.318847656250 1.104859113693
-88.335762023926 -72.345695495605 -71.472694396973 2.385585069656
-25.275650024414 -72.487930297852 -76.500358581543 1.223141670227
-49.804794311523 -73.753890991211 -84.701431274414 1.586803793907
65.849372863770 -70.788658142090 -85.919349670410 2.197278499603
52.593536376953 -73.222763061523 -92.918136596680 1.753136515617
99.397171020508 -73.144866943359 -91.091438293457 2.328800439835
69.292907714844 -75.920501708984 -96.267089843750 2.380476951599
-68.372177124023 -73.747039794922 -90.769584655762 4.164634704590
-62.306179046631 -70.558723449707 -97.594566345215 4.199893951416
44.679473876953 -74.487991333008 -97.078689575195 1.141267299652
77.298423767090 -73.087638854980 -99.509696960449 1.933521747589
54.244979858398 -81.064804077148 -104.697387695313 3.224273920059
101.147750854492 -74.482299804688 -96.246383666992 2.257500171661
-95.380798339844 -73.393318176270 -106.963592529297 2.115555286407
39.700294494629 -74.103134155273 -110.314262390137 1.900050044060
106.882682800293 -75.658103942871 -108.327949523926 1.631692171097
48.346195220947 -73.835754394531 -110.883338928223 1.341115713120
101.321968078613 -75.675048828125 -109.326507568359 3.706468343735
-85.614944458008 -71.916725158691 -114.996208190918 3.428465127945
35.627624511719 -76.906394958496 -111.514266967773 3.113846063614
106.477058410645 -73.635963439941 -116.364364624023 1.933738112450
104.589492797852 -72.151466369629 -115.350654602051 1.582451939583
105.357116699219 -75.081466674805 -114.677795410156 1.367140531540
110.372955322266 -73.820686340332 -114.128547668457 2.482690334320
39.735759735107 -75.508392333984 -109.799400329590 2.200264692307
31.918184280396 -71.286148071289 -116.903144836426 2.587291240692
40.769935607910 -73.439781188965 -113.738609313965 2.527156352997
106.602310180664 -75.968513488770 -121.339561462402 2.486297369003
39.964138031006 -72.132713317871 -122.827743530273 1.117456793785
108.894020080566 -73.792793273926 -131.700378417969 1.481864809990
110.774200439453 -73.409675598145 -130.586502075195 1.313289642334
33.429374694824 -71.492752075195 -120.204368591309 2.782439947128
-78.182029724121 -71.780822753906 -125.017761230469 2.633366823196
113.704048156738 -72.222946166992 -133.767730712891 2.021008968353
-54.688625335693 -72.301605224609 -137.052703857422 1.903253316879
35.265823364258 -74.324882507324 -134.326675415039 2.927646398544
-73.566635131836 -72.274131774902 -135.001434326172 2.930560112000
26.655380249023 -75.568710327148 -131.266006469727 2.611207962036
-79.904899597168 -72.308151245117 -142.375381469727 3.047171354294
-45.664230346680 -75.210151672363 -141.502624511719 1.172993302345
-74.290664672852 -72.605232238770 -137.743118286133 1.603888511658
109.929351806641 -73.741333007813 -136.579238891602 2.248822212219
116.919792175293 -72.856437683105 -141.120300292969 1.652551293373
117.745719909668 -77.637901306152 -145.942642211914 5.080371856689
-77.636215209961 -70.897888183594 -143.192932128906 1.062875866890
7.705851078033 -69.262275695801 -150.338684082031 2.032645702362
-52.383636474609 -72.767738342285 -148.912200927734 1.351798057556
-51.180912017822 -73.037330627441 -154.823516845703 2.578250885010
106.536125183105 -74.675109863281 -161.199310302734 2.431340456009
-41.817039489746 -74.079986572266 -148.786315917969 1.203220605850
13.652759552002 -71.007865905762 -157.232971191406 1.171883940697
21.941158294678 -74.793289184570 -157.161911010742 1.784830570221
114.356758117676 -73.782035827637 -164.158157348633 1.713363289833
29.423494338989 -72.710472106934 -165.281448364258 2.833652257919
-1.287652969360 -74.122673034668 -163.041610717773 0.766599118710
31.453357696533 -74.093544006348 -160.355346679688 1.448104619980
-68.134956359863 -70.257972717285 -157.183456420898 1.654984712601
-66.153526306152 -71.537078857422 -158.632202148438 1.677876114845
-69.242950439453 -70.458541870117 -165.139678955078 2.723097324371
114.395614624023 -71.137763977051 -160.941772460938 2.687112092972
-44.955196380615 -72.325820922852 -162.498001098633 1.221835374832
17.363296508789 -73.235893249512 -165.050292968750 1.594494104385
-64.328872680664 -70.804786682129 -169.122283935547 2.703132152557
-63.440956115723 -70.097244262695 -170.873947143555 3.574422359467
-41.696849822998 -73.070175170898 -159.764450073242 2.405488252640
-33.976699829102 -74.366317749023 -168.131591796875 2.403330564499
114.570457458496 -76.436149597168 -170.823837280273 2.453094244003
-37.379898071289 -67.631370544434 -179.248504638672 4.289556026459
13.326337814331 -73.942581176758 -172.668457031250 4.015790462494
110.272193908691 -76.839279174805 -183.829025268555 2.469917297363
-148.036651611328 -72.186347961426 -175.452056884766 1.069735050201
-146.300094604492 -70.310523986816 -172.941192626953 2.937948465347
-149.025955200195 -68.697731018066 -179.305145263672 3.208450794220
-142.849502563477 -71.840148925781 -182.147994995117 1.366430163383
-32.242679595947 -70.864585876465 -184.972930908203 1.445248126984
-23.508068084717 -72.382659912109 -185.206863403320 1.096047282219
22.908868789673 -69.429016113281 -190.567260742188 2.167814493179
-141.821823120117 -69.658088684082 -186.087188720703 2.425084590912
