-75.539306640625 -79.690017700195 -212.777725219727 2.136398553848
-31.720121383667 -77.441940307617 -213.314743041992 0.510577619076
10.051096916199 -79.699508666992 -218.464630126953 0.434399455786
-154.393417358398 -77.494964599609 -216.611022949219 4.344215869904
6.285716056824 -79.770210266113 -227.020858764648 1.266896367073
10.841108322144 -81.133483886719 -223.377395629883 1.706344127655
14.796341896057 -78.616088867188 -225.988845825195 1.985781311989
-139.488906860352 -80.785568237305 -225.658416748047 2.488108634949
-147.468124389648 -76.202926635742 -228.231918334961 2.204186439514
8.764743804932 -81.393714904785 -236.474960327148 1.466551423073
14.612804412842 -78.580398559570 -236.646774291992 2.027813196182
11.895173072815 -79.786506652832 -236.384490966797 2.425834178925
-151.762573242188 -79.567733764648 -240.151916503906 2.556013822556
-147.974258422852 -84.335861206055 -238.190139770508 1.137402772903
10.376062393188 -80.961143493652 -235.899978637695 1.165153861046
-41.794391632080 -79.177375793457 -243.712814331055 0.973061800003
15.724660873413 -80.113555908203 -247.489273071289 1.547945141792
-45.034370422363 -80.379920959473 -242.746948242188 1.215371489525
-147.547119140625 -80.695213317871 -255.412673950195 2.644926548004
14.732718467712 -81.330810546875 -252.418914794922 2.859279632568
-146.406967163086 -79.494308471680 -255.169403076172 3.332148313522
-155.484359741211 -78.609977722168 -255.927886962891 2.212269544601
12.695388793945 -79.243949890137 -255.736511230469 4.462569236755
-11.222787857056 -76.524719238281 -251.876342773438 2.033278703690
-11.006182670593 -79.649734497070 -262.377319335938 2.467302322388
-147.661987304688 -81.824348449707 -258.472015380859 1.819123983383
-158.061355590820 -72.850921630859 -260.497314453125 2.402070045471
-147.230422973633 -79.996536254883 -262.874359130859 3.003878355026
-153.196029663086 -74.455299377441 -267.882598876953 1.933534860611
-151.346984863281 -79.265617370605 -268.183959960938 3.041025638580
-10.744045257568 -81.286102294922 -268.367340087891 2.520947217941
-7.463051795959 -80.098594665527 -271.981964111328 0.788119316101
10.977481842041 -80.896308898926 -267.288940429688 1.969588637352
2.625277042389 -81.243347167969 -278.418518066406 1.904844284058
1.273396015167 -78.444091796875 -284.280792236328 2.866877794266
-140.944442749023 -74.648056030273 -289.525329589844 1.971113324165
-147.915390014648 -77.311614990234 -291.690643310547 2.675878047943
-61.797935485840 -77.185623168945 -63.405944824219 2.941483974457
-45.216651916504 -76.867088317871 -64.100746154785 1.652724146843
-48.956535339355 -74.752075195313 -65.741897583008 4.363918304443
-46.931369781494 -75.634109497070 -64.787925720215 2.302123069763
-68.714492797852 -80.660079956055 -65.550178527832 1.822752952576
-78.681060791016 -75.998001098633 -71.042411804199 4.630981922150
-38.121154785156 -77.645843505859 -77.527725219727 3.074125766754
-42.703781127930 -80.320312500000 -85.277503967285 2.057120323181
-50.089378356934 -82.028274536133 -87.362678527832 1.838209986687
-87.095588684082 -75.751487731934 -86.931442260742 3.656460523605
-76.277595520020 -80.156974792480 -105.972862243652 2.408338069916
42.005073547363 -78.959709167480 -108.162368774414 1.458100199699
-86.729736328125 -76.940437316895 -108.849517822266 2.980019330978
40.876922607422 -80.585716247559 -119.845397949219 0.608279347420
39.206249237061 -78.625389099121 -124.750480651855 1.794881939888
32.665786743164 -78.603637695313 -121.134193420410 2.010183334351
28.456027984619 -82.007942199707 -126.424415588379 5.313574314117
30.578695297241 -78.721931457520 -134.603271484375 2.155850887299
22.613088607788 -76.687255859375 -145.331069946289 1.734515666962
-49.586341857910 -80.263824462891 -154.166549682617 2.076254606247
29.391635894775 -79.372688293457 -144.089202880859 2.764214277267
22.755638122559 -81.427253723145 -157.118484497070 3.894345760345
-45.287811279297 -79.801734924316 -152.202774047852 0.570400357246
25.227849960327 -79.746711730957 -155.320663452148 1.244655132294
-48.979900360107 -75.495399475098 -160.788574218750 2.008644342422
23.653097152710 -79.545097351074 -166.197830200195 1.232183814049
-62.487937927246 -78.802986145020 -169.383422851563 2.079714775085
-7.604526996613 -81.683769226074 -173.248748779297 2.224713802338
-35.805774688721 -78.021972656250 -172.986526489258 1.746934294701
-13.505279541016 -80.558395385742 -172.925582885742 1.341873884201
-58.530979156494 -77.944999694824 -174.857147216797 1.663293361664
21.142284393311 -81.211456298828 -172.503051757813 2.571407556534
-15.971783638000 -77.711868286133 -182.946044921875 0.391760259867
-25.496170043945 -75.179962158203 -186.299346923828 2.149885177612
-55.095993041992 -75.601409912109 -183.610931396484 2.330700874329
-31.454397201538 -79.304130554199 -185.748199462891 1.080747842789
15.773244857788 -81.015060424805 -190.344757080078 3.383045196533
-151.094238281250 -78.565208435059 -187.101440429688 2.616096496582
-30.959264755249 -78.957267761230 -188.779754638672 1.426094293594
-50.709594726563 -75.813003540039 -189.371536254883 1.783776879311
-152.660873413086 -79.790664672852 -190.859146118164 3.714105367661
-144.518112182617 -77.947044372559 -195.754013061523 1.727915883064
-25.702285766602 -78.667068481445 -196.887130737305 1.840245962143
-23.771928787231 -79.092643737793 -195.241409301758 0.946413338184
-47.896739959717 -77.341003417969 -195.438171386719 0.669911921024
-22.393148422241 -79.818153381348 -196.144836425781 1.613591790199
-50.613906860352 -78.145774841309 -199.189437866211 1.584072709084
-48.240589141846 -78.396156311035 -197.922851562500 2.172180175781
-57.005199432373 -79.521484375000 -200.528991699219 1.704561471939
-21.614692687988 -75.711799621582 -205.768859863281 2.732689857483
-148.971618652344 -77.445106506348 -213.171279907227 1.988741636276
-61.289264678955 -76.152702331543 -207.911041259766 2.166923284531
-60.246963500977 -75.660163879395 -208.130889892578 2.999942541122
-34.841804504395 -73.738403320313 -206.663909912109 1.228026151657
-15.629821777344 -76.535324096680 -205.873443603516 1.319153189659
-38.080619812012 -76.976837158203 -208.112945556641 1.155353784561
-82.009223937988 -77.330375671387 -209.576431274414 1.507277846336
-146.520233154297 -81.188652038574 -209.143295288086 2.303146600723
-35.143413543701 -79.472702026367 -207.948974609375 2.022788286209
5.110280036926 -81.291397094727 -209.107116699219 4.663993835449
-67.936790466309 -79.646438598633 -210.922454833984 1.888081073761
-68.469902038574 -77.711868286133 -213.453292846680 2.288517951965
-27.838657379150 -75.284126281738 -214.455749511719 0.707804799080
-12.642697334290 -83.556350708008 -211.962051391602 3.719295024872
-28.507400512695 -79.672698974609 -217.630722045898 1.608500361443
15.556455612183 -78.943984985352 -216.104873657227 0.638569295406
-152.981948852539 -73.992645263672 -219.880950927734 2.122015953064
-13.191791534424 -82.950286865234 -218.833084106445 4.437179088593
-158.207687377930 -78.532745361328 -226.030883789063 3.772482872009
5.636034011841 -80.306953430176 -230.091918945313 3.056586742401
10.611261367798 -76.396705627441 -226.965713500977 2.707971334457
-4.831647872925 -78.944503784180 -222.834701538086 1.125584959984
14.119058609009 -79.600723266602 -228.011611938477 1.460242748260
-140.285568237305 -80.878204345703 -232.359069824219 2.165450572968
8.739694595337 -79.561325073242 -226.508117675781 3.091626644135
-155.915496826172 -75.471992492676 -228.504089355469 3.577879905701
-147.666641235352 -78.049598693848 -232.966369628906 1.846230149269
-3.724244117737 -80.070175170898 -221.814834594727 1.011182188988
16.424865722656 -81.491867065430 -234.097915649414 1.637629866600
-33.698688507080 -76.331161499023 -238.711074829102 1.782215595245
-147.886276245117 -76.047203063965 -238.898788452148 1.394968628883
-40.105167388916 -77.576499938965 -243.008285522461 2.135623693466
-48.474796295166 -76.952301025391 -241.058563232422 1.446359634399
-36.040012359619 -76.822418212891 -240.414260864258 1.511160850525
17.405115127563 -80.024894714355 -243.157501220703 3.055315256119
-51.973537445068 -74.232841491699 -245.368865966797 2.770887374878
13.158808708191 -79.862411499023 -245.796279907227 2.166946411133
9.141402244568 -77.415214538574 -240.642791748047 1.320409536362
7.421757221222 -80.929450988770 -248.459671020508 0.721381247044
-43.851547241211 -80.508537292480 -246.156951904297 0.743473768234
20.969169616699 -81.403373718262 -247.078140258789 1.831494212151
-146.285629272461 -76.436035156250 -246.859008789063 0.170545190573
18.103240966797 -77.545532226563 -249.710464477539 1.298944950104
-1.733353972435 -82.895149230957 -249.864578247070 1.522869467735
8.319664001465 -79.054489135742 -244.225753784180 2.371245145798
-152.939208984375 -72.673263549805 -253.025314331055 0.714652419090
-149.694946289063 -80.322624206543 -258.170745849609 2.722079038620
-144.636444091797 -77.117134094238 -257.982055664063 2.313293695450
-155.036605834961 -75.999984741211 -260.207153320313 2.416204452515
14.153848648071 -75.849822998047 -265.003051757813 5.735365390778
-155.904037475586 -73.063995361328 -270.652069091797 2.776473283768
-8.704524993896 -79.342315673828 -274.586395263672 2.327340126038
-153.467468261719 -77.190101623535 -269.658294677734 3.142675161362
-147.413955688477 -74.972534179688 -278.922241210938 0.590887665749
-155.533416748047 -73.566123962402 -275.296051025391 2.772759437561
-156.944992065430 -77.989372253418 -284.137847900391 2.915108919144
-135.184173583984 -78.573097229004 -287.987213134766 2.597362995148
-155.072647094727 -77.149711608887 -287.868896484375 1.354105710983
-149.396347045898 -80.074455261230 -289.732635498047 1.520782351494
-149.510101318359 -77.149818420410 -290.775024414063 1.508667349815
-155.536514282227 -77.796623229980 -294.939849853516 3.373259067535
-148.682449340820 -74.114868164063 -292.456298828125 2.376192092896
-155.182006835938 -76.351593017578 -299.873260498047 1.387300372124
-149.870437622070 -77.486671447754 -301.541412353516 0.733731269836
-150.970947265625 -73.603607177734 -303.522338867188 4.621469497681
-57.461116790771 -71.601806640625 -60.364120483398 5.001882553101
-64.734634399414 -76.270294189453 -62.844367980957 3.535839796066
-48.725246429443 -76.818168640137 -61.229469299316 2.894629955292
-27.365734100342 -78.597412109375 -74.374877929688 0.688075721264
-53.540275573730 -79.922279357910 -89.297561645508 2.805160760880
-89.317268371582 -82.773681640625 -98.646514892578 4.965539932251
42.709964752197 -79.639480590820 -106.815879821777 2.754678487778
-78.113166809082 -79.571670532227 -102.071678161621 2.051080703735
40.976390838623 -81.343864440918 -113.930854797363 2.636559009552
38.886054992676 -79.031974792480 -121.618118286133 1.975643754005
38.373325347900 -79.515853881836 -124.973289489746 0.945651650429
35.010490417480 -79.212898254395 -135.129394531250 1.273814320564
30.104137420654 -77.892463684082 -135.168609619141 2.154205799103
32.096572875977 -83.657249450684 -135.828521728516 3.661521673203
29.352563858032 -76.987884521484 -150.343994140625 1.014323353767
-46.722518920898 -74.830368041992 -149.336318969727 2.383606910706
27.018980026245 -80.742698669434 -140.765686035156 1.387306213379
-68.270301818848 -73.782546997070 -153.179168701172 1.000327110291
-39.302539825439 -79.665534973145 -153.711837768555 1.632082104683
-63.778095245361 -78.609024047852 -163.567108154297 1.665348052979
-41.888587951660 -78.482788085938 -158.421035766602 1.568854689598
28.938961029053 -79.189567565918 -156.969116210938 1.214036583900
-37.547996520996 -82.036277770996 -159.910232543945 1.282662391663
-4.266222000122 -79.383544921875 -172.179428100586 0.817996740341
31.033128738403 -75.310379028320 -163.480697631836 0.705657839775
-11.506924629211 -78.713043212891 -170.229202270508 1.848467469215
-61.268341064453 -77.177146911621 -163.282867431641 1.306301951408
-38.217342376709 -75.220001220703 -169.541595458984 1.540654420853
-32.845241546631 -75.608894348145 -173.110260009766 3.906203746796
22.601900100708 -80.056236267090 -176.219665527344 2.545104980469
-55.975280761719 -77.998245239258 -176.657455444336 1.315658688545
-31.069332122803 -74.706291198730 -175.249649047852 3.560696601868
20.612356185913 -78.602050781250 -183.229965209961 0.969877660275
-52.881908416748 -78.001480102539 -185.071960449219 1.405360221863
-27.233766555786 -73.987922668457 -182.580413818359 2.492964506149
-55.913799285889 -75.163696289063 -183.771133422852 2.323740959167
-42.993701934814 -77.270011901855 -194.606094360352 1.736704111099
-31.437036514282 -76.568412780762 -188.906616210938 0.896518945694
-44.264904022217 -78.595657348633 -195.878189086914 1.441060185432
-25.251794815063 -77.390060424805 -191.607986450195 0.953096866608
-138.905090332031 -77.463661193848 -196.300888061523 2.664816141129
17.458034515381 -78.555229187012 -200.163238525391 1.629003167152
-135.536453247070 -73.898078918457 -198.311981201172 1.140995621681
-23.449123382568 -75.568344116211 -196.076385498047 1.200286984444
-21.990558624268 -75.676002502441 -196.844818115234 1.425740838051
-43.606361389160 -77.860260009766 -195.281066894531 1.855519652367
11.862789154053 -76.745635986328 -195.890563964844 1.332231521606
-18.051815032959 -79.836700439453 -198.249359130859 1.516882777214
-59.906970977783 -78.378677368164 -204.599197387695 1.667634487152
-37.001075744629 -77.559570312500 -204.115066528320 1.334588646889
-65.143653869629 -74.747894287109 -206.835174560547 2.987956523895
-70.894065856934 -75.133804321289 -210.194244384766 1.732588768005
14.880054473877 -77.205154418945 -209.366821289063 1.739983081818
-87.616592407227 -75.904792785645 -212.325180053711 1.844902396202
-31.088359832764 -77.771697998047 -215.403854370117 1.154016375542
-82.126449584961 -77.601806640625 -211.455932617188 1.341765999794
-149.734786987305 -77.712234497070 -214.389404296875 2.514038801193
-9.556683540344 -77.853912353516 -215.352401733398 1.723557829857
-10.704453468323 -76.967971801758 -217.901657104492 2.139518499374
10.482348442078 -78.819869995117 -216.640258789063 1.234816551208
10.757248878479 -74.495948791504 -224.198059082031 1.978811144829
-4.062488079071 -79.308937072754 -229.429321289063 1.837032556534
-141.316177368164 -74.451194763184 -222.141738891602 2.755225419998
-151.387969970703 -79.818145751953 -232.333297729492 1.587874293327
-153.479843139648 -73.775085449219 -231.416458129883 2.001068115234
2.201863050461 -79.800949096680 -235.525817871094 0.721990108490
-0.313569009304 -77.241287231445 -236.590362548828 1.342116117477
-26.103765487671 -80.884529113770 -241.344772338867 2.808334350586
-152.709182739258 -73.792686462402 -238.514144897461 2.975880861282
8.219988822937 -79.176277160645 -244.185424804688 2.477925539017
-25.581825256348 -74.057136535645 -241.720062255859 1.483767867088
16.639038085938 -77.834213256836 -237.434097290039 1.606307268143
-55.964981079102 -76.298439025879 -243.590042114258 1.217430591583
-52.943347930908 -77.269943237305 -248.364364624023 1.702734470367
-148.845718383789 -80.767379760742 -245.090866088867 3.081384420395
-65.061393737793 -77.246269226074 -247.494064331055 1.220940709114
-5.548699855804 -77.013847351074 -246.560073852539 1.072737932205
-12.564219474792 -76.494644165039 -255.855194091797 1.120874166489
-149.868408203125 -80.028724670410 -257.287261962891 2.548177242279
-135.359115600586 -74.800949096680 -256.181396484375 1.815419673920
-138.130813598633 -74.044654846191 -258.286743164063 2.357880353928
15.735248565674 -77.864028930664 -259.749145507813 3.943688154221
-148.216125488281 -77.024772644043 -270.847778320313 1.238197803497
15.330016136169 -79.506530761719 -267.887054443359 2.280315160751
-148.795761108398 -74.275421142578 -272.904022216797 3.392767906189
-0.002853000071 -80.615371704102 -277.598236083984 2.563409566879
-146.108016967773 -76.679672241211 -281.431274414063 1.742477416992
-1.405519008636 -79.747428894043 -283.498260498047 3.559418678284
-154.936111450195 -74.437942504883 -282.599182128906 2.357525825500
-145.815795898438 -73.705101013184 -283.563110351563 1.382176756859
-139.639266967773 -78.232955932617 -285.609802246094 1.435486555099
-151.782470703125 -79.769561767578 -291.953704833984 3.160900354385
-22.725389480591 -76.067909240723 -289.916870117188 2.685948371887
-155.078353881836 -75.662567138672 -291.177825927734 0.677240788937
-150.963882446289 -77.742691040039 -294.314025878906 1.605035305023
-153.308975219727 -74.790443420410 -308.205932617188 2.705518722534
-57.640895843506 -74.495697021484 -56.907711029053 2.419561862946
-40.442184448242 -79.542800903320 -62.178668975830 1.955931544304
-77.166984558105 -77.664581298828 -65.882949829102 1.793728232384
-30.550987243652 -75.391128540039 -67.376457214355 2.589166402817
-27.423316955566 -77.624961853027 -71.644241333008 1.648475408554
-87.054000854492 -77.005073547363 -79.772956848145 2.208611249924
85.231781005859 -80.100456237793 -85.281188964844 1.689581990242
-37.139137268066 -75.178512573242 -84.168457031250 3.618197917938
80.681617736816 -81.432922363281 -86.315658569336 3.939678668976
76.543479919434 -78.792953491211 -88.762481689453 3.136143684387
83.897163391113 -78.654052734375 -88.307418823242 1.992407321930
82.590133666992 -77.421096801758 -91.906524658203 1.608132481575
89.529342651367 -78.131080627441 -93.890769958496 1.975394248962
-92.615295410156 -72.891250610352 -93.883499145508 2.562469959259
52.748992919922 -78.430854797363 -105.720703125000 1.089717149734
-95.243301391602 -68.441658020020 -112.603912353516 4.284350395203
43.289554595947 -79.832740783691 -109.558654785156 1.243058681488
48.182552337646 -78.404205322266 -113.577789306641 2.566205024719
39.079452514648 -77.708457946777 -115.247787475586 0.823981046677
31.205617904663 -78.131111145020 -135.950622558594 2.737356424332
25.134965896606 -77.481163024902 -140.584274291992 1.543142199516
21.051368713379 -72.071395874023 -144.242904663086 3.183134794235
31.113689422607 -75.353775024414 -143.869216918945 2.785196781158
-49.105846405029 -78.224090576172 -153.389984130859 1.122447252274
-49.339786529541 -77.114135742188 -150.718246459961 0.464726895094
-42.795310974121 -75.858718872070 -156.314346313477 2.687734127045
23.141241073608 -76.344978332520 -152.798461914063 1.759392499924
25.935199737549 -76.879402160645 -167.890136718750 2.571706295013
-35.314090728760 -74.302391052246 -167.526306152344 2.143224239349
-36.745220184326 -73.485321044922 -159.203506469727 1.707590699196
-47.204723358154 -77.794486999512 -157.956405639648 1.568852186203
0.727712988853 -75.337730407715 -163.658218383789 2.140282392502
22.645910263062 -78.333435058594 -152.983703613281 1.303230047226
30.757934570313 -75.240119934082 -160.487243652344 2.415934562683
26.684379577637 -76.060447692871 -169.701217651367 1.743893742561
-9.557483673096 -76.546226501465 -171.561019897461 2.333820104599
-4.659516811371 -77.200263977051 -169.932403564453 2.439081430435
-59.329654693604 -75.096458435059 -167.423706054688 1.026292920113
-62.357048034668 -75.536376953125 -169.776473999023 2.077008962631
-43.880592346191 -77.447799682617 -169.765869140625 2.568876504898
-40.116149902344 -75.198287963867 -167.106185913086 2.838083267212
20.720952987671 -74.328544616699 -172.417648315430 3.388502836227
-23.587165832520 -80.073722839355 -177.636718750000 3.143833160400
-33.533489227295 -74.899032592773 -180.483154296875 1.583574295044
-63.245990753174 -78.269172668457 -178.496566772461 3.491892814636
99.143402099609 -79.502471923828 -182.422897338867 4.871992111206
19.164834976196 -79.908660888672 -173.735519409180 2.025968790054
-27.940090179443 -76.427787780762 -179.720260620117 2.407969713211
-52.423576354980 -75.671592712402 -179.198577880859 1.503576278687
-21.745872497559 -74.304794311523 -180.017517089844 1.711521387100
109.488479614258 -78.899894714355 -180.918304443359 3.039692878723
-54.988021850586 -77.863098144531 -183.208847045898 2.415281534195
12.498516082764 -78.568817138672 -188.084671020508 2.156419754028
19.048427581787 -77.252342224121 -179.299514770508 2.104489088058
-57.691890716553 -79.316177368164 -177.680282592773 2.331299066544
-25.442611694336 -75.576095581055 -181.929992675781 1.391616940498
-57.603954315186 -78.007453918457 -176.103698730469 1.018851637840
-37.631824493408 -76.644943237305 -178.779541015625 2.524931669235
-30.565856933594 -76.334800720215 -186.815704345703 0.838837444782
19.134195327759 -77.629684448242 -187.946029663086 0.325657874346
-51.100555419922 -76.954742431641 -187.469238281250 1.245728492737
102.214309692383 -78.068138122559 -190.654556274414 2.210635900497
-53.117103576660 -73.435852050781 -189.253890991211 2.270882606506
6.681467056274 -76.769531250000 -201.845108032227 2.158025264740
18.450778961182 -76.575111389160 -199.124755859375 1.470856308937
-50.400417327881 -75.729003906250 -190.635650634766 1.133777141571
-20.215669631958 -77.237289428711 -189.323394775391 1.251501560211
99.322319030762 -78.289260864258 -195.898178100586 3.428592205048
96.383087158203 -81.049209594727 -196.409729003906 4.991494655609
-50.276794433594 -75.183418273926 -187.589035034180 0.662852704525
-150.552215576172 -79.608482360840 -197.567596435547 1.534897446632
-47.526981353760 -76.022583007813 -196.775466918945 1.713858842850
-146.971969604492 -75.862243652344 -196.660476684570 2.298450231552
-137.613143920898 -71.812995910645 -198.168762207031 2.835072517395
-47.068058013916 -77.758987426758 -196.612213134766 1.141767621040
8.565361022949 -78.202522277832 -207.768753051758 1.722074747086
-18.220870971680 -74.933715820313 -204.350250244141 1.979408621788
13.954821586609 -75.418907165527 -201.673126220703 2.410054206848
89.930030822754 -80.700851440430 -211.766220092773 3.986827850342
-37.936481475830 -75.080047607422 -201.368606567383 1.838633775711
-14.494709968567 -75.785789489746 -205.307296752930 2.321551084518
-16.240755081177 -75.186012268066 -212.451934814453 1.563213586807
-38.148315429688 -75.850921630859 -205.481399536133 2.253157615662
6.198008060455 -76.770256042480 -205.887786865234 2.294742345810
-79.725929260254 -75.390769958496 -209.644577026367 1.870394110680
13.813005447388 -77.678504943848 -213.781539916992 2.513681173325
-37.205039978027 -75.609886169434 -205.875000000000 1.819320678711
-146.920822143555 -76.885131835938 -207.193359375000 1.596403956413
-145.147125244141 -71.096328735352 -209.738739013672 2.755527734756
-89.498313903809 -75.741577148438 -212.228408813477 1.735292792320
-37.175029754639 -74.491653442383 -209.707656860352 2.749197006226
-20.573253631592 -79.978439331055 -212.380706787109 4.388047695160
-33.730113983154 -76.909782409668 -208.219299316406 1.830508232117
-93.382484436035 -76.405273437500 -216.229843139648 1.748575925827
-89.597503662109 -76.414710998535 -213.904281616211 2.179338455200
5.381947040558 -80.458930969238 -220.605712890625 2.063445568085
-151.827972412109 -70.814033508301 -213.101272583008 1.702111005783
-15.773468017578 -79.042671203613 -212.738342285156 1.360082507133
6.606266975403 -81.726600646973 -218.385818481445 3.636091947556
-146.676315307617 -73.430839538574 -217.999710083008 1.491199493408
-23.963031768799 -77.794471740723 -217.144256591797 1.242646574974
-2.805217027664 -74.459732055664 -220.622756958008 0.329155415297
-8.460491180420 -77.837188720703 -219.139465332031 2.365266323090
-154.611938476563 -71.866661071777 -222.593627929688 1.775495409966
-141.007720947266 -68.206024169922 -225.314559936523 1.461622953415
-7.401058197021 -77.054847717285 -224.129608154297 0.705927252769
-150.930572509766 -79.258094787598 -226.214736938477 1.880053400993
-0.854089021683 -73.698554992676 -229.783370971680 3.115712165833
15.009527206421 -76.756553649902 -234.309631347656 1.743060708046
-3.647468090057 -78.237503051758 -231.039810180664 1.690510749817
-2.816920995712 -72.963088989258 -233.922058105469 0.421426415443
5.834271907806 -76.548294067383 -231.709945678711 2.059192180634
-153.870208740234 -74.657386779785 -236.591796875000 2.687182664871
-21.844696044922 -74.827552795410 -235.149887084961 3.605710983276
-37.067996978760 -77.894989013672 -238.572738647461 0.923099875450
1.167984962463 -75.391571044922 -233.490829467773 2.966909408569
-0.675782978535 -80.077621459961 -240.380630493164 2.911687135696
0.370115011930 -76.037750244141 -233.861083984375 2.537955760956
-58.868476867676 -74.977966308594 -241.954544067383 2.983119249344
-151.249877929688 -71.908676147461 -246.618072509766 1.794052243233
-154.728134155273 -74.677429199219 -246.461715698242 2.792798042297
8.433994293213 -78.448394775391 -246.779342651367 0.486438393593
21.380735397339 -78.435218811035 -247.066513061523 1.144148468971
-63.024917602539 -73.731300354004 -247.215850830078 2.087543487549
-145.902404785156 -77.621841430664 -251.324203491211 0.889014661312
-155.681076049805 -76.784721374512 -253.246337890625 3.183256626129
-154.796203613281 -78.801246643066 -256.048706054688 1.977231383324
-144.948883056641 -72.203582763672 -260.442657470703 2.552315950394
-142.235626220703 -74.627212524414 -255.453018188477 0.765341341496
-11.395636558533 -77.681541442871 -256.228210449219 1.085523605347
-147.261444091797 -75.616600036621 -261.535736083984 1.907952785492
-15.681974411011 -77.450576782227 -265.947265625000 3.404996633530
-149.932342529297 -73.372138977051 -272.473358154297 2.709859132767
-150.190338134766 -74.007232666016 -281.154327392578 2.240672111511
-151.703781127930 -73.090759277344 -282.134521484375 1.807652354240
-6.068605899811 -72.884170532227 -284.749664306641 1.648056626320
-148.568054199219 -70.349243164063 -283.214965820313 1.833159089088
-30.602766036987 -76.776901245117 -286.162078857422 1.535572052002
-31.144107818604 -74.310546875000 -285.961303710938 1.696999907494
-17.751838684082 -74.555976867676 -291.410491943359 2.131273508072
-15.005730628967 -74.286911010742 -290.680145263672 2.563975095749
10.414134979248 -78.670989990234 -291.275482177734 1.456187367439
-127.807373046875 -75.335632324219 -288.684295654297 2.444944858551
-62.161792755127 -75.510551452637 -287.224029541016 1.199287295341
-43.082855224609 -73.874450683594 -289.353424072266 2.222958564758
-35.211914062500 -76.550170898438 -288.041198730469 1.667963981628
-11.615667343140 -74.986045837402 -292.094848632813 1.084789156914
2.646141052246 -77.165176391602 -288.175079345703 1.800477147102
-145.175048828125 -75.443923950195 -294.719421386719 1.357241153717
7.304891109467 -77.044204711914 -293.733367919922 1.325663805008
-155.383819580078 -72.224456787109 -300.672058105469 0.862693607807
-154.870544433594 -76.851463317871 -299.996826171875 0.978239774704
-155.717041015625 -71.379150390625 -310.447601318359 1.954229235649
-147.045303344727 -73.392135620117 -308.974761962891 3.983752727509
-51.410858154297 -75.037719726563 -52.016727447510 2.241821765900
-56.054985046387 -77.699699401855 -55.752002716064 2.949707984924
-66.868576049805 -73.804382324219 -54.669033050537 1.199039101601
-42.457992553711 -74.376655578613 -60.475200653076 2.201027393341
-37.354251861572 -75.639793395996 -58.895812988281 0.692725241184
-21.489967346191 -75.119010925293 -68.893928527832 1.481323003769
-83.015266418457 -73.110832214355 -68.061454772949 3.464148759842
82.762977600098 -78.323844909668 -78.760986328125 2.920255422592
-91.256240844727 -73.580245971680 -76.388313293457 1.678817868233
80.552452087402 -76.895637512207 -79.497863769531 0.988722085953
85.958175659180 -75.188308715820 -84.355110168457 2.403452634811
94.742164611816 -76.030471801758 -88.678016662598 2.818408966064
-61.390155792236 -78.593986511230 -95.156089782715 2.211778402328
81.501380920410 -78.296318054199 -95.997978210449 3.229097127914
76.495018005371 -80.502082824707 -92.078445434570 3.696046590805
85.582618713379 -78.279212951660 -90.729202270508 0.321527481079
-61.976810455322 -76.738960266113 -96.821098327637 2.516343355179
49.367435455322 -75.911994934082 -97.814674377441 1.635645031929
44.593654632568 -76.957870483398 -106.699951171875 1.911968350410
39.266235351563 -77.780082702637 -104.255439758301 2.351109504700
35.809574127197 -77.296752929688 -104.578224182129 4.167968750000
-92.721084594727 -72.097579956055 -106.433815002441 2.137354612350
34.587444305420 -76.007255554199 -117.396377563477 1.366860508919
-86.021492004395 -75.400901794434 -107.845657348633 3.095573186874
40.096549987793 -78.521522521973 -125.542304992676 1.583860039711
32.142986297607 -77.798400878906 -121.499023437500 1.507299542427
32.707286834717 -71.769119262695 -121.704437255859 1.783872723579
42.500415802002 -76.039558410645 -118.586692810059 1.632524967194
39.225040435791 -79.042091369629 -127.728668212891 2.519136905670
-53.484905242920 -70.646469116211 -134.777557373047 2.607077836990
35.559638977051 -79.710517883301 -134.849548339844 1.947151184082
34.556434631348 -76.482627868652 -143.252700805664 1.798031330109
-55.489929199219 -72.914512634277 -141.459075927734 1.757909417152
-47.576766967773 -75.405906677246 -139.899536132813 1.419559121132
33.500892639160 -76.390228271484 -143.053207397461 2.270030021667
109.540184020996 -74.982192993164 -141.881057739258 2.093327999115
111.575263977051 -75.729179382324 -145.059295654297 2.341455459595
25.154706954956 -77.741188049316 -142.682754516602 1.997336864471
-42.413486480713 -77.223724365234 -148.761734008789 1.438054800034
113.216560363770 -82.400764465332 -154.014144897461 5.798443317413
-40.172512054443 -73.999969482422 -152.543624877930 2.549705982208
-69.436668395996 -74.632781982422 -159.827194213867 1.762249827385
109.094726562500 -80.929466247559 -158.908599853516 4.003248691559
21.191846847534 -76.995674133301 -164.736236572266 2.790606021881
-0.952857017517 -77.091629028320 -162.676925659180 2.299160480499
110.400436401367 -78.230247497559 -155.028900146484 3.265218496323
-65.703758239746 -74.497817993164 -164.644668579102 2.281942367554
-39.479537963867 -75.666389465332 -162.829406738281 3.395890235901
110.661552429199 -78.306884765625 -165.305541992188 1.746191620827
27.025180816650 -73.347351074219 -158.532150268555 2.912052869797
-63.998600006104 -70.370529174805 -164.678848266602 2.697832107544
110.509941101074 -78.468765258789 -166.957244873047 1.640739917755
-66.712432861328 -76.453994750977 -167.981872558594 1.634410977364
-51.768497467041 -77.182052612305 -179.942489624023 0.869063913822
104.715675354004 -77.059211730957 -172.073486328125 2.628469944000
-61.274055480957 -73.458854675293 -170.338973999023 2.112617969513
110.326042175293 -77.408889770508 -176.960922241211 0.501514852047
-62.231369018555 -74.527656555176 -174.598815917969 0.756487369537
-16.523906707764 -73.999488830566 -177.121475219727 2.885124206543
-12.830542564392 -79.469635009766 -180.664260864258 2.250579118729
106.267311096191 -79.256599426270 -169.544830322266 3.499180316925
19.595439910889 -77.118324279785 -171.686737060547 1.257385849953
28.212041854858 -73.663742065430 -169.949554443359 1.029305219650
-58.683338165283 -74.121910095215 -176.495834350586 1.121987700462
16.694887161255 -75.070335388184 -181.908645629883 1.199734926224
-59.216476440430 -75.017295837402 -175.003341674805 1.713369607925
-53.414222717285 -73.823333740234 -190.137649536133 2.101934432983
10.953005790710 -74.529479980469 -183.882675170898 2.638230800629
-58.574680328369 -71.988174438477 -179.562683105469 1.855911970139
105.232940673828 -76.327972412109 -187.531158447266 2.196721792221
23.105728149414 -78.050292968750 -181.412551879883 1.336879491806
-35.312526702881 -73.557060241699 -187.944564819336 2.980172157288
-44.354995727539 -76.438560485840 -190.411102294922 2.167994022369
9.518199920654 -77.133789062500 -192.651031494141 2.961841344833
-20.656393051147 -76.611602783203 -189.134918212891 1.319358944893
-50.435638427734 -76.150543212891 -194.065658569336 2.396908283234
101.013641357422 -80.420875549316 -184.175567626953 4.442936420441
10.670508384705 -78.254035949707 -190.462600708008 3.561081409454
-135.345382690430 -77.164207458496 -197.810073852539 1.099407315254
-47.496311187744 -76.903137207031 -193.938629150391 1.865557670593
94.008537292480 -77.184463500977 -199.380432128906 3.714931249619
-150.549926757813 -78.652427673340 -200.798370361328 0.782117605209
16.623252868652 -76.488990783691 -197.591094970703 2.068034410477
-44.388439178467 -72.952575683594 -204.982208251953 4.219172954559
-32.839824676514 -77.455703735352 -205.299972534180 1.757981657982
-38.894538879395 -75.750137329102 -202.621231079102 1.919637203217
-46.400428771973 -78.812484741211 -196.898178100586 0.968802750111
98.467056274414 -77.780456542969 -203.883163452148 1.897374987602
-22.238239288330 -77.928085327148 -200.980056762695 1.926176190376
-151.950073242188 -73.357444763184 -201.429718017578 0.498738616705
14.240351676941 -77.657646179199 -203.331054687500 0.654577374458
-78.534957885742 -78.264495849609 -206.157455444336 2.844620227814
-148.275222778320 -71.981559753418 -210.899215698242 2.896748542786
93.167335510254 -78.607894897461 -212.460861206055 2.275340795517
-34.562561035156 -74.227226257324 -206.681930541992 1.174472332001
-30.686000823975 -75.642433166504 -212.073898315430 1.597113251686
7.127679824829 -76.844841003418 -210.383468627930 1.171759724617
-73.275833129883 -77.483177185059 -208.991271972656 0.553731977940
-29.973237991333 -80.371490478516 -207.284454345703 2.303616046906
-8.583455085754 -76.567596435547 -215.659500122070 2.674676895142
-73.968627929688 -76.108871459961 -213.449798583984 2.287559032440
-16.134338378906 -75.955657958984 -217.074935913086 2.571864128113
6.225731849670 -70.667388916016 -212.223068237305 2.445341587067
12.586171150208 -78.237083435059 -220.347473144531 0.365526288748
-151.815673828125 -74.418876647949 -215.745834350586 2.344786167145
-10.139986991882 -75.627723693848 -214.200469970703 1.912064433098
-100.584159851074 -70.849258422852 -219.343643188477 1.931115269661
-23.653371810913 -74.962272644043 -219.375061035156 0.880378067493
88.137908935547 -81.187942504883 -212.390960693359 4.474691390991
6.001647949219 -74.982856750488 -225.530151367188 1.278134822845
17.361732482910 -75.619026184082 -216.457382202148 1.260537743568
78.945297241211 -78.087966918945 -217.384948730469 5.241262912750
-0.762001991272 -78.230316162109 -228.341690063477 0.432904839516
83.905685424805 -77.749046325684 -217.503601074219 2.003429651260
-21.086450576782 -73.070297241211 -223.059326171875 1.685266494751
14.013145446777 -74.533088684082 -219.000762939453 2.838996648788
-149.143676757813 -74.751846313477 -219.433959960938 1.341037988663
-25.038896560669 -76.798194885254 -225.021118164063 2.502806901932
-0.119148001075 -74.982254028320 -229.051086425781 3.183720588684
-157.671783447266 -77.211494445801 -225.172958374023 3.539366483688
-138.853286743164 -74.946487426758 -226.903778076172 1.714773416519
3.228718996048 -75.832588195801 -224.351379394531 2.244823455811
-5.777659893036 -73.840705871582 -227.805343627930 2.398359298706
-138.494354248047 -71.112182617188 -228.887741088867 2.937439680099
-148.479080200195 -74.013519287109 -237.975082397461 2.898151874542
-149.882110595703 -73.562232971191 -234.669235229492 2.192962884903
-34.232784271240 -76.164520263672 -237.064178466797 2.063366413116
-145.938629150391 -75.165504455566 -241.480575561523 0.662856638432
15.579736709595 -76.931854248047 -241.462051391602 2.642216205597
3.301057100296 -75.840515136719 -243.739028930664 1.976728558540
-152.318069458008 -69.662368774414 -235.899673461914 1.343956947327
-151.267822265625 -73.255920410156 -242.703887939453 1.988051056862
-48.395320892334 -76.427505493164 -243.545303344727 2.136675357819
-33.477874755859 -76.183418273926 -245.267456054688 1.956099510193
2.633860111237 -76.810569763184 -243.937911987305 1.584722876549
-39.371074676514 -76.551338195801 -244.861480712891 1.049679636955
20.347446441650 -76.735641479492 -246.780685424805 1.462470412254
-7.614916801453 -78.103111267090 -250.851745605469 0.963984906673
-148.773803710938 -73.963668823242 -251.536575317383 1.567794084549
-10.974987983704 -79.657417297363 -251.908767700195 3.207086324692
-149.795089721680 -72.042625427246 -247.737594604492 2.121591091156
-68.397018432617 -76.113388061523 -249.117263793945 1.206218004227
-150.289154052734 -80.122589111328 -258.197235107422 3.079515933990
-128.891555786133 -73.369369506836 -257.426391601563 3.481922388077
-153.423995971680 -71.809700012207 -257.395050048828 2.952542543411
-13.683616638184 -73.576789855957 -266.247070312500 2.656255960464
-148.196472167969 -77.714714050293 -268.313201904297 2.661736011505
-151.813095092773 -73.707679748535 -266.575164794922 0.987824857235
-13.231405258179 -76.732460021973 -270.112182617188 1.082720279694
-147.576675415039 -73.797462463379 -269.305389404297 2.228201627731
-7.484377861023 -75.299957275391 -277.417022705078 0.859095990658
-48.194389343262 -74.639007568359 -284.564117431641 1.003056526184
-136.670272827148 -71.915611267090 -287.265960693359 2.147348403931
-136.737380981445 -72.700759887695 -284.777709960938 2.014157533646
-126.647628784180 -71.392425537109 -282.649963378906 2.153911828995
-54.687679290771 -74.190788269043 -285.842559814453 1.126192450523
-115.527099609375 -72.011314392090 -284.609313964844 1.900547862053
13.829140663147 -75.751136779785 -291.139404296875 1.658643484116
-60.429626464844 -73.401809692383 -288.039154052734 3.265381097794
-143.495605468750 -72.786514282227 -290.915222167969 2.142181396484
-65.023544311523 -73.611793518066 -289.628601074219 1.754275679588
-146.222778320313 -77.073173522949 -291.364471435547 2.777040958405
-119.138008117676 -71.983512878418 -289.556396484375 3.096426486969
-48.764839172363 -76.379928588867 -289.825164794922 2.059764146805
-36.456741333008 -75.332786560059 -290.758544921875 1.370912551880
-138.408248901367 -70.665618896484 -292.974151611328 2.078806877136
-14.944980621338 -72.329475402832 -285.369842529297 3.024319648743
1.011901021004 -75.654045104980 -288.589294433594 1.394509196281
4.352587223053 -74.914932250977 -290.757781982422 2.466704845428
12.918989181519 -76.800148010254 -294.544982910156 1.440726161003
-152.003067016602 -75.790176391602 -295.956054687500 1.818695187569
-148.410675048828 -71.585411071777 -294.499969482422 1.660253763199
-68.503974914551 -73.806755065918 -60.578849792480 3.374043703079
87.374420166016 -77.903625488281 -73.700942993164 3.746258497238
77.839477539063 -77.719596862793 -77.037933349609 3.086122274399
-28.184818267822 -76.971275329590 -76.188934326172 2.197441101074
83.219696044922 -75.760337829590 -75.669212341309 1.464032649994
-37.851085662842 -76.661346435547 -79.488952636719 1.913833737373
83.895584106445 -75.063034057617 -80.860748291016 2.093804121017
93.979652404785 -74.982490539551 -81.029357910156 1.249127030373
-65.679580688477 -68.648567199707 -94.077919006348 2.826718330383
72.900466918945 -77.161216735840 -94.083541870117 2.381159067154
79.307540893555 -75.646949768066 -97.539772033691 2.337392091751
93.739089965820 -79.022743225098 -95.000869750977 3.212434053421
54.248870849609 -77.621780395508 -97.549003601074 2.407063484192
-71.553604125977 -73.997261047363 -100.675537109375 2.511417865753
-75.348182678223 -70.272117614746 -100.585792541504 1.912065505981
48.875137329102 -77.975173950195 -104.334228515625 1.456000089645
-90.123664855957 -75.475936889648 -102.663612365723 4.501541137695
45.175350189209 -74.636940002441 -117.554603576660 1.202580690384
109.503952026367 -76.722663879395 -119.494300842285 0.702397644520
111.402687072754 -78.840400695801 -131.364898681641 3.262105703354
21.999652862549 -74.454376220703 -137.500564575195 4.301604747772
109.117073059082 -78.364486694336 -127.049819946289 2.431722402573
26.731983184814 -74.556373596191 -133.738525390625 2.809817790985
112.129753112793 -73.641487121582 -131.311889648438 1.310359477997
36.556491851807 -74.896568298340 -134.505355834961 2.754703760147
-55.484310150146 -74.802482604980 -141.224075317383 2.193363428116
34.367095947266 -77.797019958496 -143.755905151367 0.492405682802
107.992767333984 -75.684631347656 -136.480255126953 3.107897996902
-49.068176269531 -73.546592712402 -143.605651855469 2.939104795456
30.832324981689 -75.371757507324 -149.166366577148 2.790313720703
-57.579650878906 -70.678024291992 -139.796661376953 1.227456569672
-57.943164825439 -74.693359375000 -145.220687866211 2.927048444748
-52.997047424316 -76.589042663574 -149.259933471680 1.012165427208
-65.956382751465 -76.314689636230 -155.317169189453 0.886557161808
111.850608825684 -79.988655090332 -148.182937622070 2.788050413132
-51.486362457275 -78.632102966309 -154.735458374023 2.266141176224
21.112514495850 -78.991722106934 -155.547576904297 3.183605194092
107.290870666504 -77.858535766602 -160.432876586914 3.049247503281
-67.291328430176 -73.808441162109 -154.810333251953 0.742077887058
-46.523357391357 -75.535064697266 -156.137786865234 2.083698034286
7.408691883087 -73.420661926270 -154.430557250977 1.209930181503
-69.153549194336 -74.068435668945 -156.231918334961 1.388442635536
-64.222511291504 -75.860084533691 -159.098083496094 1.709720253944
-1.659540057182 -75.496788024902 -161.938858032227 1.637870907784
-44.220230102539 -72.478103637695 -167.001815795898 1.131235361099
28.435089111328 -74.094268798828 -165.983078002930 2.309240818024
-64.027809143066 -71.850570678711 -166.488800048828 1.716875195503
-57.953468322754 -75.642066955566 -166.713119506836 1.953973650932
15.482525825500 -77.649436950684 -160.229202270508 5.503739356995
-32.049301147461 -74.294281005859 -168.388168334961 2.449229001999
-30.768598556519 -76.888763427734 -166.409576416016 0.962787747383
14.417774200439 -76.569068908691 -174.408065795898 3.797176122665
-43.665004730225 -76.636650085449 -172.361251831055 2.982004165649
-12.581007003784 -75.921867370605 -172.255096435547 1.826556324959
-64.731040954590 -71.901504516602 -171.305465698242 1.504830956459
-7.896730899811 -73.111312866211 -172.531204223633 1.438490748405
-23.775989532471 -75.297576904297 -179.283172607422 1.330239772797
21.537216186523 -73.842071533203 -182.596054077148 3.417445421219
-40.341369628906 -75.426429748535 -171.680175781250 1.736295461655
18.470903396606 -72.964309692383 -176.588577270508 1.389689803123
-24.285419464111 -71.749198913574 -184.131195068359 2.166423559189
-33.699005126953 -76.517173767090 -179.017791748047 2.076417922974
-149.249862670898 -71.092506408691 -188.577255249023 1.654004096985
-21.117378234863 -77.873115539551 -184.409149169922 0.914497673512
-143.653625488281 -71.764305114746 -187.769622802734 1.447857141495
-153.627563476563 -72.372711181641 -186.016021728516 2.790859222412
-50.174190521240 -73.035774230957 -187.227767944336 1.528125882149
96.791687011719 -76.524368286133 -194.976745605469 3.120586156845
-146.301620483398 -73.549697875977 -190.426071166992 2.628702878952
-150.529312133789 -71.863586425781 -194.910934448242 1.332593679428
20.421491622925 -74.592994689941 -196.813171386719 1.090934753418
-138.855865478516 -72.554733276367 -195.754608154297 2.973648309708
14.241042137146 -72.989303588867 -198.503219604492 2.407912492752
-140.792404174805 -73.996536254883 -197.704452514648 1.488651394844
11.594571113586 -72.960670471191 -196.904251098633 1.584231376648
-135.468261718750 -70.397911071777 -196.939331054688 2.747763395309
4.611986160278 -73.404548645020 -203.951568603516 1.704016447067
-152.399230957031 -72.351943969727 -202.795913696289 1.920865654945
92.860412597656 -76.786575317383 -205.599227905273 1.142822742462
-17.645481109619 -76.856849670410 -205.418212890625 1.100751996040
-31.992689132690 -73.819496154785 -207.459121704102 1.570518493652
-12.707698822021 -72.222320556641 -205.112854003906 1.598254561424
-148.705230712891 -75.304298400879 -209.987152099609 2.051439046860
-37.038108825684 -74.563385009766 -203.874450683594 2.492182731628
-84.619132995605 -75.541007995605 -205.551696777344 5.811698436737
-28.444753646851 -75.871116638184 -208.549377441406 1.902488231659
14.588853836060 -75.703521728516 -211.666870117188 2.060330152512
-148.630844116211 -71.487640380859 -212.963867187500 1.579891085625
-91.639396667480 -74.658439636230 -216.202545166016 1.443429589272
-31.194744110107 -73.542877197266 -216.280609130859 0.666343212128
-28.267131805420 -74.078384399414 -219.162643432617 1.957824349403
-12.504828453064 -76.123329162598 -210.669357299805 2.635115861893
-29.017406463623 -73.977821350098 -209.450164794922 0.841561317444
-84.482162475586 -73.698089599609 -218.676376342773 0.828259646893
-90.082580566406 -77.027847290039 -217.991256713867 1.799710988998
-25.047986984253 -74.344718933105 -220.150558471680 1.802289128304
-3.823534011841 -80.003921508789 -223.136230468750 1.380584001541
-155.074813842773 -73.537101745605 -215.917724609375 2.753259897232
-4.109591960907 -76.542922973633 -219.869110107422 0.840953230858
84.557716369629 -79.417984008789 -226.029998779297 3.900623321533
-142.435821533203 -74.800422668457 -222.689682006836 1.636495232582
-8.043028831482 -75.838394165039 -221.954528808594 2.272894620895
-141.991226196289 -73.934974670410 -224.931213378906 1.881156206131
-148.933654785156 -79.909515380859 -224.744628906250 2.647147417068
-7.941675186157 -73.864021301270 -228.588775634766 2.019312381744
17.598031997681 -75.952926635742 -217.274581909180 1.529358267784
-141.524246215820 -71.430191040039 -228.202438354492 2.417804479599
-18.595567703247 -75.760322570801 -227.999145507813 2.220328330994
72.877090454102 -77.135292053223 -226.396560668945 4.446223735809
73.959930419922 -76.437927246094 -232.906753540039 2.592752695084
7.770258903503 -76.576332092285 -230.272857666016 2.144194364548
-32.805629730225 -75.903450012207 -236.196182250977 1.690806388855
-23.446161270142 -79.984390258789 -240.989791870117 1.546810388565
2.216728925705 -73.722335815430 -242.856430053711 1.281937837601
-48.988094329834 -71.287063598633 -242.234344482422 2.026210069656
-23.698354721069 -73.532112121582 -242.421722412109 0.683356761932
7.560846805573 -73.395332336426 -240.539245605469 2.229231357574
-65.142768859863 -74.295860290527 -244.724624633789 2.438011884689
-35.885131835938 -77.360359191895 -243.232681274414 1.899258852005
-42.167842864990 -72.890403747559 -244.672866821289 1.412335872650
-150.629425048828 -71.163101196289 -244.797668457031 2.476263284683
-47.609939575195 -76.470329284668 -247.193969726563 1.163209915161
-54.767135620117 -69.800971984863 -247.036148071289 2.443807601929
-68.035560607910 -73.941368103027 -248.864501953125 2.061395883560
-12.544778823853 -77.502899169922 -247.621459960938 3.558179855347
-81.720306396484 -74.332427978516 -253.218704223633 1.171462059021
-157.823211669922 -77.221893310547 -253.460937500000 4.930893421173
-142.964691162109 -72.374359130859 -253.657318115234 2.235204935074
-124.975700378418 -73.883407592773 -258.589599609375 1.762458205223
-158.323822021484 -69.221908569336 -259.387756347656 2.388506174088
17.936462402344 -79.787460327148 -264.921813964844 1.660609602928
-15.677238464355 -76.575462341309 -268.102081298828 2.705956220627
-155.101699829102 -74.700813293457 -271.743499755859 3.367616415024
-153.936767578125 -77.300025939941 -276.838195800781 3.319765090942
-147.205535888672 -75.507568359375 -283.961029052734 1.341039896011
-60.180400848389 -70.625228881836 -281.518280029297 4.135647773743
-40.536327362061 -71.159759521484 -285.271148681641 2.006978750229
-23.340692520142 -72.504676818848 -287.759338378906 2.040446758270
-12.562661170959 -72.472175598145 -281.632049560547 3.326183319092
-67.854568481445 -75.833686828613 -285.217102050781 1.745463848114
-82.240463256836 -75.820892333984 -285.620544433594 0.515098810196
-4.768644809723 -75.799980163574 -284.218078613281 2.970878124237
3.162831068039 -76.010543823242 -290.203948974609 1.246433734894
-140.120269775391 -71.535118103027 -286.598693847656 1.392400979996
-81.399391174316 -71.519546508789 -286.386047363281 2.086263179779
