-127.525520324707 -72.110511779785 -225.306396484375 1.904506564140
85.391738891602 -74.594230651855 -220.657745361328 2.655858039856
-119.115638732910 -70.931938171387 -223.920791625977 2.238163709641
8.810549736023 -72.355339050293 -225.651718139648 1.707209587097
85.330169677734 -73.132476806641 -221.458969116211 1.269955635071
-11.674423217773 -73.537147521973 -227.404602050781 1.101656198502
-9.483058929443 -73.315803527832 -224.292846679688 1.504675507545
2.114830970764 -77.689254760742 -226.832962036133 1.919318318367
14.327824592590 -74.877868652344 -224.342361450195 2.667491912842
92.934829711914 -75.849693298340 -223.551162719727 3.344401597977
14.054882049561 -71.587036132813 -228.321823120117 1.584735631943
9.630085945129 -72.670333862305 -226.355346679688 1.563130855560
-4.954545021057 -73.200431823730 -228.140899658203 1.899478673935
-2.693172931671 -73.540473937988 -227.033050537109 2.884128093719
22.831157684326 -72.006019592285 -229.684143066406 5.336048126221
-8.347557067871 -70.177612304688 -230.104995727539 1.785540342331
75.067337036133 -74.710937500000 -236.831481933594 2.509680509567
-5.044627189636 -71.132202148438 -235.716842651367 0.846669077873
23.053714752197 -74.183822631836 -232.713180541992 4.502683162689
-158.783126831055 -68.177070617676 -236.962890625000 2.353583335876
-1.478167057037 -70.606719970703 -233.983032226563 0.926811993122
-4.058425903320 -73.374145507813 -237.121215820313 1.719072699547
-163.642288208008 -69.829193115234 -247.309082031250 0.812785804272
-6.777103900909 -70.966148376465 -241.313323974609 1.347976803780
19.646310806274 -70.511657714844 -242.457305908203 2.877719163895
-143.654190063477 -71.544670104980 -248.389694213867 1.257346153259
-69.254310607910 -70.579811096191 -247.159469604492 2.080399274826
-57.625629425049 -72.278533935547 -243.812683105469 1.801517128944
56.383277893066 -71.628318786621 -243.849670410156 1.436148285866
-70.652488708496 -70.773445129395 -243.565612792969 3.124641895294
20.868432998657 -73.660820007324 -246.503234863281 1.571831941605
-69.093757629395 -71.538970947266 -248.060684204102 1.288763523102
-11.319012641907 -70.791778564453 -242.831970214844 1.305577635765
-141.550903320313 -72.337882995605 -249.320999145508 2.489395380020
50.657985687256 -70.405021667480 -247.017150878906 1.750588297844
-76.106872558594 -73.111099243164 -252.467102050781 1.217000007629
-98.728958129883 -67.705657958984 -251.667037963867 1.948610424995
-95.404052734375 -72.165023803711 -251.275344848633 1.575703620911
-115.880218505859 -68.339859008789 -249.622360229492 6.217190742493
-101.834472656250 -68.087371826172 -253.779937744141 2.592934846878
-101.880180358887 -70.149009704590 -254.777603149414 0.500666379929
25.563800811768 -70.610260009766 -255.518295288086 2.143229722977
-125.399696350098 -67.629455566406 -261.656005859375 1.496374368668
-10.015254974365 -73.014556884766 -272.483428955078 3.746006727219
-143.825744628906 -67.011123657227 -279.839813232422 2.331382989883
-164.963699340820 -70.548553466797 -282.035064697266 3.104735612869
-121.210968017578 -70.785186767578 -280.734954833984 6.081123352051
-110.396133422852 -67.048088073730 -283.469299316406 5.438207149506
-71.777381896973 -66.731262207031 -281.226104736328 7.428274154663
-53.831295013428 -71.737022399902 -283.492065429688 3.193533658981
-38.203212738037 -70.385429382324 -282.901916503906 3.760004043579
-11.754577636719 -74.855072021484 -286.742065429688 1.575451374054
-10.142286300659 -69.597976684570 -288.639434814453 3.496619939804
-34.804187774658 -73.263092041016 -287.054595947266 2.288034439087
-30.766035079956 -71.326614379883 -285.643768310547 2.238205909729
-15.335275650024 -68.872932434082 -285.648254394531 3.528281450272
-68.213768005371 -69.769699096680 -289.765686035156 0.829808175564
-51.953285217285 -70.407783508301 -287.876892089844 1.346022009850
-14.014277458191 -68.453460693359 -288.389373779297 2.686372518539
-10.198138237000 -73.433433532715 -286.656463623047 1.625159144402
-0.148439005017 -71.283027648926 -289.334777832031 2.646643400192
6.078227043152 -68.989158630371 -289.157348632813 2.053156852722
-88.610969543457 -70.434005737305 -289.667968750000 2.680622577667
-136.267242431641 -71.017623901367 -291.590026855469 1.470133304596
-112.789619445801 -70.808326721191 -289.288055419922 2.732254981995
-150.016113281250 -67.991027832031 -291.451843261719 1.057828426361
-148.486312866211 -69.798728942871 -296.061157226563 1.334380626678
-143.213638305664 -67.670349121094 -296.581054687500 3.051735401154
49.130466461182 -72.495491027832 -18.073589324951 2.189238548279
24.457662582397 -76.867568969727 -20.299621582031 3.497373580933
54.162437438965 -72.043395996094 -21.903518676758 4.856149196625
51.641265869141 -75.436325073242 -31.940994262695 5.222000122070
92.037139892578 -74.846061706543 -67.121284484863 3.915779590607
99.955078125000 -76.751205444336 -70.885391235352 5.137376308441
105.620582580566 -74.793212890625 -75.088546752930 6.837480068207
102.671516418457 -75.616226196289 -80.442024230957 4.907382488251
61.042926788330 -75.206909179688 -86.299148559570 3.716800451279
49.820716857910 -79.076599121094 -88.089614868164 6.555036067963
67.688285827637 -73.308692932129 -87.674232482910 2.452573537827
-60.812614440918 -69.494750976563 -89.846916198730 1.109707117081
75.181121826172 -73.995445251465 -84.743408203125 2.897523641586
105.275894165039 -68.957130432129 -95.854492187500 1.546008110046
78.838638305664 -75.224136352539 -98.057823181152 1.843331217766
98.627342224121 -73.820457458496 -99.536804199219 2.032650232315
-80.255172729492 -72.338478088379 -100.170890808105 1.818521738052
49.485778808594 -72.975982666016 -95.022003173828 1.909677743912
-82.189529418945 -72.733207702637 -98.988700866699 2.816087961197
55.422462463379 -75.320510864258 -107.288085937500 3.610321521759
41.981739044189 -78.773750305176 -100.562599182129 4.067620754242
106.464836120605 -74.077323913574 -100.282447814941 2.093295097351
41.487403869629 -73.496002197266 -102.865783691406 2.093375205994
46.822639465332 -74.749549865723 -115.488441467285 1.249229788780
47.011180877686 -73.552940368652 -109.978538513184 2.013297319412
114.365516662598 -73.781379699707 -109.415626525879 2.804713964462
-77.148986816406 -75.204345703125 -118.297805786133 4.994935989380
116.379714965820 -78.082603454590 -121.079261779785 5.176280021667
44.292926788330 -70.212493896484 -121.662086486816 1.231202840805
44.774433135986 -72.936874389648 -117.166847229004 0.768711507320
39.204307556152 -73.929054260254 -117.817253112793 3.734137296677
-51.631050109863 -75.770317077637 -126.385124206543 6.316492557526
34.393775939941 -72.551445007324 -120.388130187988 2.565386772156
-73.226951599121 -69.626869201660 -134.558914184570 0.655315101147
-51.251373291016 -74.906120300293 -129.429672241211 3.521799325943
-75.327690124512 -69.235214233398 -131.620147705078 1.346825122833
39.753559112549 -71.644813537598 -127.681861877441 2.278632402420
-55.503520965576 -72.692871093750 -130.413696289063 1.518545627594
39.284492492676 -72.712272644043 -130.326995849609 1.373428106308
-67.839813232422 -69.567169189453 -136.389007568359 4.456532478333
-55.110626220703 -69.265747070313 -137.540435791016 3.018309116364
29.755558013916 -73.874069213867 -139.593490600586 2.269188880920
114.919181823730 -77.285720825195 -140.257202148438 1.236658096313
119.423774719238 -71.088005065918 -134.242340087891 2.765532732010
34.795211791992 -73.281013488770 -138.475814819336 1.432692885399
-44.137149810791 -73.078796386719 -137.059173583984 2.551041364670
110.859062194824 -72.558692932129 -149.335556030273 2.040928125381
-71.497581481934 -71.088005065918 -139.857742309570 2.070689678192
-54.566589355469 -71.595024108887 -139.130081176758 1.515524387360
35.700523376465 -69.422454833984 -144.391815185547 1.347554802895
-73.529342651367 -72.427886962891 -142.965454101563 0.962552785873
-66.615486145020 -71.180824279785 -147.061126708984 1.146615862846
118.851310729980 -78.269897460938 -146.758285522461 5.667079448700
-60.647487640381 -70.691123962402 -151.924575805664 5.634415149689
-35.300243377686 -69.237892150879 -149.082580566406 5.588612556458
29.746477127075 -71.596954345703 -142.951141357422 2.270876646042
-69.183227539063 -71.646026611328 -142.850265502930 1.106474399567
16.399766921997 -72.371482849121 -146.729690551758 3.005654573441
35.825740814209 -72.536041259766 -153.938598632813 2.653891801834
35.018932342529 -70.936660766602 -147.218719482422 2.660763025284
19.123197555542 -76.989479064941 -151.159515380859 3.821972131729
-45.954811096191 -73.015457153320 -150.116226196289 1.987262129784
28.711185455322 -74.276954650879 -150.171661376953 3.395018815994
-42.201686859131 -70.834724426270 -147.034652709961 1.803086280823
8.681638717651 -72.810226440430 -151.023788452148 2.264553546906
24.445173263550 -72.161773681641 -146.955352783203 1.719401717186
-64.944015502930 -70.556457519531 -154.228515625000 2.788399457932
-42.655616760254 -68.888954162598 -150.954513549805 2.823176860809
-64.228942871094 -70.740829467773 -150.585968017578 2.513056755066
22.074123382568 -71.663467407227 -155.465194702148 1.455720424652
28.186300277710 -72.178237915039 -147.097946166992 1.569463610649
6.413063049316 -72.459968566895 -161.490417480469 1.345847368240
25.261625289917 -72.711074829102 -150.582717895508 2.356707096100
34.620029449463 -72.636741638184 -164.192581176758 2.855195283890
-43.462928771973 -72.798431396484 -160.102157592773 2.181957721710
-33.037220001221 -77.670944213867 -160.168487548828 2.374455213547
-36.985389709473 -72.404113769531 -157.721984863281 2.806489706039
31.706190109253 -73.250061035156 -155.714767456055 1.569510459900
-40.407810211182 -69.919281005859 -163.651046752930 3.711060523987
-35.915954589844 -70.192863464355 -163.256271362305 0.529510974884
25.215511322021 -71.472480773926 -162.762069702148 3.098954916000
-36.074630737305 -72.043899536133 -172.087631225586 1.488614678383
31.790294647217 -69.454223632813 -167.096649169922 4.038599967957
115.557929992676 -71.384056091309 -162.095581054688 1.685839772224
-29.728534698486 -71.576095581055 -168.906005859375 1.417438864708
106.577522277832 -71.887023925781 -170.421630859375 2.417027235031
-30.800558090210 -71.208106994629 -174.297363281250 1.989758133888
-33.714115142822 -74.327201843262 -178.316009521484 0.694760918617
24.869865417480 -75.317024230957 -174.044494628906 2.775406599045
109.551200866699 -74.442832946777 -179.209960937500 1.793521165848
-27.726697921753 -70.066497802734 -179.779693603516 2.172911643982
-31.415266036987 -71.031730651855 -174.380325317383 2.252164840698
-19.538684844971 -75.043289184570 -183.764068603516 2.243246078491
-145.323471069336 -69.999824523926 -185.534393310547 3.374713659286
16.674785614014 -72.122337341309 -180.349884033203 2.207310199738
108.704551696777 -72.616592407227 -188.297531127930 1.279017686844
-155.241912841797 -68.823478698730 -189.654571533203 2.930900096893
-19.218158721924 -68.733146667480 -186.407104492188 2.995713710785
-111.968437194824 -71.536705017090 -194.056869506836 2.269078493118
-127.123085021973 -71.058113098145 -192.253967285156 1.757513046265
-104.205619812012 -70.554115295410 -196.519424438477 4.897614479065
-109.952095031738 -69.155845642090 -196.923400878906 2.331435203552
-8.650839805603 -72.564224243164 -193.300262451172 6.325088500977
23.815254211426 -71.203704833984 -193.109649658203 1.160503864288
-12.070052146912 -68.084197998047 -198.776275634766 2.026768684387
-123.045989990234 -69.675949096680 -202.234970092773 1.510176062584
-17.107496261597 -67.981101989746 -199.890457153320 2.282769680023
-125.654357910156 -68.522605895996 -199.587463378906 3.983945846558
-11.730801582336 -71.788055419922 -197.187332153320 2.306203842163
-142.370407104492 -68.190406799316 -199.439483642578 3.162981271744
95.549293518066 -69.839324951172 -203.605056762695 1.350108623505
-160.749099731445 -64.350387573242 -198.037338256836 2.441677808762
0.873350977898 -73.315193176270 -214.826324462891 3.560913562775
15.123413085938 -73.161651611328 -206.887756347656 2.734635114670
13.954030990601 -74.014625549316 -214.023483276367 3.217743635178
86.318321228027 -73.165687561035 -213.854675292969 1.297707080841
12.179851531982 -72.908241271973 -210.055908203125 2.800211668015
16.316865921021 -71.111076354980 -211.746154785156 1.921962976456
-12.209617614746 -74.655914306641 -212.862274169922 3.554842472076
-86.780853271484 -70.529403686523 -211.228698730469 4.208170890808
-94.308815002441 -70.105453491211 -213.345214843750 2.338332176208
3.703846931458 -70.682418823242 -216.096817016602 3.136180162430
-162.807739257813 -70.548553466797 -218.591262817383 3.224416971207
18.856891632080 -69.978561401367 -216.610076904297 3.082865953445
-140.926940917969 -68.474380493164 -217.904495239258 3.403026103973
16.634246826172 -72.187065124512 -221.954650878906 2.411502599716
-130.978759765625 -70.593078613281 -221.554672241211 3.704548120499
-112.255653381348 -70.519950866699 -223.918487548828 2.122665882111
20.465723037720 -71.225997924805 -217.888519287109 1.954524040222
82.080543518066 -73.086700439453 -218.506286621094 2.655107259750
10.429382324219 -71.764373779297 -220.461685180664 1.944058299065
-106.186531066895 -68.938003540039 -227.637145996094 1.162818908691
76.021560668945 -73.795135498047 -224.940841674805 1.941721558571
87.665344238281 -74.144737243652 -226.650466918945 3.451507091522
-121.527885437012 -69.108238220215 -231.787826538086 2.790790796280
-113.352310180664 -69.526473999023 -227.172195434570 1.291702508926
-6.300549983978 -68.316162109375 -224.747482299805 1.269966006279
75.646591186523 -73.556488037109 -228.532836914063 1.869254827499
68.309608459473 -73.299758911133 -230.324691772461 1.495891332626
76.970298767090 -72.405853271484 -226.628479003906 1.201204419136
-131.525711059570 -65.892196655273 -230.748931884766 2.483563661575
73.825103759766 -73.903289794922 -229.501693725586 0.740767359734
69.874870300293 -70.573173522949 -232.438095092773 0.867079913616
-162.423950195313 -67.247497558594 -227.144149780273 3.042411327362
4.984198093414 -77.812324523926 -238.001846313477 1.203683018684
23.000490188599 -73.077331542969 -236.540710449219 3.740788698196
-2.321927070618 -68.849739074707 -237.647857666016 1.813176155090
19.503856658936 -66.957519531250 -236.285614013672 4.554315567017
69.870422363281 -73.644241333008 -235.287185668945 2.303124189377
12.599417686462 -69.847953796387 -240.396072387695 2.072575092316
-7.176788806915 -65.423599243164 -237.730010986328 1.782065868378
3.177472114563 -68.410858154297 -234.444274902344 1.578935265541
68.586486816406 -73.270141601563 -239.587875366211 1.826926589012
6.700300216675 -72.043563842773 -239.589080810547 3.048440933228
-3.355870008469 -72.083869934082 -240.143753051758 1.822995066643
17.886123657227 -74.073936462402 -239.960723876953 1.670734643936
-163.842666625977 -70.086860656738 -237.768524169922 2.685948133469
59.654476165771 -72.745094299316 -244.391143798828 2.470838785172
53.670692443848 -66.815254211426 -247.913528442383 1.670984148979
61.829528808594 -73.224319458008 -239.954421997070 1.330652356148
-8.499590873718 -69.515029907227 -244.886062622070 2.179508447647
60.827903747559 -72.279182434082 -242.821426391602 1.544859290123
-70.251960754395 -69.580024719238 -246.705261230469 3.075071096420
54.397151947021 -72.710388183594 -245.782333374023 2.042025804520
-85.121528625488 -69.563964843750 -249.298629760742 3.078262567520
-119.618614196777 -70.164550781250 -253.402053833008 3.958911418915
-128.778778076172 -68.916793823242 -249.636215209961 3.780015707016
49.707851409912 -73.734375000000 -248.991592407227 1.204929947853
-128.989166259766 -71.434463500977 -249.905838012695 3.425421953201
-105.556594848633 -67.592346191406 -251.828079223633 3.388019561768
-112.433883666992 -66.975631713867 -254.171386718750 3.305370330811
-80.148101806641 -70.210700988770 -251.495300292969 1.832785725594
-107.369865417480 -67.573402404785 -255.873703002930 1.140834927559
-120.545051574707 -72.184761047363 -259.169006347656 3.096339702606
-142.889938354492 -66.046089172363 -264.248870849609 2.322801589966
-11.713891029358 -69.579498291016 -262.588500976563 2.562186241150
-167.785842895508 -70.069519042969 -261.084777832031 0.702850341797
-11.039016723633 -70.261222839355 -270.755645751953 2.358582735062
-155.374298095703 -65.105026245117 -263.881164550781 2.106113433838
-149.152938842773 -68.547531127930 -270.076751708984 3.722164869308
-166.395156860352 -67.903648376465 -274.126678466797 2.782599210739
-10.723044395447 -70.801933288574 -276.321441650391 1.498970508575
-126.727462768555 -70.896148681641 -279.876281738281 4.876255512238
-154.540969848633 -67.788055419922 -282.846130371094 2.569845676422
-140.439620971680 -67.428970336914 -277.614410400391 5.926740646362
-131.426239013672 -71.310890197754 -277.212219238281 6.894882678986
-4.621839046478 -65.142883300781 -281.405059814453 1.124798774719
-122.436614990234 -72.078620910645 -280.159454345703 5.519051074982
-137.515884399414 -66.357681274414 -282.252410888672 4.163440704346
-112.304321289063 -71.656349182129 -282.481170654297 4.021642684937
-75.498352050781 -67.572402954102 -284.841796875000 3.259964227676
-57.255363464355 -70.414344787598 -283.926757812500 2.796360969543
-3.570225000381 -71.681381225586 -284.841796875000 2.650700569153
-50.442184448242 -68.735481262207 -282.580078125000 6.035119533539
-53.720645904541 -67.529670715332 -285.471527099609 4.227097511292
-66.929832458496 -67.829269409180 -287.138031005859 3.584113597870
-84.605972290039 -68.270019531250 -290.562622070313 2.287231683731
-91.552528381348 -66.889236450195 -285.737152099609 4.111928462982
-156.874969482422 -67.031738281250 -288.068969726563 2.749548673630
-157.671768188477 -68.787544250488 -290.331970214844 2.250536680222
-121.244331359863 -71.263343811035 -290.611541748047 2.698721885681
-141.235458374023 -68.337394714355 -291.635192871094 1.153308272362
-149.705200195313 -70.141220092773 -300.379669189453 2.464513301849
-147.157562255859 -70.166900634766 -308.796325683594 0.975924849510
52.229198455811 -72.966224670410 -11.747277259827 7.690013408661
20.956670761108 -75.335380554199 -26.838401794434 3.043050289154
46.222492218018 -70.744346618652 -31.733688354492 1.826825618744
-11.412818908691 -75.798873901367 -63.351036071777 5.517565250397
85.950309753418 -72.583511352539 -62.314186096191 4.223029136658
92.856353759766 -70.562492370605 -63.151496887207 3.388858079910
81.974136352539 -77.318527221680 -62.697212219238 7.061956882477
76.823921203613 -75.347946166992 -66.420066833496 5.001101970673
95.253730773926 -76.704742431641 -72.189270019531 3.918496847153
-91.958702087402 -68.204231262207 -66.965988159180 1.337225556374
71.899047851563 -74.578842163086 -72.571327209473 3.671414375305
-32.474975585938 -73.226356506348 -74.273635864258 4.700276851654
102.975135803223 -74.234191894531 -83.115432739258 4.185019969940
65.555984497070 -71.052474975586 -87.513328552246 2.008238077164
111.066772460938 -78.684158325195 -90.956329345703 10.635806083679
105.495002746582 -77.579124450684 -95.694519042969 4.894762039185
76.308959960938 -73.474258422852 -97.813758850098 1.968833804131
-76.168807983398 -69.964286804199 -98.279121398926 1.140475749969
58.327808380127 -73.192100524902 -101.356422424316 2.961245775223
111.114875793457 -71.512893676758 -103.264869689941 2.127070188522
50.995403289795 -73.664169311523 -109.506301879883 2.130256175995
83.880233764648 -72.540855407715 -102.592643737793 2.448601961136
45.588634490967 -72.602127075195 -104.530471801758 2.379832983017
108.213920593262 -73.659477233887 -100.482521057129 1.806239962578
51.507308959961 -72.485282897949 -104.882789611816 1.519688487053
111.102272033691 -78.651199340820 -107.213737487793 4.993357181549
114.017814636230 -76.816589355469 -108.623512268066 5.031671047211
-75.482696533203 -68.957702636719 -110.909179687500 1.663563609123
-79.040657043457 -69.026336669922 -116.095092773438 2.255263328552
47.763084411621 -75.712860107422 -117.164665222168 2.445890665054
117.652160644531 -75.404632568359 -118.586990356445 4.106824874878
117.553565979004 -73.515129089355 -120.853935241699 2.913819551468
-83.383773803711 -69.670593261719 -123.700630187988 2.063920974731
109.802566528320 -75.433059692383 -123.040214538574 2.935305595398
-55.585048675537 -75.071922302246 -128.647048950195 3.303178310394
-82.334053039551 -70.867546081543 -124.031585693359 0.678989887238
-68.705009460449 -70.937774658203 -123.918243408203 7.095855712891
-55.297378540039 -67.268684387207 -123.532066345215 2.470970153809
35.466037750244 -72.049301147461 -127.211662292480 3.298948287964
46.222843170166 -70.950424194336 -131.759185791016 5.763314723969
-69.317604064941 -70.282760620117 -133.368698120117 3.609176158905
32.596206665039 -70.431159973145 -127.956390380859 1.962674140930
115.483436584473 -73.451087951660 -140.162933349609 1.172242164612
-36.384159088135 -71.024963378906 -145.124923706055 5.421147823334
34.162673950195 -72.902420043945 -145.883941650391 2.061650037766
117.710395812988 -71.826553344727 -144.935455322266 1.039562344551
39.352581024170 -72.793823242188 -139.790084838867 0.822688639164
114.204689025879 -72.253150939941 -138.042098999023 2.194556951523
-48.543483734131 -70.996498107910 -146.201309204102 2.349183797836
-67.441879272461 -67.939270019531 -147.708236694336 2.426262855530
-51.335006713867 -71.143142700195 -149.355148315430 2.010906696320
-38.376647949219 -74.068489074707 -161.826156616211 2.192467212677
8.462098121643 -72.834991455078 -152.826034545898 1.866675972939
113.614006042480 -73.455200195313 -150.740066528320 0.674800992012
112.742202758789 -73.029029846191 -156.841796875000 0.794187009335
13.831445693970 -71.017814636230 -154.396652221680 2.588978528976
7.073462963104 -71.501647949219 -158.247650146484 2.497011423111
23.022912979126 -71.058555603027 -152.225082397461 1.521219968796
29.457103729248 -70.582527160645 -152.642456054688 1.694822192192
112.496093750000 -72.634605407715 -162.836822509766 1.082930684090
113.271148681641 -76.069404602051 -164.966522216797 2.799037218094
27.715509414673 -69.015327453613 -171.347320556641 2.138565778732
28.720546722412 -73.772232055664 -160.833145141602 2.603726148605
116.019958496094 -71.256958007813 -159.189422607422 2.413520812988
-25.354566574097 -69.581207275391 -174.017852783203 1.859420776367
113.959396362305 -73.256477355957 -164.975631713867 1.607854127884
21.283468246460 -72.064285278320 -164.573440551758 1.143720984459
25.387199401855 -71.521003723145 -164.701812744141 2.318458318710
112.279449462891 -73.121986389160 -170.064346313477 1.074312806129
30.510467529297 -70.835205078125 -167.358551025391 3.185059309006
116.023689270020 -72.181007385254 -180.913421630859 4.457173347473
-34.527759552002 -69.901237487793 -174.520858764648 1.778144598007
28.876445770264 -71.244300842285 -168.085067749023 1.706410765648
111.215728759766 -72.623603820801 -181.057495117188 0.787375330925
26.831525802612 -72.475013732910 -175.552490234375 1.361826539040
-148.099014282227 -67.153030395508 -182.989929199219 1.849550366402
-24.448543548584 -67.603103637695 -186.142761230469 2.158667564392
28.353935241699 -69.390083312988 -181.856353759766 2.516302347183
-110.056617736816 -70.497138977051 -188.508407592773 1.674574494362
-107.092269897461 -66.772636413574 -187.926452636719 1.694451928139
27.493822097778 -71.889305114746 -185.514022827148 1.853282094002
15.432290077209 -69.354385375977 -181.952636718750 0.884366929531
-23.129480361938 -67.977409362793 -187.037582397461 1.286077499390
-25.972972869873 -74.229003906250 -186.090484619141 2.747959852219
-24.282781600952 -70.860244750977 -184.033523559570 1.527195930481
18.580940246582 -69.339965820313 -176.914855957031 1.061381697655
-147.126785278320 -68.382110595703 -191.607025146484 3.285312891006
-141.618179321289 -68.187278747559 -189.389236450195 0.917574167252
-140.718093872070 -71.324615478516 -194.904266357422 2.221805810928
-19.182394027710 -69.602943420410 -188.234664916992 2.374578714371
17.380458831787 -68.870887756348 -196.496231079102 1.730911016464
102.576423645020 -71.644508361816 -190.524169921875 1.369591832161
-109.993400573730 -67.846183776855 -194.963104248047 1.908227682114
24.918329238892 -74.356071472168 -195.370407104492 3.043545007706
-11.590798377991 -69.545768737793 -192.423431396484 4.886595726013
-14.004281997681 -69.873291015625 -195.594665527344 1.396040678024
104.674880981445 -71.266059875488 -196.721572875977 2.027611732483
11.604681968689 -72.752174377441 -196.247833251953 1.974927663803
-18.230913162231 -68.765289306641 -193.337478637695 1.226807832718
-117.687835693359 -71.653877258301 -199.733444213867 3.870575904846
-130.478073120117 -68.677040100098 -199.877044677734 3.746155977249
-110.315368652344 -64.497741699219 -201.524993896484 2.788231611252
-138.511169433594 -71.138175964355 -199.977478027344 2.586335420609
21.221969604492 -70.700202941895 -194.727142333984 0.685540854931
97.482376098633 -73.478820800781 -199.059478759766 0.901558339596
-162.146331787109 -63.623645782471 -197.913940429688 3.691814184189
103.691276550293 -71.998260498047 -199.392730712891 1.022033333778
-18.005613327026 -73.888916015625 -202.981353759766 3.289187431335
98.300590515137 -70.138603210449 -207.734390258789 2.135076999664
91.710762023926 -73.430625915527 -208.736099243164 1.526809334755
15.793677330017 -72.528411865234 -202.978424072266 2.627006530762
23.448083877563 -70.343521118164 -209.002212524414 5.003896236420
16.560377120972 -68.069007873535 -204.817001342773 1.220759153366
-7.227484226227 -70.620941162109 -219.343429565430 2.223565101624
-90.793624877930 -70.871139526367 -215.331466674805 0.696548461914
-6.799136161804 -72.437889099121 -209.247711181641 2.335587739944
92.705322265625 -72.216239929199 -213.533432006836 1.670625448227
-89.915267944336 -71.100570678711 -214.413879394531 1.212658047676
-97.452407836914 -66.601272583008 -217.882553100586 2.027832984924
-90.799400329590 -69.583480834961 -216.219268798828 1.345995903015
91.843559265137 -73.493835449219 -219.215942382813 1.993428111076
-131.653396606445 -68.632102966309 -221.769195556641 3.127743721008
-128.865966796875 -72.082687377930 -223.375869750977 1.920643448830
-113.009452819824 -68.421951293945 -221.479644775391 4.286927700043
-109.423599243164 -66.017906188965 -219.830688476563 3.191508769989
-129.684936523438 -66.824798583984 -223.804763793945 2.491483688354
-108.170249938965 -75.111015319824 -224.252685546875 2.540871858597
-108.570930480957 -68.430503845215 -224.730834960938 2.354305744171
-3.279911041260 -73.527694702148 -221.646179199219 1.616155505180
-12.336546897888 -72.443267822266 -220.140625000000 2.050623416901
2.677961111069 -68.468185424805 -227.420593261719 1.084412097931
-6.486158847809 -67.506721496582 -223.939849853516 0.886078298092
18.992517471313 -71.381111145020 -230.571487426758 1.417950987816
-15.203516960144 -68.478858947754 -226.062194824219 1.250822424889
-163.164199829102 -66.177246093750 -218.789367675781 3.037163972855
-0.491742998362 -70.307121276855 -230.461883544922 1.652480483055
84.469100952148 -69.001434326172 -228.405624389648 2.957857608795
14.554179191589 -72.329536437988 -230.712783813477 2.020482540131
-2.271001100540 -69.581352233887 -231.763351440430 0.633919537067
-153.210083007813 -65.559616088867 -233.035690307617 2.333758115768
-138.629302978516 -66.656898498535 -226.990615844727 3.371948003769
66.218177795410 -70.176269531250 -233.074508666992 1.996521592140
-2.055802106857 -71.225921630859 -231.122528076172 1.491585969925
12.901395797729 -72.603332519531 -227.783660888672 0.862555027008
73.017959594727 -73.752861022949 -227.515228271484 1.565299749374
80.563186645508 -72.085205078125 -231.546661376953 1.704213142395
74.614654541016 -72.627784729004 -238.603591918945 3.045590162277
1.996098995209 -73.120132446289 -232.731948852539 2.395668506622
61.672653198242 -69.704284667969 -235.122970581055 1.988209843636
-15.451949119568 -72.541496276855 -236.708526611328 0.515525043011
-11.636766433716 -67.814582824707 -237.326583862305 1.786504745483
11.831843376160 -70.389060974121 -236.388565063477 1.657625794411
68.337249755859 -74.581542968750 -235.134613037109 1.753259897232
69.059036254883 -69.980857849121 -237.849624633789 0.969157755375
53.196525573730 -71.325004577637 -243.285583496094 2.048532724380
64.677421569824 -74.400367736816 -239.960083007813 1.296424865723
-12.018214225769 -74.356201171875 -246.666473388672 1.987277507782
-79.990325927734 -66.243904113770 -250.898757934570 4.278782844543
-73.248703002930 -66.937614440918 -249.686157226563 3.148601531982
47.799755096436 -73.753562927246 -244.952575683594 3.688550233841
-145.561065673828 -68.854919433594 -247.225296020508 2.293155908585
39.566562652588 -70.775566101074 -253.343917846680 1.515395760536
-88.518455505371 -72.114494323730 -248.660537719727 3.434962987900
-152.621047973633 -63.928470611572 -251.178909301758 2.447079896927
-136.659042358398 -61.826721191406 -249.820465087891 7.406651020050
48.735767364502 -70.796607971191 -250.656234741211 1.744921326637
-121.366065979004 -64.278938293457 -254.445816040039 4.520473480225
-113.314888000488 -68.466270446777 -251.992935180664 4.163923263550
-88.745857238770 -64.710906982422 -253.754348754883 4.333615303040
-10.074850082397 -66.867614746094 -247.313034057617 1.221475958824
35.435050964355 -70.389640808105 -254.301773071289 0.963014721870
28.535713195801 -68.031227111816 -256.513427734375 1.574692130089
-155.339767456055 -63.122146606445 -256.771362304688 1.473830223083
-111.242736816406 -70.754364013672 -259.345611572266 1.504732489586
-10.377174377441 -69.536506652832 -258.900848388672 3.163130521774
-129.250885009766 -67.592430114746 -261.965270996094 2.791533470154
-10.605118751526 -68.521339416504 -267.247039794922 2.463037967682
-161.367843627930 -66.403335571289 -268.994140625000 2.928996562958
-3.853199005127 -70.675140380859 -276.461944580078 4.278024673462
-157.436447143555 -67.345565795898 -284.295959472656 2.953938961029
-160.411865234375 -68.905364990234 -274.392364501953 2.500177860260
-139.164779663086 -67.582023620605 -281.760375976563 4.257187366486
-166.758270263672 -68.833976745605 -281.141845703125 4.311817169189
17.418323516846 -72.167312622070 -285.044677734375 2.694427013397
-99.752853393555 -69.015228271484 -283.233734130859 4.645223140717
-83.701644897461 -64.268684387207 -282.684265136719 6.696344852448
-164.298385620117 -64.214355468750 -281.018859863281 5.349506855011
-88.660011291504 -72.032852172852 -280.757873535156 6.583174228668
-150.303726196289 -67.589950561523 -284.998046875000 1.794538378716
-72.102531433105 -69.302536010742 -290.396789550781 2.684367179871
-67.225257873535 -67.869422912598 -285.495788574219 4.619543552399
-79.161094665527 -69.311363220215 -288.074432373047 1.242742300034
-0.277869999409 -67.118156433105 -285.907073974609 2.754846811295
-84.631111145020 -68.205184936523 -285.370300292969 2.276256799698
-95.639205932617 -69.414978027344 -287.642456054688 1.638348221779
-113.295486450195 -68.041946411133 -289.309661865234 0.398144692183
-113.170188903809 -65.086059570313 -289.414764404297 2.587209939957
-130.793334960938 -66.816398620605 -288.782562255859 2.722887277603
-139.474441528320 -67.419303894043 -297.361419677734 5.669314384460
-140.956390380859 -68.495513916016 -308.315338134766 5.183298587799
28.270412445068 -71.041664123535 -12.160181999207 0.874740660191
36.687602996826 -72.373321533203 -13.452530860901 0.573170006275
33.673671722412 -74.935173034668 -15.324739456177 2.431797266006
48.532783508301 -71.253334045410 -17.640380859375 1.692024350166
29.224069595337 -72.626976013184 -28.682365417480 2.445805788040
-70.587829589844 -69.011634826660 -43.754020690918 3.810359477997
93.986770629883 -69.150939941406 -62.650070190430 3.812838077545
-13.359967231750 -69.643096923828 -64.404563903809 2.309138536453
106.861831665039 -72.373863220215 -70.093177795410 7.029642105103
99.236335754395 -77.022125244141 -72.837104797363 4.708739757538
72.694190979004 -74.170288085938 -75.617492675781 1.636250376701
74.397499084473 -75.992233276367 -79.763916015625 1.674281954765
-40.526645660400 -74.014221191406 -79.268440246582 1.620983123779
65.301963806152 -75.902595520020 -79.518150329590 6.030445575714
-90.244995117188 -70.242515563965 -84.972915649414 3.284761905670
-44.989273071289 -68.470367431641 -82.005981445313 2.996216058731
-51.817531585693 -77.143775939941 -84.394309997559 3.663807868958
105.052207946777 -78.463172912598 -94.810325622559 5.835794448853
63.323799133301 -75.564888000488 -89.367362976074 4.452490806580
70.056823730469 -71.904319763184 -88.094184875488 1.178553462029
-91.475181579590 -64.461723327637 -93.504493713379 6.064555168152
111.988853454590 -74.709976196289 -90.292457580566 9.212793350220
48.261447906494 -70.863960266113 -95.956169128418 2.126628875732
105.560478210449 -72.865570068359 -95.280967712402 2.108425617218
110.906196594238 -71.080101013184 -103.152038574219 1.791303873062
105.397605895996 -73.378265380859 -101.710075378418 1.207865238190
77.971412658691 -74.824645996094 -97.828674316406 1.121480584145
91.391784667969 -74.829032897949 -103.694183349609 2.630047559738
54.128822326660 -71.889511108398 -108.226127624512 1.142699360847
114.802513122559 -71.090171813965 -100.760864257813 5.539906501770
50.292949676514 -74.646278381348 -102.473152160645 1.901170015335
44.730865478516 -70.212707519531 -98.554244995117 1.634689569473
116.859611511230 -73.565521240234 -107.548599243164 4.857937812805
-74.363288879395 -67.118621826172 -106.290481567383 2.726729869843
50.224975585938 -71.185974121094 -109.874397277832 1.060109853745
38.832290649414 -73.682891845703 -112.058341979980 1.725542783737
109.617240905762 -70.793899536133 -107.238609313965 2.285451889038
43.570652008057 -69.104911804199 -108.467071533203 1.543454289436
-83.930557250977 -69.086372375488 -109.485847473145 1.893198966980
-91.394874572754 -66.454269409180 -111.371284484863 3.957564115524
108.095039367676 -76.029907226563 -116.323486328125 3.289584398270
-90.681327819824 -70.580688476563 -115.237022399902 1.846114873886
43.031703948975 -73.741134643555 -118.272827148438 1.518360257149
41.068756103516 -71.396286010742 -117.735954284668 2.213188409805
-79.307838439941 -69.019279479980 -120.822860717773 0.336020648479
36.495079040527 -69.679512023926 -131.625335693359 1.610745668411
114.908958435059 -74.215003967285 -128.408004760742 2.156890869141
-48.549125671387 -69.504417419434 -132.739028930664 0.609156787395
-84.130065917969 -68.023109436035 -128.217849731445 2.198347330093
41.966327667236 -74.759399414063 -128.651321411133 0.768712103367
-84.936782836914 -64.917518615723 -132.419555664063 1.744308114052
-84.857337951660 -71.092575073242 -136.214859008789 2.535546302795
-45.599929809570 -70.980247497559 -133.507278442383 3.160958290100
-66.739562988281 -67.557777404785 -136.130676269531 4.693331718445
-46.590183258057 -68.874153137207 -130.140762329102 3.049791336060
119.529052734375 -70.294113159180 -134.714202880859 2.889243125916
-69.162086486816 -70.747764587402 -133.435546875000 3.858482599258
40.602230072021 -71.837966918945 -128.256851196289 2.048236608505
-74.588150024414 -68.119895935059 -136.730010986328 1.004941582680
-69.230468750000 -69.025817871094 -132.372116088867 3.988175153732
-87.262870788574 -66.943519592285 -136.682098388672 1.589616298676
-49.765830993652 -67.475341796875 -143.697540283203 1.839165329933
35.566421508789 -67.412506103516 -142.693527221680 2.598977327347
31.608791351318 -69.375610351563 -146.438842773438 1.078506231308
23.291921615601 -66.436012268066 -141.204269409180 1.466167807579
116.883888244629 -72.087608337402 -143.476104736328 0.673412501812
-89.414093017578 -67.215507507324 -149.022293090820 3.537238836288
17.026659011841 -72.218986511230 -149.300704956055 1.242075920105
-67.857185363770 -68.520378112793 -149.931777954102 1.985251188278
27.544942855835 -70.013755798340 -146.682723999023 1.986997723579
-45.086750030518 -68.445960998535 -152.102874755859 1.380997896194
13.644907951355 -69.287506103516 -150.117187500000 1.837256193161
19.107070922852 -72.969612121582 -155.318191528320 2.652641534805
21.751590728760 -74.774490356445 -160.838134765625 1.357081532478
-44.901546478271 -71.269920349121 -159.265060424805 2.834076642990
-35.107822418213 -68.680343627930 -151.559844970703 5.121412754059
-42.336067199707 -69.758132934570 -157.741027832031 1.812991380692
-99.666763305664 -68.692825317383 -168.462570190430 2.891486883163
25.725482940674 -71.568099975586 -170.977416992188 1.205922603607
-30.757104873657 -69.194755554199 -172.702148437500 1.517813801765
19.372024536133 -73.963096618652 -175.243377685547 0.956828176975
-139.618270874023 -67.402587890625 -172.134155273438 4.176348209381
-28.178260803223 -66.619567871094 -169.541717529297 3.860680341721
-151.083526611328 -71.581787109375 -174.217880249023 1.752315163612
27.475093841553 -66.344726562500 -178.706848144531 4.104158401489
-28.931547164917 -70.490913391113 -168.239303588867 1.110807180405
-103.645484924316 -66.414833068848 -174.182861328125 1.001230597496
-103.204795837402 -71.982101440430 -180.080642700195 4.442763805389
-25.957277297974 -65.136436462402 -181.941452026367 4.305018901825
-19.707532882690 -73.399787902832 -178.590988159180 3.113008022308
17.944253921509 -69.220878601074 -186.180221557617 1.771218061447
20.939662933350 -67.767662048340 -194.118041992188 2.495365858078
17.820249557495 -70.066444396973 -183.869247436523 1.979600667953
-138.872497558594 -66.263557434082 -183.862167358398 3.167834758759
25.575014114380 -66.947090148926 -186.847991943359 2.252282381058
11.481567382813 -69.780822753906 -193.636627197266 0.737527847290
-133.119598388672 -65.838417053223 -190.840270996094 3.187779426575
-110.386901855469 -67.351982116699 -191.909042358398 2.906794071198
18.835292816162 -68.427467346191 -198.094848632813 1.866556525230
-112.399299621582 -66.568412780762 -193.272598266602 2.017708063126
-103.738952636719 -63.250339508057 -188.646942138672 4.310488700867
-161.411102294922 -67.978950500488 -196.450683593750 1.774691820145
-20.370962142944 -68.278129577637 -196.805206298828 1.021149396896
16.846714019775 -68.503738403320 -197.151596069336 1.249452710152
-139.065109252930 -67.309692382813 -200.374420166016 2.782784461975
-131.902465820313 -68.986282348633 -202.819183349609 1.727623701096
-16.179737091064 -67.632492065430 -204.095077514648 1.467678427696
-8.018369674683 -70.496589660645 -201.400970458984 4.083357810974
-10.886571884155 -69.968315124512 -202.788375854492 2.556807279587
-136.947189331055 -70.269485473633 -200.902496337891 2.041727066040
-12.654918670654 -69.573501586914 -209.744262695313 1.210773348808
-6.653820991516 -72.919441223145 -211.178100585938 0.375734031200
21.481872558594 -67.440635681152 -207.924072265625 4.480472564697
-11.025889396667 -72.569084167480 -208.369445800781 2.333861589432
14.378949165344 -70.037796020508 -206.980255126953 1.745867848396
-6.519594192505 -70.219612121582 -212.469787597656 1.624422788620
-17.061485290527 -66.698440551758 -208.783111572266 2.659889221191
16.469791412354 -74.005661010742 -217.981338500977 1.582194089890
2.220964908600 -74.192619323730 -216.727203369141 3.966604948044
15.134943962097 -66.368972778320 -218.096176147461 2.770648241043
-2.211678981781 -71.263298034668 -223.795700073242 2.364164590836
-154.916046142578 -67.183570861816 -221.743026733398 2.326016664505
84.665412902832 -73.166351318359 -217.295913696289 2.148857831955
-131.336120605469 -65.190254211426 -220.853408813477 5.277455329895
-131.161560058594 -68.656517028809 -219.677597045898 5.041906833649
-4.547677040100 -70.020416259766 -222.133972167969 2.441276073456
12.408616065979 -69.351020812988 -230.778121948242 2.270267724991
-153.011993408203 -66.243499755859 -226.001663208008 2.293794155121
91.938827514648 -69.795867919922 -217.188980102539 1.937051653862
1.738891959190 -68.267929077148 -222.651809692383 2.881027936935
4.498373985291 -70.168907165527 -219.914215087891 3.039175987244
77.831382751465 -73.299667358398 -226.542327880859 1.751020908356
4.514982223511 -67.230140686035 -231.774505615234 2.191398382187
-10.876895904541 -71.027481079102 -224.052932739258 1.618621349335
-122.604698181152 -65.545143127441 -230.862121582031 2.228050708771
-0.409772008657 -68.998947143555 -233.809143066406 1.552511215210
6.364813804626 -67.317001342773 -228.892303466797 1.282375931740
69.904884338379 -68.684936523438 -235.400985717773 1.600218772888
-154.391784667969 -67.664382934570 -234.747222900391 1.415224194527
-8.650412559509 -68.501518249512 -241.599105834961 0.521170496941
-165.257492065430 -68.471839904785 -235.305938720703 0.819948375225
13.742741584778 -66.823623657227 -239.021957397461 3.822476148605
-160.719696044922 -67.062454223633 -235.477371215820 2.068783521652
-156.938522338867 -67.655418395996 -242.612213134766 2.542691946030
60.853931427002 -70.191879272461 -242.370437622070 1.034720420837
66.076553344727 -71.694412231445 -239.824081420898 0.818047702312
59.968261718750 -70.777351379395 -241.622940063477 1.720897078514
55.554054260254 -70.051216125488 -246.056228637695 0.682980835438
-151.603836059570 -67.178627014160 -240.569107055664 3.818644762039
-152.636749267578 -64.088272094727 -244.964645385742 3.718819856644
-9.582862854004 -71.731460571289 -246.369384765625 1.063006639481
-147.541931152344 -66.087928771973 -243.281066894531 2.734371185303
23.427928924561 -70.924362182617 -248.250625610352 2.162579774857
-165.984710693359 -70.604492187500 -247.633270263672 1.428726673126
-163.757156372070 -64.565429687500 -244.836242675781 3.940828084946
-78.344612121582 -69.112319946289 -245.668136596680 4.148768901825
-165.651229858398 -65.640380859375 -256.338836669922 5.052874565125
-81.601486206055 -67.180908203125 -253.474502563477 2.653992414474
46.326808929443 -69.091796875000 -250.327499389648 1.808787226677
25.976865768433 -72.770332336426 -253.366226196289 3.191977739334
-154.919311523438 -66.967948913574 -258.441040039063 2.662080287933
-96.968185424805 -61.915977478027 -256.291046142578 4.189076900482
43.016544342041 -70.053665161133 -252.871719360352 1.636033892632
-101.176971435547 -73.302818298340 -255.842346191406 0.869484305382
-150.275955200195 -62.095726013184 -261.476531982422 1.222167372704
-101.414390563965 -66.171813964844 -255.211166381836 1.881307363510
-164.110580444336 -67.945396423340 -256.221618652344 3.718856573105
-109.378776550293 -68.037765502930 -260.054107666016 1.095051288605
-149.576400756836 -68.315666198730 -262.378051757813 1.474888920784
-154.792266845703 -64.669082641602 -260.134063720703 1.167870998383
-162.290298461914 -65.442695617676 -260.328857421875 3.282073259354
-160.289184570313 -64.463668823242 -258.872314453125 3.749729394913
-161.972091674805 -66.070991516113 -262.297424316406 3.223766326904
-161.972167968750 -66.696624755859 -259.285156250000 1.841714978218
29.491184234619 -70.736022949219 -262.370269775391 1.283881068230
-146.144989013672 -69.574874877930 -260.327148437500 1.753910422325
-146.101348876953 -65.738189697266 -280.826812744141 1.023656725883
28.402486801147 -70.230659484863 -273.528411865234 4.992756366730
-7.997447967529 -70.389862060547 -271.477264404297 3.696594476700
-122.115570068359 -65.362800598145 -281.084869384766 6.742219924927
-132.702346801758 -67.357856750488 -282.764862060547 2.590795040131
-130.790084838867 -65.438819885254 -285.182495117188 2.184493303299
-123.202079772949 -67.150703430176 -282.610687255859 4.196124076843
-110.696098327637 -65.626213073730 -286.621551513672 3.687807083130
-101.612915039063 -63.663288116455 -282.281951904297 7.429638862610
12.873796463013 -71.718666076660 -289.537963867188 1.878786325455
-81.376640319824 -67.990104675293 -286.767028808594 2.631444931030
-145.478713989258 -66.800903320313 -284.987792968750 2.088811159134
-98.086425781250 -67.168357849121 -287.504394531250 2.461563110352
-125.588119506836 -64.071121215820 -288.559326171875 1.936507344246
13.188136100769 -71.470146179199 -285.256134033203 1.741603374481
-108.317985534668 -61.850173950195 -285.783813476563 6.226554870605
6.509337902069 -69.092231750488 -290.215698242188 2.345397710800
-139.557189941406 -65.827987670898 -285.450317382813 3.619303464890
-149.367095947266 -66.549797058105 -292.587860107422 1.367999315262
-154.460494995117 -65.348129272461 -310.751495361328 3.668826103210
-151.656143188477 -65.025566101074 -308.443328857422 2.211185455322
52.289382934570 -74.653633117676 -21.736745834351 4.710463523865
27.743778228760 -72.174377441406 -32.480110168457 0.925135791302
35.229873657227 -73.185974121094 -33.636894226074 3.685322523117
-40.529869079590 -72.552833557129 -44.284969329834 5.297936916351
-8.336641311646 -69.119338989258 -59.083709716797 3.769274234772
98.582511901855 -73.866386413574 -65.619132995605 6.922473907471
73.020858764648 -68.244422912598 -66.681419372559 1.604600787163
-19.924131393433 -70.467170715332 -71.246398925781 1.951235771179
-93.853713989258 -72.845848083496 -83.031211853027 0.913833260536
-38.262241363525 -70.141609191895 -79.338928222656 2.771438837051
65.782882690430 -71.226905822754 -78.538825988770 2.754364967346
66.388946533203 -74.235877990723 -83.087127685547 3.348517656326
57.715625762939 -69.509803771973 -84.624084472656 1.033125877380
-54.681812286377 -68.545478820801 -87.012504577637 3.964898109436
71.064643859863 -68.222663879395 -86.369926452637 4.512432575226
47.785953521729 -74.505645751953 -94.960029602051 1.290715575218
72.620376586914 -73.428100585938 -91.812660217285 1.271572828293
-58.053630828857 -67.692962646484 -92.702629089355 2.784887075424
54.292289733887 -73.350105285645 -90.259979248047 1.840939521790
49.820003509521 -72.976760864258 -95.448669433594 2.391352415085
107.522605895996 -69.673149108887 -97.725051879883 1.626715660095
-62.322349548340 -69.243240356445 -95.550155639648 3.206523418427
114.747215270996 -71.900344848633 -97.582595825195 6.658938407898
-74.891387939453 -71.062850952148 -97.764228820801 1.100508570671
58.594890594482 -73.953178405762 -102.064086914063 3.492765426636
52.180923461914 -69.632728576660 -97.721359252930 3.611469268799
95.995605468750 -70.340721130371 -100.955879211426 0.560674667358
88.646896362305 -70.425094604492 -103.758819580078 1.836383104324
58.943328857422 -71.300155639648 -101.595153808594 2.482301712036
-72.174102783203 -69.539947509766 -107.703208923340 2.446268081665
-72.680862426758 -68.112075805664 -111.540679931641 2.012467384338
-76.285499572754 -69.952110290527 -114.956398010254 2.210897684097
-89.142539978027 -73.134803771973 -115.072998046875 2.074250221252
109.071540832520 -67.183433532715 -113.629920959473 1.881509304047
-84.311195373535 -70.882232666016 -115.604713439941 2.618375062943
-72.514663696289 -65.269729614258 -117.815986633301 2.932008266449
113.664543151855 -70.959259033203 -113.212867736816 1.800503373146
-57.356838226318 -61.862415313721 -114.614433288574 1.863650202751
117.723670959473 -75.286087036133 -128.661895751953 3.114839553833
114.095237731934 -73.325469970703 -126.612205505371 0.855733633041
111.347076416016 -72.965698242188 -122.981063842773 2.303726434708
-89.382202148438 -68.703636169434 -134.312728881836 1.484248995781
-42.974761962891 -68.951576232910 -138.471450805664 3.434561729431
-75.058410644531 -66.437240600586 -141.036010742188 0.707498550415
-65.284301757813 -68.524070739746 -145.580825805664 4.050017833710
-66.194549560547 -67.160346984863 -144.520935058594 4.253559112549
-51.096965789795 -68.181427001953 -140.261825561523 2.005493640900
-42.954319000244 -72.562316894531 -142.705673217773 2.007130622864
20.429412841797 -70.124282836914 -143.258224487305 2.683694124222
-90.033348083496 -65.219322204590 -139.370086669922 2.305635452271
-41.641826629639 -67.569847106934 -143.926132202148 3.391939163208
