38.897224426270 -68.489402770996 -255.097869873047 2.109062671661
18.544015884399 -72.640487670898 -257.421905517578 4.364748001099
-162.497375488281 -70.070556640625 -257.938079833984 1.651401042938
-104.608779907227 -63.967140197754 -257.565734863281 3.074184417725
35.539901733398 -69.622520446777 -257.506286621094 2.140656471252
-108.601890563965 -75.389068603516 -256.484039306641 2.643723249435
-158.021163940430 -65.267852783203 -261.316131591797 3.020202398300
-108.949394226074 -68.241401672363 -256.174041748047 1.230428695679
-171.609420776367 -71.096122741699 -255.432220458984 3.786928176880
-117.001907348633 -70.460784912109 -260.712615966797 2.596092939377
-157.234909057617 -71.510414123535 -261.950073242188 1.888891100883
-162.454910278320 -67.850669860840 -259.737365722656 1.723112821579
-169.940567016602 -68.756324768066 -259.696777343750 2.807593345642
-167.920181274414 -67.678024291992 -258.340423583984 2.374976158142
-169.662246704102 -69.469650268555 -261.642303466797 1.677005648613
-169.573379516602 -69.955200195313 -258.605590820313 2.327308654785
21.787843704224 -70.967018127441 -266.600067138672 2.961156129837
-153.729843139648 -72.616508483887 -259.935760498047 2.971724033356
-154.284027099609 -69.731925964355 -280.583526611328 1.319730877876
20.402379989624 -70.996368408203 -277.736694335938 2.007647991180
-15.923842430115 -71.662292480469 -274.711791992188 2.831861972809
-130.323348999023 -68.972381591797 -281.497161865234 4.397181987762
-140.912933349609 -71.217765808105 -282.801513671875 2.576209068298
-139.098129272461 -69.381248474121 -285.354553222656 3.043855905533
-131.417037963867 -70.846664428711 -282.910003662109 2.469486951828
-119.047889709473 -69.302772521973 -287.318145751953 2.179551839828
-109.891853332520 -66.991325378418 -283.316436767578 5.342083930969
4.494019031525 -73.479820251465 -293.242065429688 0.894194722176
-89.704658508301 -71.185806274414 -288.135894775391 2.596512794495
-153.750350952148 -70.975532531738 -284.706573486328 1.410719513893
-106.439872741699 -70.675422668457 -288.464904785156 2.247056245804
-134.010253906250 -68.085388183594 -288.927825927734 1.950168490410
4.914441108704 -73.028350830078 -288.986022949219 2.580287933350
-116.716293334961 -65.453224182129 -286.717864990234 3.305637359619
-1.931421995163 -70.993125915527 -293.869659423828 2.472849369049
-147.860961914063 -69.927284240723 -285.370727539063 2.159823656082
-157.837677001953 -71.140548706055 -292.203948974609 1.619764685631
-163.419265747070 -70.864685058594 -310.261444091797 6.726588726044
-160.562362670898 -70.389389038086 -308.045989990234 4.132333278656
50.862514495850 -63.372661590576 -26.732158660889 2.810343980789
26.007368087769 -61.799121856689 -36.920337677002 2.950710535049
33.477840423584 -62.739238739014 -38.228519439697 1.633350491524
-42.531070709229 -63.851898193359 -46.873142242432 2.576061964035
-10.796984672546 -60.574813842773 -62.665679931641 1.873873949051
95.984977722168 -63.850753784180 -71.821769714355 4.477755546570
70.308692932129 -58.707313537598 -72.459365844727 4.728633403778
-22.669164657593 -62.675163269043 -74.440979003906 5.611469268799
-96.824752807617 -66.818328857422 -84.131523132324 1.194172143936
-41.213157653809 -63.027488708496 -82.048706054688 3.883793354034
62.820777893066 -62.354320526123 -83.970756530762 1.495243668556
63.362396240234 -65.560020446777 -88.390991210938 2.859956502914
54.569774627686 -61.054134368896 -89.911293029785 0.897556245327
-57.851268768311 -62.059680938721 -89.347358703613 3.650369644165
67.844284057617 -59.628601074219 -92.069122314453 2.257961273193
44.466522216797 -66.686187744141 -99.739463806152 0.380670130253
69.350952148438 -65.053787231445 -97.307212829590 3.039562463760
-61.383594512939 -61.527133941650 -94.978744506836 3.547035932541
51.070613861084 -65.207077026367 -95.272201538086 1.586420893669
46.459819793701 -65.148124694824 -100.351615905762 2.357643365860
104.016639709473 -60.999813079834 -104.312751770020 3.547811269760
-65.696296691895 -63.277820587158 -97.637588500977 1.464588046074
111.280899047852 -63.098281860352 -104.260871887207 5.194346904755
-78.284088134766 -65.405448913574 -99.430488586426 2.575045108795
55.076770782471 -66.284278869629 -107.146690368652 4.577178478241
48.701526641846 -61.874217987061 -102.837150573730 2.817742109299
92.423660278320 -62.006584167480 -107.201499938965 1.560020565987
85.007629394531 -62.341999053955 -109.800933837891 2.435049057007
55.390087127686 -63.607009887695 -106.809219360352 5.238194942474
-75.851989746094 -64.299179077148 -109.497634887695 0.909848392010
-76.482994079590 -63.058906555176 -113.381622314453 2.317543029785
-80.141487121582 -65.114303588867 -116.612266540527 1.662351608276
-92.938751220703 -68.511116027832 -116.240531921387 3.436799287796
105.109649658203 -59.223159790039 -120.350570678711 8.645921707153
-88.163482666016 -66.205978393555 -117.003341674805 1.093944430351
-76.529464721680 -60.507499694824 -119.782730102539 0.294530510902
109.778160095215 -62.899200439453 -119.883468627930 4.243348121643
-61.356803894043 -56.705615997314 -117.145401000977 1.024731993675
113.512847900391 -67.868278503418 -135.220718383789 1.813746929169
109.904365539551 -65.875205993652 -133.167068481445 3.528512954712
107.245010375977 -65.393356323242 -129.484329223633 2.432256221771
-93.754081726074 -64.979179382324 -135.649826049805 2.515249013901
-47.472507476807 -64.651939392090 -141.027191162109 2.053365468979
-79.651275634766 -62.789688110352 -142.848922729492 5.757496356964
-69.962387084961 -64.922622680664 -147.552062988281 2.940588474274
-70.868988037109 -63.526569366455 -146.531890869141 3.868728160858
-55.650650024414 -64.099807739258 -142.634033203125 1.610834479332
-47.497432708740 -68.453834533691 -145.090637207031 1.453011035919
15.797625541687 -64.996383666992 -147.442001342773 1.086213469505
-94.597412109375 -61.743751525879 -140.842346191406 2.341912269592
-46.305694580078 -63.502140045166 -146.573013305664 3.336299657822
-52.762344360352 -59.138992309570 -146.929046630859 7.863257408142
-42.911724090576 -63.386970520020 -154.257644653320 4.425437927246
26.489946365356 -67.534934997559 -163.162933349609 1.302466988564
-50.733661651611 -65.303573608398 -150.086914062500 2.773118734360
-101.068382263184 -60.958892822266 -147.267929077148 3.738084554672
-46.201248168945 -62.415279388428 -156.157958984375 5.793944358826
25.071954727173 -66.860260009766 -149.412399291992 1.571474552155
-99.558639526367 -70.044174194336 -160.569885253906 1.110659837723
21.804407119751 -67.265296936035 -158.806884765625 1.684025526047
-108.876495361328 -62.956871032715 -167.380142211914 2.255632638931
-102.114135742188 -65.621063232422 -161.301376342773 2.126874446869
21.075410842896 -65.366592407227 -166.138351440430 3.433103799820
24.981391906738 -63.986457824707 -169.215347290039 3.319989204407
-109.636184692383 -67.743789672852 -171.001342773438 2.716329097748
-143.429931640625 -63.697349548340 -171.134292602539 3.605507612228
-21.621702194214 -66.704948425293 -189.343460083008 1.215961575508
-28.992288589478 -65.257781982422 -181.470123291016 2.981899976730
-117.018447875977 -67.294197082520 -184.175903320313 4.452941894531
-145.467910766602 -61.836284637451 -183.600555419922 1.194261550903
-104.944465637207 -63.358833312988 -179.300048828125 2.763784885406
-159.785186767578 -66.345832824707 -186.545440673828 6.711809635162
-133.145263671875 -70.390686035156 -191.896545410156 3.836990594864
-135.150268554688 -68.266792297363 -192.867416381836 1.917942523956
-21.621076583862 -64.647979736328 -189.462539672852 2.484831571579
-122.315132141113 -67.033302307129 -195.093139648438 2.278909683228
-119.022911071777 -63.325634002686 -196.306320190430 3.952054023743
-28.848117828369 -68.362373352051 -194.284927368164 3.000108242035
-156.301239013672 -64.134963989258 -194.116638183594 2.533612728119
-134.402877807617 -68.473098754883 -201.565002441406 1.667912602425
-127.102325439453 -64.632438659668 -201.582046508789 2.178865432739
15.974084854126 -68.711769104004 -202.837493896484 1.211740612984
-164.112106323242 -66.040565490723 -199.142944335938 2.280630350113
8.690355300903 -66.302055358887 -216.180130004883 2.292640447617
11.416792869568 -68.243064880371 -215.601211547852 1.404480338097
-19.353240966797 -63.602199554443 -209.212585449219 4.252944946289
-7.594469070435 -67.407760620117 -216.785247802734 2.182370185852
-172.348388671875 -64.288475036621 -206.132583618164 6.286416053772
-161.490615844727 -63.638175964355 -209.093383789063 3.968883514404
-97.291976928711 -66.988365173340 -216.348220825195 2.176352500916
-101.328628540039 -68.827857971191 -220.490997314453 0.949786007404
-163.708694458008 -67.768333435059 -221.137924194336 1.463704109192
-109.097770690918 -65.437797546387 -216.917922973633 5.793145656586
-14.567285537720 -65.629440307617 -214.477325439453 2.035316705704
-130.129684448242 -68.844528198242 -219.227462768555 5.377537727356
-144.851715087891 -67.953758239746 -220.586227416992 0.658112645149
-5.826272010803 -68.843772888184 -221.743194580078 2.152004718781
-137.063034057617 -65.802711486816 -221.607299804688 4.746721744537
-126.464584350586 -71.111587524414 -220.152297973633 4.290595531464
-117.108840942383 -69.349517822266 -222.031661987305 3.445494890213
-2.570091009140 -63.107978820801 -228.877746582031 4.043909072876
-110.203010559082 -66.143959045410 -228.283874511719 2.342024564743
-163.146499633789 -62.218849182129 -219.155944824219 5.237104892731
-149.481552124023 -66.499458312988 -223.245330810547 2.299026012421
-168.175155639648 -66.731384277344 -221.076400756836 2.999483346939
-10.803728103638 -67.105590820313 -227.064544677734 0.812193334103
-11.443964004517 -67.965263366699 -232.906158447266 1.245031237602
75.588653564453 -69.835731506348 -228.233612060547 1.417657613754
-3.067414999008 -69.582664489746 -230.012466430664 1.657035350800
-146.071151733398 -67.522361755371 -232.740097045898 2.329875230789
-17.174976348877 -66.160430908203 -229.411773681641 4.024696826935
71.142318725586 -68.095390319824 -230.734420776367 1.609016418457
71.596054077148 -68.379028320313 -235.794174194336 2.136667490005
-137.566940307617 -66.220283508301 -229.300659179688 2.413591146469
-160.252410888672 -69.817802429199 -224.485397338867 2.338782787323
-117.204902648926 -66.337707519531 -230.354125976563 1.801715254784
-127.802772521973 -63.658348083496 -232.864456176758 1.521011352539
-166.744705200195 -66.355079650879 -230.884124755859 3.130710601807
-163.170471191406 -67.997810363770 -231.765029907227 1.582943916321
-149.764617919922 -64.099151611328 -230.744232177734 2.008270978928
-15.869933128357 -66.928489685059 -235.591461181641 4.341122627258
-8.466844558716 -67.460838317871 -240.921646118164 0.926692068577
-163.942703247070 -66.340431213379 -236.786361694336 1.507537484169
2.264380931854 -68.872154235840 -238.889648437500 1.825977563858
-0.313053011894 -68.679351806641 -237.282165527344 1.314280033112
-163.257369995117 -67.435379028320 -234.919952392578 1.595014691353
13.458064079285 -71.885581970215 -243.164138793945 1.489949107170
47.348628997803 -70.647537231445 -247.289535522461 1.538314580917
47.176601409912 -70.561630249023 -246.321426391602 2.222199678421
-19.445438385010 -69.342681884766 -247.020751953125 5.062770843506
44.648517608643 -67.386993408203 -251.137680053711 1.453677654266
-165.035781860352 -65.087936401367 -246.250823974609 3.142580986023
-162.596725463867 -68.242866516113 -243.560424804688 1.877850770950
-164.043777465820 -71.464813232422 -245.484100341797 3.019125461578
51.145748138428 -68.302719116211 -250.845565795898 1.678300023079
-95.898933410645 -67.238639831543 -250.798767089844 2.511091947556
-128.611602783203 -67.545036315918 -251.454727172852 3.414472579956
-109.585624694824 -72.254707336426 -251.099716186523 5.860536098480
22.690616607666 -72.382278442383 -258.622711181641 2.370558261871
37.599227905273 -66.684036254883 -252.969070434570 1.168414354324
-104.582351684570 -65.938194274902 -252.723617553711 4.062040328979
-97.346603393555 -64.378524780273 -249.685043334961 2.556967973709
41.609317779541 -72.368881225586 -256.211975097656 2.974456548691
38.323345184326 -67.251472473145 -258.512756347656 0.849795758724
-158.789001464844 -72.940956115723 -253.964538574219 3.642552375793
26.464773178101 -68.835807800293 -260.657348632813 0.937605142593
-146.993499755859 -71.467376708984 -260.709259033203 2.239625453949
-117.536872863770 -68.184265136719 -259.756439208984 1.451048851013
-141.095993041992 -67.536491394043 -259.232543945313 2.301474332809
27.123634338379 -68.669197082520 -264.198913574219 2.032841682434
-130.304473876953 -67.458442687988 -260.514129638672 3.791539669037
-15.250883102417 -67.533393859863 -258.377960205078 2.780673980713
17.159065246582 -72.290832519531 -272.055206298828 4.471035003662
-9.929510116577 -73.009803771973 -265.540618896484 4.547821998596
15.073341369629 -71.530502319336 -280.881561279297 2.805181264877
-157.991699218750 -71.075729370117 -278.537048339844 3.742820024490
-15.662314414978 -68.322494506836 -280.857971191406 5.472009181976
-157.847061157227 -72.674346923828 -278.548126220703 4.463639259338
-128.612243652344 -71.105674743652 -281.910003662109 3.949046134949
-165.332351684570 -75.081024169922 -281.995758056641 2.756700277328
-119.634582519531 -69.458358764648 -284.280426025391 4.281891822815
-109.422119140625 -69.944190979004 -287.029632568359 3.163099765778
-11.841192245483 -68.273208618164 -285.594879150391 4.253317356110
-113.279319763184 -70.917167663574 -286.535278320313 1.471997737885
-121.335868835449 -67.329086303711 -282.411529541016 5.415361404419
-125.306739807129 -66.805046081543 -288.735565185547 1.366688132286
-143.031890869141 -69.367401123047 -286.345336914063 2.141476392746
-131.264877319336 -67.425186157227 -288.434356689453 2.530438184738
-162.672561645508 -73.907814025879 -285.716094970703 1.865921616554
-151.913375854492 -67.900436401367 -289.110504150391 0.870761811733
-161.832168579102 -67.743988037109 -297.821014404297 5.541131973267
-159.771408081055 -68.738670349121 -307.122772216797 4.440346717834
-163.632873535156 -68.538551330566 -297.035949707031 5.522796154022
-147.352111816406 -71.302467346191 -306.938507080078 2.347357034683
-155.248199462891 -71.679702758789 -309.923889160156 2.092697620392
39.010070800781 -60.942493438721 -10.483931541443 3.838952064514
50.168308258057 -64.270515441895 -18.157592773438 2.859123945236
27.280588150024 -57.651962280273 -24.824554443359 3.622331380844
53.476905822754 -61.536853790283 -29.305812835693 3.316356182098
31.013637542725 -63.417404174805 -35.549755096436 1.811204671860
35.703235626221 -62.310684204102 -35.968456268311 1.481540799141
-55.201362609863 -57.366024017334 -46.372077941895 3.919143915176
81.930847167969 -58.366699218750 -64.063957214355 4.009181499481
83.046936035156 -63.122402191162 -69.605239868164 7.192430496216
-88.258422851563 -62.471359252930 -60.186214447021 4.795911312103
-10.525330543518 -59.258117675781 -61.642940521240 1.771064162254
-90.582962036133 -63.631587982178 -67.820442199707 5.489180088043
98.302680969238 -64.106376647949 -71.845939636230 2.213101387024
-11.809673309326 -59.013668060303 -68.129394531250 3.908936738968
69.215354919434 -64.971946716309 -81.073776245117 3.554577827454
-40.338748931885 -66.274169921875 -78.351013183594 1.601832866669
-25.501693725586 -65.630195617676 -75.315223693848 2.508925676346
57.584548950195 -59.482460021973 -88.345046997070 2.150606632233
-42.611080169678 -72.266632080078 -83.218666076660 0.904435217381
66.197807312012 -55.635707855225 -89.492813110352 1.433635950089
54.154514312744 -66.727722167969 -91.496406555176 1.936927676201
54.809730529785 -63.008464813232 -95.598686218262 0.991032958031
60.798824310303 -67.177352905273 -92.748062133789 2.740349531174
57.916782379150 -60.152107238770 -97.850982666016 2.944967031479
100.737968444824 -60.319587707520 -101.051376342773 2.394807338715
106.945983886719 -59.222946166992 -102.160766601563 4.361533641815
60.736774444580 -65.544281005859 -101.925544738770 4.971587181091
107.851982116699 -59.283641815186 -103.085006713867 5.369621276855
-75.909942626953 -62.326240539551 -97.408088684082 4.752230167389
-71.743789672852 -62.340656280518 -100.293479919434 2.022778272629
101.282081604004 -60.069435119629 -101.828430175781 2.417419195175
54.154689788818 -63.637733459473 -102.695877075195 3.791117668152
71.400650024414 -64.369232177734 -101.004089355469 2.650943994522
-71.715461730957 -63.062427520752 -105.617019653320 2.621015548706
-84.366195678711 -61.650283813477 -105.141014099121 2.913091659546
89.971061706543 -65.933158874512 -107.141693115234 1.663511157036
41.019886016846 -64.238723754883 -105.718559265137 3.289067029953
105.592620849609 -59.992767333984 -109.292419433594 6.409105300903
47.089004516602 -65.524978637695 -115.084297180176 3.807351589203
110.911628723145 -63.314144134521 -107.031639099121 4.745477676392
-78.045532226563 -62.542255401611 -109.141708374023 1.862868785858
105.184562683105 -59.298809051514 -112.036491394043 7.348039150238
-83.942237854004 -61.017837524414 -119.172599792480 0.340813577175
-58.449069976807 -65.837707519531 -127.054298400879 1.685371398926
-55.686050415039 -62.522342681885 -123.590667724609 1.589533090591
-72.411087036133 -64.943199157715 -128.105773925781 2.338197946548
-50.939373016357 -64.995674133301 -129.719589233398 1.441631674767
-84.067672729492 -65.243270874023 -130.730407714844 0.796743750572
-77.545501708984 -60.785003662109 -131.203186035156 2.621801376343
-80.570251464844 -63.712940216064 -128.930969238281 2.030400037766
-60.521625518799 -68.361923217773 -139.924514770508 0.412779122591
-71.894653320313 -63.737312316895 -138.895935058594 3.504686117172
-60.142585754395 -66.924812316895 -133.554779052734 2.003041267395
-58.923076629639 -64.327095031738 -140.437042236328 2.949481964111
16.316766738892 -60.894577026367 -144.697570800781 3.397980690002
-91.334274291992 -64.409713745117 -139.873367309570 1.824786186218
-48.168556213379 -67.806457519531 -145.460708618164 0.740067422390
-97.065986633301 -62.476016998291 -147.318252563477 1.297590613365
-101.464431762695 -62.003787994385 -146.716827392578 3.485659122467
18.382478713989 -66.383628845215 -154.530654907227 2.509649515152
13.155449867249 -65.966194152832 -158.768249511719 2.713065147400
-96.749076843262 -66.210494995117 -157.213714599609 1.083168387413
-104.240005493164 -64.521179199219 -151.529129028320 3.811375617981
-101.558044433594 -63.753852844238 -165.837844848633 3.533516883850
20.774425506592 -64.436874389648 -170.795486450195 1.877336144447
-111.838493347168 -64.762252807617 -169.886672973633 4.589703083038
21.503002166748 -65.100318908691 -167.366195678711 3.137873172760
-149.046798706055 -65.216979980469 -172.641723632813 2.223009824753
16.334384918213 -65.080307006836 -177.203414916992 4.079535007477
22.369209289551 -66.345558166504 -186.810974121094 2.237528324127
-154.078659057617 -64.163444519043 -182.639511108398 3.363435983658
19.912717819214 -66.057968139648 -177.245697021484 2.206137895584
17.490222930908 -60.107223510742 -181.418640136719 6.821582317352
-145.371124267578 -68.789566040039 -180.908859252930 2.103339195251
-153.708938598633 -63.250438690186 -185.338485717773 2.563496112823
18.050758361816 -65.768898010254 -189.161270141602 0.756749868393
16.560754776001 -67.408546447754 -190.550399780273 0.810186028481
-144.143707275391 -67.578208923340 -190.014968872070 3.104614734650
-111.144981384277 -66.287734985352 -194.925857543945 1.847254276276
21.700252532959 -66.599082946777 -199.421463012695 2.178733587265
-126.876281738281 -65.604919433594 -191.625091552734 5.053394317627
8.445148468018 -68.136764526367 -200.409317016602 1.411638259888
-132.203430175781 -61.038032531738 -191.214782714844 6.360262393951
-161.322982788086 -63.409091949463 -186.597808837891 8.944002151489
-163.577926635742 -65.176223754883 -192.574157714844 5.765051364899
-160.827499389648 -66.671859741211 -190.946502685547 4.594465732574
-22.561120986938 -66.199028015137 -204.313461303711 3.452963352203
-169.783065795898 -67.975296020508 -195.158035278320 6.786483287811
-28.489547729492 -62.816501617432 -192.355377197266 5.772259712219
-17.589883804321 -67.159240722656 -195.727233886719 0.895088315010
7.666479110718 -61.608070373535 -196.383636474609 7.172337532043
-160.122436523438 -66.006507873535 -199.816024780273 0.669365286827
-110.411201477051 -64.853309631348 -199.582366943359 1.730927467346
-19.799701690674 -63.227264404297 -201.570907592773 4.484857082367
-162.423110961914 -61.938732147217 -197.719848632813 5.188974380493
14.429430961609 -66.310249328613 -202.280715942383 2.611275911331
-171.178894042969 -64.066757202148 -200.743301391602 5.265067100525
-123.044830322266 -68.233436584473 -199.688949584961 2.551992654800
-117.855072021484 -63.619895935059 -204.503524780273 2.492698907852
-125.344551086426 -65.157836914063 -201.217605590820 2.687677621841
-17.189121246338 -65.330657958984 -203.536560058594 1.864589214325
-19.763435363770 -66.416877746582 -204.311538696289 2.192162275314
-166.851837158203 -65.526153564453 -206.562347412109 2.233703136444
-162.681304931641 -64.370132446289 -208.414245605469 2.488073587418
-167.645706176758 -66.867218017578 -215.313415527344 2.861123085022
-144.006729125977 -68.238853454590 -210.510177612305 1.861268877983
-147.719100952148 -66.789253234863 -220.219726562500 1.500617980957
-5.834870815277 -65.115119934082 -220.256240844727 2.414449691772
-12.330323219299 -69.942207336426 -216.866653442383 1.395669460297
-102.857154846191 -65.071357727051 -218.483703613281 4.070525646210
-10.018252372742 -65.727645874023 -232.328063964844 2.111988782883
-170.172668457031 -64.476028442383 -224.832107543945 4.562902450562
-109.984710693359 -64.963981628418 -229.783615112305 2.170100212097
-1.647102952003 -66.939323425293 -226.994003295898 1.651521801949
-0.325093001127 -65.995338439941 -230.300842285156 1.555976390839
-115.016593933105 -67.556030273438 -230.289550781250 2.286084175110
-4.590741157532 -67.660034179688 -229.030273437500 1.332856416702
-120.981819152832 -64.378067016602 -231.473327636719 1.745570540428
-10.983805656433 -64.379280090332 -233.334884643555 3.263921737671
-5.497345924377 -66.108192443848 -235.170211791992 1.161948442459
-4.953999996185 -66.875442504883 -237.944732666016 1.829106688499
68.301773071289 -64.565917968750 -238.795089721680 3.535548925400
-14.115519523621 -70.024757385254 -237.507919311523 1.896440744400
4.009963989258 -67.813552856445 -237.701263427734 0.808150947094
7.745453834534 -66.407882690430 -239.748062133789 0.841105043888
2.045277118683 -67.916687011719 -239.261123657227 1.172152638435
-0.886312007904 -68.750442504883 -241.429168701172 1.806155920029
60.771377563477 -63.464382171631 -240.740692138672 3.678348302841
65.514320373535 -64.592514038086 -242.502792358398 2.635867595673
4.722192764282 -67.313796997070 -247.430114746094 3.503873825073
50.552215576172 -68.357322692871 -243.934417724609 1.267712116241
52.125537872314 -70.892715454102 -242.348098754883 1.460698843002
43.276748657227 -64.632774353027 -251.024719238281 1.368623018265
37.555004119873 -65.669082641602 -252.753646850586 1.540039777756
36.802482604980 -66.820823669434 -257.820556640625 1.408075451851
-135.799728393555 -64.077239990234 -254.655792236328 2.682873010635
-14.101499557495 -67.134132385254 -250.026199340820 1.952533721924
24.409482955933 -66.750640869141 -259.116455078125 1.578596949577
41.366943359375 -66.725929260254 -249.613464355469 1.751825690269
23.537513732910 -70.043006896973 -254.803283691406 0.943382740021
-106.862602233887 -69.321578979492 -256.151336669922 1.587893247604
27.330295562744 -68.616348266602 -257.331787109375 0.661544680595
-151.170455932617 -69.696609497070 -257.105041503906 2.380407333374
-120.300193786621 -69.079612731934 -253.874099731445 3.577232360840
-112.800186157227 -67.568466186523 -255.191131591797 2.095020055771
-7.562389850616 -69.807861328125 -259.112823486328 2.468093872070
-154.383056640625 -68.951622009277 -253.448104858398 1.434872031212
31.176265716553 -67.764915466309 -263.054748535156 1.627606868744
-113.692146301270 -66.449707031250 -253.961700439453 3.433085918427
22.144390106201 -71.103118896484 -260.053192138672 3.072993516922
-139.060974121094 -69.463142395020 -259.288269042969 3.566956043243
-120.665016174316 -67.014671325684 -261.138458251953 3.019166707993
-113.635536193848 -67.171875000000 -258.600372314453 1.545608997345
-119.081756591797 -71.837074279785 -258.451690673828 1.952902674675
-143.983627319336 -69.112350463867 -254.241882324219 1.369135737419
24.931182861328 -68.348915100098 -261.208007812500 1.756886839867
-121.515022277832 -66.602340698242 -260.106536865234 4.117462635040
-148.483856201172 -69.375595092773 -259.766967773438 0.984353721142
-9.470475196838 -66.323677062988 -270.914642333984 2.813452720642
-155.437088012695 -70.789855957031 -277.187713623047 3.307449340820
-13.203506469727 -69.417808532715 -286.215332031250 3.696530342102
-10.141459465027 -66.513832092285 -283.057952880859 3.117735624313
-139.209777832031 -68.471611022949 -284.297637939453 3.166399955750
-132.516921997070 -69.172737121582 -287.195312500000 1.210218071938
-140.751449584961 -68.881668090820 -290.513305664063 1.031672120094
-131.597564697266 -67.733200073242 -288.612182617188 2.150845527649
-159.935623168945 -69.464370727539 -290.461303710938 0.580668568611
-161.399307250977 -69.511650085449 -296.146026611328 3.502278566360
-153.133453369141 -72.278854370117 -297.065765380859 0.913812875748
-155.120605468750 -70.007125854492 -299.448272705078 1.778558254242
-150.318557739258 -69.067077636719 -295.379943847656 0.700186073780
-154.857971191406 -68.548690795898 -300.401184082031 1.061589121819
-151.931732177734 -67.592193603516 -311.125274658203 1.921659588814
22.356441497803 -62.925731658936 -28.376779556274 3.783270359039
52.008163452148 -63.141410827637 -37.594444274902 5.562026023865
28.072986602783 -65.854995727539 -38.709632873535 1.781879067421
34.933216094971 -61.623855590820 -43.869266510010 2.970738649368
-40.262615203857 -55.257919311523 -47.366004943848 1.337863445282
-74.294380187988 -58.336200714111 -48.943408966064 3.789521932602
82.275482177734 -59.935619354248 -64.245742797852 4.094372749329
76.434768676758 -61.394313812256 -64.840316772461 4.471992492676
73.329040527344 -62.571678161621 -68.672821044922 4.128146648407
-97.709388732910 -60.761768341064 -70.422286987305 1.951884984970
100.760490417480 -64.527900695801 -78.921615600586 3.120081186295
-29.212997436523 -62.377376556396 -82.175132751465 6.513717651367
64.509681701660 -59.846267700195 -78.797637939453 1.450104236603
-41.939281463623 -58.377510070801 -82.012626647949 2.502200603485
-52.696132659912 -59.118640899658 -81.656051635742 2.848682880402
51.814815521240 -62.740196228027 -92.307304382324 1.714995503426
103.311866760254 -61.267261505127 -93.784004211426 0.918054819107
64.976463317871 -59.742053985596 -96.083480834961 1.481907010078
57.693973541260 -60.360061645508 -95.004211425781 2.484936714172
49.344924926758 -59.667091369629 -103.327384948730 2.704274415970
57.313285827637 -58.675041198730 -102.541160583496 1.534289479256
103.869445800781 -60.126091003418 -101.266677856445 1.665889978409
70.301132202148 -61.563270568848 -108.723175048828 3.458048820496
50.707839965820 -61.907260894775 -107.609809875488 2.988016843796
77.117080688477 -66.644233703613 -109.408767700195 2.366352796555
96.091156005859 -58.995216369629 -111.116752624512 2.363304615021
-74.552223205566 -59.959609985352 -99.994880676270 1.821166872978
-86.366546630859 -62.673046112061 -108.196464538574 3.464897394180
-81.847732543945 -62.951858520508 -110.889793395996 0.757743000984
-59.984119415283 -61.473812103271 -117.426818847656 1.212934851646
-57.208591461182 -65.963356018066 -124.703567504883 1.238767027855
-94.530036926270 -62.038524627686 -119.546371459961 3.487767219543
-74.944488525391 -63.695243835449 -117.731140136719 2.105911731720
-76.931427001953 -66.128013610840 -130.489013671875 2.177470445633
-60.986530303955 -60.467327117920 -127.110801696777 2.800621747971
-88.744041442871 -59.384449005127 -128.460433959961 4.609619140625
-89.934448242188 -62.085697174072 -128.016586303711 3.294564723969
-48.481060028076 -66.413795471191 -134.262634277344 2.081675529480
-51.828319549561 -63.614307403564 -135.591552734375 0.754850566387
-77.680007934570 -64.597549438477 -136.673767089844 1.676793098450
-54.460380554199 -64.809494018555 -140.368118286133 1.372125506401
-74.948387145996 -66.038299560547 -142.046218872070 1.028722763062
20.692770004272 -60.995780944824 -139.826248168945 1.155827522278
-58.039890289307 -67.002517700195 -143.464599609375 1.349416494370
-55.637359619141 -60.533302307129 -144.539413452148 5.155772686005
8.279876708984 -66.660415649414 -155.669082641602 2.367022037506
15.930302619934 -61.972446441650 -151.992324829102 1.487417697906
-143.725860595703 -64.619049072266 -170.535980224609 3.971439123154
-111.872520446777 -63.615261077881 -175.429916381836 2.245834350586
-111.535232543945 -61.784519195557 -187.116455078125 2.822086334229
-154.441696166992 -66.499809265137 -187.482681274414 1.471330404282
-114.780067443848 -63.992473602295 -182.950317382813 3.444122791290
-154.100143432617 -61.419620513916 -192.459014892578 2.555004596710
-116.238151550293 -63.828571319580 -195.748275756836 1.639947056770
-152.436981201172 -62.866302490234 -196.591171264648 1.688780546188
-152.861221313477 -65.469261169434 -202.406738281250 2.855290889740
-155.274627685547 -69.001564025879 -203.886810302734 2.375611305237
-150.643737792969 -65.789909362793 -220.108612060547 2.054930925369
-153.150573730469 -68.727699279785 -221.315231323242 1.700320959091
-107.947723388672 -64.074356079102 -223.500549316406 1.802951455116
-104.681541442871 -65.785881042480 -219.942092895508 3.472790241241
-126.315872192383 -62.184375762939 -227.524475097656 2.390945672989
-110.956924438477 -65.518013000488 -223.460540771484 1.718973517418
-159.467422485352 -67.300239562988 -226.540740966797 0.652074456215
-5.846889972687 -65.710517883301 -226.277587890625 2.174177408218
-136.860839843750 -67.942756652832 -227.299499511719 2.372832298279
-156.536300659180 -67.604431152344 -231.145614624023 1.885051846504
-140.023864746094 -68.611190795898 -229.663879394531 3.861101865768
-14.452709197998 -65.704269409180 -236.083755493164 3.704805135727
5.442144870758 -66.973159790039 -243.586257934570 3.109186410904
59.506233215332 -62.787738800049 -242.925643920898 2.550030231476
14.682296752930 -69.822082519531 -249.292846679688 3.363738298416
52.550991058350 -66.283805847168 -245.522109985352 1.043117880821
37.626308441162 -68.512283325195 -251.012847900391 1.590259790421
55.161243438721 -64.732299804688 -253.583648681641 3.969226121902
-156.037307739258 -66.903327941895 -246.323074340820 3.022042274475
-153.142257690430 -70.545738220215 -250.393524169922 2.895286321640
38.962623596191 -65.989356994629 -258.294769287109 1.298259019852
25.608467102051 -66.785568237305 -256.814147949219 1.380491256714
44.011833190918 -64.837013244629 -254.389785766602 0.755061388016
-148.628509521484 -69.961143493652 -255.692184448242 2.915805101395
-140.121643066406 -65.574432373047 -251.851745605469 3.746446371078
-128.737838745117 -64.998123168945 -254.801971435547 2.719367265701
-137.765472412109 -67.347648620605 -252.594345092773 3.791401386261
-144.649475097656 -67.839645385742 -254.262710571289 1.068583846092
-127.541709899902 -66.507659912109 -256.330505371094 1.792560100555
-146.649093627930 -65.680572509766 -256.645935058594 2.738953590393
-130.136672973633 -68.872428894043 -256.196929931641 1.850417017937
-126.431755065918 -67.514282226563 -261.255706787109 1.944790840149
-131.604965209961 -67.931434631348 -261.518341064453 3.375236988068
-124.449531555176 -64.421440124512 -261.077545166016 0.655034542084
-9.359389305115 -67.871345520020 -266.112792968750 2.323206901550
23.966239929199 -64.906051635742 -263.238861083984 2.112121105194
-150.336746215820 -63.978416442871 -263.228759765625 1.389834403992
21.995349884033 -67.884147644043 -270.081970214844 2.463412284851
-9.253648757935 -63.618213653564 -274.651947021484 4.856331825256
12.424145698547 -73.299110412598 -284.089172363281 0.638722598553
-146.393264770508 -68.753456115723 -285.459533691406 1.924839854240
-130.177810668945 -69.298179626465 -284.007354736328 3.258768320084
-137.070877075195 -64.692352294922 -287.015350341797 3.702202796936
-163.379837036133 -64.456069946289 -287.910522460938 4.823544979095
-130.859817504883 -63.934032440186 -286.204925537109 2.980330944061
-122.904418945313 -66.214393615723 -286.258819580078 2.002817869186
-130.587310791016 -70.152931213379 -292.365905761719 2.090866804123
-155.798278808594 -70.923622131348 -289.565216064453 0.970599651337
31.456747055054 -62.442001342773 -13.580557823181 1.537340521812
34.526584625244 -63.218952178955 -18.606838226318 1.676372408867
40.947727203369 -59.928604125977 -21.386655807495 1.581623196602
50.925128936768 -54.299350738525 -25.562705993652 3.595597267151
30.134225845337 -64.615699768066 -28.968334197998 4.005414962769
22.961671829224 -63.136932373047 -35.379562377930 2.253012418747
-32.112701416016 -60.134410858154 -45.826442718506 2.270062446594
-80.328643798828 -61.248115539551 -51.221252441406 3.772520542145
-14.574579238892 -59.826030731201 -58.604351043701 4.414690017700
74.378585815430 -58.525264739990 -67.335212707520 6.720778465271
103.239799499512 -59.523475646973 -71.974510192871 1.525696873665
65.810317993164 -59.253398895264 -85.248466491699 3.120642662048
62.416545867920 -56.214542388916 -85.426795959473 1.922902941704
101.306198120117 -60.703819274902 -87.634346008301 3.954368591309
-63.178806304932 -58.472930908203 -89.273864746094 1.488178253174
-64.541130065918 -60.774684906006 -89.826507568359 2.239253282547
50.417800903320 -58.952190399170 -95.238471984863 4.256364345551
-66.451591491699 -62.387435913086 -94.464523315430 0.704061746597
-70.940170288086 -60.865783691406 -99.259002685547 1.881039142609
-96.050323486328 -59.978656768799 -97.596275329590 3.736942052841
-75.144989013672 -57.944137573242 -98.546661376953 3.335071325302
47.413326263428 -58.162124633789 -103.475997924805 3.908158063889
-66.973457336426 -63.114448547363 -101.889366149902 0.907001495361
49.982429504395 -59.155246734619 -104.929458618164 1.145252823830
96.625961303711 -60.870079040527 -107.819557189941 1.072606801987
91.046447753906 -61.132072448730 -114.190063476563 5.973735809326
-72.697898864746 -61.121070861816 -112.862632751465 0.547489345074
-84.266738891602 -62.255706787109 -110.495353698730 1.932075619698
-61.840526580811 -61.455017089844 -117.850135803223 1.903663039207
-96.158782958984 -58.270294189453 -117.008872985840 2.333457708359
-76.873252868652 -63.583164215088 -125.477493286133 2.147476673126
-93.580993652344 -55.752220153809 -123.375556945801 2.172190189362
-63.269714355469 -59.812194824219 -116.659729003906 3.316196918488
-60.239349365234 -56.136440277100 -119.388938903809 1.590456724167
-88.937797546387 -62.332103729248 -127.500785827637 2.353646039963
-63.468452453613 -64.855560302734 -125.975898742676 1.264547228813
-84.477531433105 -60.995056152344 -130.610183715820 3.424657344818
-79.920379638672 -62.722038269043 -132.062149047852 2.669576168060
-62.501720428467 -65.385162353516 -133.083343505859 1.759869456291
-61.287124633789 -58.424304962158 -133.464050292969 0.771269559860
-55.139225006104 -57.454288482666 -134.540908813477 2.862640380859
-96.649536132813 -59.522399902344 -130.178298950195 6.997526168823
-97.670227050781 -59.805660247803 -141.941406250000 5.013670444489
-88.911094665527 -62.283817291260 -132.913711547852 2.340036392212
19.797904968262 -64.621482849121 -149.390457153320 1.239025831223
-50.542793273926 -62.817291259766 -140.845321655273 2.970476150513
17.132341384888 -62.232055664063 -151.152313232422 1.007738947868
-99.382316589355 -63.568870544434 -162.175811767578 1.617405533791
-104.299514770508 -67.194686889648 -168.801940917969 2.098777770996
-103.873092651367 -60.158100128174 -168.976898193359 2.784823656082
-109.267677307129 -58.675529479980 -168.910476684570 5.736839771271
-109.129074096680 -64.130882263184 -176.959930419922 2.068502902985
-112.166915893555 -63.093200683594 -175.679504394531 2.547435283661
-143.953140258789 -62.239002227783 -183.565689086914 1.704221367836
-113.736297607422 -62.486400604248 -183.821243286133 4.374689579010
-135.881790161133 -61.379192352295 -196.454757690430 3.739625930786
-151.406478881836 -66.030929565430 -194.580551147461 0.590454101563
-128.574050903320 -64.315208435059 -194.929122924805 3.102521896362
-158.903228759766 -65.736869812012 -192.499450683594 3.349353790283
-149.444290161133 -67.294494628906 -198.226654052734 0.926415503025
-127.336601257324 -59.721511840820 -195.918197631836 4.095018386841
-136.757537841797 -63.169853210449 -198.168807983398 3.973636865616
-143.840637207031 -69.011192321777 -202.784545898438 1.569588303566
-134.910064697266 -67.217910766602 -220.169967651367 4.054259777069
-113.568435668945 -66.735916137695 -226.852539062500 1.468557357788
-147.014724731445 -66.122444152832 -224.725219726563 2.267854213715
-121.768318176270 -63.754493713379 -228.271057128906 1.365006685257
-118.803543090820 -61.413845062256 -228.248214721680 4.210891723633
-125.865348815918 -66.171417236328 -230.125579833984 1.491983771324
-133.843536376953 -65.344726562500 -231.217453002930 0.738653779030
-118.907073974609 -62.706798553467 -233.816604614258 1.946474552155
1.212174057961 -64.551338195801 -236.308029174805 1.622996807098
-155.236373901367 -67.180778503418 -233.860000610352 1.688981056213
3.287010908127 -66.352157592773 -235.560775756836 0.771360337734
2.078950881958 -62.431972503662 -242.789199829102 1.320433855057
-1.496034026146 -67.339744567871 -241.667022705078 1.089351296425
10.634332656860 -62.341823577881 -241.614776611328 2.303275108337
-147.643997192383 -63.933803558350 -231.696762084961 1.501320600510
-8.577693939209 -66.906005859375 -247.320892333984 0.960510253906
16.052677154541 -65.156234741211 -242.191207885742 1.034263610840
45.995315551758 -64.104118347168 -251.477783203125 1.863277673721
47.027008056641 -64.277030944824 -252.125686645508 1.856966257095
-150.481231689453 -67.706993103027 -248.743438720703 2.067381381989
-9.536045074463 -66.686851501465 -251.712158203125 1.463433146477
19.006423950195 -66.624496459961 -256.816558837891 3.757274627686
-136.287017822266 -61.437255859375 -255.381179809570 4.326882839203
-128.039688110352 -64.643585205078 -255.680801391602 2.172998189926
-128.694503784180 -66.911331176758 -255.044738769531 2.378239393234
22.537485122681 -65.793647766113 -259.979553222656 3.185086250305
-138.118591308594 -64.350891113281 -262.393615722656 3.219889163971
26.626823425293 -64.144599914551 -261.917938232422 0.795043468475
28.473314285278 -66.349700927734 -264.741424560547 0.831208586693
-157.207214355469 -68.571205139160 -263.207336425781 0.502519607544
-151.484573364258 -72.359840393066 -283.177856445313 2.312961101532
-154.429550170898 -64.222274780273 -284.424468994141 0.692363083363
-149.004577636719 -65.294967651367 -290.805145263672 1.562548398972
7.049240112305 -70.268478393555 -292.844085693359 2.312244653702
-159.703613281250 -65.626937866211 -296.213195800781 5.411167621613
48.434581756592 -62.901760101318 -27.943189620972 1.789184451103
37.648777008057 -64.741333007813 -41.678710937500 1.387359976768
-59.303794860840 -56.504615783691 -45.116161346436 1.377660036087
-70.207084655762 -56.573959350586 -45.360290527344 2.593629837036
-25.178560256958 -56.710147857666 -50.675270080566 1.751130580902
-20.362480163574 -61.919223785400 -54.525474548340 3.998305559158
-10.046427726746 -55.916706085205 -67.268508911133 4.572248935699
-25.122234344482 -56.075717926025 -69.940071105957 6.867733478546
66.022979736328 -59.219326019287 -76.381553649902 1.306044936180
-95.855682373047 -54.698379516602 -76.948097229004 4.757360935211
-45.640289306641 -60.162128448486 -85.677352905273 4.170880794525
55.400959014893 -60.931804656982 -88.140045166016 0.874288737774
59.398044586182 -59.858112335205 -88.898170471191 1.583040237427
62.930683135986 -60.438125610352 -91.287933349609 2.306859016418
106.862236022949 -59.063488006592 -94.566040039063 3.270622730255
52.834865570068 -57.373275756836 -93.169158935547 3.344339132309
99.244338989258 -55.961933135986 -103.978691101074 2.018097400665
-81.687828063965 -62.182647705078 -101.651542663574 3.682214975357
-93.785980224609 -60.385345458984 -99.954185485840 5.732529163361
75.244171142578 -57.364189147949 -114.981445312500 6.894767284393
-77.263145446777 -59.758628845215 -102.386337280273 2.365947484970
-77.766853332520 -64.583175659180 -113.200073242188 2.020092010498
-84.147308349609 -65.106849670410 -117.244285583496 0.752834200859
-55.720413208008 -62.199859619141 -125.782676696777 1.193810582161
-77.926162719727 -61.477443695068 -127.413192749023 1.117800712585
-63.029647827148 -58.312686920166 -128.703399658203 0.576353073120
-84.519577026367 -62.940643310547 -133.355163574219 3.278652191162
-76.490577697754 -60.123920440674 -131.737899780273 3.662545442581
-80.128059387207 -58.123535156250 -124.055297851563 2.419875621796
-89.200080871582 -59.580883026123 -128.695144653320 4.657469272614
-66.243751525879 -58.676059722900 -133.426757812500 4.506466865540
-91.108589172363 -60.981437683105 -131.076293945313 4.777442932129
-50.606033325195 -63.013378143311 -132.808502197266 1.716580033302
-56.409812927246 -65.526054382324 -138.189651489258 0.920066356659
27.029808044434 -61.366764068604 -141.150222778320 3.217881917953
-57.596767425537 -56.189071655273 -136.388549804688 3.034401178360
14.415372848511 -65.211647033691 -145.182739257813 2.260275363922
15.459079742432 -60.708824157715 -149.429656982422 3.186199426651
16.630735397339 -58.560836791992 -154.845199584961 4.283367156982
-98.837387084961 -60.250347137451 -143.320648193359 5.659977436066
-92.334373474121 -62.017498016357 -148.311843872070 2.169268608093
-97.265197753906 -58.572807312012 -149.474365234375 4.273943901062
-106.133186340332 -62.420448303223 -159.133697509766 3.424813985825
-98.849388122559 -60.933559417725 -157.320739746094 2.602818012238
-153.650421142578 -62.750102996826 -172.046295166016 4.134215354919
-155.496688842773 -62.865295410156 -172.363449096680 4.731231689453
-112.292457580566 -60.899204254150 -179.458572387695 3.229199647903
-143.651138305664 -60.683029174805 -174.501632690430 3.650770902634
-111.868476867676 -59.777793884277 -179.112655639648 3.562942028046
-151.781494140625 -57.284099578857 -183.928939819336 5.393767833710
-113.719017028809 -60.236412048340 -190.017440795898 4.291734218597
-112.252296447754 -63.089237213135 -181.562057495117 3.043347358704
-146.372863769531 -63.037528991699 -195.682144165039 1.951788663864
-132.563827514648 -64.502273559570 -193.825225830078 2.286477327347
-109.539421081543 -63.423526763916 -195.511062622070 2.472736358643
-118.369216918945 -58.678627014160 -196.625061035156 4.975416183472
-115.318367004395 -63.962860107422 -197.982360839844 0.939725220203
-118.536621093750 -59.669918060303 -200.316375732422 3.900762796402
-136.571243286133 -60.886695861816 -194.649002075195 4.837648391724
-140.846115112305 -63.181823730469 -199.736236572266 1.955118417740
-133.588409423828 -62.152656555176 -204.198486328125 1.816853642464
-129.945739746094 -58.818496704102 -198.645935058594 3.246972560883
-126.975044250488 -62.203670501709 -202.218704223633 1.805008292198
-116.294960021973 -62.432254791260 -202.314987182617 1.386664271355
-150.835205078125 -63.027301788330 -210.612243652344 1.663886547089
-154.990234375000 -63.754577636719 -216.585006713867 4.821094512939
-156.076293945313 -62.797409057617 -219.084930419922 4.807396888733
-143.463378906250 -68.497543334961 -221.949905395508 0.694187939167
-135.230163574219 -60.565399169922 -224.359222412109 4.933730602264
-125.338951110840 -65.637130737305 -217.741928100586 7.336596012115
-144.042755126953 -65.901939392090 -225.742568969727 2.459952831268
-154.315063476563 -66.056022644043 -222.665267944336 3.051000118256
-137.222442626953 -65.018844604492 -223.325759887695 4.001524925232
-136.716552734375 -61.439579010010 -225.578063964844 4.008432865143
-150.906158447266 -64.513626098633 -226.054183959961 2.189140081406
-138.124496459961 -59.028167724609 -226.976501464844 4.910734653473
-130.951568603516 -62.805717468262 -227.896102905273 2.149274587631
-14.056155204773 -66.587486267090 -237.302810668945 2.263385295868
1.316462993622 -63.226505279541 -241.523635864258 2.095315933228
9.996969223022 -60.399921417236 -244.221130371094 2.550828695297
5.795279979706 -66.891960144043 -244.595764160156 2.244644641876
-11.976385116577 -66.618331909180 -240.422576904297 0.863032102585
-16.121086120605 -65.050140380859 -247.140884399414 4.144383907318
34.112052917480 -63.237731933594 -252.151687622070 3.736130952835
43.875675201416 -64.431335449219 -254.962799072266 0.740012168884
-149.950744628906 -63.565769195557 -250.821090698242 1.726593494415
37.951465606689 -63.155261993408 -256.899749755859 2.046187162399
34.394214630127 -65.661170959473 -255.204269409180 1.348228573799
-162.557128906250 -68.245689392090 -253.497146606445 2.725768327713
-154.943634033203 -64.500350952148 -253.834732055664 1.317689061165
-154.919281005859 -68.177993774414 -255.719848632813 1.726809978485
-1.690296053886 -66.176467895508 -264.279510498047 1.908857345581
-155.319061279297 -65.840263366699 -263.111145019531 2.268229722977
-5.051539897919 -65.834556579590 -274.933959960938 2.888687610626
-151.030380249023 -67.893745422363 -271.242675781250 3.626224279404
-152.680099487305 -66.063995361328 -278.079559326172 3.114334583282
-156.040695190430 -65.872535705566 -281.445922851563 3.238105773926
-154.783752441406 -59.965076446533 -280.196746826172 5.382562160492
-150.315765380859 -64.605178833008 -285.969573974609 1.386891722679
-160.296051025391 -65.147758483887 -281.570190429688 4.678459167480
-156.162551879883 -65.884796142578 -282.547180175781 2.799108028412
-156.699951171875 -63.721618652344 -283.990661621094 2.259845018387
-152.586135864258 -65.377601623535 -283.946899414063 1.078732728958
-149.020645141602 -65.446983337402 -283.813720703125 2.021200656891
6.450417995453 -67.158378601074 -286.075988769531 4.678627967834
-152.097839355469 -65.674232482910 -289.794494628906 1.786968231201
-162.234695434570 -62.823863983154 -287.814575195313 5.696125984192
-160.340759277344 -61.649230957031 -285.043090820313 4.455967426300
-155.852905273438 -64.174942016602 -289.743713378906 1.404844164848
-153.934860229492 -60.580650329590 -285.872161865234 1.725527763367
-151.801971435547 -67.355094909668 -288.379730224609 0.958534717560
-1.134124040604 -67.577865600586 -293.181335449219 1.184556245804
-149.407135009766 -64.058670043945 -291.020996093750 1.555224180222
-153.080612182617 -63.052425384521 -289.949493408203 1.653370738029
31.830013275146 -51.025856018066 -18.530591964722 2.624728441238
44.994884490967 -61.526237487793 -22.420322418213 2.136269569397
45.364936828613 -54.273315429688 -23.761114120483 3.582988023758
20.280445098877 -62.328178405762 -32.739727020264 2.451625347137
28.965204238892 -49.628807067871 -37.046741485596 1.829101443291
39.860157012939 -59.199211120605 -37.824401855469 2.949860572815
-54.517864227295 -55.771835327148 -43.696613311768 3.060479640961
-48.663146972656 -56.985931396484 -41.545089721680 3.994808912277
91.367012023926 -58.352073669434 -67.724304199219 6.694406509399
-94.268508911133 -56.259452819824 -63.549991607666 4.652165412903
97.818786621094 -65.461158752441 -66.204040527344 1.176847338676
69.279174804688 -59.412918090820 -72.642921447754 3.671296834946
101.619125366211 -60.527370452881 -81.376617431641 4.089507102966
