106.893310546875 -73.869026184082 -185.948623657227 2.029180049896
-44.532909393311 -75.169685363770 -196.669204711914 1.550346136093
-23.238082885742 -80.300872802734 -198.347640991211 2.917469739914
-148.049148559570 -79.454055786133 -200.180877685547 2.401586532593
-25.131546020508 -75.737327575684 -197.145553588867 0.875913500786
-157.538391113281 -76.412643432617 -198.196731567383 2.965545177460
-152.861297607422 -80.878067016602 -204.387710571289 2.629985570908
-143.325759887695 -77.379158020020 -202.134933471680 1.980059385300
-38.534229278564 -75.790603637695 -200.106216430664 1.361581802368
101.100593566895 -75.598632812500 -201.991287231445 1.992560386658
-41.108264923096 -73.474464416504 -199.943695068359 2.246036767960
-143.386703491211 -78.752235412598 -205.255737304688 1.007816076279
-37.958496093750 -72.091377258301 -205.963653564453 1.943628668785
-20.852361679077 -78.959907531738 -210.253067016602 4.264942646027
96.929008483887 -76.589653015137 -205.539825439453 2.307601690292
91.193267822266 -75.707870483398 -213.576904296875 1.060857176781
-34.552497863770 -73.548355102539 -217.377548217773 3.867956876755
-87.598121643066 -76.145072937012 -211.257171630859 1.664940595627
-75.813812255859 -75.699943542480 -211.978393554688 1.341199994087
-18.793447494507 -75.128059387207 -214.022171020508 2.834112405777
-149.970809936523 -76.337722778320 -206.135284423828 1.922045350075
90.082374572754 -74.790885925293 -213.757080078125 1.421418190002
88.802871704102 -72.974487304688 -218.476593017578 1.175501346588
90.068191528320 -74.679870605469 -220.377777099609 1.650583028793
-102.422363281250 -75.019584655762 -220.490798950195 2.342689514160
-153.190750122070 -77.533653259277 -222.301986694336 3.005523681641
-20.153324127197 -73.677902221680 -222.882965087891 1.685058832169
79.773056030273 -72.336608886719 -226.280822753906 1.511069297791
-149.774551391602 -78.412727355957 -224.296127319336 1.611572861671
-28.174270629883 -76.008094787598 -219.265914916992 1.784838676453
-133.654174804688 -73.524711608887 -231.533447265625 1.516179800034
-11.983892440796 -76.970527648926 -230.304428100586 1.532411217690
17.319440841675 -74.076690673828 -226.308639526367 0.568001866341
19.514141082764 -75.451004028320 -233.009490966797 1.707939863205
-154.982086181641 -78.008316040039 -234.560882568359 3.293251752853
-126.067192077637 -71.836341857910 -232.975112915039 2.006931543350
-8.386779785156 -73.914100646973 -235.480880737305 1.785304784775
-0.112476997077 -73.859230041504 -237.487411499023 0.086996302009
69.026062011719 -74.188262939453 -233.193984985352 1.306014299393
70.469444274902 -71.793769836426 -238.211639404297 1.058157682419
-0.569353997707 -73.132194519043 -240.518798828125 1.297908067703
16.201288223267 -71.153930664063 -239.929779052734 0.506744444370
-30.393373489380 -68.919548034668 -240.775131225586 6.210014343262
-33.878200531006 -79.977996826172 -241.847290039063 0.434911221266
-47.069747924805 -74.006622314453 -238.968002319336 0.961368262768
-39.468612670898 -72.628448486328 -241.188812255859 2.677279233932
-17.655496597290 -75.636444091797 -243.029907226563 1.286757469177
-52.644580841064 -72.874374389648 -244.089340209961 2.324885368347
1.660554051399 -74.602851867676 -245.375946044922 1.551367878914
-68.394920349121 -75.124664306641 -244.450256347656 2.217295408249
20.495450973511 -75.011962890625 -247.398483276367 1.098089694977
-144.338272094727 -76.802947998047 -245.388000488281 2.502771615982
-72.880523681641 -76.598739624023 -251.981170654297 0.878463625908
15.114301681519 -75.726989746094 -249.475097656250 2.187049627304
-161.574218750000 -73.555290222168 -249.698654174805 1.831466674805
14.862915992737 -77.318809509277 -253.112945556641 2.570798635483
-80.210731506348 -70.662834167480 -250.972671508789 1.597094893456
-75.414199829102 -74.956169128418 -251.129348754883 1.360886335373
19.410209655762 -75.491172790527 -255.338745117188 1.713187932968
-89.428001403809 -73.686706542969 -252.488586425781 1.144146680832
-125.950775146484 -71.907005310059 -255.368331909180 1.944594144821
-133.797592163086 -76.525680541992 -259.843963623047 1.587508440018
-135.312088012695 -76.653182983398 -255.083541870117 2.598166465759
-147.363876342773 -74.935111999512 -261.199310302734 1.443246722221
-144.607437133789 -72.149765014648 -255.346572875977 2.516995906830
-135.114547729492 -72.726097106934 -262.005401611328 1.608337163925
-161.954345703125 -71.848884582520 -261.015838623047 2.717298984528
-127.309524536133 -73.292808532715 -266.454101562500 3.132356166840
-135.625015258789 -70.852409362793 -262.822265625000 0.933728516102
-163.998504638672 -71.754318237305 -267.628295898438 3.822662830353
-157.014541625977 -71.956649780273 -264.387695312500 2.596819162369
-149.623352050781 -72.648544311523 -265.784454345703 2.417639732361
-148.320358276367 -74.534744262695 -265.928771972656 1.811545610428
16.422382354736 -76.074989318848 -278.850677490234 1.171860337257
-166.410278320313 -73.987228393555 -267.358642578125 2.784454107285
-152.194717407227 -74.755561828613 -273.749389648438 1.909184098244
-6.013150215149 -80.555213928223 -273.429534912109 2.257265567780
-157.573593139648 -72.090858459473 -272.810546875000 2.203136205673
11.911759376526 -77.129585266113 -282.261230468750 1.236224651337
-152.585968017578 -73.447303771973 -282.119293212891 1.293916344643
-164.823974609375 -74.531333923340 -288.036956787109 2.490503311157
-155.184936523438 -75.570075988770 -280.582580566406 3.741117477417
-165.432144165039 -72.190956115723 -287.992706298828 1.105929613113
1.058984994888 -75.892723083496 -287.734222412109 1.133014202118
7.043441772461 -77.707855224609 -283.344360351563 1.847672820091
-102.334960937500 -72.086135864258 -291.080993652344 1.831599593163
-154.255798339844 -77.667678833008 -288.027282714844 1.314255833626
-148.619934082031 -71.958396911621 -286.166809082031 3.261758089066
-107.648345947266 -72.570343017578 -290.925750732422 1.669444918633
-152.544906616211 -75.579032897949 -292.169525146484 1.885143637657
-148.787994384766 -76.308746337891 -289.675659179688 1.299344420433
-72.457077026367 -75.689468383789 -292.813934326172 4.131083011627
-166.111709594727 -75.279853820801 -289.769195556641 2.182841062546
-123.462135314941 -70.912879943848 -291.641723632813 1.305254697800
-43.489696502686 -76.747467041016 -288.211791992188 2.169681310654
-153.714935302734 -73.394622802734 -288.755035400391 3.063189268112
-133.501922607422 -69.520568847656 -293.671661376953 2.018431663513
-18.952802658081 -71.448509216309 -294.042724609375 3.528133869171
-128.358886718750 -70.987770080566 -293.641540527344 1.585469126701
5.509282112122 -74.175758361816 -294.622955322266 2.561200857162
15.033520698547 -71.466278076172 -292.776428222656 1.774806261063
-133.921768188477 -70.997451782227 -291.994537353516 2.365974664688
-146.007843017578 -74.696395874023 -297.456848144531 1.635064601898
-156.524429321289 -75.071754455566 -314.156829833984 3.442047119141
-72.088714599609 -73.067665100098 -52.683074951172 2.332907676697
-22.251562118530 -72.144233703613 -64.153938293457 3.579849481583
-20.242200851440 -78.598655700684 -65.483406066895 3.333526849747
72.593536376953 -74.568412780762 -77.352256774902 1.362283825874
91.001213073730 -76.135711669922 -76.095985412598 1.820555210114
-37.027694702148 -76.140167236328 -79.357879638672 2.096481323242
75.265808105469 -75.828453063965 -79.847976684570 0.840785145760
89.485771179199 -79.519302368164 -82.642906188965 2.971138954163
67.923492431641 -76.241027832031 -83.858581542969 3.573925733566
72.648185729980 -75.475250244141 -89.119697570801 1.486370682716
-49.809997558594 -77.736396789551 -86.728172302246 1.672834038734
-91.858726501465 -78.463058471680 -88.834327697754 2.751362085342
58.682655334473 -77.989845275879 -94.237403869629 3.944689512253
50.056091308594 -77.478240966797 -99.397224426270 1.076199531555
93.707489013672 -73.659042358398 -99.527160644531 1.275257229805
-92.271781921387 -72.363876342773 -102.108726501465 2.896885633469
81.866157531738 -73.014495849609 -99.529304504395 1.862290263176
73.035896301270 -76.369117736816 -100.425338745117 4.123505115509
91.638214111328 -77.595748901367 -98.713485717773 3.097013473511
83.153602600098 -75.656089782715 -98.385383605957 0.680640637875
82.958366394043 -78.565238952637 -98.984260559082 3.373018741608
-85.412643432617 -77.805404663086 -102.886367797852 3.519688606262
42.413925170898 -74.617149353027 -107.168601989746 1.922371029854
105.403427124023 -76.600593566895 -111.199928283691 3.191850185394
108.023925781250 -76.216560363770 -111.207839965820 1.453722715378
48.064479827881 -77.983352661133 -119.221611022949 2.098827600479
111.089447021484 -77.696510314941 -121.555267333984 2.636453628540
116.564811706543 -77.886558532715 -135.420913696289 2.560831785202
-51.531993865967 -73.675224304199 -131.699981689453 1.642025351524
27.257482528687 -75.035919189453 -134.939773559570 1.847920298576
40.523181915283 -77.827049255371 -134.057235717773 2.674406290054
24.991523742676 -72.845611572266 -143.158294677734 1.716127753258
112.883232116699 -77.751083374023 -138.903839111328 1.489571571350
111.688560485840 -76.128028869629 -132.302642822266 1.370524406433
-73.730377197266 -75.266387939453 -148.741363525391 1.745436072350
-44.068592071533 -74.732612609863 -143.343597412109 0.580787479877
-71.358329772949 -73.489219665527 -151.793121337891 1.530078053474
19.582349777222 -73.873374938965 -150.134658813477 3.104264974594
112.417228698730 -73.159164428711 -149.929031372070 1.735031962395
-53.760524749756 -76.324707031250 -151.454330444336 2.674747705460
-71.387222290039 -73.947319030762 -151.506484985352 1.316908955574
-39.041378021240 -78.140953063965 -153.010787963867 1.837446093559
32.229496002197 -70.602775573730 -153.640075683594 1.582471609116
109.900146484375 -72.372207641602 -151.702148437500 1.982917308807
115.248291015625 -73.918106079102 -161.117752075195 1.956970691681
-68.384231567383 -72.222816467285 -155.541137695313 1.188277244568
-72.795028686523 -76.513046264648 -161.688278198242 3.580054521561
21.610158920288 -78.041755676270 -163.859115600586 1.690610885620
-60.245452880859 -72.881378173828 -167.340560913086 0.951342642307
-32.941192626953 -73.624214172363 -162.976959228516 1.696260333061
7.736398220062 -75.978042602539 -163.966476440430 1.814612984657
108.624130249023 -73.005828857422 -162.236114501953 0.623921155930
7.712784767151 -77.466697692871 -167.507736206055 4.280368328094
-32.974647521973 -75.162849426270 -166.188980102539 1.320074915886
-2.075206041336 -71.108551025391 -166.224884033203 2.362969636917
107.469253540039 -71.968383789063 -168.626907348633 1.219655632973
-41.540664672852 -72.454154968262 -166.072906494141 1.716144561768
29.055826187134 -72.109428405762 -172.691833496094 0.937536716461
112.875747680664 -77.360717773438 -173.059982299805 2.171042442322
-57.393775939941 -71.900314331055 -176.687408447266 2.050439596176
-28.337745666504 -76.980895996094 -175.206161499023 1.386604666710
102.849708557129 -74.637557983398 -174.722351074219 2.987934827805
28.981933593750 -72.969291687012 -170.204040527344 2.037062406540
107.480445861816 -76.223434448242 -175.798614501953 1.968079209328
-37.055961608887 -71.653404235840 -178.650970458984 2.368663072586
108.246925354004 -76.789886474609 -181.327331542969 2.099880933762
-62.034786224365 -72.358222961426 -178.108795166016 3.706241369247
-25.654380798340 -78.131278991699 -179.437835693359 1.256679773331
-146.569320678711 -70.132392883301 -184.045669555664 3.518039464951
-54.299640655518 -73.679641723633 -181.243515014648 1.295618414879
-147.262161254883 -74.805603027344 -186.799530029297 0.587564408779
-34.215782165527 -72.497024536133 -185.537460327148 1.196475744247
26.757270812988 -77.910728454590 -182.359512329102 0.762557148933
106.354515075684 -74.915664672852 -183.909118652344 1.570087432861
-34.164756774902 -74.626892089844 -184.426940917969 1.229663133621
10.864131927490 -74.874572753906 -191.350646972656 0.577478885651
17.182226181030 -73.672950744629 -204.100387573242 2.484635829926
-148.300231933594 -74.966392517090 -190.275848388672 2.172992229462
104.948135375977 -76.083419799805 -196.189422607422 2.307193279266
-21.458889007568 -72.034271240234 -193.692871093750 2.535520076752
101.230041503906 -75.099388122559 -188.876098632813 1.184313774109
12.760690689087 -72.054512023926 -189.972900390625 0.642714500427
-137.025588989258 -73.800628662109 -204.230834960938 3.308618068695
-138.930191040039 -73.882728576660 -200.412551879883 1.085029602051
100.169052124023 -76.424217224121 -201.981231689453 2.438888072968
-12.010485649109 -77.638305664063 -201.020355224609 2.381688356400
-16.462411880493 -74.940841674805 -203.524978637695 2.513873100281
10.453634262085 -75.860786437988 -207.945663452148 1.048397302628
-150.136932373047 -72.501274108887 -206.404296875000 1.305669069290
-146.356430053711 -75.319015502930 -208.616455078125 3.175452470779
99.979843139648 -69.989151000977 -205.162597656250 2.393312931061
-82.294097900391 -73.565002441406 -208.696090698242 2.659907102585
-36.147232055664 -74.663055419922 -202.202270507813 2.818141937256
18.721708297729 -76.339332580566 -213.936203002930 1.095921397209
-25.295358657837 -74.378044128418 -211.669494628906 0.491196930408
-76.638252258301 -72.422988891602 -208.373687744141 1.781407952309
90.913520812988 -73.907348632813 -210.293502807617 1.027669191360
-80.521636962891 -71.631813049316 -212.865646362305 2.211938142776
-147.453308105469 -74.186408996582 -219.154235839844 1.939569950104
-80.064964294434 -72.674301147461 -213.757339477539 1.268893480301
-13.343417167664 -69.494567871094 -210.353485107422 1.151364445686
-20.756458282471 -71.409919738770 -219.409362792969 1.624444484711
18.409278869629 -73.740280151367 -213.844802856445 1.655555725098
-5.576140880585 -75.090835571289 -220.084472656250 1.811944246292
-88.358482360840 -76.860229492188 -219.418518066406 2.273796319962
92.534019470215 -73.032058715820 -214.198959350586 2.255036354065
-98.486137390137 -72.928146362305 -216.166824340820 0.835792243481
-152.333724975586 -72.995178222656 -224.585998535156 2.196344614029
-25.276821136475 -72.698661804199 -224.183242797852 2.352845430374
17.675397872925 -74.254402160645 -216.594055175781 2.275717020035
-102.123428344727 -73.872253417969 -220.523681640625 1.748777866364
7.305565834045 -70.795425415039 -219.356262207031 2.806491374969
-25.759086608887 -73.869476318359 -216.147476196289 2.281102657318
82.778259277344 -72.023796081543 -224.758209228516 1.413696885109
-145.411529541016 -73.077629089355 -219.665496826172 1.651155352592
10.237789154053 -72.313377380371 -226.309646606445 1.387536764145
-9.571081161499 -76.492126464844 -226.291717529297 1.761442422867
17.403186798096 -68.020088195801 -222.959884643555 1.996703863144
83.539329528809 -74.416320800781 -222.881622314453 0.901131331921
-13.688172340393 -75.717948913574 -229.100021362305 2.101475000381
-130.650650024414 -74.728729248047 -227.081359863281 2.290548801422
-13.935196876526 -73.795211791992 -225.002807617188 1.412499427795
16.657159805298 -73.884887695313 -231.680267333984 2.450398445129
-126.812339782715 -75.595283508301 -227.778884887695 1.829378366470
-151.710327148438 -70.534156799316 -230.021347045898 2.705178499222
-142.499420166016 -72.575668334961 -229.395355224609 1.875312089920
-130.998397827148 -71.785202026367 -228.382995605469 2.763579845428
-13.243245124817 -71.624267578125 -225.729766845703 1.321098685265
71.753791809082 -73.145561218262 -228.749053955078 2.092587471008
-143.404281616211 -70.064689636230 -236.737915039063 0.957701325417
70.693344116211 -74.521003723145 -229.345016479492 1.689146518707
-20.550252914429 -76.601768493652 -230.219375610352 1.394340038300
-142.369079589844 -76.700935363770 -229.888519287109 1.602056384087
77.231719970703 -78.079338073730 -229.498001098633 3.162467241287
9.605525016785 -77.103668212891 -234.068023681641 0.860337376595
-141.719131469727 -77.450256347656 -235.842727661133 2.845630168915
-150.176879882813 -72.503532409668 -234.375839233398 2.107956171036
16.739486694336 -70.307312011719 -231.963180541992 1.156895995140
-2.807358980179 -75.616821289063 -238.253921508789 1.714238882065
-27.804798126221 -72.792007446289 -237.717269897461 1.587118744850
-1.758975028992 -69.486801147461 -238.080413818359 0.974315941334
-160.906387329102 -75.339797973633 -238.248977661133 2.543855905533
7.828975200653 -72.127281188965 -244.058105468750 1.537240743637
-164.844894409180 -73.818367004395 -239.267471313477 1.858776092529
-12.915736198425 -74.421463012695 -238.228515625000 1.215962529182
61.416801452637 -74.010101318359 -239.760894775391 1.772517323494
-13.205230712891 -72.393043518066 -238.630752563477 1.345502495766
-25.016109466553 -72.412498474121 -244.883834838867 3.114458560944
-25.135137557983 -72.714004516602 -242.288757324219 1.259582400322
-12.969738006592 -75.368377685547 -241.429580688477 2.579662799835
-146.445022583008 -73.730064392090 -231.522430419922 1.724040269852
7.961553096771 -72.517860412598 -242.850830078125 0.380878418684
64.125335693359 -72.676536560059 -244.220001220703 2.269492626190
14.577541351318 -71.068260192871 -245.633865356445 2.191393613815
-166.112045288086 -71.633712768555 -242.064376831055 2.292198181152
-50.618804931641 -72.178062438965 -241.303619384766 2.276308059692
3.835515022278 -79.667686462402 -248.760238647461 1.645219564438
16.876348495483 -73.176635742188 -244.776367187500 1.599506974220
-54.337257385254 -72.354751586914 -247.714035034180 1.548508763313
-2.961170911789 -69.254928588867 -248.757217407227 4.832011699677
20.815422058105 -77.743698120117 -248.546539306641 1.800711393356
-169.271362304688 -71.271751403809 -249.259323120117 3.371722221375
-67.695762634277 -76.144851684570 -248.727401733398 1.085561156273
-51.700576782227 -71.913177490234 -247.917312622070 3.122312068939
-81.239028930664 -72.013130187988 -251.845779418945 2.898662328720
-161.144195556641 -73.878906250000 -247.500839233398 1.384945392609
-150.895187377930 -67.274757385254 -249.998840332031 2.069539308548
-60.231903076172 -74.680168151855 -250.223190307617 1.792160034180
-68.892013549805 -72.773612976074 -250.489089965820 1.823717951775
-153.759262084961 -71.015739440918 -253.217010498047 1.205793738365
-152.159866333008 -73.590965270996 -252.856399536133 0.703485071659
-75.995193481445 -69.808029174805 -254.911285400391 3.007634639740
-93.574417114258 -70.423942565918 -255.758743286133 2.054669141769
-164.534072875977 -68.396530151367 -252.731475830078 2.368743181229
-156.965850830078 -72.904937744141 -260.290435791016 2.700485229492
-134.943878173828 -74.145568847656 -258.850982666016 1.260687112808
-83.271682739258 -72.825965881348 -251.923095703125 1.764448523521
-162.310363769531 -70.101661682129 -253.470718383789 1.631672263145
-141.991104125977 -71.018096923828 -257.432800292969 2.514349460602
-85.459045410156 -71.982170104980 -251.825027465820 0.880617737770
-96.842399597168 -70.523742675781 -260.900085449219 2.274044275284
-145.205657958984 -73.571311950684 -256.576965332031 2.522480010986
-93.630737304688 -72.412986755371 -256.693786621094 2.264247179031
-152.738861083984 -71.179527282715 -256.584259033203 2.304012060165
-102.463264465332 -72.250938415527 -256.171478271484 1.678466677666
-168.824569702148 -71.982757568359 -259.431549072266 2.215439081192
-161.630218505859 -73.939102172852 -264.025268554688 0.660149335861
-126.556900024414 -75.429435729980 -257.219726562500 1.490971088409
-151.829757690430 -72.769203186035 -260.035919189453 2.199414014816
-111.995887756348 -69.959556579590 -262.509246826172 2.539212942123
-14.483699798584 -71.482910156250 -262.490356445313 1.238552570343
-141.730178833008 -72.328468322754 -261.621459960938 1.943379282951
-125.993057250977 -71.981262207031 -260.721649169922 2.012110471725
-154.329238891602 -71.040847778320 -263.259216308594 1.701297283173
23.430238723755 -73.372283935547 -271.431243896484 2.960521221161
-148.799926757813 -74.499740600586 -279.295501708984 1.987459063530
-168.550903320313 -72.586265563965 -280.740631103516 2.842762708664
-8.319575309753 -72.545646667480 -280.063995361328 2.172480583191
-145.996917724609 -72.221801757813 -281.130676269531 1.056735515594
-9.666087150574 -70.973953247070 -283.787048339844 1.548887491226
12.703289985657 -72.727005004883 -286.722869873047 2.005418539047
-136.776153564453 -70.785057067871 -286.588500976563 1.297920227051
-68.414627075195 -73.960113525391 -287.599365234375 2.162380456924
-33.443691253662 -74.483161926270 -288.716491699219 2.456893205643
-113.014747619629 -72.117492675781 -285.045837402344 1.565439105034
-95.428520202637 -75.703887939453 -290.917846679688 1.565230965614
-89.739974975586 -72.425949096680 -292.052703857422 1.579698681831
-49.929306030273 -73.506240844727 -292.545959472656 3.143691062927
-116.071296691895 -76.103370666504 -289.280700683594 1.757963418961
-113.829582214355 -73.315544128418 -290.929473876953 0.549408733845
-33.194557189941 -69.962806701660 -289.810607910156 2.748717308044
-115.445861816406 -72.554756164551 -293.670074462891 1.257355809212
-127.200149536133 -68.187835693359 -290.817016601563 1.307141304016
-144.519805908203 -73.984970092773 -294.251861572266 2.455344915390
7.035531997681 -72.089881896973 -292.157897949219 2.415530681610
16.518747329712 -73.989921569824 -293.975952148438 2.368222951889
-160.024765014648 -72.030273437500 -293.484283447266 0.887255966663
-158.428970336914 -75.445922851563 -301.364685058594 3.620666980743
-147.094787597656 -73.150184631348 -311.155426025391 2.207100868225
-152.089752197266 -70.682502746582 -311.478179931641 1.560596108437
-152.678253173828 -73.302192687988 -314.224548339844 2.381730318069
29.040134429932 -78.876853942871 -15.606417655945 5.700551033020
30.972316741943 -74.155448913574 -18.905069351196 2.694948911667
21.613162994385 -76.079895019531 -24.934286117554 3.614013195038
29.116621017456 -73.631477355957 -39.895885467529 2.624150991440
-57.951938629150 -74.449012756348 -50.370731353760 4.077991485596
-65.048736572266 -74.940498352051 -50.810737609863 2.256974935532
-38.689041137695 -78.187080383301 -50.981918334961 5.292927265167
-84.282012939453 -71.487129211426 -63.528339385986 2.774615526199
81.358085632324 -78.236846923828 -74.923400878906 2.969051837921
-15.302427291870 -73.465850830078 -71.690895080566 2.491830348969
89.261528015137 -76.427764892578 -67.089317321777 3.796302795410
99.491210937500 -75.167907714844 -77.675514221191 2.016966342926
-92.447937011719 -73.208465576172 -76.956321716309 2.111058950424
67.778205871582 -75.249786376953 -81.119407653809 3.628048419952
-40.923732757568 -78.747329711914 -86.327713012695 1.623266935349
101.047981262207 -74.427627563477 -82.782691955566 3.729463815689
-55.497337341309 -73.703048706055 -89.274909973145 2.807883262634
51.160266876221 -75.575248718262 -91.264732360840 2.009173393250
71.068206787109 -80.312118530273 -91.525215148926 5.235230922699
55.613864898682 -74.341629028320 -96.992713928223 1.456105232239
52.939010620117 -76.812248229980 -99.290939331055 0.723084211349
74.534461975098 -78.245445251465 -96.418777465820 3.426392555237
46.599052429199 -74.813819885254 -105.918159484863 2.763660192490
100.535415649414 -75.834129333496 -101.511070251465 3.631146430969
106.013282775879 -78.983795166016 -107.208953857422 4.270298957825
80.103881835938 -72.475135803223 -104.115318298340 2.134562730789
91.928482055664 -76.363319396973 -104.197158813477 4.128466606140
100.988243103027 -75.507057189941 -95.868003845215 2.815896749496
109.625175476074 -75.741409301758 -104.445365905762 1.954766154289
39.687759399414 -75.030426025391 -106.825988769531 1.489578485489
112.637481689453 -72.444885253906 -119.322502136230 1.893362402916
113.888511657715 -76.288375854492 -119.608337402344 2.740196466446
31.427248001099 -73.384513854980 -124.200813293457 1.647342085838
44.850326538086 -76.097702026367 -119.580650329590 0.573140799999
115.376716613770 -75.297668457031 -130.910476684570 0.894302368164
36.344165802002 -74.336158752441 -127.331634521484 3.309154033661
115.173851013184 -78.401626586914 -128.485092163086 3.122543096542
108.874435424805 -75.935630798340 -123.157646179199 3.210535049438
26.539510726929 -75.431159973145 -136.249633789063 0.961442589760
-47.832344055176 -74.908485412598 -134.763687133789 2.503374814987
-51.997348785400 -72.911849975586 -135.750823974609 0.618116974831
111.477958679199 -74.198860168457 -135.672729492188 1.220768451691
-69.086624145508 -78.000175476074 -141.183258056641 4.643020629883
-72.688674926758 -75.073600769043 -141.014465332031 0.724181532860
-58.807338714600 -74.960975646973 -141.858551025391 0.948411583900
32.068614959717 -74.571014404297 -144.289703369141 3.354563713074
116.335182189941 -76.419502258301 -146.619827270508 3.179364919662
-69.257232666016 -71.261611938477 -147.725372314453 1.480994105339
-47.831680297852 -74.149436950684 -143.244979858398 2.481399059296
33.559520721436 -75.071868896484 -151.902389526367 1.749764800072
-67.960098266602 -75.449249267578 -148.499099731445 0.613104164600
114.166740417480 -73.789451599121 -141.986221313477 1.745380163193
112.036949157715 -72.748497009277 -158.208511352539 1.541437745094
116.496353149414 -75.714317321777 -153.653594970703 2.237008094788
-38.213436126709 -76.749290466309 -153.751251220703 1.061455011368
-64.550018310547 -74.164398193359 -164.974273681641 2.202629089355
-69.001007080078 -71.155540466309 -157.778228759766 2.193554162979
30.340770721436 -75.570175170898 -147.051834106445 2.480153322220
-1.898718953133 -76.164230346680 -162.756408691406 1.340198874474
109.352470397949 -74.052093505859 -162.279296875000 1.682010531425
112.014457702637 -72.916427612305 -153.668304443359 1.456336140633
112.459251403809 -76.705101013184 -159.080276489258 1.644770026207
-63.536220550537 -71.515136718750 -160.677597045898 1.699687838554
-45.136753082275 -76.025405883789 -165.891967773438 1.059110164642
-2.111368894577 -73.430358886719 -165.682174682617 2.324936389923
-29.032852172852 -74.209800720215 -175.539566040039 3.172300100327
106.193458557129 -73.513259887695 -167.878417968750 0.596593260765
-34.150485992432 -77.136795043945 -160.725341796875 1.706113576889
109.636726379395 -72.848625183105 -168.999588012695 1.755297780037
-41.554321289063 -74.521713256836 -174.259536743164 1.282403826714
108.872367858887 -72.218231201172 -169.259857177734 1.782849669456
-151.259552001953 -74.650360107422 -180.642135620117 2.236397266388
-26.702014923096 -70.289047241211 -177.348159790039 1.088053345680
-20.076248168945 -73.947341918945 -183.967529296875 1.889672398567
25.111730575562 -77.022918701172 -177.789382934570 0.614747822285
15.287892341614 -73.584060668945 -183.776901245117 1.758285999298
27.868743896484 -74.331314086914 -183.675170898438 1.711661338806
104.498687744141 -77.824592590332 -184.412292480469 1.991001844406
-151.593139648438 -70.787223815918 -185.427078247070 1.846709966660
-19.497959136963 -76.043952941895 -185.491668701172 0.847020864487
102.426048278809 -75.004722595215 -179.240036010742 3.293198823929
103.412147521973 -70.899108886719 -190.276626586914 1.463300347328
108.425338745117 -75.270912170410 -178.453170776367 1.682312607765
99.286735534668 -75.568946838379 -194.389617919922 2.140496969223
-151.114746093750 -73.882507324219 -197.108139038086 3.496701240540
100.236267089844 -74.507751464844 -206.132827758789 1.674150466919
-28.023166656494 -71.495445251465 -197.732498168945 2.504774570465
97.749839782715 -73.602958679199 -196.403152465820 1.890107631683
-121.192649841309 -76.445739746094 -200.734848022461 3.164262294769
-29.563701629639 -78.098945617676 -190.784057617188 2.365822315216
-141.734298706055 -69.389892578125 -198.821594238281 2.036535978317
95.540611267090 -73.910911560059 -199.235595703125 1.165278553963
8.836894989014 -74.366683959961 -199.683563232422 2.373716115952
24.069149017334 -72.495071411133 -193.159667968750 1.576012372971
-147.918762207031 -73.626014709473 -203.495422363281 2.637426376343
-138.764907836914 -72.498970031738 -202.624267578125 1.552031636238
-9.867689132690 -73.077278137207 -207.300094604492 1.923954486847
-124.211624145508 -73.057052612305 -204.341049194336 1.117976665497
-143.721786499023 -75.623077392578 -200.324218750000 2.088208198547
4.132905006409 -73.866378784180 -200.185882568359 4.664173603058
-24.063421249390 -75.651473999023 -201.709213256836 1.912225008011
20.853908538818 -76.352882385254 -202.942794799805 1.330879211426
6.800070762634 -74.696464538574 -212.431854248047 1.656685352325
85.614723205566 -71.211242675781 -209.131958007813 3.301419973373
-18.231508255005 -70.852073669434 -212.475982666016 2.170347690582
91.501808166504 -71.470413208008 -209.537307739258 1.057090282440
97.234764099121 -75.470344543457 -207.642745971680 1.544663429260
-148.801559448242 -74.001579284668 -215.133377075195 1.071121335030
95.666679382324 -75.248085021973 -212.205383300781 1.689222455025
5.167102813721 -72.576248168945 -207.877182006836 2.896081686020
3.744513988495 -75.453155517578 -215.026153564453 2.754162549973
-32.805686950684 -73.006134033203 -207.554122924805 1.880938649178
-89.268989562988 -72.568176269531 -213.693740844727 2.131652832031
-26.071792602539 -74.729057312012 -211.444885253906 0.722173690796
85.291030883789 -72.724029541016 -217.483627319336 1.629425048828
89.450416564941 -72.560523986816 -217.592620849609 1.309081554413
-31.685775756836 -72.523834228516 -212.797851562500 1.854108452797
-84.244842529297 -70.141830444336 -218.934310913086 3.648458003998
-0.898226022720 -75.245460510254 -219.311126708984 2.070372819901
82.202117919922 -70.073051452637 -213.698852539063 4.054849147797
-151.787719726563 -76.519233703613 -222.530410766602 2.040859460831
-165.665832519531 -71.352104187012 -214.908615112305 2.488932847977
-161.843902587891 -75.209877014160 -222.921676635742 3.023188591003
-21.259504318237 -73.957412719727 -227.449371337891 2.272953271866
-153.761077880859 -75.646156311035 -223.421875000000 2.582926750183
-5.587697029114 -74.283607482910 -225.055374145508 2.918069601059
6.712521076202 -74.290573120117 -218.972839355469 2.236969947815
-167.021362304688 -72.571052551270 -226.187011718750 1.508658409119
-158.671081542969 -73.045364379883 -228.035354614258 1.186844348907
79.418006896973 -76.283142089844 -232.022857666016 0.355461657047
0.413055002689 -71.985069274902 -227.195907592773 1.471759200096
-157.401092529297 -68.139686584473 -226.748550415039 2.504375696182
-142.357528686523 -74.342262268066 -225.046676635742 1.693814992905
-19.045875549316 -72.168769836426 -224.478652954102 2.472524642944
-0.246904000640 -77.319236755371 -223.078567504883 2.080482006073
80.219390869141 -70.889831542969 -226.129974365234 0.105137266219
-161.125915527344 -71.040634155273 -228.520309448242 2.499644279480
-143.855194091797 -70.400573730469 -231.497955322266 2.046193838120
-124.970489501953 -71.123771667480 -231.540863037109 2.367994546890
78.952598571777 -74.637771606445 -227.231216430664 1.477715253830
-115.487266540527 -72.652221679688 -229.821853637695 1.216446638107
-146.263381958008 -72.604393005371 -229.960174560547 0.995106101036
-150.367263793945 -71.309875488281 -232.081954956055 3.083211898804
-148.877136230469 -73.360015869141 -232.025665283203 1.248857259750
-155.684036254883 -73.164016723633 -229.792510986328 2.119205474854
-164.936477661133 -73.072555541992 -229.720031738281 1.298809289932
-133.557495117188 -72.752990722656 -236.019729614258 2.061099767685
-133.128082275391 -73.766441345215 -233.831085205078 0.392061233521
-153.039627075195 -76.203834533691 -233.634124755859 2.554756164551
-145.232086181641 -69.104461669922 -237.476486206055 1.808303356171
-151.464385986328 -73.029518127441 -236.018356323242 0.877399504185
75.112487792969 -75.102912902832 -232.989105224609 1.880479574203
67.545921325684 -68.317733764648 -236.451156616211 1.064697146416
-156.847473144531 -71.140785217285 -236.061981201172 1.961920261383
71.943206787109 -68.780838012695 -233.746429443359 2.189442157745
-19.581110000610 -71.470611572266 -237.223068237305 2.631384611130
11.618770599365 -74.119789123535 -237.674362182617 1.836277842522
7.134594917297 -73.703315734863 -236.603713989258 2.954888820648
-154.325363159180 -72.548744201660 -243.365676879883 3.294272661209
14.799440383911 -72.289802551270 -241.663192749023 2.186103820801
61.173492431641 -71.796600341797 -238.507553100586 1.923020839691
13.627285957336 -70.486625671387 -238.484863281250 1.189645648003
5.572855949402 -73.276557922363 -242.156326293945 0.833674609661
-6.293862819672 -70.770668029785 -240.915145874023 1.548953056335
-20.931856155396 -71.336090087891 -243.428314208984 2.339069843292
-1.507310032845 -72.714218139648 -242.557342529297 0.389944165945
4.041666030884 -75.385345458984 -245.617034912109 2.324691772461
57.643619537354 -73.897468566895 -242.141799926758 1.369351029396
-55.236240386963 -75.949188232422 -245.444015502930 2.134290933609
19.815561294556 -71.701995849609 -247.912796020508 1.331162810326
-59.352001190186 -73.616691589355 -242.468643188477 2.623840570450
-9.664229393005 -72.839752197266 -248.501586914063 1.038523077965
-65.888694763184 -69.213005065918 -250.899414062500 3.078055143356
-85.860069274902 -70.880302429199 -253.797714233398 1.844646692276
-82.429435729980 -73.394309997559 -252.823730468750 2.017743587494
-9.650309562683 -71.917480468750 -255.397293090820 3.133112430573
-123.704978942871 -72.102218627930 -259.767272949219 2.311926841736
-13.918747901917 -73.452598571777 -253.617630004883 1.269100904465
-116.818778991699 -72.374977111816 -256.425109863281 1.397150039673
-116.328201293945 -71.008796691895 -259.339111328125 2.637771606445
-103.387329101563 -72.184028625488 -257.246551513672 1.834955096245
-143.723281860352 -71.268539428711 -262.570800781250 1.921949625015
-144.870376586914 -71.595100402832 -267.979248046875 2.348441600800
-168.512420654297 -72.185058593750 -264.377349853516 2.954056978226
19.535449981689 -75.588508605957 -280.922790527344 2.874847650528
-57.896224975586 -70.095268249512 -286.036804199219 1.127932429314
-67.088081359863 -70.969757080078 -284.370727539063 2.266421794891
-42.001312255859 -73.699821472168 -284.562927246094 2.492403745651
-27.908103942871 -72.918563842773 -287.138031005859 1.094367623329
-96.196746826172 -73.696624755859 -289.964447021484 1.854509711266
-30.701454162598 -70.087493896484 -286.344299316406 2.861036539078
-3.973757982254 -72.051795959473 -286.808746337891 1.172647476196
-167.267181396484 -71.758018493652 -290.085723876953 2.616064786911
-15.741979598999 -74.069221496582 -286.555389404297 2.694618225098
6.486441135406 -73.176132202148 -288.580413818359 1.760184049606
14.256372451782 -76.401550292969 -284.284088134766 3.044418334961
-56.847213745117 -74.202095031738 -288.328826904297 1.977085590363
-33.112186431885 -72.320053100586 -292.140045166016 1.172813653946
14.316685676575 -70.073860168457 -293.662445068359 2.340322494507
-70.813644409180 -70.447471618652 -293.593170166016 2.873391151428
-40.149673461914 -69.422561645508 -289.776184082031 2.609998703003
-17.755634307861 -69.957695007324 -290.605926513672 2.466632366180
15.156375885010 -74.169860839844 -291.664062500000 1.738198757172
-11.465132713318 -73.516830444336 -294.875335693359 3.552076816559
4.046863079071 -70.745513916016 -294.409729003906 1.441641092300
14.360363006592 -73.914085388184 -291.233154296875 1.832692503929
-134.808502197266 -70.711784362793 -295.064880371094 1.548582792282
-144.882125854492 -73.911499023438 -299.919067382813 1.406282663345
-150.936141967773 -71.780487060547 -313.956420898438 1.463430166245
43.450073242188 -75.265678405762 -14.327334403992 3.641232490540
30.551086425781 -75.706977844238 -12.443743705750 4.292706012726
39.701831817627 -75.933601379395 -16.038843154907 3.170073747635
22.395975112915 -72.614166259766 -19.309436798096 1.661181330681
45.364501953125 -73.699264526367 -22.968582153320 3.276550769806
25.953491210938 -73.870986938477 -24.576425552368 2.045962572098
24.160631179810 -75.879440307617 -28.129665374756 3.672320365906
25.191297531128 -76.265251159668 -38.916870117188 5.326575279236
39.943477630615 -77.613609313965 -31.445882797241 6.280858039856
26.682516098022 -78.915733337402 -36.997737884521 7.354833126068
43.458374023438 -74.200744628906 -38.267013549805 2.975456714630
32.246337890625 -75.954559326172 -40.045261383057 3.689481496811
39.165451049805 -76.831954956055 -36.569202423096 5.254170417786
31.333961486816 -74.572372436523 -40.559673309326 2.281862735748
43.982513427734 -75.386993408203 -41.789276123047 4.294710159302
34.101852416992 -74.945365905762 -39.604827880859 3.025118589401
-40.606437683105 -73.466339111328 -48.869716644287 2.061954498291
-29.736225128174 -70.276031494141 -51.222789764404 1.330103874207
-89.051200866699 -73.470954895020 -55.386734008789 4.533507823944
-88.739891052246 -75.652748107910 -66.183486938477 4.234353065491
78.241943359375 -77.413574218750 -67.212806701660 5.712278842926
84.643165588379 -74.655372619629 -72.988281250000 0.798353970051
-19.339754104614 -72.807937622070 -74.118537902832 2.200866937637
-87.932075500488 -74.783180236816 -72.330970764160 1.713110804558
-24.873132705688 -73.997955322266 -77.313598632813 2.244498729706
-49.377056121826 -75.538787841797 -85.542961120605 2.336410760880
66.224769592285 -70.940536499023 -86.651359558105 2.446354866028
53.008705139160 -73.501296997070 -93.680107116699 1.205059528351
99.805496215820 -72.781959533691 -91.818626403809 3.127583503723
69.746353149414 -75.936042785645 -97.039482116699 2.047559976578
-67.938980102539 -75.741317749023 -91.624404907227 3.422273635864
-61.914169311523 -72.410705566406 -98.417839050293 4.443181991577
45.115737915039 -74.842308044434 -97.856956481934 1.548641204834
77.713287353516 -72.963836669922 -100.252243041992 2.043405294418
54.777297973633 -81.219703674316 -105.523834228516 3.715346097946
101.577835083008 -74.051139831543 -96.983383178711 1.935217142105
-94.939979553223 -75.630043029785 -107.834579467773 3.161574363708
40.139747619629 -74.415695190430 -111.092445373535 2.551414966583
107.336105346680 -75.044349670410 -109.070236206055 1.927025318146
48.781387329102 -74.022201538086 -111.652931213379 1.620964288712
101.776786804199 -75.130912780762 -110.072967529297 3.254294157028
-85.190910339355 -73.948799133301 -115.847328186035 2.770503759384
36.107574462891 -77.265609741211 -112.319015502930 3.055066108704
106.907051086426 -72.960357666016 -117.089614868164 1.397091150284
104.998199462891 -71.511100769043 -116.064811706543 1.810629725456
105.806472778320 -74.435615539551 -115.416114807129 1.828842520714
110.803779602051 -73.109245300293 -114.852592468262 2.065025568008
40.194625854492 -75.824615478516 -110.589424133301 2.349352836609
32.322891235352 -71.652702331543 -117.663032531738 1.905613064766
41.202068328857 -73.708518981934 -114.510299682617 2.656034231186
107.068084716797 -75.248847961426 -122.084205627441 2.493969440460
40.383560180664 -72.336235046387 -123.588676452637 0.895511448383
109.335357666016 -72.953826904297 -132.424636840820 1.534715533257
111.209281921387 -72.553779602051 -131.306198120117 1.663616061211
33.838851928711 -71.810211181641 -120.964775085449 2.149976491928
-77.754508972168 -73.624031066895 -125.861953735352 3.536526441574
114.124130249023 -71.299240112305 -134.475173950195 2.359182119370
-54.248748779297 -73.713462829590 -137.883697509766 1.577204585075
35.723526000977 -74.497016906738 -135.109115600586 2.272952795029
-73.126525878906 -73.968246459961 -135.846054077148 2.938081502914
27.129526138306 -75.887344360352 -132.065338134766 2.302139282227
-79.459182739258 -74.028991699219 -143.224655151367 2.939038753510
-45.181690216064 -76.457420349121 -142.351379394531 1.489110827446
-73.844169616699 -74.286331176758 -138.590972900391 0.844230890274
110.372840881348 -72.846672058105 -137.302139282227 1.657640337944
117.352951049805 -71.825462341309 -141.830474853516 2.222770452499
118.248886108398 -76.554008483887 -146.692337036133 3.977741003036
-77.210021972656 -72.580177307129 -144.028625488281 0.251152485609
8.105004310608 -69.686752319336 -151.098007202148 1.857328414917
-51.930191040039 -74.047111511230 -149.745010375977 0.798198580742
-50.720180511475 -74.249900817871 -155.657516479492 1.716058731079
107.008140563965 -73.620185852051 -161.931686401367 1.518732070923
-41.346290588379 -75.211944580078 -149.622467041016 1.408375024796
14.080052375793 -71.290473937988 -158.002410888672 1.222846388817
22.420736312866 -74.959663391113 -157.957214355469 2.245382547379
114.817268371582 -72.592498779297 -164.877182006836 1.860461711884
29.878057479858 -72.703598022461 -166.053436279297 2.933900356293
-0.811592996120 -74.565521240234 -163.848022460938 1.195568680763
31.924121856689 -74.099563598633 -161.137695312500 0.665956020355
-67.710121154785 -71.688941955566 -158.006317138672 1.674843907356
-65.710044860840 -72.927841186523 -159.464355468750 1.962737321854
-68.810317993164 -71.837898254395 -165.964767456055 1.897439002991
114.817024230957 -69.975181579590 -161.638595581055 2.842724800110
-44.500373840332 -73.386352539063 -163.321182250977 0.921869635582
17.826288223267 -73.400154113770 -165.835525512695 1.303656578064
-63.889430999756 -72.081520080566 -169.946548461914 1.888155102730
-63.010463714600 -71.346824645996 -171.691543579102 2.942159652710
-41.233570098877 -74.107948303223 -160.591629028320 2.667232036591
-33.490863800049 -75.224960327148 -168.963745117188 2.985043764114
115.072288513184 -75.187011718750 -171.564849853516 2.128220796585
-36.981483459473 -68.444862365723 -180.025985717773 3.477746009827
13.804313659668 -74.099121093750 -173.462326049805 4.077661991119
110.788070678711 -75.540664672852 -184.576110839844 2.144911527634
-147.565643310547 -74.584266662598 -176.348892211914 1.797181963921
-145.857131958008 -72.705513000488 -173.821029663086 2.351755857468
-148.601486206055 -71.077484130859 -180.173156738281 2.852424144745
-142.379776000977 -74.108810424805 -183.037872314453 1.858458042145
-31.795875549316 -71.557235717773 -185.773712158203 1.693398118019
-23.040672302246 -72.950553894043 -186.014038085938 0.700799107552
23.333480834961 -69.300636291504 -191.315444946289 2.634030818939
-141.380432128906 -71.879386901855 -186.957794189453 1.164580702782
-147.222534179688 -72.949226379395 -188.804672241211 1.463610887527
-21.237113952637 -70.330123901367 -186.710784912109 1.286843061447
11.180701255798 -73.241058349609 -182.838912963867 3.192372560501
-149.294998168945 -72.478355407715 -194.497070312500 2.111591815948
-31.507602691650 -73.478416442871 -188.261795043945 2.182614326477
100.203674316406 -72.929122924805 -188.600570678711 2.403125286102
106.351875305176 -71.908676147461 -190.052719116211 1.491911411285
24.244331359863 -68.477630615234 -193.661407470703 1.819626569748
-13.429192543030 -73.013847351074 -188.782638549805 4.539472579956
-27.668230056763 -74.589904785156 -193.672576904297 1.249065279961
-155.275253295898 -73.436538696289 -199.395065307617 2.170326709747
-132.557083129883 -73.381675720215 -197.119064331055 1.584737658501
-125.114799499512 -69.907699584961 -195.256271362305 1.391980409622
-124.626487731934 -70.850830078125 -197.855239868164 2.017351865768
-22.406818389893 -68.609123229980 -196.385650634766 1.687181830406
12.754579544067 -74.692359924316 -192.767669677734 1.834776639938
92.732994079590 -76.146469116211 -201.519699096680 3.095928907394
-149.990722656250 -68.878067016602 -195.630172729492 1.947639226913
-144.997451782227 -69.987312316895 -198.955352783203 2.080065965652
-150.828933715820 -71.765083312988 -200.389404296875 2.321559667587
-154.864105224609 -70.158843994141 -197.681320190430 2.051307678223
-24.689516067505 -72.087783813477 -199.919647216797 2.410254001617
-10.639886856079 -71.209320068359 -195.679199218750 3.258138179779
-146.301345825195 -68.510353088379 -202.338012695313 3.405376672745
-18.381772994995 -71.774650573730 -201.479110717773 2.378208875656
-161.346771240234 -71.572631835938 -200.891265869141 2.788501024246
-134.280120849609 -72.124145507813 -199.659423828125 1.310750484467
15.799612045288 -74.252212524414 -207.386810302734 2.971420049667
-161.228897094727 -69.056312561035 -204.309463500977 0.738339900970
-146.051269531250 -73.570564270020 -206.767150878906 1.745514154434
8.318209648132 -70.686080932617 -203.141174316406 2.897729873657
-154.050933837891 -69.735450744629 -202.881118774414 1.238437175751
-24.505428314209 -71.925804138184 -202.155685424805 1.835961818695
97.466339111328 -73.338592529297 -199.694366455078 1.311470746994
-158.397171020508 -72.941040039063 -212.757369995117 0.897888422012
-164.430633544922 -75.076087951660 -207.982559204102 3.190199136734
-76.798011779785 -70.282211303711 -208.603317260742 2.700358152390
89.367538452148 -71.865051269531 -209.409545898438 1.580646872520
-3.757671117783 -71.051765441895 -218.754867553711 1.735697031021
-154.470108032227 -70.873619079590 -213.146209716797 3.682842731476
-87.544319152832 -72.205398559570 -213.793930053711 1.880393147469
-9.247319221497 -74.874984741211 -211.712310791016 1.827359318733
15.637251853943 -72.020256042480 -220.294769287109 1.832799196243
-144.873550415039 -72.564132690430 -220.363418579102 1.540351867676
-3.538419008255 -75.986793518066 -221.336120605469 1.465753197670
-19.325498580933 -73.162872314453 -218.629272460938 1.379594087601
-14.574718475342 -69.102684020996 -220.791625976563 1.771456599236
90.313926696777 -72.372581481934 -219.543060302734 0.315072357655
-20.687784194946 -70.959472656250 -217.187942504883 2.262053966522
-31.685567855835 -71.630371093750 -217.509460449219 2.195001602173
-107.539779663086 -67.706459045410 -225.048141479492 1.269527912140
-16.085569381714 -70.531250000000 -223.605117797852 1.421260952950
92.487442016602 -70.416343688965 -219.416687011719 1.510157465935
77.558921813965 -73.104202270508 -220.946716308594 3.142370223999
7.253396987915 -73.399238586426 -219.771499633789 2.393939256668
-11.135734558105 -69.995552062988 -225.794769287109 1.786244034767
78.689811706543 -72.862365722656 -222.518020629883 1.940548181534
-122.345787048340 -74.955558776855 -225.572402954102 2.219537019730
-19.986577987671 -70.237640380859 -223.599777221680 3.012370347977
-97.108840942383 -71.257751464844 -223.987792968750 1.993757605553
-102.473510742188 -71.954017639160 -224.544784545898 1.317802906036
-131.547271728516 -73.660820007324 -229.064712524414 1.192976951599
81.374389648438 -72.370872497559 -224.143646240234 2.674853324890
-123.161544799805 -72.342216491699 -227.659072875977 1.417706370354
4.771644115448 -71.465263366699 -229.225723266602 2.316638946533
81.287666320801 -70.904647827148 -224.934295654297 1.597647547722
-15.686723709106 -73.000335693359 -231.015121459961 0.531197309494
-13.503514289856 -72.762580871582 -227.898834228516 0.750441253185
-1.826112985611 -76.909278869629 -230.454910278320 2.535062551498
10.331542015076 -73.898231506348 -227.927246093750 2.628799200058
88.942298889160 -73.470085144043 -227.035842895508 4.338289260864
10.004681587219 -70.583816528320 -231.882980346680 2.015886306763
5.597550868988 -71.760398864746 -229.930496215820 1.901068329811
-8.973041534424 -72.538139343262 -231.739776611328 1.183413386345
-6.707318782806 -72.845779418945 -230.631347656250 1.456436395645
18.788721084595 -70.835845947266 -233.236343383789 1.821080207825
-12.417163848877 -69.562210083008 -233.686431884766 1.159833669662
71.073699951172 -72.554000854492 -240.331893920898 1.639858961105
-9.090759277344 -70.416557312012 -239.300567626953 2.341375589371
19.053943634033 -72.987129211426 -236.280868530273 1.508703708649
-162.855834960938 -70.201858520508 -240.734893798828 3.148046016693
-5.536416053772 -69.840065002441 -237.558105468750 2.110528945923
-8.062874794006 -72.630187988281 -240.719879150391 0.826192557812
