48.061416625977 -71.271400451660 -25.379379272461 1.328156828880
45.652492523193 -74.684432983398 -35.437587738037 1.587971210480
86.337547302246 -73.767051696777 -70.275993347168 1.131926298141
94.302093505859 -75.608062744141 -73.973098754883 2.468883037567
99.986831665039 -73.604263305664 -78.128425598145 1.689121246338
97.089767456055 -74.451004028320 -83.506538391113 2.518823623657
55.510086059570 -74.378128051758 -89.714538574219 2.894317626953
44.335018157959 -78.338386535645 -91.599380493164 6.344312667847
62.151245117188 -72.426231384277 -91.033630371094 1.659657239914
-66.353454589844 -69.651184082031 -94.290122985840 2.697096586227
69.624404907227 -73.052436828613 -88.039688110352 0.771970510483
99.770118713379 -67.770820617676 -98.896842956543 1.534353852272
73.403892517090 -74.251296997070 -101.322723388672 2.738460779190
93.192382812500 -72.687675476074 -102.634841918945 1.892946124077
-85.684638977051 -72.651817321777 -104.777549743652 3.164048671722
44.009250640869 -72.240562438965 -98.534667968750 1.723814725876
-87.625648498535 -73.062194824219 -103.611694335938 5.402462005615
50.067928314209 -74.536819458008 -110.750129699707 1.957821249962
36.599315643311 -78.098709106445 -104.138053894043 3.825999259949
101.037712097168 -72.881156921387 -103.314346313477 2.594518184662
36.081771850586 -72.825096130371 -106.445594787598 3.992469787598
41.533229827881 -74.035263061523 -119.022750854492 3.156607151031
41.665618896484 -72.837257385254 -113.511520385742 2.029446601868
109.012496948242 -72.521209716797 -112.380592346191 1.080069065094
-82.402626037598 -75.492187500000 -122.877479553223 4.711782932281
111.159683227539 -76.805809020996 -124.026603698730 2.506927251816
39.019077301025 -69.518707275391 -125.217742919922 2.890291213989
39.484664916992 -72.239173889160 -120.718467712402 2.049203157425
33.928421020508 -73.276344299316 -121.415771484375 1.705300927162
-56.813640594482 -75.851722717285 -130.749282836914 3.360766649246
29.128761291504 -71.937629699707 -124.027191162109 1.532258629799
-78.388809204102 -69.882919311523 -139.105224609375 1.704132914543
-56.415298461914 -74.984436035156 -133.790573120117 2.369394063950
-80.517349243164 -69.508308410645 -136.184310913086 2.178653955460
34.542362213135 -70.987571716309 -131.275512695313 1.689022541046
-60.676750183105 -72.805610656738 -134.810531616211 3.611120462418
34.104263305664 -72.058746337891 -133.924453735352 2.489430904388
-72.987083435059 -69.779647827148 -140.889831542969 1.218296766281
-60.251487731934 -69.375305175781 -141.933883666992 0.998276591301
24.663516998291 -73.297386169434 -143.270935058594 1.215842843056
109.854553222656 -76.020446777344 -143.216232299805 1.964213490486
114.258010864258 -69.786621093750 -137.163909912109 1.945005655289
29.688610076904 -72.663627624512 -142.110824584961 2.673192501068
-49.251987457275 -73.099533081055 -141.359893798828 2.543133258820
105.833045959473 -71.326248168945 -152.328750610352 4.557926654816
-76.603057861328 -71.329940795898 -144.389205932617 1.324096322060
-59.675247192383 -71.700088500977 -143.518753051758 2.172517538071
30.612558364868 -68.797782897949 -148.019165039063 0.849482953548
-78.597640991211 -72.686157226563 -147.513870239258 3.298705816269
-71.659797668457 -71.383178710938 -151.551162719727 1.719350099564
113.849189758301 -76.972694396973 -149.683883666992 2.698839902878
-65.655143737793 -70.845169067383 -156.364135742188 1.918762326241
-40.345329284668 -69.187118530273 -153.308547973633 1.810887694359
24.664344787598 -71.020370483398 -146.628646850586 1.960955500603
-74.259117126465 -71.869194030762 -147.362075805664 1.369695901871
11.356666564941 -71.902694702148 -150.519577026367 2.767388582230
30.843450546265 -71.910095214844 -157.564407348633 1.599384427071
29.967092514038 -70.317398071289 -150.851654052734 0.833002865314
14.154602050781 -76.498458862305 -154.926040649414 4.147529125214
-50.959922790527 -73.050674438477 -154.431808471680 2.478810787201
23.711681365967 -73.708526611328 -153.857513427734 0.474074959755
-47.250671386719 -70.839721679688 -151.318817138672 1.924720168114
3.678821086884 -72.403755187988 -154.878601074219 3.090963363647
19.401735305786 -71.627952575684 -150.677398681641 3.002316236496
-69.933036804199 -70.745193481445 -158.704238891602 2.527499198914
-47.687240600586 -68.897621154785 -155.242462158203 2.416108608246
-69.247238159180 -70.923835754395 -155.055770874023 1.303826808929
17.098585128784 -71.148689270020 -159.206954956055 1.704816579819
23.143943786621 -71.614173889160 -150.788436889648 0.586852312088
1.495836973190 -72.071670532227 -165.363998413086 1.846218824387
20.253164291382 -72.170578002930 -154.297714233398 1.196820020676
29.725111007690 -72.020370483398 -167.828186035156 2.380790472031
-48.385749816895 -72.813346862793 -164.396392822266 1.580505251884
-37.920799255371 -77.601417541504 -164.374557495117 2.609888553619
-41.931907653809 -72.366714477539 -161.961700439453 1.658752322197
26.744928359985 -72.657363891602 -159.375213623047 2.765393257141
-45.324180603027 -69.909530639648 -167.919555664063 3.720740318298
-40.833747863770 -70.146797180176 -167.486877441406 1.600321888924
20.299753189087 -70.932197570801 -166.477096557617 2.414448499680
-40.902973175049 -71.998916625977 -176.319183349609 2.668381452560
26.894330978394 -68.860786437988 -170.756179809570 2.345625400543
110.629714965820 -70.113449096680 -165.048751831055 1.480061769485
-34.587917327881 -71.479881286621 -173.084167480469 0.753733217716
101.724197387695 -70.688865661621 -173.450225830078 4.113317489624
-35.617374420166 -71.120475769043 -178.484405517578 1.966765403748
-38.471630096436 -74.262954711914 -182.527313232422 3.394607067108
20.080358505249 -74.779220581055 -177.761840820313 2.451483249664
104.792449951172 -73.220405578613 -182.213027954102 1.397751569748
-32.506717681885 -69.953964233398 -183.940673828125 2.111006259918
-36.232769012451 -70.949073791504 -178.572555541992 1.954419136047
-24.245426177979 -74.864341735840 -187.855590820313 0.829734683037
-150.047531127930 -70.837860107422 -190.686889648438 1.923081636429
11.913185119629 -71.650787353516 -184.136276245117 2.152443170547
104.007736206055 -71.400924682617 -191.307510375977 0.906495332718
-159.940063476563 -69.741661071777 -194.890625000000 1.046488881111
-23.953641891479 -68.551773071289 -190.496170043945 1.244574904442
-116.610466003418 -72.104904174805 -198.927688598633 2.945724725723
-131.783157348633 -71.748870849609 -197.252685546875 1.708045721054
-108.835342407227 -71.059555053711 -201.324752807617 3.001317024231
-114.589324951172 -69.707778930664 -201.777252197266 1.708640813828
-13.297937393188 -72.297180175781 -197.299758911133 1.762056231499
19.153352737427 -70.674247741699 -196.835418701172 1.309079408646
-16.706951141357 -67.844848632813 -202.804641723633 2.452445268631
-127.633338928223 -70.333625793457 -207.199035644531 2.803884267807
-21.735490798950 -67.782463073730 -203.961273193359 2.368304252625
-130.273178100586 -69.201446533203 -204.573669433594 1.646780848503
-16.351182937622 -71.545867919922 -201.212692260742 1.597150802612
-146.992019653320 -69.004402160645 -204.566680908203 2.800604820251
90.960014343262 -68.729843139648 -206.725570678711 3.037609100342
-165.412353515625 -65.313102722168 -203.319778442383 2.338903665543
-3.586781978607 -72.970771789551 -218.744705200195 1.513629674911
10.594123840332 -72.702171325684 -210.686248779297 2.049803256989
9.491894721985 -73.564453125000 -217.831542968750 2.338510274887
81.843002319336 -72.130546569824 -217.052520751953 1.636465787888
7.675430774689 -72.472511291504 -213.879119873047 1.881196737289
11.811891555786 -70.641929626465 -215.534515380859 1.930565595627
-16.674591064453 -74.417243957520 -216.890975952148 2.491882324219
-91.287910461426 -70.893730163574 -215.886566162109 1.270541787148
-98.800941467285 -70.530624389648 -218.066513061523 0.166617214680
-0.767045974731 -70.315185546875 -219.991409301758 0.833370745182
-167.247390747070 -71.527366638184 -223.889999389648 1.256953954697
14.383608818054 -69.488845825195 -220.376907348633 0.976293325424
-145.390640258789 -69.276390075684 -223.018859863281 1.398205757141
12.224041938782 -71.715156555176 -225.739913940430 2.052036046982
-135.395233154297 -71.314537048340 -226.584899902344 1.778873443604
-116.654037475586 -71.090011596680 -228.790725708008 1.151590347290
16.013196945190 -70.723213195801 -221.641662597656 1.827896356583
77.644096374512 -72.085746765137 -221.739700317383 2.663135051727
6.003590106964 -71.342658996582 -224.299362182617 2.479505062103
-110.566757202148 -69.458999633789 -232.458145141602 0.571741580963
71.645515441895 -72.843032836914 -228.225097656250 2.256011486053
83.305755615234 -73.098472595215 -229.836441040039 1.714631557465
-125.870697021484 -69.753173828125 -236.738052368164 2.466662406921
-117.731216430664 -70.105384826660 -232.053634643555 0.964355051517
-10.716940879822 -68.029739379883 -228.726257324219 1.835728526115
71.298934936523 -72.607368469238 -231.820129394531 1.836185216904
63.975486755371 -72.409927368164 -233.673812866211 3.312659263611
72.597190856934 -71.446098327637 -229.904739379883 1.873443961143
-135.902603149414 -66.618080139160 -235.783691406250 2.152247190475
69.488548278809 -72.968864440918 -232.804290771484 0.668599426746
65.536422729492 -69.670745849609 -235.774078369141 1.872186541557
-166.818191528320 -68.223182678223 -232.439544677734 2.188873052597
0.755589008331 -77.434150695801 -241.884490966797 1.830609440804
18.720062255859 -72.553688049316 -240.271728515625 1.402060389519
-6.625479221344 -68.530921936035 -241.592590332031 2.349298954010
15.172040939331 -66.462348937988 -240.046447753906 2.990702390671
65.580825805664 -72.741699218750 -238.622940063477 0.864160776138
8.326101303101 -69.408432006836 -244.214828491211 1.619956731796
-11.507016181946 -65.144142150879 -241.715881347656 2.605920076370
-1.157017946243 -68.047653198242 -238.342788696289 1.612831473351
64.330223083496 -72.377922058105 -242.934341430664 0.967126667500
2.438327074051 -71.651672363281 -243.457504272461 1.112249851227
-7.612158775330 -71.773262023926 -244.096954345703 0.987794935703
13.642939567566 -73.591552734375 -243.734695434570 1.435713291168
-168.124267578125 -71.073738098145 -243.075347900391 2.450528621674
55.435081481934 -71.925018310547 -247.812789916992 1.183948993683
49.433475494385 -66.043693542480 -251.385818481445 1.299853205681
57.576446533203 -72.386718750000 -243.357849121094 1.077133417130
-12.736303329468 -69.246009826660 -248.882614135742 1.933765292168
56.591426849365 -71.449661254883 -246.233245849609 1.444744825363
-74.468620300293 -69.810188293457 -251.222518920898 1.135732293129
50.189567565918 -71.932792663574 -249.248260498047 0.940265655518
-89.315437316895 -69.914291381836 -253.941192626953 1.687138676643
-123.770729064941 -70.793663024902 -258.335357666016 2.443918943405
-132.972122192383 -69.620063781738 -254.646972656250 2.488440275192
45.535926818848 -72.994606018066 -252.496902465820 1.629567146301
-133.159866333008 -72.139343261719 -254.918243408203 1.189909338951
-109.743728637695 -68.107887268066 -256.643005371094 0.317952036858
-116.605781555176 -67.546752929688 -259.044250488281 0.630769670010
-84.318595886230 -70.520759582520 -256.095825195313 2.033802270889
-111.522911071777 -68.103546142578 -260.703765869141 1.423108220100
-124.632141113281 -72.821205139160 -264.109832763672 1.661091446877
-146.982299804688 -66.863281250000 -269.378295898438 3.509910583496
-15.800572395325 -69.336174011230 -266.611541748047 2.421182870865
-171.870666503906 -71.087890625000 -266.424011230469 4.463849544525
-15.051356315613 -70.012283325195 -274.772674560547 1.821877956390
-159.476516723633 -66.023185729980 -269.115905761719 4.353207588196
-153.175506591797 -69.415176391602 -275.258636474609 2.736887454987
-170.387603759766 -68.910636901855 -279.453857421875 4.840519428253
-14.684095382690 -70.550331115723 -280.335571289063 4.162477970123
-130.649917602539 -71.582275390625 -284.868560791016 3.173319101334
-158.461608886719 -68.699073791504 -288.073028564453 3.045183420181
-144.408248901367 -68.226089477539 -282.722595214844 1.834198594093
-135.367492675781 -72.035026550293 -282.244232177734 2.553827524185
-8.586177825928 -64.842063903809 -285.367858886719 4.108480453491
-126.347412109375 -72.730010986328 -285.115478515625 1.080017924309
-141.454254150391 -67.131126403809 -287.335815429688 0.997689187527
-116.199630737305 -72.225807189941 -287.351715087891 1.340026140213
-79.409263610840 -67.844413757324 -289.402069091797 2.571507692337
-61.152256011963 -70.538803100586 -288.333068847656 2.539068460464
-7.452795982361 -71.371788024902 -288.795257568359 1.824965238571
-54.364467620850 -68.804931640625 -286.929046630859 2.577349185944
-57.628070831299 -67.625625610352 -289.848114013672 2.667231559753
-70.819885253906 -68.031967163086 -291.625946044922 3.629835605621
-88.462387084961 -68.615539550781 -295.199462890625 3.509936332703
-95.460327148438 -67.291038513184 -290.432800292969 3.158173561096
-160.757522583008 -67.961563110352 -293.315399169922 3.140496969223
-161.520996093750 -69.723716735840 -295.584960937500 2.972679615021
-125.073654174805 -71.904945373535 -295.557189941406 0.932085752487
-145.078445434570 -69.140686035156 -296.749542236328 2.640279054642
-153.459274291992 -71.012779235840 -305.565063476563 1.857312917709
-150.840621948242 -71.017730712891 -313.959899902344 1.298925757408
46.050117492676 -72.209999084473 -15.239751815796 2.185394048691
14.926128387451 -74.831634521484 -30.593952178955 6.340451717377
40.194408416748 -70.036422729492 -35.276226043701 0.879879891872
-17.129495620728 -75.556190490723 -67.378250122070 2.498226881027
80.192298889160 -71.553855895996 -65.520515441895 2.434408426285
87.088600158691 -69.477066040039 -66.299659729004 0.790483832359
76.257904052734 -76.320861816406 -65.936813354492 5.736963748932
71.123504638672 -74.391914367676 -69.703071594238 3.971651792526
89.611686706543 -75.599586486816 -75.316574096680 2.263464927673
-97.700836181641 -68.612869262695 -71.672737121582 3.228387832642
66.244621276855 -73.662551879883 -75.895690917969 4.560246467590
-38.118907928467 -73.153846740723 -78.478218078613 1.103318214417
97.404739379883 -73.066520690918 -86.177368164063 1.228499054909
59.999492645264 -70.187332153320 -90.890830993652 1.070590972900
105.597923278809 -77.450798034668 -93.949508666992 5.585732936859
100.057563781738 -76.390762329102 -98.734580993652 2.167451143265
70.858192443848 -72.521934509277 -101.100090026855 3.057934522629
-81.633705139160 -70.244705200195 -102.851501464844 2.752762556076
52.905849456787 -72.385086059570 -104.794288635254 2.484307289124
105.691864013672 -70.279174804688 -106.257583618164 1.252449393272
45.646488189697 -72.916282653809 -113.005683898926 1.656040787697
78.461700439453 -71.527282714844 -105.815002441406 2.296854257584
40.189537048340 -71.898063659668 -108.075683593750 1.441280126572
102.784988403320 -72.449188232422 -103.499687194824 0.843909502029
46.109840393066 -71.733375549316 -108.378082275391 2.767253637314
105.770263671875 -77.417282104492 -110.206054687500 3.215935230255
108.682670593262 -75.559135437012 -111.591278076172 0.600678205490
-80.849258422852 -69.232406616211 -115.475379943848 2.590109586716
-84.362686157227 -69.329711914063 -120.691116333008 2.153293848038
42.495536804199 -74.990905761719 -120.690933227539 2.423918962479
112.389381408691 -74.117683410645 -121.523834228516 1.567928791046
112.294631958008 -72.229003906250 -123.791625976563 1.790350794792
-88.636161804199 -70.008934020996 -128.332977294922 0.904082000256
104.578102111816 -74.209487915039 -126.043098449707 5.203235626221
-60.753944396973 -75.185272216797 -133.044509887695 4.185336112976
-87.574043273926 -71.197357177734 -128.654998779297 2.381710529327
-73.946319580078 -71.157409667969 -128.426727294922 1.942889332771
-60.572505950928 -67.380050659180 -127.927680969238 2.096546888351
30.254438400269 -71.426719665527 -130.841461181641 0.944274425507
41.039981842041 -70.240844726563 -135.298171997070 3.254299879074
-74.484458923340 -70.507209777832 -137.882049560547 1.954909563065
27.377998352051 -69.831809997559 -131.610458374023 2.534318208694
110.386970520020 -72.181381225586 -143.117416381836 1.771393060684
-41.448104858398 -70.982955932617 -149.360076904297 1.702511548996
29.115530014038 -72.290039062500 -149.524047851563 2.228533267975
112.640892028809 -70.538818359375 -147.871063232422 2.625331640244
34.252815246582 -72.139587402344 -143.386627197266 1.695707082748
109.080734252930 -70.993858337402 -141.007492065430 1.193631768227
-53.597755432129 -71.052772521973 -150.538970947266 1.218571424484
-72.506881713867 -68.148391723633 -152.205383300781 0.872155249119
-56.361305236816 -71.221923828125 -153.716232299805 3.486725568771
-43.275005340576 -74.042213439941 -166.077377319336 1.374278903008
3.474694967270 -72.430259704590 -156.682632446289 1.763851404190
108.606903076172 -72.200431823730 -153.709930419922 3.316666603088
107.783164978027 -71.781227111816 -159.818817138672 2.546465396881
8.842234611511 -70.569709777832 -158.208007812500 2.488467693329
2.121098041534 -71.108100891113 -162.115829467773 0.869461476803
18.015092849731 -70.536186218262 -155.958984375000 2.849343776703
24.448520660400 -70.008148193359 -156.322113037109 1.664399385452
107.584442138672 -71.388702392578 -165.815734863281 2.655744314194
108.405181884766 -74.817092895508 -167.938629150391 1.785864353180
22.852121353149 -68.454772949219 -175.041091918945 2.590781211853
23.806873321533 -73.203575134277 -164.518554687500 3.062571525574
111.066177368164 -69.982673645020 -162.138809204102 1.568191051483
-30.187263488770 -69.449607849121 -178.159042358398 1.230902433395
109.070716857910 -71.998695373535 -167.942077636719 1.816267251968
16.388036727905 -71.555732727051 -168.321533203125 2.194173574448
20.488180160522 -70.979293823242 -168.415313720703 2.044329643250
107.432716369629 -71.877700805664 -173.044784545898 1.989596366882
25.627964019775 -70.252059936523 -171.028793334961 0.483874320984
111.260589599609 -70.906303405762 -183.861968994141 1.753825426102
-39.353004455566 -69.843780517578 -178.739379882813 3.937979936600
24.003484725952 -70.674339294434 -171.769042968750 1.468630790710
106.457748413086 -71.387756347656 -184.046554565430 1.997666597366
22.031629562378 -71.921424865723 -179.253387451172 0.723841071129
-152.867355346680 -68.013641357422 -188.166061401367 1.051197171211
-29.195037841797 -67.464050292969 -190.275985717773 1.177877068520
23.582160949707 -68.824188232422 -185.544357299805 1.788354039192
-114.753967285156 -71.050010681152 -193.363357543945 2.236313819885
-111.824836730957 -67.301673889160 -192.756607055664 2.645394325256
22.773155212402 -71.330215454102 -189.208999633789 0.817203581333
10.661913871765 -68.892944335938 -185.749603271484 4.521009922028
-27.865491867065 -67.827659606934 -191.159637451172 1.151719450951
-30.666240692139 -74.102050781250 -190.236221313477 1.004585146904
-29.020744323730 -70.719779968262 -188.165267944336 2.374854087830
13.767748832703 -68.853157043457 -180.685440063477 2.225843667984
-151.812591552734 -69.234680175781 -196.774597167969 2.540166616440
-146.324645996094 -68.995353698730 -194.510452270508 2.758734226227
-145.352737426758 -72.125221252441 -200.017517089844 1.818538427353
-23.895437240601 -69.421218872070 -192.323318481445 2.083611726761
12.728693962097 -68.393470764160 -200.276275634766 0.890636444092
97.890945434570 -70.478370666504 -193.585800170898 2.192164421082
-114.657745361328 -68.398521423340 -199.817428588867 3.228048086166
20.300901412964 -73.817558288574 -199.086639404297 2.083840131760
-16.269491195679 -69.302604675293 -196.447906494141 0.796779453754
-18.653419494629 -69.649574279785 -199.639358520508 2.334451913834
100.038467407227 -70.082870483398 -199.765304565430 2.314944982529
6.982590198517 -72.321327209473 -200.076385498047 2.402128458023
-22.907756805420 -68.575813293457 -197.417968750000 2.009907484055
-122.280647277832 -72.268211364746 -204.652297973633 2.475775241852
-135.092880249023 -69.394874572754 -204.903900146484 2.314646959305
-114.951423645020 -65.052688598633 -206.381988525391 3.016554117203
-143.104690551758 -71.920860290527 -205.071960449219 1.559560537338
16.569812774658 -70.191703796387 -198.474746704102 1.209486246109
92.884056091309 -72.353668212891 -202.163681030273 0.722857058048
-166.816390991211 -64.597679138184 -203.208206176758 2.450089454651
99.083374023438 -70.822959899902 -202.444625854492 1.615375995636
-22.559722900391 -73.697296142578 -207.059341430664 3.447633743286
93.748374938965 -69.006797790527 -210.831542968750 1.281190037727
87.194046020508 -72.351966857910 -211.888641357422 1.202025771141
11.226254463196 -72.063598632813 -206.771438598633 1.858323097229
18.913280487061 -69.816795349121 -212.730560302734 1.310979962349
11.972357749939 -67.598114013672 -208.603713989258 0.586497724056
-11.670754432678 -70.342025756836 -223.330108642578 2.589270830154
-95.263046264648 -71.267829895020 -220.022994995117 2.060409307480
-11.312888145447 -72.155616760254 -213.231033325195 2.402209997177
88.219184875488 -71.129501342773 -216.677474975586 1.487250208855
-94.390625000000 -71.490173339844 -219.098022460938 2.174435615540
-101.934379577637 -67.051895141602 -222.630386352539 1.374177575111
-95.271743774414 -69.980247497559 -220.910888671875 1.658197760582
87.415725708008 -72.413932800293 -222.366973876953 1.236118674278
-136.083862304688 -69.359077453613 -226.805191040039 2.276230335236
-133.255172729492 -72.786987304688 -228.388137817383 1.328915238380
-117.445312500000 -68.998214721680 -226.358444213867 2.312527418137
-113.893051147461 -66.565292358398 -224.679428100586 2.375709772110
-134.112976074219 -67.535888671875 -228.824188232422 3.382982969284
-112.528984069824 -75.647895812988 -229.090225219727 2.841364860535
-112.979606628418 -68.970832824707 -229.572082519531 2.672001838684
-7.680531024933 -73.216735839844 -225.599334716797 1.073597550392
-16.758016586304 -72.205574035645 -224.170257568359 2.097848176956
-1.715265035629 -68.109130859375 -231.323562622070 0.775964856148
-10.915890693665 -67.221839904785 -227.920272827148 0.779828131199
14.648307800293 -70.890022277832 -234.336608886719 0.965077280998
-19.606901168823 -68.264381408691 -230.115997314453 3.523519515991
-167.637512207031 -67.159080505371 -224.091339111328 1.744128465652
-4.844239234924 -69.973579406738 -234.391372680664 0.754356026649
80.082946777344 -67.981147766113 -231.618759155273 3.089945077896
10.219127655029 -71.874290466309 -234.515274047852 1.647666692734
-6.618268013000 -69.262199401855 -235.707839965820 1.870193123817
-157.568908691406 -66.460769653320 -238.253250122070 2.783970117569
-143.031219482422 -67.440246582031 -232.085357666016 1.344611167908
61.882141113281 -69.303405761719 -236.441329956055 0.977465808392
-6.395195007324 -70.904983520508 -235.065139770508 0.771749794483
8.543967247009 -72.161483764648 -231.600173950195 2.224753379822
68.663490295410 -72.824996948242 -230.824722290039 0.918366372585
76.228721618652 -71.096336364746 -234.792465209961 1.403270244598
70.344490051270 -71.686866760254 -241.899291992188 1.909904718399
-2.314682006836 -72.766349792480 -236.640228271484 1.009294509888
57.350383758545 -68.868148803711 -238.528076171875 2.110539913177
-19.732688903809 -72.328720092773 -240.763839721680 1.663295269012
-15.950764656067 -67.571113586426 -241.349945068359 2.569473028183
7.529156208038 -69.955795288086 -240.213912963867 1.861927032471
64.054046630859 -73.691368103027 -238.483276367188 0.768737792969
64.761497497559 -69.084953308105 -241.192337036133 1.932766795158
48.956768035889 -70.557205200195 -246.761795043945 2.346157550812
60.433696746826 -73.539710998535 -243.339431762695 2.361162662506
-16.200538635254 -74.115440368652 -250.692382812500 3.160871744156
-84.197929382324 -66.552825927734 -255.498168945313 2.862244844437
-77.461387634277 -67.192039489746 -254.228729248047 3.061391592026
43.594055175781 -73.029281616211 -248.474121093750 2.605407714844
-149.774108886719 -69.693901062012 -252.377685546875 2.175511598587
35.408111572266 -70.117805480957 -256.934753417969 2.527425527573
-92.696907043457 -72.492202758789 -253.331649780273 2.097101449966
-156.840087890625 -64.824615478516 -256.390960693359 1.529067516327
-140.907608032227 -62.593921661377 -254.898040771484 2.121609449387
44.554203033447 -70.064765930176 -254.169830322266 2.008991241455
-125.556838989258 -64.922355651855 -259.394134521484 0.246609404683
-117.493041992188 -69.044502258301 -256.873229980469 1.746072292328
-92.941177368164 -65.090614318848 -258.427581787109 3.166997671127
-14.312389373779 -66.611381530762 -251.322921752930 2.639543294907
31.281837463379 -69.765274047852 -257.927429199219 1.814457178116
24.382555007935 -67.462677001953 -260.197296142578 2.146562337875
-159.517990112305 -64.040206909180 -262.006195068359 3.946810960770
-115.340522766113 -71.315650939941 -264.208068847656 1.171654939651
-14.495392799377 -69.282440185547 -262.912750244141 1.211053252220
-133.350921630859 -68.299354553223 -266.979644775391 3.318436861038
-14.661141395569 -68.269004821777 -271.260620117188 2.251811981201
-165.416046142578 -67.369812011719 -274.279174804688 3.129484891891
-7.814555168152 -70.368003845215 -280.418121337891 2.232849597931
-161.348251342773 -68.279991149902 -289.547271728516 1.530874133110
-164.394378662109 -69.863945007324 -279.669006347656 2.333425521851
-143.097290039063 -68.368766784668 -286.857666015625 1.276419281960
-170.684020996094 -69.843757629395 -286.471801757813 2.788743495941
13.539970397949 -71.688034057617 -288.821075439453 1.435243368149
-103.664024353027 -69.483291625977 -287.998504638672 2.037762403488
-87.656906127930 -64.607154846191 -287.313964843750 4.526148319244
-168.262680053711 -65.204399108887 -286.328308105469 4.723533153534
-92.568420410156 -72.411186218262 -285.429046630859 3.275367498398
-154.208114624023 -68.466690063477 -290.189147949219 2.944803953171
-75.952842712402 -69.546951293945 -294.928131103516 4.714014053345
-71.128822326660 -68.074531555176 -289.986236572266 3.049602270126
-83.030441284180 -69.612876892090 -292.665374755859 2.344398498535
-4.188568115234 -66.782081604004 -289.832977294922 2.119628429413
-88.531829833984 -68.550994873047 -290.007537841797 2.174488782883
-99.510238647461 -69.849700927734 -292.372375488281 1.286366820335
-117.162368774414 -68.619422912598 -294.188507080078 2.258967638016
-117.060089111328 -65.662620544434 -294.292694091797 3.633866071701
-134.673370361328 -67.535377502441 -293.809020996094 2.679753303528
-143.276672363281 -68.208297729492 -302.460754394531 1.694521188736
-144.657440185547 -69.296272277832 -313.426757812500 2.632704257965
22.080877304077 -70.479179382324 -15.854792594910 3.309599161148
30.519163131714 -71.742721557617 -17.076042175293 0.901228308678
27.541933059692 -74.328826904297 -18.973468780518 2.027897119522
42.389801025391 -70.526939392090 -21.163908004761 1.641570925713
23.186624526978 -72.056449890137 -32.368267059326 1.182502031326
-76.520637512207 -69.247863769531 -48.281318664551 2.940899133682
88.203300476074 -68.056427001953 -65.788787841797 0.909708619118
-19.117389678955 -69.416336059570 -68.448478698730 3.069184064865
101.166313171387 -71.175041198730 -73.122886657715 2.356965303421
93.602050781250 -75.884750366211 -75.930786132813 1.712249398232
67.062103271484 -73.247535705566 -78.935066223145 2.821096420288
68.814987182617 -75.055580139160 -83.066871643066 2.312144279480
-46.121540069580 -74.006683349609 -83.540710449219 1.704741120338
59.717273712158 -75.039474487305 -82.897834777832 5.060374736786
-95.818901062012 -70.636940002441 -89.664466857910 1.565670609474
-50.605590820313 -68.499046325684 -86.316070556641 1.597707152367
-57.343132019043 -77.227333068848 -88.761451721191 3.587369441986
99.614494323730 -77.278373718262 -97.854103088379 3.070954084396
57.819576263428 -74.717605590820 -92.763389587402 1.336461901665
64.511817932129 -71.002746582031 -91.433670043945 2.776433467865
-97.023788452148 -64.866142272949 -98.206413269043 2.427659034729
106.482215881348 -73.469299316406 -93.278099060059 4.192507743835
42.775806427002 -70.138488769531 -99.479240417480 1.495562791824
100.081443786621 -71.676841735840 -98.320739746094 1.279829978943
105.478744506836 -69.848083496094 -106.146537780762 1.635851979256
99.976943969727 -72.190727233887 -104.750968933105 3.729740142822
72.531562805176 -73.858840942383 -101.100921630859 2.535669326782
86.000534057617 -73.754638671875 -106.853042602539 4.335375308990
48.754550933838 -71.116371154785 -111.699226379395 2.322138547897
109.354713439941 -69.826698303223 -103.722595214844 1.172985672951
44.892707824707 -73.904151916504 -105.978660583496 3.028326034546
39.262107849121 -69.515754699707 -102.107032775879 2.871761322021
111.488929748535 -72.285224914551 -110.492614746094 1.280169487000
-79.783744812012 -67.384407043457 -110.847511291504 1.457731962204
44.859184265137 -70.444396972656 -113.380401611328 1.564176082611
33.505874633789 -73.033294677734 -115.660217285156 2.434525728226
104.222023010254 -69.572242736816 -110.243850708008 2.701145172119
38.176620483398 -68.417213439941 -112.029350280762 2.317142486572
-89.307510375977 -69.429382324219 -114.123336791992 1.842793703079
-96.776695251465 -66.857673645020 -116.071800231934 2.594347715378
102.818870544434 -74.820236206055 -119.340972900391 4.159955501556
-95.997245788574 -70.978126525879 -119.931167602539 2.524449825287
37.757881164551 -73.057479858398 -121.839057922363 2.939401626587
35.771587371826 -70.728591918945 -121.318885803223 1.735165238380
-84.590034484863 -69.324737548828 -125.420967102051 1.944693446159
31.301473617554 -69.048614501953 -135.246429443359 1.156569004059
109.719573974609 -72.950111389160 -131.367706298828 0.658523917198
-53.728992462158 -69.561004638672 -137.077301025391 3.132917165756
-89.357627868652 -68.367462158203 -132.856430053711 2.288093090057
36.788337707520 -74.084159851074 -132.226119995117 2.135765552521
-90.153961181641 -65.268417358398 -137.064926147461 1.170475721359
-89.992591857910 -71.442573547363 -140.859115600586 4.009654521942
-50.761585235596 -71.012939453125 -137.820571899414 2.118199825287
-71.905334472656 -67.761428833008 -140.622329711914 1.260966300964
-51.797187805176 -68.914970397949 -134.462631225586 2.302129268646
114.360839843750 -68.991889953613 -137.634902954102 1.382383942604
-74.324630737305 -70.970932006836 -137.947555541992 1.991669535637
35.397388458252 -71.173851013184 -131.843322753906 1.421540260315
-79.743789672852 -68.386962890625 -141.287811279297 2.107551813126
-74.415901184082 -69.249618530273 -136.884841918945 1.513729453087
-92.427558898926 -67.313087463379 -141.346847534180 2.447331428528
-54.869602203369 -67.541656494141 -148.045791625977 1.206497907639
30.447895050049 -66.789009094238 -146.322174072266 2.089129447937
26.537988662720 -68.783973693848 -150.100631713867 0.807948231697
18.153774261475 -65.911796569824 -144.936538696289 1.353615403175
111.804244995117 -70.806571960449 -146.418716430664 2.650262832642
-94.472373962402 -67.602256774902 -153.704727172852 1.973406553268
12.003964424133 -71.745101928711 -153.085220336914 1.188360929489
-72.898704528809 -68.732803344727 -154.432327270508 2.242942094803
22.481632232666 -69.454948425293 -150.378753662109 1.909788250923
-50.112102508545 -68.474273681641 -156.411315917969 2.436181068420
8.605630874634 -68.841041564941 -153.930358886719 2.006280899048
14.141053199768 -72.478782653809 -159.084930419922 1.724128723145
16.846534729004 -74.262130737305 -164.582275390625 2.286478281021
-49.843685150146 -71.296524047852 -163.571548461914 3.003988027573
-40.136539459229 -68.627990722656 -155.784133911133 1.390626668930
-47.303451538086 -69.764076232910 -162.026000976563 0.356859505177
-104.548454284668 -69.162094116211 -173.230712890625 2.121109962463
20.879745483398 -71.023559570313 -174.687850952148 1.742476344109
-35.603652954102 -69.106872558594 -176.888977050781 1.373099923134
14.582056045532 -73.469764709473 -179.007110595703 2.417743444443
-144.476730346680 -68.194808959961 -177.239151000977 0.867515981197
-33.072456359863 -66.510971069336 -173.707031250000 2.011986494064
-155.889846801758 -72.466522216797 -179.419265747070 3.983417272568
22.652200698853 -65.786079406738 -182.402526855469 3.669589519501
-33.805377960205 -70.388305664063 -172.410827636719 1.503086328506
-108.497077941895 -66.916244506836 -178.984466552734 1.912329077721
-107.961677551270 -72.479667663574 -184.878036499023 3.771709918976
-30.759040832520 -65.009727478027 -186.087677001953 4.256813526154
-24.471176147461 -73.222335815430 -182.684188842773 2.221580028534
13.208282470703 -68.739059448242 -189.955856323242 3.077279090881
16.258682250977 -67.261550903320 -197.868209838867 2.101962804794
13.071632385254 -69.585647583008 -187.645965576172 2.903305053711
-143.641311645508 -67.049591064453 -188.960510253906 1.917150974274
20.825775146484 -66.403656005859 -190.559371948242 3.084877490997
6.813443183899 -69.351112365723 -197.466476440430 1.870279073715
-137.833389282227 -66.577842712402 -195.889892578125 3.872151136398
-115.080970764160 -67.907569885254 -196.766830444336 0.495412707329
14.193327903748 -67.938278198242 -201.862594604492 1.318682312965
-117.088066101074 -67.140266418457 -198.147338867188 2.982214927673
-108.494148254395 -63.752372741699 -193.448989868164 3.410005807877
-166.058349609375 -68.946922302246 -201.738571166992 0.766534686089
-25.022354125977 -68.105911254883 -200.903640747070 1.427780747414
12.197544097900 -68.030639648438 -200.936126708984 0.885288000107
-143.686203002930 -68.096977233887 -205.473754882813 1.808815836906
-136.489852905273 -69.715568542480 -207.857940673828 4.573912143707
-20.775156021118 -67.426292419434 -208.157943725586 2.061289548874
-12.613907814026 -70.224365234375 -205.394958496094 0.635031878948
-15.474485397339 -69.719268798828 -206.806518554688 1.571612954140
-141.540039062500 -71.039543151855 -205.983795166016 2.975654363632
-17.187242507935 -69.338653564453 -213.777084350586 1.486356616020
-11.147410392761 -72.635940551758 -215.160110473633 3.620995521545
16.914644241333 -66.929924011230 -211.669204711914 2.162540435791
-15.545701980591 -72.320991516113 -212.388427734375 0.645291984081
9.825237274170 -69.584434509277 -210.785186767578 1.399016499519
-11.024124145508 -69.935104370117 -216.450759887695 2.057817220688
-21.624856948853 -66.499320983887 -212.853286743164 5.255054473877
12.040790557861 -73.535087585449 -221.768035888672 2.645127058029
-2.216135978699 -73.837249755859 -220.634094238281 1.100383639336
10.645266532898 -65.909431457520 -221.894531250000 1.562639951706
-6.612547874451 -70.943740844727 -227.739883422852 1.051631331444
-159.356872558594 -68.098648071289 -226.975280761719 1.553886890411
80.219230651855 -72.144523620605 -220.507568359375 2.423596620560
-135.802154541016 -65.914794921875 -225.886947631836 1.823176503181
-135.609497070313 -69.379547119141 -224.709518432617 1.881493926048
-8.972449302673 -69.719810485840 -226.097976684570 2.583691596985
8.050183296204 -68.913215637207 -234.598846435547 1.603049039841
-157.424621582031 -67.143150329590 -231.217758178711 1.600591540337
87.463996887207 -68.715347290039 -220.339477539063 1.792345643044
-2.696105957031 -67.916549682617 -226.562881469727 1.988295316696
0.055470000952 -69.795204162598 -223.802001953125 1.960309624672
73.464714050293 -72.332923889160 -229.811279296875 1.475114703178
0.148341998458 -66.856208801270 -235.661895751953 1.694366931915
-15.276914596558 -70.777976989746 -228.070190429688 2.257166147232
-126.984046936035 -66.198921203613 -235.821655273438 1.980020999908
-4.744620800018 -68.664726257324 -237.737884521484 2.006018400192
1.974444031715 -66.928153991699 -232.764175415039 0.790438354015
65.576156616211 -67.782279968262 -238.736709594727 1.252866625786
-158.719070434570 -68.574989318848 -239.974578857422 2.037659406662
-12.923027992249 -68.233810424805 -245.597106933594 1.949765563011
-169.572814941406 -69.470252990723 -240.624862670898 2.568959951401
9.433311462402 -66.374984741211 -242.831283569336 2.114445209503
-165.045272827148 -68.024223327637 -240.758102416992 0.612149357796
-161.199386596680 -68.586486816406 -247.860763549805 1.914422750473
56.596775054932 -69.362228393555 -245.782165527344 0.841218352318
61.809715270996 -70.822532653809 -243.191772460938 1.530997276306
55.709598541260 -69.954849243164 -245.042144775391 1.018745899200
51.327205657959 -69.264350891113 -249.512527465820 1.003260970116
-155.886138916016 -68.066619873047 -245.772766113281 1.739142417908
-156.906906127930 -64.984642028809 -250.177032470703 4.194533824921
-13.789075851440 -71.471107482910 -250.374908447266 0.836668789387
-151.810455322266 -66.943069458008 -248.450439453125 1.990823268890
19.228820800781 -70.397140502930 -251.977722167969 2.398996353149
-170.178771972656 -71.608512878418 -252.957794189453 2.592507362366
-168.023788452148 -65.551681518555 -250.142379760742 3.255386590958
-82.573257446289 -69.407936096191 -250.253707885742 1.967608690262
-169.812026977539 -66.641723632813 -261.660491943359 2.984951734543
-85.779685974121 -67.502784729004 -258.087371826172 3.155453443527
42.128852844238 -68.379486083984 -253.861526489258 1.201082587242
21.835651397705 -72.222358703613 -257.071563720703 1.496956110001
-159.052383422852 -67.882453918457 -263.672058105469 2.031054735184
-101.164154052734 -62.362205505371 -261.033660888672 3.023507118225
38.848041534424 -69.368049621582 -256.433502197266 1.129262328148
-105.284385681152 -73.782707214355 -260.619903564453 1.909071445465
-154.423126220703 -62.972808837891 -266.668548583984 2.988310575485
-105.584762573242 -66.653861999512 -259.991088867188 2.371757030487
-168.253829956055 -68.934211730957 -261.530151367188 0.321200430393
-113.492683410645 -68.584060668945 -264.900970458984 4.195740699768
-153.665740966797 -69.186874389648 -267.563781738281 2.330476999283
-158.929656982422 -65.582611083984 -265.364044189453 3.119186401367
-166.419281005859 -66.416809082031 -265.622039794922 3.234238386154
-164.438507080078 -65.421661376953 -264.148712158203 2.875313758850
-166.079406738281 -67.042472839355 -267.587829589844 1.738223195076
-166.099822998047 -67.668144226074 -264.575622558594 1.955728054047
25.409219741821 -70.159561157227 -266.045776367188 1.069594860077
-150.241668701172 -70.418334960938 -265.483947753906 2.328767538071
-150.056167602539 -66.581085205078 -285.982727050781 0.664508163929
24.410612106323 -69.662826538086 -277.212707519531 2.525300741196
-12.002867698669 -70.116317749023 -275.468597412109 2.086383104324
-126.072868347168 -66.011802673340 -286.038513183594 0.673819184303
-136.628631591797 -68.092353820801 -287.807617187500 0.568009376526
-134.711624145508 -66.157875061035 -290.209136962891 0.747034072876
-127.131988525391 -67.808403015137 -287.573333740234 1.207880735397
-114.605346679688 -66.182800292969 -291.478698730469 0.844392955303
-105.575248718262 -64.146583557129 -287.062744140625 3.753998517990
9.030017852783 -71.276062011719 -293.352569580078 3.221824407578
-85.267547607422 -68.309593200684 -291.376770019531 1.630605816841
-149.389892578125 -67.638664245605 -290.138244628906 0.998648762703
-101.976623535156 -67.622940063477 -292.255065917969 2.520800113678
-129.492599487305 -64.748107910156 -293.542053222656 2.744918584824
9.306217193604 -71.025077819824 -289.068237304688 2.706212043762
-112.264991760254 -62.387672424316 -290.621124267578 4.795502185822
2.650475025177 -68.701148986816 -294.084075927734 2.200139999390
-143.472732543945 -66.617897033691 -290.550872802734 1.094765424728
-153.215957641602 -67.418869018555 -297.770843505859 2.374031543732
-158.165542602539 -66.258117675781 -315.976867675781 6.314592361450
-155.383438110352 -65.912940979004 -313.645141601563 3.349944114685
46.208183288574 -73.896697998047 -25.228273391724 2.013578414917
21.734802246094 -71.615768432617 -36.178382873535 1.187501907349
29.238323211670 -72.566795349121 -37.271945953369 2.093752861023
-46.431606292725 -72.545951843262 -48.558578491211 2.881333112717
-14.143510818481 -68.852073669434 -63.085479736328 1.426615118980
92.861892700195 -72.734519958496 -68.718742370605 2.154365777969
67.265480041504 -67.319366455078 -69.996856689453 2.302776813507
-25.616748809814 -70.293334960938 -75.345390319824 1.740677714348
-99.422706604004 -73.269386291504 -87.753128051758 4.277361392975
-43.888000488281 -70.115898132324 -83.592300415039 2.268480777740
60.152099609375 -70.360069274902 -81.914726257324 2.494087696075
60.820808410645 -73.363967895508 -86.457603454590 1.873812317848
52.122833251953 -68.708137512207 -88.067893981934 0.641918361187
-60.254646301270 -68.652427673340 -91.404159545898 1.323131561279
65.475257873535 -67.313095092773 -89.701164245605 1.697423100471
42.321384429932 -73.783920288086 -98.486953735352 2.765577077866
67.118865966797 -72.505699157715 -95.130317687988 4.333164215088
-63.585140228271 -67.827110290527 -97.122558593750 2.919992208481
48.778297424316 -72.575889587402 -93.732261657715 1.445718646049
44.347057342529 -72.238632202148 -98.958503723145 1.506066918373
102.038238525391 -68.468620300293 -100.748352050781 1.131028652191
-67.817024230957 -69.411788940430 -100.005905151367 0.629016935825
109.279167175293 -70.637336730957 -100.544860839844 2.005730628967
-80.351829528809 -71.332916259766 -102.325798034668 1.634966015816
53.185031890869 -73.143966674805 -105.499633789063 2.199713468552
46.699951171875 -68.875587463379 -101.211372375488 1.857283353806
90.544662475586 -69.229301452637 -104.076248168945 1.907465815544
83.220771789551 -69.373031616211 -106.941047668457 2.554387807846
53.508045196533 -70.488227844238 -105.027915954590 0.853027164936
-77.563224792480 -69.787933349609 -112.241600036621 0.712765038013
-78.049125671387 -68.364143371582 -116.083282470703 1.265228033066
-81.609840393066 -70.233200073242 -119.529174804688 1.727198839188
-94.439292907715 -73.519721984863 -119.754035949707 2.332738161087
103.701072692871 -65.966209411621 -116.639724731445 3.371134996414
-89.622001647949 -71.228157043457 -120.245101928711 2.628269195557
-77.852989196777 -65.520439147949 -122.357109069824 1.384763002396
108.320777893066 -69.704780578613 -116.183761596680 2.421221017838
-62.750736236572 -61.990756988525 -119.028015136719 0.407297313213
112.544898986816 -73.998397827148 -131.597793579102 1.358405828476
108.883567810059 -72.067207336426 -129.578872680664 1.578308463097
106.102058410645 -71.729728698730 -125.971046447754 2.714891433716
-94.552505493164 -69.090324401855 -138.995330810547 2.079869031906
-48.111129760742 -68.963027954102 -142.762527465820 1.410927414894
-80.191307067871 -66.708099365234 -145.597702026367 4.984792709351
-70.362663269043 -68.715774536133 -150.059829711914 0.779199063778
-71.292808532715 -67.359466552734 -149.007720947266 1.328527450562
-56.223911285400 -68.258537292480 -144.621383666992 0.714250087738
-48.025791168213 -72.573417663574 -146.996246337891 2.791989803314
15.338596343994 -69.623054504395 -147.014373779297 2.456796646118
-95.189125061035 -65.611297607422 -144.058181762695 0.211206898093
-46.743453979492 -67.570480346680 -148.205856323242 1.796807765961
-53.148468017578 -63.133396148682 -148.580383300781 5.164237022400
-43.084205627441 -67.134468078613 -155.756072998047 1.433948874474
26.548858642578 -71.538383483887 -162.460372924805 2.365404367447
-51.061286926270 -69.165382385254 -151.949157714844 1.555722832680
-101.426826477051 -64.468994140625 -150.658477783203 1.837348103523
-46.297901153564 -66.044593811035 -157.720932006836 3.944248914719
24.660345077515 -71.483757019043 -148.750030517578 1.500459551811
-99.530021667480 -72.946456909180 -164.307601928711 4.864910125732
21.717397689819 -71.424308776855 -158.259643554688 2.554964780807
-108.548622131348 -65.463470458984 -171.097427368164 3.354961156845
-102.022850036621 -68.469879150391 -164.920486450195 1.485595583916
21.258436203003 -69.183158874512 -165.515930175781 1.882811188698
25.279783248901 -67.700645446777 -168.389999389648 0.992343485355
-109.220863342285 -70.071044921875 -174.960479736328 2.124302864075
-142.955947875977 -65.696487426758 -176.063812255859 1.507015466690
-20.617673873901 -69.039299011230 -190.207717895508 2.142641305923
-28.244960784912 -67.884971618652 -182.532989501953 1.453192710876
-116.137931823730 -68.944145202637 -188.345291137695 2.884938955307
-144.545288085938 -63.243915557861 -188.492935180664 1.118415117264
-104.208946228027 -65.354248046875 -182.881393432617 1.847412228584
-158.787750244141 -67.474578857422 -192.132553100586 2.325594902039
-132.011749267578 -71.525993347168 -196.749252319336 1.799325585365
-133.964691162109 -69.340385437012 -197.688796997070 1.994888305664
-20.596324920654 -66.979133605957 -190.231246948242 1.986659169197
-121.050552368164 -68.129806518555 -199.413803100586 2.578606843948
-117.688430786133 -64.402198791504 -200.340332031250 0.973998069763
-27.681514739990 -70.397598266602 -195.465408325195 1.320992469788
-155.025604248047 -64.951286315918 -199.469329833984 2.213318586349
-132.917816162109 -69.153297424316 -206.355880737305 2.333921909332
-125.590301513672 -65.386642456055 -205.944732666016 2.144328832626
17.406068801880 -70.785926818848 -202.483886718750 1.339904546738
-162.672576904297 -66.547935485840 -204.843261718750 2.463680028915
10.609114646912 -67.694282531738 -215.942291259766 0.591876387596
13.298089027405 -69.686134338379 -215.360855102539 1.385343074799
-17.636562347412 -65.047241210938 -209.822280883789 4.203290462494
-5.653325080872 -68.613586425781 -217.155731201172 1.607870578766
-170.647109985352 -64.396446228027 -212.022338867188 6.591670036316
-159.688308715820 -63.715465545654 -214.575988769531 3.958682537079
-95.305770874023 -67.348197937012 -219.773925781250 2.161671161652
-99.211029052734 -68.955947875977 -224.133407592773 1.039235711098
-161.520584106445 -67.265159606934 -226.867904663086 2.115916967392
-107.071815490723 -65.659065246582 -220.675415039063 2.042016744614
-12.687417030334 -66.876113891602 -215.008193969727 0.857556045055
-128.037796020508 -68.752517700195 -223.859741210938 1.654451251030
-142.696182250977 -67.657951354980 -225.679489135742 1.111547589302
-3.725893974304 -69.836853027344 -222.111389160156 1.852499365807
-134.859680175781 -65.537528991699 -226.332260131836 1.592271447182
-124.361228942871 -71.009902954102 -224.762496948242 1.503498315811
-114.932022094727 -69.253654479980 -226.236465454102 1.224655270576
-0.178078994155 -63.810432434082 -228.856689453125 4.001845359802
-107.787887573242 -65.830543518066 -232.093063354492 2.472543478012
-160.982711791992 -61.818489074707 -224.612792968750 3.561686277390
-147.219131469727 -66.038124084473 -228.425460815430 1.347225546837
-165.977981567383 -66.189041137695 -226.911499023438 1.227796912193
-8.501629829407 -67.807540893555 -227.513916015625 2.469364166260
-8.945809364319 -68.391166687012 -233.407608032227 1.522066354752
77.854522705078 -71.315483093262 -225.846893310547 0.740009188652
-0.687969028950 -70.220909118652 -230.306610107422 1.437613844872
-143.489868164063 -66.655754089355 -237.834960937500 2.666571378708
-14.779814720154 -66.693824768066 -230.031799316406 2.924560546875
73.511779785156 -69.418991088867 -228.415283203125 1.503209471703
74.138412475586 -69.473777770996 -233.464218139648 1.712899088860
-135.099822998047 -65.595611572266 -234.049453735352 1.103755354881
-157.966934204102 -69.191650390625 -230.186355590820 1.232939481735
-114.715103149414 -65.861122131348 -234.408813476563 1.988561153412
-125.197586059570 -62.966789245605 -237.153991699219 3.229973793030
-164.205276489258 -65.375473022461 -236.636459350586 2.181153535843
-160.616012573242 -67.010368347168 -237.469543457031 1.580559730530
-147.222610473633 -63.292530059814 -235.810363769531 0.823552012444
