15.156765937805 -74.760803222656 -290.811126708984 1.258825540543
-133.940109252930 -70.553390502930 -296.171051025391 2.026755809784
-143.986297607422 -73.712478637695 -301.108001708984 1.801961302757
-149.883575439453 -71.623512268066 -315.218200683594 2.783609390259
41.444019317627 -74.662132263184 -13.621981620789 2.108453273773
28.523942947388 -75.003273010254 -11.866456985474 3.300167083740
37.708663940430 -75.314392089844 -15.367370605469 3.838207960129
20.460138320923 -71.895317077637 -18.832427978516 2.141885757446
43.456291198730 -73.160484313965 -22.252490997314 2.154079198837
24.061737060547 -73.208000183105 -24.055648803711 0.652337789536
22.290859222412 -75.225196838379 -27.614957809448 3.106159210205
23.427490234375 -75.682403564453 -38.388717651367 4.762987136841
38.093898773193 -77.087844848633 -30.761009216309 6.557065963745
24.880828857422 -78.331604003906 -36.439010620117 6.972128868103
41.701007843018 -73.740013122559 -37.566207885742 3.331452608109
30.495536804199 -75.427078247070 -39.447463989258 3.284322738647
37.373001098633 -76.331398010254 -35.896453857422 4.172389507294
29.598022460938 -74.041725158691 -39.979217529297 2.519871711731
42.252361297607 -74.950813293457 -41.075935363770 2.694151163101
32.353492736816 -74.428085327148 -38.994232177734 2.500873327255
-42.245574951172 -72.489448547363 -49.023235321045 3.048758983612
-31.330276489258 -69.388221740723 -51.284938812256 1.317023158073
-90.621078491211 -72.199028015137 -56.030033111572 5.025754451752
-90.216140747070 -74.447235107422 -66.810043334961 3.716159105301
76.751388549805 -77.364990234375 -66.139083862305 6.554022312164
83.229522705078 -74.685447692871 -71.865623474121 1.220598697662
-20.721416473389 -72.128166198730 -74.058982849121 1.495460271835
-89.340377807617 -73.619918823242 -72.954055786133 0.745996594429
-26.230455398560 -73.299041748047 -77.302810668945 1.931267142296
-50.660324096680 -74.719985961914 -85.770507812500 2.766467094421
64.976036071777 -70.925277709961 -85.736045837402 1.473433136940
51.813991546631 -73.436737060547 -92.882965087891 1.837652802467
98.593536376953 -73.028869628906 -90.552268981934 1.507151126862
68.567321777344 -76.006767272949 -96.058380126953 3.020527839661
-69.160980224609 -74.830825805664 -92.038185119629 4.131453990936
-63.044994354248 -71.582374572754 -98.789802551270 4.067226409912
43.954387664795 -74.748199462891 -97.131500244141 1.627151966095
76.586708068848 -73.108757019043 -99.207809448242 1.262355804443
53.648166656494 -81.237617492676 -104.662506103516 2.969660758972
100.408973693848 -74.341003417969 -95.691268920898 2.578266859055
-95.995811462402 -74.630088806152 -108.521156311035 2.084078550339
39.115131378174 -74.366203308105 -110.418952941895 2.073776960373
106.281730651855 -75.445907592773 -107.713165283203 1.258293390274
47.764511108398 -74.035636901855 -110.894271850586 1.567291021347
100.732330322266 -75.500129699707 -108.771575927734 3.781852722168
-86.155029296875 -73.063880920410 -116.444595336914 2.965201616287
35.075809478760 -77.195526123047 -111.669456481934 3.599227666855
105.948020935059 -73.406852722168 -115.748611450195 1.995221614838
104.039062500000 -71.938392639160 -114.751731872559 1.181581020355
104.820411682129 -74.864486694336 -114.077674865723 1.399443745613
109.820877075195 -73.569252014160 -113.471427917480 1.850778818130
39.155143737793 -75.772445678711 -109.907119750977 1.723657965660
31.384290695190 -71.588623046875 -117.084472656250 2.279255390167
40.216739654541 -73.686759948730 -113.829994201660 2.499031305313
106.143470764160 -75.726135253906 -120.727752685547 2.478353500366
39.499332427979 -72.363014221191 -122.924118041992 1.020598411560
108.530754089355 -73.508476257324 -131.058044433594 1.248106360435
110.396057128906 -73.114685058594 -129.923080444336 1.171951651573
32.932323455811 -71.776260375977 -120.369720458984 2.529312372208
-78.615982055664 -72.850074768066 -126.385192871094 2.861695289612
113.351341247559 -71.899185180664 -133.069732666016 1.696672320366
-54.991428375244 -73.173179626465 -138.167709350586 0.981940269470
34.940734863281 -74.560256958008 -134.478179931641 2.832924842834
-73.890113830566 -73.285697937012 -136.319747924805 2.696993350983
26.307031631470 -75.873153686523 -131.513397216797 3.110712051392
-80.148345947266 -73.346778869629 -143.761581420898 3.215480089188
-45.899089813232 -76.006141662598 -142.527160644531 1.518262028694
-74.582237243652 -73.615180969238 -139.069854736328 0.126973763108
109.618072509766 -73.437553405762 -135.925338745117 2.350326776505
116.650398254395 -72.491485595703 -140.388748168945 1.326643347740
117.562393188477 -77.254989624023 -145.213348388672 4.331897735596
-77.881179809570 -71.918312072754 -144.551254272461 1.196865558624
7.518859863281 -69.655158996582 -150.773818969727 2.021161079407
-52.555812835693 -73.593498229980 -150.002777099609 0.074586443603
-51.287712097168 -73.839866638184 -155.901443481445 1.777706384659
106.496475219727 -74.334663391113 -160.582687377930 2.171782493591
-41.982036590576 -74.830497741699 -149.766281127930 2.073687791824
13.551902770996 -71.341148376465 -157.607833862305 1.160315752029
21.866001129150 -75.067405700684 -157.456619262695 1.809666514397
114.341857910156 -73.378402709961 -163.455001831055 1.449195981026
29.420051574707 -72.911094665527 -165.490112304688 2.805865287781
-1.302484989166 -74.548278808594 -163.584442138672 1.205300569534
31.406715393066 -74.291801452637 -160.545776367188 1.420848011971
-68.234909057617 -71.175910949707 -158.437103271484 1.721464395523
-66.228897094727 -72.437240600586 -159.867507934570 2.291429042816
-69.255851745605 -71.364723205566 -166.405258178711 2.656548023224
114.327163696289 -70.741889953613 -160.232070922852 2.124676942825
-44.985126495361 -73.064903259277 -163.506729125977 1.342046499252
17.362142562866 -73.523262023926 -165.390075683594 1.786258816719
-64.296890258789 -71.665985107422 -170.335540771484 1.855317831039
-63.395294189453 -70.947792053223 -172.075851440430 3.125648021698
-41.751091003418 -73.792709350586 -160.740036010742 2.994755029678
-33.932346343994 -75.012947082520 -169.026657104492 3.197925090790
114.646224975586 -76.014427185059 -170.124359130859 1.711796045303
-37.264076232910 -68.275024414063 -180.163406372070 3.665993452072
13.412476539612 -74.239936828613 -173.052932739258 4.157150268555
110.491004943848 -76.416099548340 -183.175994873047 1.765694260597
-147.919754028320 -73.630088806152 -177.569488525391 2.312476873398
-146.223770141602 -71.748123168945 -175.035583496094 1.400309920311
-148.892578125000 -70.139114379883 -181.424636840820 3.112023591995
-142.663543701172 -73.230278015137 -184.208343505859 2.240241765976
-32.042560577393 -71.457275390625 -185.839920043945 1.489669203758
-23.295272827148 -72.912300109863 -185.983428955078 0.574114143848
23.154232025146 -69.613754272461 -190.836654663086 2.349555730820
-141.609252929688 -71.031196594238 -188.130996704102 1.574494242668
-147.439758300781 -72.071731567383 -190.030578613281 2.545242309570
-21.466609954834 -70.308563232422 -186.677291870117 1.449235320091
10.889531135559 -73.419723510742 -182.460479736328 3.618280887604
-149.451416015625 -71.620536804199 -195.746322631836 1.641837120056
-31.742588043213 -73.395195007324 -188.313598632813 2.289579629898
99.966110229492 -73.755714416504 -187.322677612305 2.899556875229
106.135589599609 -72.786338806152 -188.718521118164 2.427028417587
24.094381332397 -68.811050415039 -193.178085327148 1.562865972519
-13.657045364380 -73.058349609375 -188.654174804688 4.560223579407
-27.856695175171 -74.565353393555 -193.678604125977 1.366798996925
-155.388519287109 -72.566658020020 -200.698867797852 2.482413053513
-132.694610595703 -72.654808044434 -198.193435668945 1.018473625183
-125.247497558594 -69.221160888672 -196.275924682617 2.008360624313
-124.739578247070 -70.183113098145 -198.864212036133 2.376650571823
-22.526752471924 -68.637252807617 -196.373474121094 1.678100943565
12.553272247314 -74.941009521484 -192.364089965820 1.474787235260
92.603836059570 -76.998451232910 -200.297576904297 4.020533084869
-150.110641479492 -68.022354125977 -196.907608032227 2.313700437546
-145.091949462891 -69.185791015625 -200.175491333008 3.215761423111
-150.920898437500 -70.931846618652 -201.657989501953 2.816884279251
-154.971878051758 -69.281715393066 -199.000396728516 1.999276876450
-24.797843933105 -72.121101379395 -199.909835815430 2.308028697968
-10.785891532898 -71.314231872559 -195.532669067383 3.190092325211
-146.351364135742 -67.720069885254 -203.579803466797 3.420392274857
-18.472675323486 -71.860755920410 -201.407211303711 2.467025279999
-161.431549072266 -70.669906616211 -202.267379760742 1.809253215790
-134.383163452148 -71.400596618652 -200.758468627930 1.616531968117
15.748482704163 -74.609008789063 -206.953994750977 2.531525135040
-161.261749267578 -68.174880981445 -205.698989868164 1.867323756218
-146.091857910156 -72.808197021484 -207.976303100586 1.748439431190
8.249637603760 -70.966163635254 -202.805374145508 2.500402927399
-154.103424072266 -68.894943237305 -204.194091796875 1.523647904396
-24.590106964111 -71.973731994629 -202.144805908203 1.823004603386
97.337944030762 -74.212432861328 -198.440994262695 0.795536935329
-158.372085571289 -72.129325866699 -214.094757080078 1.560288786888
-164.468063354492 -74.194236755371 -209.368774414063 1.577314972878
-76.802383422852 -70.008232116699 -209.130874633789 2.365908622742
89.347915649414 -72.741050720215 -208.246154785156 2.077098608017
-3.670516967773 -71.341674804688 -218.538040161133 1.901991724968
-154.427017211914 -70.091369628906 -214.456024169922 2.920569896698
-87.508949279785 -71.888221740723 -214.418563842773 1.188411474228
-9.257317543030 -75.084915161133 -211.528991699219 1.891102075577
15.731748580933 -72.452980041504 -219.875854492188 1.791496396065
-144.770187377930 -71.890983581543 -221.565658569336 0.922910034657
-3.459573984146 -76.293395996094 -221.087829589844 1.107630729675
-19.253128051758 -73.344650268555 -218.557556152344 1.300743222237
-14.452681541443 -69.330261230469 -220.695602416992 1.810978174210
90.392837524414 -73.315490722656 -218.366394042969 1.233003854752
-20.614521026611 -71.123359680176 -217.143096923828 2.131389379501
-31.612909317017 -71.720352172852 -217.571929931641 2.112348794937
-107.358215332031 -67.318740844727 -225.900863647461 0.383746862411
-15.944994926453 -70.765136718750 -223.515777587891 1.566805362701
92.578521728516 -71.373565673828 -218.229568481445 1.819568037987
77.647842407227 -73.967536926270 -219.894744873047 3.376221418381
7.333656787872 -73.770996093750 -219.429351806641 2.331879854202
-10.969735145569 -70.276626586914 -225.658355712891 1.888227939606
78.796165466309 -73.742874145508 -221.455917358398 1.766459584236
-122.208229064941 -74.468620300293 -226.532211303711 1.898355245590
-19.843725204468 -70.444610595703 -223.551651000977 2.882309436798
-96.963424682617 -70.935455322266 -224.714096069336 2.157750368118
-102.326927185059 -71.598037719727 -225.321243286133 1.887854337692
-131.364837646484 -73.131340026855 -230.125030517578 1.426566600800
81.500343322754 -73.279594421387 -223.057159423828 2.448184967041
-122.984725952148 -71.862205505371 -228.642395019531 1.399199247360
4.960822105408 -71.876365661621 -228.919418334961 2.170647144318
81.431793212891 -71.817543029785 -223.857269287109 2.528841018677
-15.488658905029 -73.281028747559 -230.906692504883 0.703676819801
-13.335367202759 -73.039756774902 -227.769927978516 0.616334021091
-1.661900997162 -77.282005310059 -230.183227539063 2.127371549606
10.490304946899 -74.339813232422 -227.550430297852 2.855958700180
89.089202880859 -74.448165893555 -225.866088867188 3.796299934387
10.226380348206 -71.046859741211 -231.528747558594 2.049924850464
5.791718959808 -72.181381225586 -229.614059448242 1.726375818253
-8.764961242676 -72.869453430176 -231.566070556641 1.412643313408
-6.512716770172 -73.186080932617 -230.432983398438 1.350145578384
19.021654129028 -71.367485046387 -232.791641235352 2.129117965698
-12.168517112732 -69.881507873535 -233.564987182617 1.074215292931
71.362312316895 -73.488220214844 -239.347457885742 1.949483752251
-8.791715621948 -70.792221069336 -239.140045166016 2.109939336777
19.302585601807 -73.538658142090 -235.820587158203 0.767613291740
-162.529388427734 -69.526306152344 -242.131637573242 2.183919429779
-5.251191139221 -70.229858398438 -237.365127563477 1.980180978775
-7.764992237091 -73.021301269531 -240.535812377930 0.747324049473
-167.252182006836 -71.217941284180 -252.534439086914 0.695295989513
-10.462207794189 -70.637748718262 -244.755676269531 2.293058633804
15.965899467468 -69.891166687012 -245.598403930664 2.075372695923
-147.235412597656 -72.712059020996 -253.389633178711 1.713114142418
-72.869430541992 -70.930702209473 -251.311813354492 1.602500677109
-61.261524200439 -72.505912780762 -247.834991455078 1.425392746925
52.726394653320 -70.601890563965 -246.574035644531 1.860656976700
-74.306137084961 -71.144500732422 -247.734344482422 1.358951926231
17.268524169922 -73.021293640137 -249.633972167969 2.482130289078
-72.688095092773 -71.886825561523 -252.212310791016 0.744186699390
-14.988211631775 -70.511299133301 -246.325683593750 2.641868352890
-145.113067626953 -73.480842590332 -254.297912597656 1.558134317398
47.024341583252 -69.437400817871 -249.804962158203 1.674634099007
-79.632949829102 -73.530097961426 -256.700134277344 2.117077589035
-102.320816040039 -68.374839782715 -256.150970458984 1.439813375473
-98.951675415039 -72.797889709473 -255.726867675781 1.374948859215
-119.486190795898 -69.200355529785 -254.302337646484 3.697622299194
-105.397735595703 -68.787864685059 -258.299530029297 3.012089014053
-105.409393310547 -70.848541259766 -259.300140380859 1.958613991737
22.032157897949 -69.907234191895 -258.591308593750 2.475288629532
-128.875564575195 -68.578598022461 -266.442626953125 2.726124286652
-13.323188781738 -72.679985046387 -275.963073730469 3.054792881012
-147.099472045898 -68.138641357422 -284.834136962891 1.699225306511
-168.170883178711 -71.905387878418 -287.274047851563 1.753586411476
-124.435791015625 -71.662574768066 -285.476531982422 1.419687747955
-113.632385253906 -67.803123474121 -288.083099365234 1.492354631424
-75.047439575195 -67.064613342285 -285.400268554688 2.806045532227
-57.022724151611 -71.869667053223 -287.467956542969 1.567109704018
-41.418186187744 -70.347084045410 -286.698425292969 0.763684391975
-14.879995346069 -74.520454406738 -290.242797851563 2.430359363556
-13.304235458374 -69.243415832520 -292.115325927734 2.730584144592
-37.940704345703 -73.181640625000 -290.815612792969 2.178088426590
-33.940414428711 -71.202758789063 -289.356597900391 2.173041582108
-18.538549423218 -68.579528808594 -289.182556152344 3.516801357269
-71.353775024414 -70.052253723145 -293.902435302734 3.562719583511
-55.109756469727 -70.513999938965 -291.829528808594 1.302309155464
-17.191186904907 -68.141883850098 -291.907958984375 3.758864641190
-13.340377807617 -73.081901550293 -290.137756347656 1.247845172882
-3.285178899765 -70.817527770996 -292.698944091797 2.955483913422
2.913433074951 -68.455558776855 -292.447937011719 1.581272125244
-91.742218017578 -70.940971374512 -294.037597656250 2.963613510132
-139.364273071289 -72.046066284180 -296.502441406250 4.509556770325
-115.918045043945 -71.581672668457 -293.933258056641 2.275797605515
-153.146316528320 -69.171043395996 -296.517059326172 1.438585281372
-151.544433593750 -70.955650329590 -301.110870361328 1.546702504158
-146.289932250977 -68.768722534180 -301.568145751953 1.680216073990
42.918380737305 -71.850502014160 -20.896257400513 0.584658622742
18.322097778320 -76.490676879883 -23.408161163330 5.021438598633
47.988265991211 -71.337982177734 -24.668136596680 1.851318836212
45.618835449219 -74.745018005371 -34.737754821777 1.447370529175
86.402938842773 -73.663528442383 -69.455413818359 1.371810913086
94.383644104004 -75.476448059082 -73.131500244141 3.103714227676
100.074645996094 -73.450653076172 -77.267547607422 1.452927470207
97.195846557617 -74.298896789551 -82.655220031738 1.655879497528
55.634506225586 -74.339569091797 -88.985107421875 2.551852464676
44.476657867432 -78.330047607422 -90.907829284668 6.539589405060
62.273757934570 -72.366554260254 -90.282196044922 2.380480289459
-66.228393554688 -69.963111877441 -93.912170410156 2.360866069794
69.739913940430 -72.974784851074 -87.267143249512 0.407374918461
99.901710510254 -67.590965270996 -98.028984069824 0.965848267078
73.561805725098 -74.145378112793 -100.540565490723 2.359056711197
93.349388122559 -72.522193908691 -101.792602539063 1.954031467438
-85.519889831543 -73.006675720215 -104.460128784180 3.416456222534
44.153358459473 -72.224220275879 -97.836189270020 1.427089691162
-87.463096618652 -73.424232482910 -103.300506591797 5.588744640350
50.254508972168 -74.486923217773 -110.036766052246 1.866275548935
36.777065277100 -78.096755981445 -103.468826293945 4.164546966553
101.197204589844 -72.691848754883 -102.449325561523 2.730634927750
36.250846862793 -72.821693420410 -105.771087646484 3.896379470825
41.742656707764 -73.999618530273 -118.333740234375 2.678731441498
41.855384826660 -72.808372497559 -112.820602416992 2.125574827194
109.197425842285 -72.296836853027 -111.491661071777 0.738039314747
-82.176544189453 -75.813987731934 -122.553993225098 5.065080165863
111.391273498535 -76.560050964355 -123.136825561523 2.737900733948
39.233455657959 -69.482414245605 -124.530265808105 2.638687372208
39.693820953369 -72.207336425781 -120.033149719238 1.664260506630
34.142707824707 -73.259841918945 -120.748085021973 2.355583667755
-56.563659667969 -76.088493347168 -130.351135253906 3.579902887344
29.346822738647 -71.931785583496 -123.371856689453 1.597081899643
-78.131629943848 -70.171989440918 -138.762664794922 2.103789329529
-56.158950805664 -75.216102600098 -133.390121459961 2.591754436493
-80.269813537598 -69.807388305664 -135.847518920898 2.498834609985
34.778835296631 -70.956512451172 -130.603027343750 1.303321719170
-60.423755645752 -73.048431396484 -134.419784545898 3.270535945892
34.351638793945 -72.025535583496 -133.254623413086 2.602988958359
-72.725028991699 -70.050605773926 -140.531280517578 1.563652157784
-59.987663269043 -69.607673645020 -141.537429809570 1.013792276382
24.941993713379 -73.279670715332 -142.630340576172 1.214431047440
110.140090942383 -75.753654479980 -142.329162597656 1.674549460411
114.507514953613 -69.514816284180 -136.255935668945 1.410520911217
29.961786270142 -72.632720947266 -141.454681396484 2.143180131912
-48.979038238525 -73.300453186035 -140.935958862305 2.162635326385
106.131584167480 -71.059432983398 -151.447402954102 4.474669933319
-76.326171875000 -71.606941223145 -144.043228149414 1.137441754341
-59.399978637695 -71.928703308105 -143.123596191406 1.736528873444
30.891721725464 -68.756538391113 -147.355316162109 0.984743118286
-78.307609558105 -72.964927673340 -147.175491333008 3.221230983734
-71.361808776855 -71.636436462402 -151.190704345703 1.550696849823
114.156433105469 -76.685836791992 -148.786285400391 1.973831057549
-65.344680786133 -71.074630737305 -155.985351562500 2.171979427338
-40.048900604248 -69.346534729004 -152.853378295898 2.177824258804
24.945993423462 -70.998306274414 -145.985122680664 1.514610767365
-73.971961975098 -72.135475158691 -147.009902954102 0.929832398891
11.652419090271 -71.914512634277 -149.916213989258 2.780844926834
31.159698486328 -71.855796813965 -156.903839111328 1.220411896706
30.259012222290 -70.274368286133 -150.191635131836 0.781547665596
14.476700782776 -76.496360778809 -154.320358276367 4.406890869141
-50.648796081543 -73.239662170410 -154.012756347656 2.289873600006
24.022396087646 -73.679878234863 -153.220199584961 0.871072053909
-46.955169677734 -71.021903991699 -150.886047363281 2.298314094543
3.988883018494 -72.432373046875 -154.298370361328 3.179366111755
19.697074890137 -71.616043090820 -150.050064086914 3.068194150925
-69.615966796875 -70.984138488770 -158.337860107422 2.272668838501
-47.385925292969 -69.076004028320 -154.808456420898 2.592570781708
-68.940353393555 -71.165504455566 -154.687637329102 1.201773643494
17.417537689209 -71.132461547852 -158.585723876953 2.173201560974
23.439535140991 -71.591171264648 -150.150100708008 1.153470993042
1.835674047470 -72.093093872070 -164.789703369141 1.841193914413
20.560695648193 -72.151481628418 -153.668563842773 1.088899135590
30.071769714355 -71.956047058105 -167.170989990234 2.667162656784
-48.046134948730 -72.981895446777 -163.969436645508 1.021115183830
-37.567321777344 -77.739364624023 -163.923034667969 2.539584159851
-41.600795745850 -72.519546508789 -161.515243530273 2.058337211609
27.068708419800 -72.612701416016 -158.727615356445 2.738558769226
-44.982772827148 -70.064582824707 -167.479843139648 3.394314527512
-40.492954254150 -70.289276123047 -167.034301757813 1.466752648354
20.639348983765 -70.897193908691 -165.846145629883 1.706910729408
-40.530868530273 -72.130142211914 -175.869155883789 2.327391147614
27.240343093872 -68.800964355469 -170.103195190430 2.257416963577
110.961929321289 -69.816139221191 -164.151702880859 1.604513764381
-34.226871490479 -71.596832275391 -172.614959716797 0.939797878265
102.082801818848 -70.406715393066 -172.580001831055 4.141159057617
-35.241546630859 -71.233444213867 -178.017715454102 1.730052113533
-38.074726104736 -74.379020690918 -182.073028564453 2.940850973129
20.464292526245 -74.730224609375 -177.136444091797 2.218041896820
105.184120178223 -72.917915344238 -181.337020874023 1.103633999825
-32.118343353271 -70.050773620605 -183.463333129883 1.710000634193
-35.857177734375 -71.063728332520 -178.107452392578 1.538353800774
-23.831272125244 -74.931892395020 -187.360305786133 0.217430576682
-149.635757446289 -71.269668579102 -190.555557250977 1.923824429512
12.306711196899 -71.617431640625 -183.530776977539 2.201564550400
104.420730590820 -71.088951110840 -190.431411743164 1.338560938835
-159.519104003906 -70.196960449219 -194.786880493164 1.373323321342
-23.550237655640 -68.615081787109 -189.991897583008 0.942738771439
-116.171127319336 -72.428245544434 -198.699829101563 2.787422657013
-131.349639892578 -72.118751525879 -197.068893432617 1.532809972763
-108.392112731934 -71.357055664063 -201.072723388672 3.196200132370
-114.148681640625 -70.021530151367 -201.540359497070 1.225914716721
-12.863719940186 -72.320495605469 -196.768997192383 1.827323555946
19.581171035767 -70.603271484375 -196.207351684570 1.045627593994
-16.269609451294 -67.871032714844 -202.278137207031 2.693168401718
-127.174850463867 -70.678497314453 -207.001190185547 2.295493841171
-21.294898986816 -67.821853637695 -203.449432373047 2.730205059052
-129.825668334961 -69.557449340820 -204.382141113281 1.534180760384
-15.907672882080 -71.573051452637 -200.689910888672 1.688287496567
-146.544967651367 -69.409301757813 -204.423950195313 2.835660219193
91.410491943359 -68.436073303223 -205.884246826172 3.732749938965
-164.979598999023 -65.773506164551 -203.226348876953 2.353911876678
-3.087832927704 -72.937904357910 -218.186203002930 0.786943137646
11.068546295166 -72.638275146484 -210.085845947266 1.993858695030
9.989791870117 -73.494522094727 -217.235443115234 2.540903568268
82.333778381348 -71.850044250488 -216.242263793945 2.038187265396
8.158563613892 -72.413017272949 -213.286956787109 1.947226166725
12.294477462769 -70.568206787109 -214.927856445313 1.606808304787
-16.176723480225 -74.425048828125 -216.372756958008 1.880777835846
-90.802642822266 -71.121055603027 -215.582748413086 1.006981015205
-98.310287475586 -70.777091979980 -217.784271240234 0.574998855591
-0.272244989872 -70.272476196289 -219.421218872070 1.124411582947
-166.736145019531 -71.966461181641 -223.809860229492 1.011426210403
14.876987457275 -69.401329040527 -219.761184692383 1.336659789085
-144.888732910156 -69.652702331543 -222.871688842773 1.022542476654
12.739674568176 -71.626998901367 -225.133361816406 2.317128419876
-134.876983642578 -71.656990051270 -226.410995483398 1.582611918449
-116.130157470703 -71.374801635742 -228.561538696289 1.166372060776
16.513883590698 -70.629287719727 -221.022750854492 1.552962422371
78.148513793945 -71.811454772949 -220.941696166992 3.532418966293
6.513966083527 -71.274559020996 -223.710586547852 2.205160856247
-110.036956787109 -69.721244812012 -232.208984375000 1.021581172943
72.171211242676 -72.577873229980 -227.445632934570 1.747179985046
83.836814880371 -72.797126770020 -229.023086547852 2.483849048615
-125.327354431152 -70.054634094238 -236.534149169922 2.092908859253
-117.200653076172 -70.389099121094 -231.826309204102 0.668020308018
-10.203145027161 -68.004821777344 -228.182281494141 1.605542898178
71.834480285645 -72.338569641113 -231.041351318359 1.729508280754
64.515953063965 -72.160140991211 -232.916259765625 3.471277475357
73.123710632324 -71.175987243652 -229.120681762695 1.718886733055
-135.371154785156 -66.950126647949 -235.605178833008 1.769646644592
70.028045654297 -72.704086303711 -232.031295776367 0.943563699722
66.075004577637 -69.413688659668 -235.008422851563 1.354619503021
-166.291564941406 -68.649963378906 -232.353836059570 1.736345052719
1.335381984711 -77.358589172363 -241.318878173828 1.186278939247
19.280679702759 -72.427703857422 -239.647125244141 1.866536617279
-6.072546958923 -68.477371215820 -241.037185668945 2.890592575073
15.714192390442 -66.347061157227 -239.424423217773 3.104406118393
66.136749267578 -72.480812072754 -237.861083984375 1.376008629799
8.889155387878 -69.307754516602 -243.616668701172 1.064464926720
-10.963596343994 -65.104721069336 -241.170425415039 2.393282413483
-0.615073025227 -67.982315063477 -237.770721435547 1.616732478142
64.897727966309 -72.115104675293 -242.175659179688 0.427926540375
3.005781888962 -71.569183349609 -242.879501342773 1.341077089310
-7.042384147644 -71.719337463379 -243.548599243164 0.965179681778
14.216789245605 -73.475921630859 -243.126312255859 2.183975458145
-167.558120727539 -71.490547180176 -242.997085571289 2.282752990723
56.015636444092 -71.681900024414 -247.079605102539 0.923470139503
50.007331848145 -65.813522338867 -250.662658691406 1.580305695534
58.145275115967 -72.143104553223 -242.619003295898 1.991511464119
-12.159859657288 -69.200881958008 -248.346023559570 1.468448400497
57.165946960449 -71.205207824707 -245.496078491211 1.388279318810
-73.883125305176 -69.942558288574 -250.867782592773 1.452240228653
50.774394989014 -71.703155517578 -248.530471801758 1.273605823517
-88.721542358398 -70.086555480957 -253.630142211914 1.294458270073
-123.161071777344 -71.060997009277 -258.126525878906 2.052596807480
-132.376617431641 -69.919090270996 -254.463638305664 2.416486978531
46.133426666260 -72.774360656738 -251.794113159180 2.111100435257
-132.556198120117 -72.438552856445 -254.738693237305 1.093535542488
-109.147018432617 -68.336402893066 -256.389556884766 0.982785224915
-116.003616333008 -67.792228698730 -258.810211181641 1.139815092087
-83.716651916504 -70.675621032715 -255.770874023438 1.861934900284
-110.914299011230 -68.332000732422 -260.455505371094 1.032173514366
-123.999618530273 -73.083564758301 -263.906097412109 1.606304883957
-146.351577758789 -67.184211730957 -269.232421875000 3.641434192657
-15.171881675720 -69.277046203613 -266.083953857422 1.757919549942
-171.236022949219 -71.485412597656 -266.356658935547 3.895424604416
-14.396776199341 -69.940383911133 -274.243713378906 1.080240249634
-158.848922729492 -66.380996704102 -269.005645751953 4.413544654846
-152.520034790039 -69.746582031250 -275.134216308594 2.608886241913
-169.721160888672 -69.286956787109 -279.379272460938 4.210200309753
-14.011640548706 -70.470146179199 -279.806213378906 3.313601255417
-129.960128784180 -71.835350036621 -284.680786132813 3.291679382324
-157.770629882813 -69.029350280762 -287.963134765625 2.467895030975
-143.734466552734 -68.522201538086 -282.570892333984 1.926905155182
-134.684036254883 -72.305297851563 -282.070892333984 2.476956367493
-7.915744781494 -64.737556457520 -284.813232421875 3.449432849884
-125.653579711914 -72.970176696777 -284.916564941406 1.050987958908
-140.770187377930 -67.412628173828 -287.174011230469 1.492648959160
-115.500816345215 -72.433403015137 -287.122344970703 1.341577291489
-78.717597961426 -67.941787719727 -289.059112548828 2.663786888123
-60.455989837646 -70.584152221680 -287.940002441406 2.168400526047
-6.753208160400 -71.259490966797 -288.245697021484 1.030702352524
-53.677452087402 -68.832260131836 -286.513824462891 2.614530801773
-56.935924530029 -67.658721923828 -289.440948486328 2.975777864456
-70.121223449707 -68.101333618164 -291.257995605469 3.008712530136
-87.751388549805 -68.731872558594 -294.884033203125 3.367797374725
-94.767112731934 -67.434013366699 -290.136230468750 2.690768718719
-160.053314208984 -68.291763305664 -293.211273193359 2.778795957565
-160.804977416992 -70.053199768066 -295.485321044922 2.603569269180
-124.351646423340 -72.127868652344 -295.353424072266 1.348453760147
-144.360855102539 -69.420585632324 -296.600891113281 2.360017776489
-152.710311889648 -71.305755615234 -305.443359375000 2.595462083817
-150.067062377930 -71.292175292969 -313.830505371094 1.618016600609
45.950019836426 -72.295593261719 -14.535672187805 2.769281387329
14.878977775574 -74.988349914551 -29.984493255615 6.443664550781
40.146717071533 -70.113197326660 -34.586429595947 0.651743113995
-17.066444396973 -75.758995056152 -66.863594055176 3.040822982788
80.237327575684 -71.474472045898 -64.715148925781 2.961204767227
87.129768371582 -69.376518249512 -65.471382141113 0.964227855206
76.318153381348 -76.252418518066 -65.149124145508 6.245258331299
71.189178466797 -74.333618164063 -68.927947998047 3.945193052292
89.697189331055 -75.479942321777 -74.488723754883 1.677920818329
-97.644813537598 -69.045768737793 -71.385543823242 3.071516275406
66.326354980469 -73.610504150391 -75.133911132813 4.978285312653
-38.030178070068 -73.403663635254 -78.022010803223 1.302836775780
97.514587402344 -72.910034179688 -85.323333740234 0.798812150955
60.115047454834 -70.134140014648 -90.142829895020 1.824348688126
105.743316650391 -77.260261535645 -93.077041625977 6.042028903961
100.213920593262 -76.210235595703 -97.876976013184 1.969622254372
71.010406494141 -72.423751831055 -100.323181152344 2.714667081833
-81.481681823730 -70.590225219727 -102.519111633301 2.381211042404
53.068649291992 -72.334625244141 -104.069854736328 2.202861309052
105.852317810059 -70.072456359863 -105.375541687012 1.331992983818
45.834968566895 -72.876403808594 -112.303199768066 1.823286890984
78.624755859375 -71.400764465332 -105.014472961426 1.968365788460
40.360637664795 -71.880538940430 -107.387924194336 1.926847696304
102.943740844727 -72.254531860352 -102.628982543945 1.361881136894
46.281291961670 -71.698150634766 -107.672737121582 2.783096790314
105.963188171387 -77.205184936523 -109.332946777344 2.656971693039
108.874191284180 -75.336738586426 -110.707229614258 1.219576597214
-80.663208007813 -69.559280395508 -115.139320373535 2.244794368744
-84.161041259766 -69.660102844238 -120.365463256836 2.543380022049
42.712642669678 -74.950286865234 -120.000320434570 2.539749860764
112.605751037598 -73.871582031250 -120.626998901367 1.691775918007
112.512123107910 -71.980255126953 -122.892623901367 1.254621267319
-88.410087585449 -70.341918945313 -128.020706176758 1.197575569153
104.808059692383 -73.980377197266 -125.169281005859 5.101912498474
-60.499153137207 -75.430595397949 -132.657043457031 4.141837596893
-87.343559265137 -71.526817321777 -128.341140747070 2.711750030518
-73.716735839844 -71.447311401367 -128.072814941406 2.165087699890
-60.355571746826 -67.631507873535 -127.529670715332 2.510946750641
30.490962982178 -71.408760070801 -130.182128906250 1.321767330170
41.285999298096 -70.185577392578 -134.605636596680 3.121101856232
-74.229072570801 -70.786437988281 -137.528823852539 2.347999572754
27.612133026123 -69.821281433105 -130.957504272461 2.224894046783
110.660972595215 -71.913177490234 -142.223846435547 1.515022397041
-41.157978057861 -71.150703430176 -148.910476684570 1.306446075439
29.409341812134 -72.251205444336 -148.869064331055 2.210512638092
112.923995971680 -70.257873535156 -146.968750000000 1.917099714279
34.528156280518 -72.093681335449 -142.716415405273 1.337055325508
109.345092773438 -70.732208251953 -140.116256713867 2.064310312271
-53.303863525391 -71.254524230957 -150.125106811523 0.809479296207
-72.216438293457 -68.403297424316 -151.843261718750 1.003277301788
-56.057582855225 -71.427642822266 -153.310684204102 3.147642135620
-42.926914215088 -74.193634033203 -165.636993408203 1.793873667717
3.790122985840 -72.457145690918 -156.103042602539 2.009124517441
108.912017822266 -71.923706054688 -152.821563720703 2.826973676682
108.104965209961 -71.499000549316 -158.932296752930 2.467325687408
9.156637191772 -70.578926086426 -157.610260009766 2.255227804184
2.448589086533 -71.131904602051 -161.538482666016 1.041487455368
18.322727203369 -70.521492004395 -155.334289550781 2.901204824448
24.755615234375 -69.974174499512 -155.677871704102 1.412882685661
107.922668457031 -71.099296569824 -164.929260253906 1.892918944359
108.759658813477 -74.522514343262 -167.054153442383 1.418456792831
23.209537506104 -68.401222229004 -174.399429321289 2.109263896942
24.147350311279 -73.160835266113 -163.880249023438 3.337312221527
111.389480590820 -69.687850952148 -161.240325927734 2.110346794128
-29.817327499390 -69.547126770020 -177.674285888672 0.801366090775
109.416946411133 -71.702178955078 -167.052017211914 2.400294542313
16.734899520874 -71.529777526855 -167.702865600586 2.087773084641
20.833593368530 -70.941230773926 -167.783874511719 2.549607038498
107.793556213379 -71.579368591309 -172.159347534180 1.526405572891
25.978860855103 -70.195587158203 -170.381317138672 1.000032424927
111.650253295898 -70.582771301270 -182.963989257813 1.474258542061
-38.980133056641 -69.967346191406 -178.282012939453 3.365686416626
24.357801437378 -70.621650695801 -171.126861572266 0.879512429237
106.849403381348 -71.078025817871 -183.163284301758 1.671155452728
22.411548614502 -71.864799499512 -178.618576049805 0.676797926426
-152.471221923828 -68.456970214844 -188.039382934570 1.643713116646
-28.795417785645 -67.542976379395 -189.785690307617 0.872828900814
23.971433639526 -68.754890441895 -184.900970458984 1.862321138382
-114.334045410156 -71.375129699707 -193.128723144531 2.665204763412
-111.417694091797 -67.619033813477 -192.508560180664 2.786558151245
23.180513381958 -71.258529663086 -188.571197509766 0.924258112907
11.052103042603 -68.861167907715 -185.144210815430 4.231665134430
-27.462226867676 -67.901557922363 -190.665908813477 0.979026377201
-30.247285842896 -74.185302734375 -189.758789062500 0.948016345501
-28.617776870728 -70.800918579102 -187.678665161133 2.113765239716
14.142953872681 -68.818862915039 -180.070907592773 2.475106954575
-151.387664794922 -69.663772583008 -196.646347045898 2.442815542221
-145.907089233398 -69.411331176758 -194.365798950195 2.792628765106
-144.909896850586 -72.531211853027 -199.874023437500 1.720709681511
-23.484132766724 -69.481986999512 -191.819976806641 1.785346627235
13.159973144531 -68.336837768555 -199.664108276367 1.010994076729
98.307975769043 -70.181343078613 -192.726455688477 2.125666141510
-114.226676940918 -68.715019226074 -199.579071044922 2.832713842392
20.744510650635 -73.740295410156 -198.459243774414 1.352372646332
-15.846513748169 -69.335731506348 -195.922027587891 0.492922961712
-18.220052719116 -69.685531616211 -199.120910644531 2.293598175049
100.472427368164 -69.771560668945 -198.899124145508 2.126736164093
7.424836158752 -72.281738281250 -199.486145019531 2.617039442062
-22.484006881714 -68.627098083496 -196.910614013672 1.588850617409
-121.824005126953 -72.600723266602 -204.441253662109 2.613047838211
-134.643798828125 -69.764533996582 -204.726760864258 1.727088570595
-114.510910034180 -65.361557006836 -206.140136718750 2.791330337524
-142.647659301758 -72.313728332520 -204.921569824219 1.622397661209
17.001045227051 -70.126159667969 -197.853637695313 1.033579349518
93.331756591797 -72.060157775879 -201.321395874023 0.513914525509
-166.386062622070 -65.062339782715 -203.117980957031 2.054222106934
99.527359008789 -70.510963439941 -201.582183837891 1.225358843803
-22.092723846436 -73.735046386719 -206.557510375977 3.023179054260
94.211662292480 -68.699554443359 -209.982376098633 2.196440696716
87.670295715332 -72.062507629395 -211.063003540039 0.429209083319
11.687328338623 -72.002929687500 -206.168365478516 2.160707235336
19.385171890259 -69.725936889648 -212.102020263672 1.802571177483
12.425719261169 -67.532905578613 -207.992706298828 1.150728106499
-11.165993690491 -70.326873779297 -222.791931152344 2.129765987396
-94.764526367188 -71.501419067383 -219.731307983398 1.975283145905
-10.832415580750 -72.152496337891 -212.694183349609 1.773684501648
88.705871582031 -70.830841064453 -215.847229003906 2.303544521332
-93.894180297852 -71.722404479980 -218.804061889648 2.429621934891
-101.440505981445 -67.301643371582 -222.352828979492 1.275969028473
-94.774391174316 -70.212715148926 -220.617553710938 1.131582379341
87.922859191895 -72.110244750977 -221.540710449219 2.251335620880
-135.570693969727 -69.703269958496 -226.630798339844 2.046715736389
-132.727371215820 -73.120834350586 -228.209838867188 0.874400794506
-116.934684753418 -69.288482666016 -226.128890991211 2.108843326569
-113.394493103027 -66.847358703613 -224.436325073242 2.259485244751
-133.599258422852 -67.871704101563 -228.641647338867 3.231053829193
-111.990913391113 -75.920211791992 -228.854797363281 3.428742885590
-112.459678649902 -69.243873596191 -229.329376220703 2.494119882584
-7.160737037659 -73.186958312988 -225.053131103516 1.468629240990
-16.245290756226 -72.204208374023 -223.649398803711 1.454715609550
-1.193704962730 -68.054519653320 -230.753250122070 0.559148788452
-10.406821250916 -67.198547363281 -227.375839233398 0.727267444134
15.186696052551 -70.783645629883 -233.721847534180 0.957195401192
-19.088268280029 -68.263656616211 -229.598403930664 3.125794887543
-167.138458251953 -67.599075317383 -224.006713867188 1.172890424728
-4.308201789856 -69.924140930176 -233.832626342773 1.265315890312
80.604278564453 -67.686943054199 -230.808258056641 3.147852420807
10.760961532593 -71.780624389648 -233.914764404297 2.122508764267
-6.080440998077 -69.216239929199 -235.153381347656 1.470289826393
-157.030487060547 -66.852981567383 -238.138107299805 2.550461769104
-142.508148193359 -67.797920227051 -231.928848266602 1.441182255745
62.421634674072 -69.056175231934 -235.685913085938 1.065820813179
-5.854442119598 -70.859199523926 -234.512130737305 0.753301441669
9.078113555908 -72.076499938965 -231.004974365234 2.636016130447
69.196777343750 -72.565193176270 -230.053970336914 0.701464712620
76.768508911133 -70.809272766113 -233.997268676758 2.253434658051
70.906883239746 -71.407806396484 -241.122085571289 2.128604173660
-1.763898968697 -72.706588745117 -236.077636718750 0.310236781836
57.894756317139 -68.631469726563 -237.785385131836 2.931172609329
-19.170949935913 -72.314552307129 -240.251785278320 1.879208326340
-15.401271820068 -67.545150756836 -240.820663452148 2.668392419815
8.082095146179 -69.862625122070 -239.618804931641 1.839028358459
64.612358093262 -73.435119628906 -237.727111816406 1.184692025185
65.314247131348 -68.823150634766 -240.428161621094 1.567454218864
49.530292510986 -70.334396362305 -246.045867919922 2.344976902008
61.005825042725 -73.287757873535 -242.593688964844 1.526755809784
-15.604501724243 -74.078071594238 -250.172210693359 2.672676801682
-83.609359741211 -66.708129882813 -255.167755126953 2.821304559708
-76.874717712402 -67.329277038574 -253.879379272461 3.479922533035
44.179882049561 -72.819923400879 -247.777099609375 2.834654331207
-149.184890747070 -70.044998168945 -252.243759155273 2.582727193832
36.010280609131 -69.921447753906 -256.257965087891 2.319405078888
-92.097213745117 -72.675132751465 -253.033828735352 1.790604352951
-156.253311157227 -65.191207885742 -256.271484375000 1.465795040131
-140.331878662109 -62.915866851807 -254.728942871094 2.227094411850
45.148033142090 -69.845237731934 -253.466156005859 1.896563529968
-124.961257934570 -65.193572998047 -259.182983398438 0.759844601154
-116.892852783203 -69.295372009277 -256.643707275391 1.306166768074
-92.348220825195 -65.267692565918 -258.120941162109 2.682541847229
-13.736495018005 -66.567710876465 -250.787551879883 2.629222631454
31.885919570923 -69.579696655273 -257.262298583984 1.270317792892
24.986606597900 -67.294349670410 -259.549438476563 1.942360281944
-158.917022705078 -64.407356262207 -261.893524169922 3.411470174789
-114.712203979492 -71.550720214844 -263.975128173828 1.203661918640
-13.877711296082 -69.224273681641 -262.381286621094 1.106029152870
-132.723159790039 -68.583518981934 -266.795654296875 3.582717180252
-14.021962165833 -68.200523376465 -270.728302001953 2.000921249390
-164.769317626953 -67.738304138184 -274.188049316406 2.917660474777
-7.142453193665 -70.267623901367 -279.868377685547 2.928558349609
-160.654144287109 -68.616798400879 -289.445281982422 1.108954548836
-163.724563598633 -70.222450256348 -279.578063964844 2.020052433014
-142.410980224609 -68.655685424805 -286.702270507813 1.209561586380
-169.994262695313 -70.211845397949 -286.399261474609 2.116749286652
14.240374565125 -71.514312744141 -288.210327148438 1.394111871719
-102.971450805664 -69.653404235840 -287.728820800781 2.559327840805
-86.980758666992 -64.731369018555 -286.991027832031 4.164435386658
-167.586959838867 -65.565612792969 -286.242675781250 4.359659194946
-91.874900817871 -72.552162170410 -285.130584716797 3.296006679535
-153.511642456055 -68.781784057617 -290.066467285156 2.864700078964
-75.240020751953 -69.627044677734 -294.577178955078 4.487585067749
-70.434837341309 -68.146934509277 -289.619262695313 2.441715478897
-82.323997497559 -69.716598510742 -292.335296630859 1.839671850204
-3.499408006668 -66.658920288086 -289.267913818359 1.429409146309
-87.836235046387 -68.674255371094 -289.692230224609 1.937391877174
-98.803817749023 -70.001998901367 -292.090942382813 1.553975343704
-116.454063415527 -68.820991516113 -293.957275390625 2.275856733322
-116.360137939453 -65.863777160645 -294.057373046875 3.486843585968
-133.969207763672 -67.788658142090 -293.627807617188 2.743807792664
-142.545104980469 -68.475532531738 -302.305603027344 2.206343173981
-143.890533447266 -69.553329467773 -313.276977539063 2.820610761642
21.977724075317 -70.634078979492 -15.218815803528 3.538873672485
30.423213958740 -71.871360778809 -16.416925430298 1.470896005630
27.459144592285 -74.463699340820 -18.326404571533 2.539669990540
42.302169799805 -70.615577697754 -20.468372344971 1.580565214157
23.136474609375 -72.186721801758 -31.730989456177 0.758880615234
-76.531494140625 -69.649124145508 -47.932918548584 3.376603364944
88.238807678223 -67.953285217285 -64.955413818359 0.938990652561
-19.069162368774 -69.623596191406 -67.931755065918 3.173846244812
101.232330322266 -71.024475097656 -72.255455017090 2.478319406509
93.690155029297 -75.752647399902 -75.091590881348 1.728198409081
67.151519775391 -73.189163208008 -78.170333862305 2.727873563766
68.921798706055 -74.986724853516 -82.299308776855 2.163802385330
-46.015403747559 -74.273345947266 -83.109054565430 1.849309921265
59.823619842529 -74.997444152832 -82.156944274902 5.541656494141
-95.704246520996 -71.041023254395 -89.374267578125 1.513656616211
-50.507411956787 -68.775253295898 -85.890472412109 1.460868597031
-57.212169647217 -77.520027160645 -88.366844177246 3.841158628464
99.770866394043 -77.100280761719 -96.998947143555 3.109833478928
57.953903198242 -74.668342590332 -92.027603149414 1.449412822723
64.631309509277 -70.935661315918 -90.673469543457 2.085539102554
-96.900993347168 -65.262710571289 -97.912277221680 2.831552505493
106.613967895508 -73.277069091797 -92.397911071777 4.848526000977
42.916538238525 -70.124549865723 -98.781669616699 1.676416873932
100.222785949707 -71.496803283691 -97.457000732422 1.228626132011
105.637619018555 -69.642127990723 -105.264564514160 1.255956768990
100.138633728027 -72.002662658691 -103.888160705566 3.187605381012
72.687683105469 -73.755760192871 -100.320816040039 2.160004615784
86.173088073730 -73.604713439941 -106.033248901367 3.783336400986
48.933906555176 -71.069114685059 -110.985305786133 1.898586750031
109.506378173828 -69.612548828125 -102.829231262207 1.711535096169
45.063495635986 -73.875579833984 -105.279693603516 2.848481893539
39.408752441406 -69.508689880371 -101.418952941895 2.869459390640
111.667617797852 -72.056053161621 -109.596122741699 1.843461513519
-79.616683959961 -67.714172363281 -110.505966186523 1.045637249947
45.041530609131 -70.406349182129 -112.677040100098 1.110539436340
33.702583312988 -73.025482177734 -114.993492126465 1.874950289726
104.392105102539 -69.364662170410 -109.365196228027 2.871387004852
38.349132537842 -68.400474548340 -111.342994689941 1.812751173973
-89.124771118164 -69.782745361328 -113.812355041504 2.039618015289
-96.595718383789 -67.230369567871 -115.779411315918 2.927880048752
103.030990600586 -74.604949951172 -118.473136901855 4.137224197388
-95.792892456055 -71.343521118164 -119.641777038574 2.464044094086
37.972732543945 -73.029228210449 -121.159851074219 3.326653242111
35.978111267090 -70.706832885742 -120.642509460449 1.505813717842
-84.374534606934 -69.649673461914 -125.095947265625 2.147467136383
31.543933868408 -69.021896362305 -134.580932617188 1.647181391716
109.961402893066 -72.699073791504 -130.477142333984 0.506823301315
-53.478916168213 -69.780586242676 -136.661972045898 2.924529552460
-89.123100280762 -68.696708679199 -132.544128417969 2.290849924088
37.036643981934 -74.045288085938 -131.551025390625 2.013575553894
-89.916168212891 -65.594558715820 -136.750961303711 1.448026061058
-89.725601196289 -71.763298034668 -140.552597045898 4.286643981934
-50.505107879639 -71.222869873047 -137.398391723633 1.781928896904
-71.649978637695 -68.029579162598 -140.257995605469 1.356871485710
-51.556682586670 -69.132286071777 -134.040817260742 2.293939590454
114.609405517578 -68.719184875488 -136.725616455078 1.608422517776
-74.067695617676 -71.249610900879 -137.594467163086 2.070818185806
35.636062622070 -71.139556884766 -131.168563842773 1.250125527382
-79.484580993652 -68.677177429199 -140.947280883789 1.714144945145
-74.167114257813 -69.529945373535 -136.529800415039 1.537805318832
-92.171218872070 -67.640319824219 -141.042144775391 2.018285036087
-54.593284606934 -67.750373840332 -147.631149291992 0.895700991154
30.716205596924 -66.750457763672 -145.656234741211 1.964416503906
26.823247909546 -68.751953125000 -149.448715209961 1.045950531960
18.415563583374 -65.911003112793 -144.305541992188 1.407436847687
112.083885192871 -70.529945373535 -145.519210815430 2.482769250870
-94.178947448730 -67.919464111328 -153.406341552734 1.636111021042
12.306768417358 -71.751701354980 -152.479736328125 1.156106829643
-72.600021362305 -68.985969543457 -154.072082519531 1.929329633713
22.769706726074 -69.434425354004 -149.739593505859 2.176105737686
-49.808582305908 -68.658233642578 -155.983871459961 2.043665409088
8.902438163757 -68.856498718262 -153.331100463867 1.723043680191
14.463569641113 -72.471351623535 -158.474075317383 1.586961627007
17.190359115601 -74.239662170410 -163.965759277344 1.870779871941
-49.510917663574 -71.470413208008 -163.146911621094 2.604442119598
-39.834491729736 -68.783592224121 -155.327621459961 1.047713875771
-46.979724884033 -69.932548522949 -161.591949462891 0.428373366594
-104.193153381348 -69.483459472656 -172.963806152344 1.768365025520
21.243667602539 -70.976219177246 -174.055282592773 2.048359870911
-35.238399505615 -69.221870422363 -176.419662475586 1.018179059029
14.965853691101 -73.435241699219 -178.396148681641 1.935977101326
-144.112152099609 -68.627761840820 -177.088134765625 1.301074624062
