-12.378504753113 -77.496665954590 -229.185760498047 2.416025161743
16.997512817383 -75.238685607910 -225.315689086914 1.093694806099
19.136220932007 -76.725341796875 -232.010650634766 1.709888339043
-155.377273559570 -75.293571472168 -232.952392578125 2.715894937515
-126.323089599609 -69.771995544434 -231.521713256836 3.533630609512
-8.730826377869 -74.571907043457 -234.402725219727 1.423854112625
-0.464652985334 -74.725555419922 -236.437454223633 1.019054889679
68.663108825684 -76.600448608398 -232.373138427734 2.663318395615
70.143035888672 -74.286537170410 -237.417892456055 1.563736319542
-0.915575027466 -74.016494750977 -239.473968505859 1.689628124237
15.897980690002 -72.418052673340 -238.959838867188 1.624487519264
-30.636003494263 -69.123397827148 -239.669799804688 6.006560802460
-34.377029418945 -80.108512878418 -240.626327514648 1.186283707619
-47.417976379395 -73.809539794922 -237.759002685547 2.211752891541
-39.795242309570 -72.626838684082 -240.018157958984 3.587640523911
-18.063457489014 -76.151428222656 -241.904098510742 1.308021426201
-52.983657836914 -72.597473144531 -242.872024536133 2.382154703140
1.262706995010 -75.583091735840 -244.324554443359 0.827781617641
-68.782600402832 -74.489135742188 -243.158920288086 3.542026996613
20.075952529907 -76.442970275879 -246.406341552734 0.968890845776
-144.747344970703 -74.433586120605 -243.826019287109 1.709438800812
-73.327651977539 -75.930015563965 -250.660568237305 1.209972739220
14.672455787659 -77.053688049316 -248.458084106445 2.095991134644
-161.919662475586 -70.831703186035 -248.109146118164 2.530914306641
14.371687889099 -78.673141479492 -252.079956054688 2.263059139252
-80.516319274902 -69.818382263184 -249.683288574219 1.799897909164
-75.819976806641 -74.221900939941 -249.815719604492 1.127539992332
18.951677322388 -76.971107482910 -254.338073730469 1.448901057243
-89.805793762207 -72.644020080566 -251.139785766602 1.817479491234
-126.288276672363 -70.053901672363 -253.913558959961 1.684390425682
-134.254760742188 -74.532859802246 -258.319244384766 1.456174969673
-135.754776000977 -74.581237792969 -253.552764892578 2.053093671799
-147.785812377930 -72.644203186035 -259.643951416016 0.871615290642
-144.945419311523 -69.868415832520 -253.826919555664 1.960438966751
-135.492034912109 -70.724357604980 -260.511840820313 2.088734149933
-162.301010131836 -69.222526550293 -259.440521240234 1.624632477760
-127.717979431152 -71.511375427246 -264.981170654297 2.295882225037
-135.962371826172 -68.847145080566 -261.344573974609 1.921383023262
-164.366058349609 -69.142692565918 -266.046661376953 2.130362749100
-157.377044677734 -69.474975585938 -262.827758789063 0.514277219772
-150.008666992188 -70.349212646484 -264.242767333984 2.577289581299
-148.749740600586 -72.266075134277 -264.373718261719 3.206000328064
15.867341041565 -77.705223083496 -277.833343505859 0.620377540588
-166.827377319336 -71.317077636719 -265.747955322266 1.708461999893
-152.656036376953 -72.470802307129 -272.178863525391 2.244160890579
-6.645439147949 -81.618927001953 -272.295074462891 2.072249889374
-157.969070434570 -69.674781799316 -271.247039794922 1.647497892380
11.321596145630 -78.687797546387 -281.218688964844 1.339687824249
-153.047103881836 -71.231933593750 -280.559326171875 0.646558761597
-165.327774047852 -72.090026855469 -286.425445556641 1.666354417801
-155.688507080078 -73.280128479004 -278.994049072266 3.845216512680
-165.882019042969 -69.736000061035 -286.401153564453 0.731896758080
0.480529010296 -77.253349304199 -286.666595458984 2.048492908478
6.437472820282 -79.164306640625 -282.279968261719 1.751773834229
-102.810401916504 -71.107360839844 -289.701995849609 2.878160238266
-154.834243774414 -75.467742919922 -286.421752929688 1.841238498688
-149.062484741211 -69.872161865234 -284.633941650391 2.583067893982
-108.132896423340 -71.468093872070 -289.524383544922 2.413882970810
-153.090759277344 -73.457572937012 -290.589202880859 2.533020734787
-149.342666625977 -74.250007629395 -288.101196289063 1.429376721382
-73.029266357422 -75.411102294922 -291.501251220703 3.763408184052
-166.638488769531 -72.824913024902 -288.146240234375 0.838680744171
-123.907035827637 -69.455055236816 -290.202850341797 1.920805692673
-44.077472686768 -77.090377807617 -286.986602783203 1.459540724754
-154.198242187500 -71.215179443359 -287.191436767578 1.223502397537
-133.919479370117 -67.851776123047 -292.212066650391 2.166619062424
-19.446605682373 -72.410209655762 -292.949371337891 2.831187725067
-128.811325073242 -69.436225891113 -292.185424804688 2.589354038239
4.944366931915 -75.703163146973 -293.586029052734 1.811853170395
14.534705162048 -73.195777893066 -291.796997070313 1.612586855888
-134.367050170898 -69.302963256836 -290.519744873047 1.823347091675
-146.554122924805 -72.774406433105 -295.906463623047 0.984815835953
-157.136093139648 -73.063972473145 -312.566802978516 1.974612593651
-71.743659973145 -70.561706542969 -51.408218383789 1.223140716553
-21.939689636230 -70.888618469238 -63.054424285889 3.642313241959
-20.083463668823 -77.399536132813 -64.329933166504 3.265608072281
72.777290344238 -75.610633850098 -76.547569274902 1.744135022163
91.148605346680 -77.587997436523 -75.338409423828 2.987235784531
-36.857669830322 -74.686004638672 -78.170478820801 0.729830503464
75.411064147949 -76.954833984375 -79.040298461914 1.875757813454
89.532691955566 -80.996780395508 -81.848129272461 4.590237617493
68.046951293945 -77.236213684082 -83.022193908691 4.177429676056
72.769142150879 -76.628059387207 -88.306091308594 2.520050287247
-49.699413299561 -76.057189941406 -85.482528686523 2.086871623993
-91.761009216309 -75.838699340820 -87.440650939941 3.570222854614
58.731491088867 -78.869201660156 -93.353057861328 4.592330455780
50.100540161133 -78.207939147949 -98.488479614258 2.075519084930
93.827232360840 -75.392433166504 -98.800765991211 2.011296510696
-92.081642150879 -69.855560302734 -100.770301818848 5.232682228088
82.003837585449 -74.476478576660 -98.769233703613 1.508534073830
73.095916748047 -77.635856628418 -99.604072570801 4.278216362000
91.671249389648 -79.272880554199 -97.943206787109 4.930470943451
83.234512329102 -77.136138916016 -97.604873657227 1.822031736374
82.970550537109 -80.045494079590 -98.175735473633 4.403077125549
-85.351760864258 -75.460006713867 -101.519798278809 5.135383129120
42.498218536377 -75.244812011719 -106.260704040527 2.742666959763
105.410980224609 -78.710105895996 -110.484565734863 4.468253612518
108.039543151855 -78.386375427246 -110.504875183105 3.654365301132
48.027118682861 -78.851875305176 -118.300453186035 1.557698726654
111.033401489258 -80.032585144043 -120.848167419434 4.346770763397
116.453437805176 -80.477333068848 -134.729721069336 4.562160491943
-51.488475799561 -72.376678466797 -130.484466552734 2.306104898453
27.237108230591 -75.574478149414 -133.975692749023 2.004362583160
40.438461303711 -78.660827636719 -133.111511230469 1.951298475266
24.992588043213 -73.409408569336 -142.206787109375 1.141092181206
112.763519287109 -80.289886474609 -138.201385498047 3.528166532516
111.629913330078 -78.578430175781 -131.611755371094 2.875334024429
-73.778182983398 -73.616889953613 -147.435562133789 1.384886860847
-44.092864990234 -73.713401794434 -142.142623901367 1.484662413597
-71.376953125000 -71.923103332520 -150.511825561523 1.146828532219
19.536418914795 -74.377769470215 -149.154998779297 3.412840843201
112.363464355469 -75.791381835938 -149.267608642578 2.158800840378
-53.847621917725 -75.158241271973 -150.205474853516 1.063711047173
-71.415313720703 -72.377731323242 -150.220794677734 1.014078140259
-39.179588317871 -77.326065063477 -151.794174194336 2.562663316727
32.242572784424 -71.430938720703 -152.733398437500 2.122754335403
109.858757019043 -74.963447570801 -151.039596557617 1.464148759842
115.136428833008 -76.719261169434 -160.458145141602 1.185836672783
-68.388031005859 -70.760223388672 -154.281524658203 0.966113984585
-72.917861938477 -75.005226135254 -160.373260498047 2.485123872757
21.419204711914 -78.719230651855 -162.846420288086 1.649069190025
-60.308647155762 -71.715194702148 -166.101486206055 2.131661415100
-33.013160705566 -73.043487548828 -161.822753906250 1.820210099220
7.596057891846 -76.338905334473 -162.926605224609 1.963351130486
108.530952453613 -75.665725708008 -161.562789916992 2.180554628372
7.525708198547 -77.859550476074 -166.453628540039 3.750456809998
-33.093318939209 -74.610794067383 -165.020050048828 1.348401904106
-2.109431982040 -71.266868591309 -165.197723388672 1.992988109589
107.377334594727 -74.661643981934 -167.959136962891 1.282134413719
-41.594573974609 -71.705352783203 -164.900680541992 2.544814109802
28.967226028442 -73.041793823242 -171.759414672852 2.140190601349
112.643035888672 -80.217636108398 -172.359481811523 3.856763601303
-57.468635559082 -70.886909484863 -175.466659545898 2.959505796432
-28.531497955322 -76.618652343750 -174.035263061523 0.722494840622
102.676124572754 -77.280815124512 -174.013702392578 4.389997005463
28.882539749146 -73.876525878906 -169.263412475586 1.210530042648
107.265457153320 -78.982452392578 -175.090545654297 3.746890783310
-37.137634277344 -71.124893188477 -177.500686645508 1.342726111412
107.999015808105 -79.617813110352 -180.616241455078 3.488413810730
-62.123962402344 -71.251457214355 -176.868103027344 3.697932958603
-25.890310287476 -77.869651794434 -178.264907836914 2.311065912247
-146.606002807617 -67.142486572266 -182.541931152344 1.166854381561
-54.432353973389 -72.779106140137 -180.016204833984 2.091042757034
-147.415527343750 -71.824020385742 -185.249420166016 2.465645313263
-34.342128753662 -72.097557067871 -184.388442993164 1.378098249435
26.501886367798 -78.878646850586 -181.364395141602 1.734042763710
106.140830993652 -77.724800109863 -183.209167480469 1.506875753403
-34.335941314697 -74.217597961426 -183.258148193359 2.024977684021
10.650463104248 -75.562606811523 -190.330276489258 1.753023266792
16.948867797852 -74.625045776367 -203.111877441406 2.477654933929
-148.469421386719 -71.993331909180 -188.720565795898 1.843063592911
104.664230346680 -78.974327087402 -195.473159790039 1.283039808273
-21.607175827026 -72.003532409668 -192.590606689453 2.598368406296
100.995788574219 -77.837188720703 -188.156967163086 2.309272289276
12.616029739380 -72.774078369141 -188.985443115234 1.118449687958
-137.220916748047 -71.216552734375 -202.723648071289 1.984160900116
-139.113265991211 -71.219367980957 -198.898391723633 2.374153375626
99.857948303223 -79.259346008301 -201.245452880859 2.674220561981
-12.315839767456 -77.890846252441 -199.896774291992 2.669969797134
-16.713724136353 -75.115417480469 -202.411666870117 2.203324079514
10.158239364624 -76.693679809570 -206.913818359375 0.766542017460
-150.306747436523 -69.637077331543 -204.865219116211 2.401039123535
-146.599700927734 -72.561286926270 -207.063476562500 1.217494606972
99.804840087891 -72.851554870605 -204.486480712891 1.026741623878
-82.514671325684 -72.278068542480 -207.374557495117 3.919051408768
-36.382171630859 -74.373847961426 -201.025588989258 3.065570116043
18.391744613647 -77.417549133301 -212.927322387695 2.181153059006
-25.560483932495 -74.426040649414 -210.531448364258 1.009305357933
-76.833038330078 -71.263137817383 -207.081878662109 3.431931495667
90.632881164551 -76.608375549316 -209.549880981445 2.132451772690
-80.713294982910 -70.424964904785 -211.568008422852 1.881002426147
-147.707946777344 -71.502029418945 -217.607696533203 1.868492484093
-80.283805847168 -71.485923767090 -212.451400756836 1.835177540779
-13.495189666748 -69.805961608887 -209.301483154297 1.789385199547
-20.982444763184 -71.635040283203 -218.314025878906 1.548440694809
18.139259338379 -74.811271667480 -212.859283447266 1.062433600426
-5.892930030823 -75.669342041016 -219.005462646484 1.332493185997
-88.691192626953 -75.533050537109 -218.045150756836 2.132006168365
92.259048461914 -75.806900024414 -213.468811035156 0.694156646729
-98.714454650879 -71.339569091797 -214.796569824219 2.416095495224
-152.579177856445 -70.249801635742 -223.034011840820 1.173072934151
-25.548156738281 -72.864166259766 -223.060409545898 2.351770162582
17.383985519409 -75.334007263184 -215.601104736328 1.373382210732
-102.387947082520 -72.240531921387 -219.132125854492 1.844503164291
7.086309909821 -71.663948059082 -218.360885620117 2.404758214951
-26.028423309326 -73.948707580566 -215.012405395508 1.944297790527
82.491310119629 -74.673522949219 -224.004272460938 1.231155157089
-145.643157958984 -70.445182800293 -218.136199951172 1.855840206146
9.958149909973 -73.313476562500 -225.309494018555 2.550016641617
-9.941057205200 -77.036384582520 -225.185836791992 1.118142604828
17.231925964355 -69.154655456543 -222.024276733398 0.559176027775
83.204071044922 -77.065292358398 -222.107849121094 1.388153195381
-14.049334526062 -76.194160461426 -227.987457275391 1.561437010765
-130.950531005859 -72.503456115723 -225.585708618164 2.213548660278
-14.237622261047 -74.228179931641 -223.907684326172 1.122474312782
16.320625305176 -75.081779479980 -230.686630249023 1.870123386383
-127.135589599609 -73.464286804199 -226.287948608398 1.116158246994
-151.918960571289 -67.854469299316 -228.494277954102 1.710681438446
-142.755065917969 -70.100807189941 -227.880050659180 2.468115806580
-131.235412597656 -69.564979553223 -226.913772583008 2.644929409027
-13.498723030090 -72.080543518066 -224.657333374023 1.803956151009
71.429862976074 -75.579231262207 -227.947387695313 3.151864528656
-143.628387451172 -67.638236999512 -235.242797851563 1.585633039474
70.336067199707 -76.935478210449 -228.526840209961 3.842004060745
-20.933813095093 -76.930725097656 -229.075424194336 1.782527446747
-142.721023559570 -74.232398986816 -228.334884643555 2.051834821701
76.790634155273 -80.644126892090 -228.668319702148 4.734835624695
9.188629150391 -78.160064697266 -233.020355224609 1.476216435432
-142.109664916992 -75.051864624023 -234.283935546875 1.531084179878
-150.446594238281 -69.898979187012 -232.835205078125 3.345259189606
16.483869552612 -71.509826660156 -231.003402709961 1.187417745590
-3.201806068420 -76.427925109863 -237.178375244141 1.633284568787
-28.125911712646 -73.025566101074 -236.584396362305 2.302778482437
-2.012669086456 -70.322219848633 -237.065979003906 1.301279187202
-161.252014160156 -72.524330139160 -236.645507812500 0.469344735146
7.490881919861 -73.237503051758 -243.050735473633 0.356081634760
-165.158248901367 -70.922508239746 -237.665023803711 1.670279741287
-13.279996871948 -75.000823974609 -237.130279541016 2.122519731522
61.036529541016 -76.308959960938 -238.915863037109 3.015757322311
-13.524387359619 -72.970130920410 -237.550582885742 2.051589727402
-25.354864120483 -72.776893615723 -243.763519287109 2.252125978470
-25.471500396729 -73.051414489746 -241.165344238281 0.993278145790
-13.367103576660 -75.976028442383 -240.322097778320 1.955658555031
-146.733657836914 -71.184158325195 -229.982940673828 1.928581595421
7.618786811829 -73.619758605957 -241.840301513672 1.022302627563
63.758960723877 -75.079475402832 -243.396377563477 2.348767042160
14.256269454956 -72.348289489746 -244.659011840820 1.681855916977
-166.385009765625 -68.735511779785 -240.478057861328 1.240698337555
-50.932533264160 -71.921890258789 -240.099777221680 3.259070873260
3.308984041214 -80.727790832520 -247.668395996094 1.221765995026
16.509223937988 -74.500762939453 -243.789459228516 3.044350624084
-54.676918029785 -72.072937011719 -246.495742797852 0.415103942156
-3.247347116470 -70.162292480469 -247.740386962891 3.457387447357
20.329164505005 -79.191902160645 -247.529769897461 0.930051267147
-169.560867309570 -68.368209838867 -247.665451049805 3.062033653259
-68.122268676758 -75.564895629883 -247.428634643555 1.301360368729
-52.031555175781 -71.693878173828 -246.711990356445 2.823259830475
-81.578392028809 -71.152816772461 -250.540206909180 1.362614274025
-161.489318847656 -71.144615173340 -245.909820556641 2.044194936752
-151.100708007813 -64.800857543945 -248.504150390625 2.450093030930
-60.632205963135 -74.285797119141 -248.963134765625 0.861764788628
-69.247268676758 -72.183654785156 -249.217880249023 1.896938681602
-154.061203002930 -68.504974365234 -251.677398681641 1.793982744217
-152.519927978516 -71.112739562988 -251.297973632813 2.296096086502
-76.296394348145 -69.097229003906 -253.643875122070 2.220495700836
-93.888031005859 -69.317604064941 -254.426513671875 2.067099332809
-164.771377563477 -65.634887695313 -251.180328369141 2.754373788834
-157.335449218750 -70.385925292969 -258.721984863281 1.313674926758
-135.342681884766 -72.117927551270 -257.344818115234 1.013757109642
-83.629394531250 -71.919494628906 -250.603073120117 1.366847634315
-162.589965820313 -67.397384643555 -251.910980224609 2.494118452072
-142.311309814453 -68.816551208496 -255.932449340820 0.978967487812
-85.796493530273 -71.024864196777 -250.505599975586 1.719108223915
-97.175773620605 -69.390304565430 -259.555725097656 1.237883329391
-145.580429077148 -71.287269592285 -255.041885375977 2.244113683701
-93.993240356445 -71.313453674316 -255.342651367188 2.628294706345
-153.056838989258 -68.723480224609 -255.046356201172 1.820639133453
-102.817817687988 -70.943984985352 -254.792251586914 1.053942799568
-169.166793823242 -69.184005737305 -257.832000732422 2.277271509171
-162.035598754883 -71.347564697266 -262.431243896484 2.249300479889
-126.981529235840 -73.578598022461 -255.729736328125 1.708794355392
-152.196716308594 -70.365676879883 -258.485961914063 3.342068433762
-112.318016052246 -68.493675231934 -261.119232177734 2.349923849106
-14.866845130920 -72.253204345703 -261.413269042969 1.311471581459
-142.095413208008 -70.171524047852 -260.109466552734 1.659445524216
-126.351356506348 -70.177032470703 -259.265777587891 2.889487266541
-154.667449951172 -68.610542297363 -261.716949462891 1.358089685440
22.961711883545 -75.094985961914 -270.463165283203 2.089379787445
-149.276092529297 -72.344589233398 -277.738525390625 3.598138809204
-168.983108520508 -69.992095947266 -279.135253906250 3.237043619156
-8.791460037231 -73.620712280273 -278.996704101563 2.397574901581
-146.428222656250 -70.148742675781 -279.604400634766 2.631949901581
-10.114898681641 -72.053291320801 -282.729827880859 1.519288778305
12.197833061218 -74.346282958984 -285.724090576172 2.044286489487
-137.196502685547 -68.974792480469 -285.106384277344 1.687368392944
-68.929672241211 -73.726425170898 -286.316741943359 2.081071376801
-33.984100341797 -75.061912536621 -287.546264648438 1.497176766396
-113.466491699219 -70.837509155273 -283.631011962891 2.707642078400
-95.988105773926 -74.880912780762 -289.528076171875 1.485219478607
-90.230049133301 -71.745040893555 -290.712738037109 1.541036605835
-50.456581115723 -73.742805480957 -291.329406738281 2.567778110504
-116.628639221191 -74.791503906250 -287.817962646484 1.655741572380
-114.329551696777 -72.071311950684 -289.500366210938 1.604478716850
-33.635391235352 -70.558845520020 -288.683654785156 2.911813259125
-115.937767028809 -71.299209594727 -292.242553710938 1.206933975220
-127.578674316406 -66.637420654297 -289.391235351563 1.705445766449
-145.038742065430 -72.067481994629 -292.713317871094 2.327798604965
6.526788234711 -73.629966735840 -291.145812988281 1.410306453705
15.957443237305 -75.763893127441 -292.977752685547 0.302096277475
-160.492019653320 -69.750564575195 -291.912109375000 1.211572885513
-159.003021240234 -73.275177001953 -299.765380859375 3.335678100586
-147.654251098633 -71.331336975098 -309.615234375000 2.482209920883
-152.592498779297 -68.752845764160 -309.944396972656 2.604969263077
-153.250656127930 -71.383811950684 -312.664062500000 2.060997009277
29.357330322266 -78.343521118164 -14.618183135986 5.281773567200
31.385368347168 -73.698616027832 -17.967510223389 1.846052169800
21.963121414185 -75.463943481445 -23.946941375732 2.834800720215
29.467235565186 -73.327766418457 -38.955974578857 2.482703685760
-57.634067535400 -72.245376586914 -49.130451202393 1.872804641724
-64.741790771484 -72.578010559082 -49.542003631592 2.390034675598
-38.464149475098 -76.429855346680 -49.771129608154 4.519670009613
-83.936195373535 -68.802978515625 -62.226879119873 5.139346599579
81.464118957520 -79.456359863281 -74.113784790039 3.974878072739
-15.049603462219 -72.439445495605 -70.601913452148 1.971289038658
89.434852600098 -77.756156921387 -66.323608398438 5.148365974426
99.652854919434 -76.829956054688 -76.955444335938 3.560824632645
-92.187301635742 -70.461555480957 -75.610618591309 2.334997653961
67.934196472168 -76.216430664063 -80.291976928711 4.270201206207
-40.837261199951 -77.267921447754 -85.102401733398 0.596014916897
101.207923889160 -76.173187255859 -82.074539184570 3.893784046173
-55.301929473877 -71.918342590332 -88.047935485840 2.461883306503
51.277042388916 -76.255104064941 -90.377975463867 2.677983522415
71.070205688477 -81.449615478516 -90.660743713379 6.245744705200
55.737255096436 -75.177375793457 -96.132209777832 1.439443826675
52.998321533203 -77.607292175293 -98.398132324219 0.968293607235
74.565399169922 -79.508666992188 -95.585113525391 4.398235321045
46.682182312012 -75.525772094727 -105.022521972656 2.142926454544
100.596420288086 -77.741958618164 -100.787055969238 4.315198421478
105.980331420898 -81.069389343262 -106.473449707031 5.534209251404
80.238021850586 -73.939575195313 -103.354171752930 3.093943834305
91.970085144043 -78.098579406738 -103.439155578613 5.186864852905
101.076766967773 -77.372802734375 -95.148864746094 4.483532428741
109.675384521484 -77.885108947754 -103.752578735352 2.638282537460
39.764541625977 -75.592231750488 -105.905075073242 1.943600296974
112.709281921387 -74.797271728516 -118.670051574707 2.385220527649
113.870918273926 -78.670944213867 -118.923957824707 4.483890533447
31.481920242310 -73.919189453125 -123.266784667969 1.488003969193
44.855739593506 -76.896423339844 -118.666397094727 0.971556186676
115.341064453125 -77.819969177246 -130.239852905273 2.431431055069
36.364543914795 -75.012489318848 -126.405006408691 2.773716688156
115.075813293457 -80.895721435547 -127.784736633301 5.568433284760
108.853599548340 -78.236351013184 -122.459579467773 4.022868633270
26.505599975586 -75.965324401855 -135.279373168945 1.919875979424
-47.829002380371 -73.722961425781 -133.548843383789 1.629724264145
-51.950679779053 -71.640594482422 -134.540710449219 1.482977032661
111.451522827148 -76.676414489746 -134.999099731445 1.452801465988
-69.171318054199 -76.385955810547 -139.867736816406 3.956449747086
-72.704757690430 -73.376075744629 -139.714355468750 1.286888718605
-58.827583312988 -73.589775085449 -140.606048583984 0.998612642288
32.024219512939 -75.307167053223 -143.345687866211 2.680432796478
116.217491149902 -79.109771728516 -145.941085815430 4.649236202240
-69.210876464844 -69.706481933594 -146.472259521484 0.956288754940
-47.841236114502 -73.043167114258 -142.036865234375 2.774686098099
33.476074218750 -75.912979125977 -150.958297729492 1.409059524536
-68.012779235840 -73.929801940918 -147.210952758789 1.091411948204
114.126419067383 -76.387619018555 -141.325134277344 1.053349137306
111.963127136230 -75.449241638184 -157.549255371094 1.686661839485
116.369659423828 -78.474014282227 -152.981674194336 2.056955337524
-38.322631835938 -75.960716247559 -152.550445556641 2.094462871552
-64.633003234863 -72.877037048340 -163.708831787109 1.266894459724
-68.988182067871 -69.699966430664 -156.526473999023 1.967729210854
30.264089584351 -76.292121887207 -146.092483520508 2.301000356674
-2.036417007446 -76.292739868164 -161.682510375977 2.080145359039
109.234977722168 -76.728782653809 -161.598587036133 1.932078599930
111.953002929688 -75.574317932129 -153.007629394531 1.664077877998
112.291572570801 -79.422447204590 -158.385223388672 2.509778022766
-63.543449401855 -70.211814880371 -159.440658569336 1.733092427254
-45.270851135254 -75.191337585449 -164.674133300781 1.201004862785
-2.196831941605 -73.582084655762 -164.633102416992 1.999822258949
-29.164131164551 -73.835563659668 -174.392349243164 2.162009239197
106.069168090820 -76.169799804688 -167.191894531250 2.642592430115
-34.294548034668 -76.506271362305 -159.534179687500 0.998532652855
109.522735595703 -75.594802856445 -168.330795288086 1.412120342255
-41.684810638428 -73.848228454590 -173.067428588867 0.846984028816
108.772094726563 -74.949493408203 -168.594406127930 1.289606213570
-151.386306762695 -71.519783020020 -179.080383300781 2.173169374466
-26.750566482544 -69.986328125000 -176.245513916016 0.777546226978
-20.234008789063 -73.857147216797 -182.852416992188 1.544658303261
24.893440246582 -77.910789489746 -176.797302246094 0.885467708111
15.129635810852 -74.303413391113 -182.783874511719 1.284132122993
27.690355300903 -75.338081359863 -182.717346191406 2.142197847366
104.217071533203 -80.594955444336 -183.678756713867 3.822004556656
-151.648406982422 -67.694747924805 -183.900253295898 3.415812492371
-19.709342956543 -75.980575561523 -184.358718872070 1.521967768669
102.228042602539 -77.680229187012 -178.526290893555 3.596138954163
103.268524169922 -73.701293945313 -189.604202270508 1.613444328308
108.222434997559 -78.076622009277 -177.757095336914 2.341697216034
99.022567749023 -78.313385009766 -193.659286499023 3.531113147736
-151.282745361328 -70.908866882324 -195.553268432617 1.401516556740
99.954223632813 -77.383689880371 -205.415069580078 0.433156222105
-28.171772003174 -71.351928710938 -196.613067626953 1.911852836609
97.523933410645 -76.331504821777 -195.686035156250 2.145564079285
-121.440345764160 -74.191474914551 -199.256118774414 2.385599851608
-29.838348388672 -77.853347778320 -189.597763061523 1.510482192039
-141.808029174805 -66.648765563965 -197.340316772461 1.507160663605
95.298126220703 -76.615074157715 -198.508026123047 2.828874349594
8.605655670166 -75.085990905762 -198.660751342773 2.871525049210
23.899982452393 -73.503585815430 -192.205871582031 1.998974561691
-148.104553222656 -70.785255432129 -201.953353881836 1.063282251358
-138.924224853516 -69.860427856445 -201.123550415039 1.421699404716
-10.091561317444 -73.438865661621 -206.226242065430 1.568691253662
-124.393760681152 -70.768157958984 -202.883850097656 0.883638203144
-143.943115234375 -72.848442077637 -198.777633666992 1.882824063301
3.912595987320 -74.482612609863 -199.151947021484 5.400438308716
-24.322486877441 -75.634559631348 -200.563827514648 1.252303361893
20.562311172485 -77.377601623535 -201.941482543945 0.487492591143
6.516312122345 -75.487701416016 -211.398468017578 2.329858064651
85.401420593262 -73.780723571777 -208.395950317383 4.139631748199
-18.420640945435 -71.070701599121 -211.394714355469 1.975228786469
91.279533386230 -74.178634643555 -208.818588256836 1.837484002113
96.926086425781 -78.291198730469 -206.905792236328 1.880158662796
-149.037246704102 -71.248870849609 -213.584243774414 1.261071205139
95.347229003906 -78.075538635254 -211.465026855469 2.288257837296
4.948609828949 -73.288246154785 -206.858459472656 1.775200247765
3.434979915619 -76.198226928711 -213.975280761719 3.793264865875
-33.022674560547 -72.843940734863 -206.403961181641 2.145875930786
-89.482704162598 -71.168106079102 -212.357925415039 3.063606262207
-26.343946456909 -74.757041931152 -210.300933837891 1.511486291885
85.013336181641 -75.363418579102 -216.731903076172 1.199443340302
89.174964904785 -75.296386718750 -216.856384277344 1.637396574020
-31.910737991333 -72.436325073242 -211.655715942383 2.116473674774
-84.423034667969 -68.906562805176 -217.637878417969 4.345625877380
-1.217053055763 -75.924018859863 -218.246414184570 1.996419668198
81.999488830566 -72.607139587402 -212.961868286133 4.375905990601
-152.106689453125 -73.766159057617 -220.947235107422 1.744132757187
-165.835510253906 -68.211265563965 -213.327804565430 2.802458524704
-162.131576538086 -72.230171203613 -221.317047119141 2.190791130066
-21.572412490845 -74.245109558105 -226.328018188477 1.758014678955
-154.062713623047 -72.856384277344 -221.840240478516 0.879431545734
-5.903738975525 -74.908401489258 -223.983673095703 2.306341171265
6.414731025696 -75.140853881836 -217.942642211914 1.976301670074
-167.258865356445 -69.503807067871 -224.589630126953 2.160048484802
-158.928283691406 -70.186729431152 -226.461441040039 2.736449480057
79.008453369141 -78.922157287598 -231.217269897461 2.498682498932
0.140410006046 -72.768150329590 -226.165832519531 0.744885504246
-157.541671752930 -65.299705505371 -225.225051879883 2.710984706879
-142.638153076172 -71.829612731934 -223.515472412109 0.825618982315
-19.307802200317 -72.480125427246 -223.381683349609 1.902702569962
-0.626857995987 -78.047187805176 -221.996368408203 2.028485059738
79.954208374023 -73.493988037109 -225.378036499023 1.980231046677
-161.338272094727 -68.130821228027 -226.956970214844 2.333149671555
-144.068161010742 -67.914871215820 -229.998443603516 2.720409870148
-125.205245971680 -69.071441650391 -230.097915649414 3.794820785522
78.597976684570 -77.221969604492 -226.439758300781 0.832779884338
-115.753440856934 -70.800941467285 -228.396453857422 0.963780105114
-146.520690917969 -70.048446655273 -228.431945800781 2.009599924088
-150.601394653320 -68.679946899414 -230.552017211914 2.768205642700
-149.158432006836 -70.763114929199 -230.481475830078 3.026893854141
-155.951034545898 -70.390243530273 -228.227416992188 1.181576967239
-165.198638916016 -70.085884094238 -228.124755859375 1.696953296661
-133.843246459961 -70.544906616211 -234.532440185547 0.888407528400
-133.429351806641 -71.547500610352 -232.335830688477 1.673033952713
-153.390686035156 -73.525566101074 -232.049163818359 1.827339172363
-145.436340332031 -66.643264770508 -235.984222412109 1.394609451294
-151.751663208008 -70.410568237305 -234.468383789063 2.217581748962
74.727684020996 -77.652519226074 -232.180114746094 2.879038810730
67.306213378906 -70.728103637695 -235.680343627930 0.914135932922
-157.090194702148 -68.399337768555 -234.511688232422 1.939675092697
71.701370239258 -71.266746520996 -232.986145019531 1.286525487900
-19.872398376465 -71.888610839844 -236.130218505859 2.770329236984
11.256809234619 -75.256874084473 -236.661315917969 1.357880592346
6.787199974060 -74.727691650391 -235.579574584961 2.550811290741
-154.627090454102 -69.932754516602 -241.810256958008 2.652873754501
14.464303016663 -73.537567138672 -240.677810668945 1.377226114273
60.848464965820 -74.078880310059 -237.682571411133 2.865243911743
13.345114707947 -71.678443908691 -237.512649536133 1.660520315170
5.215833187103 -74.316955566406 -241.130676269531 1.857288956642
-6.585866928101 -71.528068542480 -239.873291015625 0.972402811050
-21.241853713989 -71.780944824219 -242.331893920898 1.881641387939
-1.850983023643 -73.596115112305 -241.513214111328 1.007977604866
3.624392986298 -76.422218322754 -244.566268920898 1.918833971024
57.258441925049 -76.131996154785 -241.285049438477 2.144623994827
-55.649890899658 -75.624511718750 -244.189056396484 1.457325220108
19.470228195190 -73.123222351074 -246.949447631836 0.674547612667
-59.700492858887 -73.170600891113 -241.221923828125 3.788579463959
-10.029808998108 -73.589874267578 -247.428604125977 1.106310367584
-66.164657592773 -68.696846008301 -249.671722412109 3.399958848953
-86.179214477539 -69.932518005371 -252.487197875977 0.834218680859
-82.803604125977 -72.515373229980 -251.501144409180 2.020243644714
-10.019384384155 -72.732437133789 -254.332687377930 1.752964138985
-124.063255310059 -70.341545104980 -258.317993164063 2.589672803879
-14.315486907959 -74.152595520020 -252.524353027344 2.296956539154
-117.173225402832 -70.741050720215 -254.996536254883 2.531354427338
-116.661888122559 -69.413688659668 -257.924865722656 2.167750835419
-103.743934631348 -70.865913391113 -255.864776611328 0.560931384563
-144.067108154297 -69.075035095215 -261.062011718750 2.423090219498
-145.240676879883 -69.425567626953 -266.463287353516 0.742080628872
-168.877029418945 -69.439468383789 -262.776702880859 1.383128046989
18.983318328857 -77.309600830078 -279.920349121094 2.588785171509
-58.319992065430 -70.089492797852 -284.825897216797 1.955148220062
-67.523460388184 -70.737342834473 -283.120819091797 3.379439592361
-42.506652832031 -74.043823242188 -283.371551513672 3.531297922134
-28.408523559570 -73.610069274902 -286.001159667969 0.421738892794
-96.706741333008 -72.847763061523 -288.590972900391 1.993011951447
-31.133440017700 -70.708404541016 -285.224700927734 3.005742788315
-4.459576129913 -73.289535522461 -285.760345458984 1.170281171799
-167.714111328125 -69.280601501465 -288.491973876953 2.500556230545
-16.269945144653 -75.034027099609 -285.448547363281 2.300131082535
5.965734004974 -74.669967651367 -287.556457519531 0.455307304859
13.675035476685 -78.032608032227 -283.256134033203 2.000620603561
-57.373516082764 -74.240470886230 -287.082733154297 2.959498643875
-33.615356445313 -72.938964843750 -290.991088867188 2.123437404633
13.846795082092 -71.795600891113 -292.693664550781 0.812685251236
-71.268989562988 -70.215660095215 -292.335205078125 2.549033403397
-40.576145172119 -69.858901977539 -288.630950927734 1.817893862724
-18.203340530396 -70.915306091309 -289.530761718750 2.097015619278
14.599568367004 -75.890991210938 -290.659729003906 1.341476321220
-12.011296272278 -74.657409667969 -293.787658691406 1.967932820320
3.561676979065 -72.238433837891 -293.400146484375 0.880656242371
13.811166763306 -75.613021850586 -290.228576660156 1.454645395279
-135.257965087891 -69.025634765625 -293.589630126953 1.110776901245
-145.419509887695 -72.038505554199 -298.379699707031 1.426889538765
-151.473205566406 -69.900039672852 -312.416076660156 1.220255494118
43.850685119629 -75.052085876465 -13.421442031860 3.533832073212
30.951778411865 -75.179809570313 -11.490516662598 4.366887569427
40.082038879395 -75.649765014648 -15.114014625549 3.394513607025
22.845191955566 -71.964836120605 -18.357557296753 2.456002235413
45.769630432129 -73.610557556152 -22.083398818970 2.534447193146
26.354160308838 -73.351943969727 -23.624414443970 2.230230093002
24.503087997437 -75.351753234863 -27.152593612671 3.332933425903
25.486129760742 -75.861572265625 -37.939094543457 4.959494590759
40.230133056641 -77.478324890137 -30.505315780640 6.297142505646
26.923086166382 -78.527565002441 -36.000160217285 6.510925292969
43.797912597656 -74.210670471191 -37.369964599609 3.028659343719
32.542362213135 -75.723320007324 -39.094020843506 3.672348737717
39.451930999756 -76.726783752441 -35.633110046387 5.081173419952
31.660055160522 -74.325416564941 -39.618331909180 2.034912824631
44.282161712646 -75.441390991211 -40.882667541504 4.404513835907
34.422069549561 -74.752899169922 -38.669319152832 2.189186573029
-40.265354156494 -71.646903991699 -47.696949005127 2.006754636765
-29.333383560181 -68.728843688965 -50.116352081299 1.598055005074
-88.720474243164 -70.600952148438 -54.051036834717 4.719676971436
-88.497779846191 -72.889793395996 -64.827804565430 2.149227142334
78.395202636719 -78.490043640137 -66.400856018066 6.964206695557
84.837272644043 -75.933319091797 -72.223434448242 2.158603191376
-19.079441070557 -71.711730957031 -73.022064208984 1.498133540154
-87.692207336426 -72.096282958984 -70.985862731934 3.003611564636
-24.650001525879 -72.804222106934 -76.187210083008 0.929867982864
-49.212017059326 -73.859146118164 -84.319465637207 1.854625463486
66.460136413574 -71.924400329590 -85.858924865723 2.827688932419
53.163867950439 -74.246681213379 -92.818916320801 1.267365694046
99.971214294434 -74.583694458008 -91.121315002441 2.836015701294
69.829254150391 -77.095916748047 -96.211410522461 3.085152626038
-67.795310974121 -73.692474365234 -90.336418151855 4.087006568909
-61.720077514648 -70.564361572266 -97.181022644043 4.405386447906
45.227390289307 -75.445137023926 -96.956474304199 2.129408597946
77.850662231445 -74.337310791016 -99.478675842285 1.667534589767
54.712902069092 -82.113624572754 -104.595474243164 4.313257694244
101.695564270020 -75.941253662109 -96.279846191406 3.015639066696
-94.844375610352 -73.112854003906 -106.456230163574 2.200621128082
40.215259552002 -75.027801513672 -110.178611755371 1.918972849846
107.386383056641 -77.178833007813 -108.376091003418 3.061276674271
48.861587524414 -74.837882995605 -110.771766662598 1.840795993805
101.822998046875 -77.147186279297 -109.359298706055 4.523542881012
-85.088027954102 -71.730400085449 -114.517089843750 3.743507385254
36.114505767822 -77.795776367188 -111.364822387695 2.998946189880
106.976554870605 -75.160339355469 -116.413208007813 2.949589729309
105.105079650879 -73.658195495605 -115.395660400391 2.127328157425
105.848457336426 -76.594314575195 -114.722236633301 2.234727621078
110.876815795898 -75.377723693848 -114.187965393066 3.309084892273
40.239643096924 -76.432861328125 -109.662567138672 1.890803337097
32.440334320068 -72.147552490234 -116.748603820801 2.247359037399
41.281291961670 -74.377052307129 -113.606506347656 3.253767967224
107.067291259766 -77.498352050781 -121.386589050293 3.301441669464
40.462024688721 -73.070976257324 -122.694580078125 1.806125164032
109.349617004395 -75.352363586426 -131.755676269531 2.503846645355
111.236198425293 -74.985000610352 -130.647338867188 1.381891250610
33.940494537354 -72.370544433594 -120.053787231445 2.286083698273
-77.681930541992 -71.669601440430 -124.559219360352 2.878504753113
114.167678833008 -73.827232360840 -133.837722778320 2.828895807266
-54.227451324463 -72.410186767578 -136.658401489258 1.462795257568
35.712619781494 -75.231513977051 -134.178497314453 2.699128389359
-73.098724365234 -72.212875366211 -134.555114746094 2.669509172440
27.099946975708 -76.395927429199 -131.092971801758 2.534555912018
-79.457412719727 -72.197074890137 -141.911529541016 2.630607843399
-45.241630554199 -75.402908325195 -141.130508422852 1.263125896454
-73.833251953125 -72.539970397949 -137.294494628906 1.986817002296
110.371864318848 -75.314476013184 -136.637420654297 1.343910694122
117.357322692871 -74.495872497559 -141.198547363281 1.513654232025
118.127342224121 -79.288810729980 -146.018753051758 5.991510391235
-77.178535461426 -70.807785034180 -142.736618041992 0.608386337757
8.154617309570 -69.938125610352 -150.119110107422 1.194491386414
-51.959503173828 -72.907402038574 -148.523757934570 1.704869747162
-50.775573730469 -73.192962646484 -154.438125610352 2.311517477036
106.902412414551 -76.239997863770 -161.247177124023 2.467022180557
-41.404693603516 -74.313529968262 -148.425811767578 1.355347156525
14.066676139832 -71.742729187012 -157.028152465820 0.332003116608
22.321231842041 -75.601699829102 -156.976486206055 2.210818529129
114.722473144531 -75.419189453125 -164.228393554688 1.979594945908
29.799325942993 -73.592803955078 -165.118515014648 2.371767759323
-0.916858971119 -74.729629516602 -162.792739868164 0.984959602356
31.830413818359 -74.989486694336 -160.196777343750 1.899219870567
-67.710678100586 -70.264938354492 -156.753875732422 1.183480739594
-65.744712829590 -71.562919616699 -158.206909179688 1.752511501312
-68.842399597168 -70.462745666504 -164.706832885742 2.454343557358
114.793739318848 -72.772506713867 -161.014556884766 2.281258106232
-44.565013885498 -72.543746948242 -162.130401611328 1.181824684143
17.735616683960 -74.010665893555 -164.853637695313 1.558293700218
-63.942630767822 -70.856262207031 -168.702636718750 2.567987680435
-63.053298950195 -70.158210754395 -170.457397460938 3.044206857681
-41.305873870850 -73.314628601074 -159.405166625977 1.959040045738
-33.620723724365 -74.686889648438 -167.792358398438 2.092652559280
114.894119262695 -78.081054687500 -170.892196655273 2.650106191635
-36.994590759277 -67.931846618652 -178.906021118164 3.758024454117
13.671482086182 -74.688201904297 -172.459991455078 3.719057559967
110.556495666504 -78.457527160645 -183.885116577148 3.745782375336
-147.676559448242 -71.498451232910 -174.800369262695 1.869723677635
-145.916442871094 -69.635917663574 -172.296020507813 3.297591924667
-148.645446777344 -68.004608154297 -178.653900146484 3.191934585571
-142.505065917969 -71.204406738281 -181.510879516602 1.051655530930
-31.902189254761 -71.215759277344 -184.641632080078 1.708054065704
-23.182109832764 -72.811721801758 -184.898239135742 1.469107627869
23.244268417358 -70.276077270508 -190.389282226563 1.795397043228
-141.468917846680 -69.035095214844 -185.454895019531 2.528986692429
-147.340560913086 -69.987800598145 -187.272048950195 2.297080755234
-21.321500778198 -70.239959716797 -185.625610351563 2.078451633453
11.034753799438 -73.857559204102 -181.835372924805 3.898546695709
-149.421997070313 -69.522560119629 -192.961608886719 2.197263717651
-31.666883468628 -73.166145324707 -187.112503051758 2.245231628418
100.020393371582 -75.641479492188 -187.898406982422 2.221704959869
106.185134887695 -74.775901794434 -189.380691528320 2.420292854309
24.165351867676 -69.496070861816 -192.745910644531 1.300422668457
-13.584546089172 -73.121269226074 -187.698348999023 5.132023334503
-27.873319625854 -74.415763854980 -192.525466918945 1.956296205521
-155.440078735352 -70.388900756836 -197.830307006836 2.358592510223
-132.718627929688 -70.833976745605 -195.631164550781 1.435362100601
-125.192123413086 -67.514434814453 -193.826080322266 1.868036389351
-124.734817504883 -68.492683410645 -196.417694091797 2.038685798645
-22.486007690430 -68.582778930664 -195.312240600586 1.263547182083
12.539518356323 -75.437011718750 -191.755279541016 1.488805651665
92.431900024414 -78.806808471680 -200.761596679688 4.266180038452
-150.039123535156 -65.917976379395 -194.126159667969 1.407681465149
-145.084472656250 -67.172393798828 -197.457504272461 2.313033819199
-150.960220336914 -68.829216003418 -198.855224609375 2.719604969025
-154.947845458984 -67.105674743652 -196.148818969727 2.077989101410
-24.860393524170 -72.040931701660 -198.805725097656 1.649748444557
-10.779274940491 -71.445518493652 -194.620880126953 3.649196863174
-146.366241455078 -65.697486877441 -200.849487304688 1.735685825348
-18.552738189697 -71.887115478516 -200.389221191406 2.682709455490
-161.472625732422 -68.400230407715 -199.323562622070 1.554011821747
-134.421463012695 -69.560974121094 -198.177429199219 2.516610622406
15.541624069214 -75.203025817871 -206.388046264648 2.038802146912
-161.309341430664 -65.919219970703 -202.765640258789 1.685686230659
-146.247970581055 -70.803146362305 -205.231704711914 1.762694597244
8.159074783325 -71.426826477051 -202.151016235352 1.861275076866
-154.143753051758 -66.749504089355 -201.355056762695 1.210068702698
-24.680627822876 -71.904052734375 -201.043777465820 2.558794260025
97.234809875488 -76.091377258301 -198.978607177734 1.434978961945
-158.597518920898 -69.946411132813 -211.186126708984 2.418020725250
-164.661209106445 -71.897926330566 -206.371246337891 2.764973878860
-76.944534301758 -69.121490478516 -207.331069946289 4.353454113007
89.137252807617 -74.523002624512 -208.679962158203 2.241685152054
-3.977680921555 -71.660827636719 -217.719970703125 1.680237293243
-154.625549316406 -67.973327636719 -211.607543945313 3.121875047684
-87.750541687012 -70.845932006836 -212.467300415039 2.928771972656
-9.528288841248 -75.291351318359 -210.623428344727 2.242026805878
15.384350776672 -73.088272094727 -219.315780639648 1.993463158607
-145.096054077148 -69.950683593750 -218.840713500977 2.383888721466
-3.880747079849 -76.623420715332 -220.255477905273 0.514269232750
-19.589237213135 -73.413009643555 -217.522323608398 1.639653444290
-14.754448890686 -69.483192443848 -219.738647460938 2.396270513535
90.035583496094 -75.146484375000 -218.811386108398 1.317505478859
-20.895540237427 -71.165611267090 -216.097183227539 2.448936939240
-31.906885147095 -71.587028503418 -216.375473022461 2.241940021515
-107.677757263184 -65.994529724121 -223.696121215820 1.200006008148
-16.307661056519 -70.902870178223 -222.533508300781 1.179159283638
92.253784179688 -73.239524841309 -218.710693359375 2.409209966660
77.262237548828 -75.598365783691 -220.165313720703 3.346918344498
6.973027229309 -74.269638061523 -218.751464843750 2.396392107010
-11.354701995850 -70.501281738281 -224.744689941406 1.880145788193
78.392753601074 -75.397186279297 -221.742599487305 1.479660987854
-122.647712707520 -72.906661987305 -224.102554321289 1.683162808418
-20.200878143311 -70.519813537598 -222.517837524414 3.134251832962
-97.327178955078 -69.774131774902 -222.637451171875 1.267081022263
-102.708351135254 -70.352317810059 -223.169876098633 2.519458770752
-131.829544067383 -71.433776855469 -227.575988769531 1.892277956009
81.082061767578 -74.982566833496 -223.381774902344 1.740918636322
-123.410835266113 -70.294845581055 -226.210952758789 2.412614345551
4.502489089966 -72.367393493652 -228.215042114258 2.048552989960
81.026123046875 -73.522163391113 -224.185867309570 2.646482229233
-15.991934776306 -73.449371337891 -229.921279907227 1.486102581024
-13.792739868164 -73.232742309570 -226.814712524414 0.755167782307
-2.222585916519 -77.669845581055 -229.370895385742 1.206007838249
10.009799957275 -74.915061950684 -226.912429809570 2.505128860474
88.612434387207 -76.281982421875 -226.288879394531 3.923768758774
9.744826316833 -71.631011962891 -230.898025512695 2.707891941071
5.318899154663 -72.687950134277 -228.919784545898 1.690436720848
-9.272057533264 -73.148071289063 -230.672775268555 1.691001534462
-7.010032176971 -73.497268676758 -229.569122314453 1.750751495361
18.515901565552 -72.097061157227 -232.278427124023 2.016767740250
-12.654034614563 -70.112182617188 -232.635742187500 1.506715655327
70.722152709961 -75.080146789551 -239.532928466797 3.057229518890
-9.368137359619 -71.094871520996 -238.252731323242 1.998615503311
18.720907211304 -74.282135009766 -235.303466796875 0.893166840076
-163.092117309570 -67.366409301758 -239.173034667969 1.875480890274
-5.795321941376 -70.583854675293 -236.527694702148 1.317934393883
-8.396302223206 -73.344619750977 -239.654617309570 0.752283751965
-167.981979370117 -69.015083312988 -249.505310058594 1.641832113266
-11.111886978149 -70.931488037109 -243.845794677734 1.431741595268
15.310938835144 -70.612693786621 -245.047729492188 2.270020961761
-148.005172729492 -70.833618164063 -250.625534057617 2.869258165359
-73.598884582520 -70.241752624512 -249.557861328125 0.321502208710
-61.971679687500 -71.992317199707 -246.232696533203 1.107991695404
52.038700103760 -71.917587280273 -246.517074584961 1.537582516670
-74.990219116211 -70.420997619629 -245.960601806641 2.834180593491
16.508390426636 -73.776229858398 -249.089828491211 2.994234085083
-73.445121765137 -71.203544616699 -250.457443237305 1.606660604477
-15.656140327454 -70.737289428711 -245.354980468750 2.934598207474
-145.907943725586 -71.639328002930 -251.559753417969 0.963835120201
46.312793731689 -70.671867370605 -249.674697875977 1.616922616959
-80.475616455078 -72.749244689941 -254.845489501953 1.784496068954
-103.068359375000 -67.228080749512 -254.007690429688 3.039366483688
-99.765144348145 -71.703361511230 -253.614028930664 1.759174823761
-120.218132019043 -67.771537780762 -251.924713134766 5.597968578339
-106.180335998535 -67.598419189453 -256.113098144531 0.877574026585
-106.238609313965 -69.661834716797 -257.106445312500 2.683288097382
21.199520111084 -70.767791748047 -258.121215820313 3.358186006546
-129.759979248047 -67.037635803223 -263.939208984375 2.415131807327
-14.427910804749 -73.027084350586 -275.004577636719 3.464058637619
-148.222045898438 -66.363395690918 -282.084442138672 2.225475549698
-169.382293701172 -69.798576354980 -284.226806640625 2.328870296478
-125.628601074219 -70.253364562988 -283.020660400391 1.876656174660
-114.801010131836 -66.576477050781 -285.785980224609 3.676600694656
-76.176383972168 -66.449996948242 -283.626800537109 4.777001857758
-58.260719299316 -71.550872802734 -285.921203613281 1.618804812431
-42.624778747559 -70.276969909668 -285.367584228516 2.447917222977
-16.207408905029 -74.887863159180 -289.255615234375 2.853799819946
-14.572746276855 -69.642852783203 -291.167236328125 2.649021863937
