# This PCD file was generated using the MATLAB® pcwrite function
# from Computer Vision Toolbox®.
# .PCD v.7 - Point Cloud Data file format
VERSION .7
FIELDS x y z
SIZE 4 4 4
TYPE F F F
COUNT 1 1 1
WIDTH 1456
HEIGHT 1
VIEWPOINT 0 0 0 1 0 0 0
POINTS 1456
DATA ascii
-47.102283 202.251785 -76.109650
-32.546230 194.614609 -71.781235
-31.902609 198.522339 -72.880280
-32.842594 201.782135 -73.200249
-23.467152 199.523972 -75.279167
-45.140312 205.514816 -76.960297
-144.222382 204.768921 -76.535568
-38.885757 206.226807 -76.295044
-42.447205 212.272934 -76.946487
-43.005466 209.942047 -73.334007
-42.608818 208.833420 -74.820213
-133.259430 212.222763 -75.209183
-135.983429 211.334808 -72.900177
-48.249340 211.342499 -77.329300
-59.400497 214.277878 -75.718262
-37.313068 213.804367 -74.157997
-143.811661 215.160522 -75.738403
-69.280945 217.976624 -73.396645
-34.097248 218.343201 -75.829979
17.477921 212.402649 -74.414513
-77.472786 219.461868 -72.607094
-26.684519 221.840775 -70.917267
12.747515 229.595306 -75.030693
-148.508682 228.262405 -77.291046
8.721448 236.363937 -75.893158
13.100094 231.450989 -76.150124
15.229127 239.633774 -76.024567
-134.235809 237.480453 -80.156837
-148.667709 239.975540 -77.350769
10.681914 243.818176 -76.029076
14.435263 246.722717 -74.929459
12.574541 246.060959 -72.555901
-149.161758 248.822998 -79.962227
-144.649521 249.892914 -79.222527
16.770861 247.475143 -74.053719
-33.501835 255.118347 -73.437286
17.336555 256.314270 -75.590172
-39.970798 255.769608 -76.229149
-147.247223 263.531769 -81.408569
12.810046 264.027863 -75.611969
-141.939835 270.041168 -76.733307
-150.746246 263.735016 -77.406662
18.259630 269.362000 -76.128571
-7.143427 261.118866 -71.903458
-6.857606 273.851837 -75.297310
-145.882385 266.135223 -77.422348
-152.889511 269.959961 -73.322701
-144.352341 272.782104 -77.890770
-150.940872 272.554962 -73.306847
-152.104385 278.183289 -76.639633
-10.273460 278.022217 -75.303009
-0.753844 280.381470 -73.337990
10.451055 276.849091 -79.097473
8.689610 291.739746 -74.566193
2.483587 290.399017 -76.237602
-135.493439 301.763184 -74.294861
-142.187424 299.566406 -78.834602
-60.847977 75.023453 -71.957596
-41.751240 74.021309 -72.463905
-55.585545 75.905571 -73.971619
-45.716949 77.489922 -72.750618
-72.388115 73.991837 -74.409851
-83.160774 82.995193 -74.280602
-31.068411 91.261299 -71.419395
-41.751507 96.479553 -73.720078
-47.730762 94.400627 -73.499924
-85.442024 96.346352 -72.566513
-76.435928 112.898598 -73.039001
41.949127 118.789299 -74.641113
-84.452255 120.753876 -75.577049
40.546852 128.638763 -74.244133
41.950127 137.663483 -75.697205
35.789249 131.109497 -71.877327
33.619930 135.996811 -75.356850
35.354736 148.429459 -72.327431
25.290117 155.565292 -70.205200
-44.783585 159.295639 -76.169067
28.678478 157.184784 -72.180351
23.913784 165.657440 -73.036102
-47.382584 166.620316 -73.959824
27.861635 162.338623 -74.753349
-43.354679 172.744049 -72.805939
27.271029 176.551712 -72.611298
-60.598652 179.235611 -75.289299
-9.210084 186.932343 -76.790588
-35.406185 183.339355 -69.056976
-16.512962 184.233154 -73.245529
-54.208817 185.586288 -72.314178
22.836128 180.945145 -72.138451
-16.222803 191.619110 -74.332840
-22.676035 196.355148 -76.951118
-58.292587 194.939194 -73.998642
-26.975679 193.276215 -73.145744
18.639908 196.252304 -71.941422
-151.381958 194.470566 -72.557091
-27.626818 198.195999 -72.215363
-49.666187 201.300323 -72.526184
-150.163101 204.194077 -77.609444
-143.166321 209.612411 -76.873932
-18.494083 204.839539 -73.415779
-16.900108 209.840195 -75.071693
-50.484344 205.995255 -74.816040
-21.948751 208.803558 -70.777542
-51.230766 214.297943 -74.189789
-44.642498 212.389999 -76.228561
-56.048607 211.133484 -77.266434
-17.601051 216.707977 -72.340561
-149.863480 218.513489 -77.332520
-56.968002 213.098434 -73.414978
-56.287460 217.148453 -74.106529
-31.090492 211.956894 -73.169670
-14.808118 211.102570 -75.717201
-37.881302 216.206635 -74.268700
-77.126358 223.252228 -78.196754
-144.007095 222.563446 -77.798210
-33.384857 214.146774 -75.371765
6.989532 220.013077 -73.250313
-59.540962 221.529861 -74.335052
-70.599960 224.140442 -73.011566
-25.833347 227.632690 -71.076141
-10.433415 223.406891 -73.447639
-24.201797 231.135666 -74.424377
14.124896 225.045166 -73.168251
-150.984451 234.112183 -74.207504
-9.346464 226.327911 -72.421562
-150.478394 239.778275 -76.417084
7.655047 242.048294 -77.420128
14.302815 234.388885 -76.028641
-4.040579 234.911804 -75.143120
17.100580 236.132401 -72.296715
-136.889816 240.052948 -77.033661
9.623304 233.582382 -75.652115
-153.060760 242.734650 -73.683540
-147.704071 243.751877 -78.000443
-2.479975 232.464157 -72.838409
17.674490 245.681610 -72.524261
-32.147827 251.738083 -76.602493
-144.492859 248.861832 -73.010941
-40.947380 249.704391 -73.331223
-45.819267 253.302979 -75.220634
-27.832321 254.093872 -75.455841
16.963919 253.864471 -74.085007
-47.272472 253.991730 -75.731781
16.450983 254.000702 -75.908646
10.063713 247.121796 -71.612419
10.237528 254.955475 -76.411850
-43.634033 257.477173 -72.875633
20.009531 256.498718 -75.476189
-142.263840 258.914886 -76.266907
21.987646 257.774689 -74.009735
2.888631 256.780975 -77.237648
10.014754 260.962036 -73.654808
-150.710083 266.277069 -73.943047
-148.964676 270.400452 -75.861465
-143.269730 272.782135 -78.086494
-154.427597 271.535797 -73.440956
16.631500 278.351074 -74.235641
-152.775238 283.718353 -72.271912
-5.434911 287.526642 -74.354813
-152.222488 284.051117 -70.264908
-145.019424 284.689270 -74.825356
-151.653625 287.019409 -74.495636
-154.070755 295.581787 -73.590714
-135.014938 297.832581 -72.468063
-149.911026 299.779663 -77.596176
-150.112701 300.093079 -82.666473
-148.366348 307.183777 -75.975250
-152.889053 304.439362 -74.063370
-147.487244 304.748199 -70.603813
-150.521835 311.042053 -74.860451
-147.382111 311.119507 -74.802116
-147.889618 311.310822 -73.359886
-55.008827 66.686302 -72.901062
-59.851498 69.269508 -74.086281
-47.856834 72.468399 -72.663834
-29.502510 82.995995 -75.809807
-54.744629 99.344109 -73.437630
-86.565887 111.366127 -77.792252
49.788647 116.591843 -75.721542
-80.341866 114.123314 -76.295181
38.884106 121.383209 -73.147102
38.332058 130.881073 -73.280022
36.382671 132.887283 -72.036545
37.526909 145.460403 -71.079216
31.255142 147.312073 -71.935493
34.176571 143.626816 -73.323723
29.086874 159.036118 -72.460106
-43.185108 156.712341 -74.055237
27.908613 151.787048 -71.617569
-63.781948 163.371887 -72.811485
-39.613529 163.003174 -76.028511
-59.999683 175.822815 -74.797523
-42.794655 169.821426 -73.875954
30.306662 164.735687 -74.335953
-35.640766 174.586456 -76.352264
-3.403817 176.523666 -71.703194
31.102802 168.428314 -73.038338
-12.090086 176.881973 -75.040619
-63.072495 174.365021 -71.454422
-37.178955 177.729752 -74.149475
-28.226549 184.959427 -70.370087
27.979277 183.764450 -73.836220
-55.701923 188.693649 -74.032150
-30.370396 186.857712 -70.600044
23.679708 190.292007 -74.417267
-51.580448 194.941147 -72.878975
-25.521381 197.976013 -71.235626
-54.386463 191.083099 -72.416794
-38.132889 206.713242 -75.157272
-29.987885 198.991806 -76.327194
-41.095348 204.348846 -74.340454
-24.747154 202.363510 -71.823097
-134.252899 209.002396 -73.777008
17.099945 211.092545 -73.004250
-137.058273 207.944839 -69.468132
-24.269604 208.670883 -71.563667
-18.037722 207.387512 -69.687965
-40.895355 204.625443 -70.536903
14.980507 200.524597 -74.126442
-16.533371 209.467377 -73.068840
-61.176571 217.516129 -72.511353
-37.040836 213.100662 -70.623024
-65.407013 217.194992 -71.653656
-70.462654 218.563995 -71.754616
20.158876 221.762390 -72.974449
-86.114967 222.682587 -75.479530
-29.669930 227.919708 -73.794113
-82.055130 223.862808 -75.353630
-146.278717 228.579269 -76.482468
-8.999248 223.915100 -72.674286
-11.372211 230.076096 -71.273071
14.046303 221.471405 -72.424667
13.800653 231.125717 -74.985306
-3.616785 241.507477 -72.575569
-133.086853 236.203384 -73.585709
-147.022858 238.975342 -76.520607
-147.308899 241.906662 -69.488892
10.360017 241.966339 -73.440262
1.533154 245.146118 -73.007561
-25.238661 244.896118 -71.438141
-149.214203 246.781952 -74.097221
9.975637 255.010361 -70.742798
-25.097008 254.144104 -73.401505
18.764730 246.408691 -70.316566
-55.711452 255.477875 -73.744438
-51.282063 257.635193 -70.196693
-144.997543 255.189728 -75.600090
-62.253811 256.803101 -73.097900
-4.659028 260.543762 -67.832481
-9.655101 265.688171 -74.219437
-148.431625 267.307953 -76.165260
-134.480469 268.294830 -73.063789
-135.817886 271.678711 -72.122093
18.430635 271.706207 -69.878891
-145.431076 281.348785 -76.947426
18.404858 279.443359 -76.792297
-149.511307 278.982574 -71.535278
4.756665 286.796082 -79.442055
-147.213303 292.951630 -73.336327
3.016564 294.007568 -70.766281
-154.501221 293.081360 -76.750542
-141.208725 299.936890 -73.197227
-136.860626 293.783844 -73.846573
-148.914291 301.650085 -78.129517
-17.765863 299.742645 -73.480278
-154.288376 302.013428 -73.693504
-149.989761 303.864288 -74.364876
-149.033890 320.985535 -71.264549
-56.725113 68.770905 -70.715675
-38.908344 72.070755 -73.368362
-71.835403 71.074219 -73.516747
-29.098843 80.019440 -71.280075
-28.073105 83.645576 -75.334946
-86.275215 94.795860 -72.141251
86.842743 93.115814 -69.015907
-38.018688 91.428368 -70.762726
81.405045 92.451218 -73.865898
75.768471 97.367096 -70.476723
86.210236 101.911324 -67.677086
81.479721 101.191330 -69.580360
93.193001 100.755402 -70.332603
-89.013359 105.068947 -68.763184
53.334595 115.063248 -69.537895
-92.320160 126.833221 -70.093216
37.525024 121.822090 -72.174721
50.215775 122.651184 -71.399979
40.245609 126.720795 -72.300171
30.778564 140.632645 -72.326950
26.331905 150.803406 -73.758835
27.092501 154.402451 -70.337997
32.463623 158.479858 -70.918159
-49.963409 162.380280 -73.698784
-45.248276 161.673111 -73.667175
-41.359844 164.606659 -74.413513
27.128962 158.372437 -74.618324
22.967413 178.771378 -70.858620
-36.503452 172.184280 -72.542854
-34.315098 167.026871 -71.258423
-47.452488 164.711639 -70.107895
1.405599 176.346771 -72.337540
25.582384 167.197556 -71.557541
30.401903 169.459488 -66.975487
26.836763 177.893372 -71.892921
-9.083109 178.999924 -71.339294
-0.874272 179.736237 -71.697784
-55.081017 183.169968 -70.834106
-61.091331 177.409760 -72.499397
-37.849327 184.151566 -73.570000
-38.249039 176.386337 -70.934288
23.063166 182.865204 -71.887016
-21.315739 188.217361 -75.109398
-35.931381 190.743973 -76.536247
-60.208851 188.967606 -74.863594
104.741127 189.026764 -72.488754
19.823116 179.937988 -71.584381
-25.228300 188.681778 -70.995407
-49.836971 190.706665 -70.175407
-15.959489 188.201645 -69.823753
108.088058 188.403336 -72.036926
-47.752171 193.101654 -72.702980
16.306273 194.153656 -72.518478
25.897301 191.028412 -71.201820
-54.196953 191.062088 -72.277306
-23.034506 191.729218 -70.149605
-56.504662 184.985825 -74.494995
-31.736530 190.921204 -66.187569
-26.923283 194.542648 -72.325081
22.084810 196.362366 -74.205078
-49.989346 197.157852 -73.639519
104.149269 199.389343 -71.852921
-51.036179 200.413300 -68.836182
13.511779 210.459854 -73.868919
16.630442 211.132584 -71.456482
-45.522556 199.178802 -72.466675
-19.064592 199.760330 -70.669014
103.470779 206.313522 -72.290421
104.366875 206.104828 -73.179268
-46.060619 200.130783 -68.155373
-149.102890 203.922836 -74.964058
-49.547371 209.414200 -70.032974
-145.853607 209.486847 -72.376411
-135.654266 211.731827 -71.028481
-42.359825 207.792603 -69.329819
12.324386 218.075699 -72.235352
-17.861422 211.039780 -71.034943
15.742731 214.285110 -74.253891
89.746193 219.709442 -73.470001
-38.986565 208.813171 -70.490318
-11.296316 215.564209 -73.494057
-10.386368 219.837921 -72.770683
-37.802387 219.296936 -72.127380
9.257963 216.741470 -75.453682
-75.187996 220.476181 -70.460487
13.924158 223.480240 -73.637634
-36.590858 219.957306 -71.102242
-143.012680 217.150772 -71.959816
-145.481750 222.510895 -72.249817
-85.589668 222.955109 -72.187698
-34.095985 220.070694 -71.438446
-24.355936 224.169540 -72.069504
-28.231123 222.512589 -72.888069
-90.892120 228.769974 -73.170799
-86.557426 224.425491 -71.961693
10.239213 229.207153 -71.177490
-147.924652 227.003845 -71.173859
-12.141338 222.002502 -70.940414
8.122605 227.838623 -75.127304
-142.204636 226.913651 -73.276443
-20.736099 231.530167 -73.850517
-3.579293 232.833786 -71.557404
-1.705075 227.918793 -72.658569
-152.273682 233.297668 -71.855186
-135.035690 235.807892 -69.915207
-5.247510 235.940506 -71.155243
-148.839981 237.959442 -76.694885
0.384988 240.311279 -71.028778
17.470644 241.958344 -68.662743
-2.680933 245.896790 -69.140038
1.661026 243.537720 -71.799995
8.512978 243.636200 -76.357758
-150.179611 243.788208 -72.855804
-18.061687 247.728195 -71.430290
-31.769238 250.361313 -76.157639
7.589736 240.251450 -68.385422
-0.260851 247.542679 -69.831512
5.142023 244.991959 -72.619400
-53.125526 250.406326 -71.672478
-151.468414 255.959595 -70.895798
-151.874084 258.827728 -72.350189
11.146543 257.412079 -73.179840
21.098091 257.296417 -72.770515
-58.933952 258.393616 -71.511261
-147.114685 263.734467 -70.491180
-153.072571 265.011444 -76.098495
-148.768311 266.871552 -74.788887
-144.236435 268.420349 -74.696877
-136.459274 266.978851 -73.051987
-12.542133 267.318054 -71.151192
-145.405930 275.897339 -71.750641
-11.593716 270.639130 -74.463188
-150.529694 285.850006 -72.773125
-150.744400 292.941498 -74.267464
-152.697113 291.765900 -75.307426
-5.121513 297.915802 -68.086929
-144.519379 295.714722 -70.194946
-34.616734 292.969910 -71.369110
-31.963320 299.286499 -68.539352
-20.258057 296.139618 -71.355568
-9.524897 299.966217 -71.734818
16.025532 302.237976 -71.648018
-125.604607 298.339355 -71.296631
-56.253365 297.144897 -73.470192
-39.187286 301.999817 -70.738159
-34.186226 300.086670 -72.458000
-9.776191 299.038910 -72.000999
6.277055 297.697784 -70.387444
-140.939636 302.262268 -74.425484
7.753266 302.732483 -73.082169
-154.188095 313.650513 -74.313469
-149.006134 310.925232 -71.927452
-151.893250 321.227997 -71.224083
-147.025406 321.433716 -71.965828
-51.489410 63.030781 -69.783569
-53.203175 66.515358 -70.697777
-67.188530 65.326530 -70.508408
-43.870556 67.877930 -71.263718
-39.466183 68.930206 -67.792488
-23.269974 72.590065 -67.971092
-82.067253 76.770210 -71.470543
82.193275 89.636276 -69.751015
-90.222893 92.418213 -71.789795
85.071915 91.197540 -72.825043
86.577003 92.836067 -71.181717
94.144684 93.972450 -69.857430
-59.169182 103.506142 -75.976006
85.618095 103.344421 -72.187958
80.692917 102.705635 -69.375191
91.693367 101.215279 -72.606110
-61.342640 107.212013 -74.342804
55.496651 106.888245 -69.769173
46.326897 115.214973 -71.426636
39.984673 116.685890 -71.455635
38.256664 119.149429 -70.487305
-91.868332 123.325180 -70.398361
35.888065 127.771866 -72.424858
-83.438667 122.050804 -71.622955
42.597111 135.118042 -71.795937
33.497585 131.842194 -71.246796
33.206749 132.958298 -72.552475
42.650082 131.289871 -69.825859
40.300156 136.694260 -73.620453
-54.901760 148.897629 -65.975281
36.855167 144.169556 -72.584602
36.888203 150.990540 -71.099731
-49.027969 149.362030 -66.938263
-48.172112 150.838043 -73.269783
34.846569 153.481705 -71.682167
109.974632 151.725037 -69.331200
111.940445 153.026489 -69.756142
27.555807 154.513901 -72.814850
-42.199631 157.243622 -70.770226
112.798546 167.777191 -72.778847
-42.162468 165.262146 -70.383949
-64.612251 170.142593 -73.074631
111.253502 172.400421 -71.098831
24.921486 175.773911 -72.204033
-0.039448 174.655258 -71.792183
113.036354 164.410370 -72.068382
-62.702721 171.731857 -72.423347
-35.541348 170.897812 -73.830849
111.840622 174.467743 -69.536400
27.514706 168.416702 -68.091957
-65.305351 178.496002 -70.772873
108.990974 180.223099 -69.176064
-64.250778 178.873428 -73.233154
-52.342537 187.897644 -73.384468
106.148605 185.933838 -69.794479
-61.964249 178.920059 -70.739609
112.578629 183.539215 -70.035400
-58.600903 182.521774 -73.246033
-13.388742 186.216614 -70.695633
-10.994783 188.831467 -71.870148
106.909332 181.367203 -71.177925
21.685249 179.375748 -70.532463
29.130800 179.136719 -72.149437
-54.857662 187.254654 -73.196609
18.715805 194.257095 -70.589180
-56.974323 188.962311 -71.993286
-51.352848 199.708923 -68.922112
13.933228 191.038132 -71.244888
-60.324852 193.574829 -69.914131
109.918449 195.051682 -68.366341
21.902828 189.988708 -71.504509
-31.509005 197.922226 -71.673172
-43.776104 204.068146 -68.849815
10.978400 205.796478 -69.825104
-22.855656 198.711472 -71.904442
-52.058167 204.940872 -71.620842
101.885933 196.801498 -72.644402
15.104469 200.748505 -69.284447
-135.267090 205.374832 -71.910110
-41.637836 201.544952 -70.502419
101.092087 207.324570 -72.216949
-147.999039 210.997620 -73.344391
18.277967 203.162735 -70.604195
-43.856358 214.178375 -75.902534
-32.845051 213.979019 -72.136208
-38.923557 215.082199 -68.710312
-42.649929 203.666061 -71.382164
101.291214 210.747498 -72.693581
-18.405193 212.204849 -70.265587
-151.018677 212.099228 -69.097595
13.920932 217.788345 -69.678940
-73.164207 215.078995 -73.644333
-146.716537 219.990875 -70.628761
97.253716 219.206177 -69.152199
-33.832024 216.670822 -71.093109
-26.543570 225.814835 -70.258209
6.825106 220.986084 -72.260071
-71.423187 222.278000 -70.719322
-27.761925 219.047607 -70.528809
-6.473042 226.237717 -73.230843
-77.986282 225.948807 -74.208595
-13.657248 228.359436 -73.253166
9.309402 224.914185 -70.061119
17.749987 230.545151 -75.709221
-146.448410 226.660797 -71.513474
-5.040551 225.592728 -69.159927
-92.457573 231.434433 -67.932526
-22.194410 229.030136 -68.076424
93.772430 222.012329 -71.597328
6.481742 238.353012 -72.388496
15.488065 225.713852 -73.123550
80.363670 231.850876 -66.165802
2.356054 236.210007 -69.921150
86.172150 230.011276 -69.347313
-16.084419 232.559296 -70.494743
13.867018 232.170975 -72.614052
-147.604523 234.227966 -73.097328
-18.235245 235.831467 -76.380997
1.706821 236.697357 -74.493080
-152.397751 237.956589 -73.832672
-134.466751 236.995163 -71.323105
10.159323 236.997162 -70.026718
-5.125998 247.715073 -70.834084
-137.054016 241.283340 -71.645416
-147.240967 244.518250 -74.442787
-145.384003 247.337936 -69.649933
-28.214684 245.995605 -71.462791
-145.109177 253.353348 -70.213570
19.846651 250.520233 -70.139694
6.314611 253.682205 -71.627869
-151.527267 245.718445 -69.537071
-150.859009 252.121216 -71.592133
-46.175064 250.172226 -71.442566
-32.315697 254.402618 -73.991142
6.258208 258.431030 -73.303589
-36.549129 256.377747 -69.905174
23.944786 259.925262 -72.602760
-3.083984 256.301941 -72.658768
-152.792435 262.107727 -70.228760
-5.880744 258.699707 -67.478889
-143.035522 261.955780 -72.794739
-66.827469 259.934967 -71.869583
-152.342865 268.350342 -78.069328
-125.928200 270.919586 -73.093269
-149.622559 269.833466 -67.871864
-12.416248 276.416534 -69.371864
-145.600006 274.175293 -73.418045
-149.561783 273.816650 -71.867439
-10.328176 278.543976 -73.366745
-148.041046 278.471741 -72.549942
-4.416676 292.015656 -73.551086
-44.932053 292.803802 -72.618011
-136.773605 295.951721 -72.960968
-133.079025 292.439331 -69.103127
-125.948189 294.301025 -70.925682
-54.476982 291.923462 -70.263809
-114.603409 299.260742 -70.141060
15.460345 299.499268 -75.059540
-61.751671 297.048004 -70.891060
-141.625580 297.726990 -69.363914
-62.414814 297.667511 -68.701576
-143.263168 300.126190 -75.824371
-118.802635 296.314880 -70.434784
-47.320107 301.069611 -70.533501
-38.446522 300.504700 -71.607010
-134.203812 299.975739 -71.513779
-11.537973 302.025513 -68.278511
-0.735864 301.807159 -73.492096
7.454403 301.334930 -71.152863
13.776688 303.490845 -70.982498
-148.742279 305.134644 -74.514938
-146.575485 308.390594 -70.213730
-69.587799 71.514618 -68.850769
88.093597 87.080963 -69.805481
80.152443 86.164536 -70.538185
-25.977020 85.127449 -73.307686
86.100426 84.926407 -68.701195
-36.905708 90.598274 -68.723969
90.353127 88.118416 -72.989174
91.526878 90.873260 -72.578339
-67.847496 103.023621 -66.207901
78.483124 101.480011 -69.769432
81.146492 107.499245 -68.214958
92.899246 101.411919 -69.237984
55.028591 104.260254 -70.137398
-77.435020 110.979691 -74.832680
-79.789047 109.942719 -66.129517
50.330769 118.209427 -69.924042
-91.280067 117.579445 -73.217674
44.802376 125.860901 -70.296616
111.646133 126.486023 -69.008057
110.092033 141.792831 -68.144463
26.354424 148.163956 -67.367516
112.655632 138.988159 -72.882469
28.039860 144.123764 -69.003494
112.147614 141.028564 -70.583763
35.468533 146.626678 -73.042618
-51.501789 158.046066 -73.071762
35.484943 150.921310 -69.629601
111.761185 147.681976 -68.539886
-50.145519 157.462830 -71.002159
30.724209 156.592804 -73.228912
-55.033249 146.015823 -70.228729
-54.353706 157.866287 -74.837242
-51.459743 160.285995 -68.328880
-65.675026 165.628525 -72.439621
113.494171 158.381714 -69.097961
-50.617615 162.973831 -69.896393
20.426041 167.474686 -71.970314
109.953247 167.241302 -72.980354
-67.349556 165.710037 -72.169548
-48.116611 166.383347 -69.728119
7.682823 166.513657 -68.965614
-64.628143 168.123062 -67.790085
-59.645767 171.922104 -71.209602
-0.858716 171.248230 -75.459686
-43.303524 179.780014 -72.709938
28.708647 174.379044 -67.990547
-64.789162 173.470108 -70.285469
-52.719475 178.244690 -67.461304
21.950079 172.000412 -69.847084
-30.545603 182.979965 -73.908226
-31.754078 177.415268 -67.415802
15.556627 185.533646 -68.791382
-38.880512 184.780853 -73.551407
-9.162742 183.919708 -69.780838
-62.337952 181.137817 -69.784683
-5.472400 180.797607 -70.221176
-23.074287 188.454315 -74.150208
20.954462 192.078674 -71.677414
-37.266132 184.543594 -69.297234
17.821327 188.406876 -70.616058
-19.395163 194.714783 -69.694839
-32.720268 190.806290 -70.869438
-146.062637 196.001312 -66.483498
-23.695099 195.950348 -70.552193
-145.185394 200.432831 -69.072433
-151.259674 197.401764 -70.321541
-46.245762 197.787277 -72.289314
100.793968 204.065323 -71.892746
-145.220139 201.825836 -69.712776
-152.172913 206.973038 -71.468590
20.469606 206.673462 -70.511803
-135.062027 205.496414 -67.731636
21.337139 207.641800 -66.346848
-140.277283 210.136078 -67.555870
11.587499 205.706223 -70.509834
-136.503983 211.377411 -68.912476
7.715530 216.012619 -69.170700
-149.267090 212.514969 -69.820915
92.101646 213.865982 -67.555328
-14.165144 214.987106 -69.217133
-27.829048 216.104919 -68.952477
-9.880059 213.885635 -73.452568
-149.450302 219.970581 -72.418724
-38.756134 216.635056 -72.048874
-82.399483 219.645203 -69.968925
-28.783163 221.594421 -71.043205
18.262085 218.861755 -66.910278
-146.729095 218.960052 -71.264900
-88.372253 223.375259 -69.681320
-26.689289 223.969498 -69.885689
-25.460596 229.848511 -66.897598
-14.676700 225.787643 -68.842644
-25.842403 224.417007 -69.521835
-79.853020 227.966309 -70.771744
-84.631439 230.634964 -71.504539
-22.505468 231.576340 -71.075516
-4.406517 231.560287 -69.031731
-148.209976 225.920929 -68.152145
-2.247154 227.808945 -68.690742
83.281540 234.703888 -68.782242
-143.572128 236.712769 -73.613541
-7.378900 233.463684 -69.684784
-142.761963 238.916977 -70.864952
-148.892044 235.655670 -77.550674
-6.316015 239.180862 -69.441322
19.454353 231.406128 -70.089554
-140.866043 238.060089 -70.159103
-14.602618 240.811249 -69.824600
77.014732 237.432144 -70.577339
80.028313 244.345261 -70.396996
8.490496 241.391174 -68.262817
-25.527735 251.048782 -69.263138
-19.668198 246.052490 -70.797432
7.530442 253.727097 -69.106117
-47.128189 252.190430 -67.310516
-25.142475 256.051636 -71.101463
8.186627 254.194275 -70.843384
-64.143486 258.155029 -70.258362
-30.462276 256.685547 -68.419029
-43.410824 253.868301 -68.806206
-150.398376 253.978027 -69.679001
-48.616093 258.215210 -71.328629
-54.054573 256.867371 -70.323891
-65.493042 260.326782 -74.050606
-7.840492 260.198364 -67.852936
-83.042259 262.398163 -68.160080
-150.748550 267.397980 -75.034943
-139.379288 267.722534 -75.928841
-125.171547 271.390717 -67.509750
-153.844589 272.361145 -67.882919
20.203375 271.707123 -69.624313
-10.910816 278.507538 -70.124847
-151.514114 277.289520 -71.287605
-151.297165 285.146057 -70.692154
-142.517838 291.611328 -73.448112
-56.802818 295.141663 -71.951271
-36.744118 297.172455 -69.223381
-24.653639 300.390869 -69.366943
-13.250257 296.771088 -70.173172
-66.089798 295.358246 -70.204849
-77.596863 296.209686 -68.912529
-4.887808 298.459991 -71.849861
10.471127 299.803528 -71.310661
-134.249207 299.368469 -71.883545
-77.142059 298.897888 -68.443375
-147.437027 300.467590 -70.493149
-93.270447 299.021088 -68.929550
-72.272896 299.492767 -68.317047
-83.642365 300.083710 -71.293762
-62.248566 299.796570 -71.863274
-22.833282 303.470734 -69.729660
-2.427973 301.311249 -68.786140
-154.655930 304.019989 -70.569054
-147.398560 307.823761 -71.684586
-145.040359 311.858856 -70.717293
-154.189194 317.432281 -70.009315
-58.216473 65.417694 -68.713707
-46.398720 62.997860 -66.988159
-41.045670 64.256432 -66.925110
-75.734116 68.331512 -72.467361
-29.695774 69.793640 -69.054924
-28.765924 88.417809 -69.274040
75.782402 93.797630 -72.756088
79.086411 94.706917 -70.912148
78.322212 95.711845 -68.679390
96.897369 100.389664 -71.629990
73.505531 101.078148 -70.201630
56.085011 103.650681 -70.169716
46.096333 110.760231 -70.143402
-65.934616 111.381592 -72.048958
-72.431793 109.481956 -65.964760
44.920280 113.037781 -68.039680
-83.116127 118.091949 -71.513519
-92.282974 121.324982 -66.355354
49.968449 113.752930 -67.622086
106.275032 121.960022 -67.730873
33.633373 130.665085 -70.769432
45.657772 127.292908 -72.005394
43.733200 134.058807 -70.945084
29.448238 136.125320 -69.876930
109.672531 127.607292 -68.453575
35.635403 136.161774 -71.275597
31.080149 139.954758 -68.470856
-43.585754 152.962738 -67.261566
-70.346550 157.206482 -70.385483
-52.963310 157.452759 -68.166245
-70.586922 153.055145 -69.034195
-41.195595 158.060425 -69.568146
109.728363 160.797363 -66.862854
-71.373047 163.230362 -69.569862
23.173971 161.164780 -73.199287
33.195717 161.662521 -66.720177
114.968407 165.574875 -67.550690
8.362373 167.235474 -66.983757
33.025524 166.201080 -67.822266
-60.700462 169.253204 -69.436852
-45.779980 179.660156 -71.913139
19.194916 173.999207 -68.658257
-65.781319 175.935059 -67.798080
-65.482536 171.373367 -66.959839
110.125023 175.437943 -71.274582
-9.644670 177.987686 -65.928185
-57.934040 186.376419 -71.927963
-29.469715 182.347290 -68.215591
-54.936722 182.603897 -68.802597
29.863461 179.001038 -73.075348
110.459625 179.608490 -65.042267
107.036636 191.998779 -71.898453
112.288116 200.760452 -71.261200
108.018791 185.253281 -69.840431
-56.654285 199.542999 -70.305008
-52.027317 191.273880 -68.090813
24.416447 193.547256 -70.100410
-51.136688 196.718231 -64.703949
-21.553133 195.888718 -68.071335
-50.278725 201.354156 -67.996506
-146.125702 205.088150 -71.101631
100.818199 202.520660 -67.381302
-45.412804 201.069870 -68.804726
-15.078667 205.693130 -71.157494
-138.568497 209.950287 -70.456398
-44.626049 205.179962 -70.425011
105.499275 205.132599 -74.060410
107.611931 198.231186 -69.824287
-46.840641 207.403244 -71.156471
-23.283190 205.187607 -69.407806
-149.363007 209.758163 -75.379417
-26.192028 210.109314 -68.786888
-152.704300 208.020401 -72.224922
-152.480286 212.078735 -71.158485
-141.086304 210.933212 -70.477417
-37.514469 206.990555 -69.061897
102.256676 210.107697 -70.678703
-38.418987 210.359512 -68.310699
-143.997818 212.381317 -72.630714
-37.797703 217.864716 -69.330544
-18.368547 219.909561 -71.329628
94.871964 213.922226 -69.885773
94.369820 218.316467 -69.560181
-27.984667 226.333176 -70.632675
-86.980026 221.863190 -71.851089
-72.154900 221.598801 -70.369232
-17.796457 228.240417 -70.308044
-149.795731 222.721848 -67.005730
86.919479 225.229660 -71.355728
88.474640 230.578796 -67.763603
89.341545 228.583755 -70.865356
-100.766777 232.880692 -64.873863
-147.859497 233.814636 -71.680359
-18.463179 229.521667 -73.427628
80.414818 233.887787 -68.262444
-146.223633 235.816376 -75.420090
-30.318871 231.382446 -69.363220
-132.450607 241.274750 -65.410889
-11.921741 237.061325 -71.189522
19.330215 230.303482 -69.050354
16.978439 243.793549 -69.167664
-155.292389 243.637177 -73.455872
-123.393150 241.663269 -67.019318
-8.087742 243.140625 -69.175652
1.054092 248.576736 -67.943611
67.932045 245.327621 -70.900116
70.154373 246.306747 -68.477028
0.927522 250.607651 -70.511040
19.162893 247.861771 -69.493408
-25.500732 250.873627 -68.231232
-37.923088 253.935150 -71.860191
-46.094585 248.220520 -71.046471
-39.680084 252.555664 -70.912582
-18.877951 253.633163 -71.903641
-54.063366 251.520584 -67.375824
4.460328 254.649841 -69.143394
-70.099960 256.180237 -65.497482
16.757603 255.635559 -67.617981
-146.227707 257.625092 -71.799095
-69.924889 260.498230 -73.109703
12.488738 257.990021 -71.654350
-163.624680 259.990051 -69.493591
17.932428 260.078369 -68.605667
-81.872810 262.169983 -71.047768
-74.062195 261.017487 -67.668831
22.881186 266.728394 -69.348457
-88.174820 265.861847 -68.124565
-128.551605 265.322968 -70.439674
-136.079880 267.502686 -70.500145
-133.718750 268.045624 -70.399948
-144.318329 269.252960 -67.804298
-140.003296 266.907959 -71.692169
-135.808136 272.363098 -68.152885
-159.245209 268.795807 -70.358994
-127.099617 273.791351 -66.609764
-134.164825 269.466858 -68.083672
-163.221954 275.227051 -71.707016
-155.833649 273.432465 -69.393539
-149.947662 275.802338 -69.053520
-145.943787 274.919525 -72.817795
14.953542 290.124512 -75.993736
-164.283264 278.222046 -71.624718
-153.894943 285.212738 -67.000122
-5.762404 285.281860 -70.978592
-160.157455 277.554199 -69.694633
14.510833 290.062714 -73.486732
-152.241486 292.476624 -68.881439
-161.119675 299.745514 -67.723038
-152.671326 291.985321 -67.403336
-167.473999 292.785034 -65.110458
2.929463 298.125610 -68.745430
10.118149 293.305664 -73.287697
-96.852638 296.725098 -65.053276
-151.045074 297.945190 -70.577080
-147.916519 294.866486 -70.021812
-109.882278 300.276581 -67.169556
-149.905716 300.552704 -68.596977
-148.942963 302.616852 -68.772675
-67.710052 300.290894 -69.043968
-161.709122 301.730560 -71.616920
-121.749641 299.173584 -70.764214
-42.919762 301.246674 -72.748634
-153.780304 301.455109 -67.849197
-139.257217 301.793335 -68.776138
-17.170897 302.048431 -71.275902
-125.967720 306.483612 -68.563492
3.742731 301.506714 -69.885948
13.499063 300.454865 -71.007896
-132.987274 304.515717 -69.235191
-145.002808 304.675568 -68.359505
-155.590225 319.518463 -67.374863
-71.617729 60.038555 -67.190048
-24.104910 70.898819 -67.328804
-21.931463 75.225311 -69.127975
74.962120 83.542358 -67.476128
91.247559 85.483604 -68.210953
-37.306469 88.152222 -64.914642
78.291306 85.757622 -69.879532
87.967400 90.156448 -71.696655
71.931252 90.639549 -68.210228
70.325447 97.585175 -67.052635
-46.751331 95.850609 -71.650803
-93.205589 99.110779 -67.803497
58.364109 102.238815 -69.645676
48.882465 106.795715 -69.750313
96.317665 106.856316 -65.916512
-94.091286 112.943130 -66.240997
84.901138 106.344704 -68.311195
80.358818 108.999474 -68.288795
91.520538 106.184784 -69.298874
82.585236 112.192429 -65.292358
91.421013 109.242004 -68.358498
-82.279030 111.931831 -72.805748
41.164787 119.996887 -71.781372
104.829285 121.886917 -69.035324
111.985573 119.886032 -65.841194
46.324223 126.772438 -68.127457
109.412086 134.128693 -66.027618
115.277321 144.822906 -69.907074
-51.974457 141.730743 -67.591980
29.470688 143.018982 -69.287399
36.333508 139.633560 -71.670219
23.489830 152.966110 -66.250542
114.245468 148.852219 -68.095100
111.472031 143.788879 -68.958984
-73.873550 158.682755 -69.976456
-46.761833 157.805725 -70.221527
-72.268150 158.951447 -66.777916
21.059328 162.012070 -70.488815
112.368225 162.990753 -67.471161
-54.040337 161.063416 -69.058289
-69.970039 159.291809 -67.694977
-39.667130 165.430038 -72.506012
35.965553 160.675690 -67.756676
110.674393 164.888107 -69.280853
116.421829 167.180710 -69.467346
-68.524773 162.118546 -67.897446
-71.223885 173.437088 -69.483185
20.698229 172.695953 -71.583954
-57.883060 173.703751 -70.654572
-31.257147 172.571976 -74.413376
7.318573 173.421600 -67.535835
111.788391 174.580444 -70.246071
5.803202 175.045380 -68.490128
-35.627720 176.350662 -69.602486
-0.204035 175.302597 -66.883034
106.361374 183.056458 -67.511574
-41.256424 182.538696 -64.099121
29.281311 179.413467 -65.943428
112.159309 181.212036 -67.081787
-53.269436 188.646133 -67.842690
-28.163759 181.030685 -70.437920
101.780876 183.775864 -70.366554
31.883991 182.273560 -70.547043
114.906372 185.347534 -66.942215
-37.636631 183.018616 -70.420036
106.902641 190.605881 -67.187721
-58.028893 188.030487 -68.396362
-24.161207 187.479446 -69.185562
-143.261520 191.868896 -68.251366
-54.259819 194.438477 -68.592697
-146.407501 194.747726 -67.615540
-32.132271 196.950195 -68.124626
22.328724 196.749863 -68.130775
110.299942 191.935913 -65.553001
-29.892872 199.506912 -69.192268
13.292809 201.769318 -70.152283
18.073534 209.423035 -68.764870
-147.852783 203.067566 -66.764938
102.871796 206.778336 -70.955513
-18.147528 204.074677 -65.892311
104.888786 200.963013 -65.409958
15.774226 198.883987 -67.676689
-130.664063 211.786545 -67.691452
-142.644974 208.521210 -67.731377
95.799355 209.782196 -64.177048
-11.376688 210.589325 -68.643097
-15.054631 208.093338 -70.832619
11.746640 214.785004 -69.230217
-147.546280 216.122849 -67.152504
-146.447876 216.461731 -69.854774
100.326286 214.510696 -72.064552
-75.560089 219.933350 -69.679039
-36.414577 212.186676 -66.923180
19.819189 220.438751 -68.058426
-24.041553 220.384903 -70.882629
-78.291779 222.772278 -67.021667
92.839714 218.269745 -67.856339
-81.686104 224.217896 -65.798759
-146.634598 228.644485 -69.557114
-78.420876 225.776825 -70.165909
-15.290915 222.613739 -68.613052
-21.193081 227.362549 -69.461227
22.036289 221.103577 -66.811470
-5.260776 223.041962 -67.833832
-83.083885 229.145859 -67.862534
91.839905 224.072617 -68.577759
-94.384506 224.920502 -69.913025
-146.651810 234.347046 -73.720886
-14.261753 229.328720 -69.530670
16.763245 225.879654 -68.376312
-102.713707 229.416153 -67.114960
9.225020 229.841476 -70.216049
-25.130724 226.083328 -70.941658
83.505028 234.021942 -70.012764
-145.756271 230.671478 -68.289398
7.158281 235.831146 -66.097542
-6.751133 231.594116 -69.624954
17.447224 230.717712 -65.413879
85.039291 234.830551 -66.744225
-12.444351 236.561996 -69.115051
-129.267258 237.416687 -70.932564
-8.498559 235.003769 -71.864037
17.435873 244.117706 -68.494705
-125.248497 234.407486 -68.013336
-149.260696 238.995590 -68.978142
-139.735504 238.874146 -68.712746
-132.091309 239.635788 -67.957474
-11.876869 236.979568 -68.378304
72.170654 239.662704 -68.129730
-140.868927 244.572372 -68.962425
73.448853 237.796524 -67.714897
-16.276026 236.246674 -70.678085
-141.602524 241.689255 -73.554878
78.067017 241.366516 -70.988602
12.914603 246.193848 -71.755730
-142.296509 245.818192 -68.227112
-149.293045 246.397369 -68.686623
14.160403 243.998215 -65.001953
-2.051767 247.598953 -69.097649
-23.527126 251.707474 -67.039467
-3.372771 249.992676 -67.480324
-161.243118 247.017715 -69.418312
10.868194 255.208801 -68.912521
-163.391663 245.034744 -67.371140
-15.566744 244.204849 -68.269737
67.871338 249.100525 -69.572342
-9.087825 250.875763 -67.758377
-24.932178 249.306900 -68.247116
-25.730673 251.526581 -66.570114
-14.849380 254.373444 -66.341125
-143.907333 245.488327 -67.342781
9.606282 253.706833 -70.509239
65.392914 250.939575 -70.499077
12.698782 254.150070 -69.091331
-161.560120 249.591599 -67.409119
-47.489342 254.167892 -70.200531
5.304892 257.567139 -73.004532
17.750671 258.590424 -65.130295
-56.588593 259.172699 -67.933304
-3.170103 253.512772 -67.661552
21.502632 259.603302 -70.545914
-165.020721 256.662964 -68.165092
-71.099991 261.036621 -70.836365
-51.499954 257.322235 -66.966362
-78.916130 258.257935 -67.644363
-160.601883 254.546539 -67.395981
-151.211288 261.536896 -68.774193
-58.871391 262.022858 -66.369728
-68.360336 261.004333 -72.188873
-153.648270 262.925934 -67.184837
-151.874298 260.454437 -66.650284
-77.287445 261.642609 -68.336472
-92.247986 262.219727 -65.591072
-163.708359 260.894836 -69.135841
-154.645874 264.009277 -67.808640
-134.062012 266.468079 -66.000366
-81.577988 263.001007 -70.566620
-162.963852 263.332733 -65.869118
-144.853546 266.428619 -71.304512
-89.724899 264.649719 -68.208427
-98.108879 269.085510 -63.616581
-148.150665 268.138885 -67.319153
-95.832268 270.188660 -67.789024
-150.457962 264.997009 -67.490364
-99.674294 266.008148 -69.303360
-165.813126 267.276306 -70.885483
-161.206116 268.212524 -71.551102
-122.781425 266.600616 -66.970825
-148.827759 268.604340 -70.802818
-110.585190 269.929260 -67.248802
-14.172292 270.940216 -71.887772
-142.431992 271.430115 -67.248161
-124.879425 271.014069 -67.740540
-155.496384 273.630524 -67.726967
21.964264 278.069580 -69.328827
-149.816895 290.681458 -67.218987
-167.470734 288.510498 -66.956230
-5.507456 291.127808 -72.721275
-147.829346 290.668610 -70.237274
-6.582179 289.569214 -67.468254
14.750276 295.725311 -68.240044
-133.824265 296.887451 -67.262604
-70.010605 293.432129 -70.579369
-36.860199 293.728149 -67.862373
-114.339935 297.863007 -66.482674
-90.826149 302.479431 -68.425514
-90.308487 303.557098 -67.631912
-47.796680 299.316833 -71.316170
-114.879257 301.922607 -65.829887
-108.617897 301.436829 -68.799576
-31.521961 301.312927 -70.134171
-114.330109 300.076782 -68.789780
-125.010536 300.530212 -69.513115
-143.719238 303.555695 -69.996834
9.175111 299.908356 -66.450172
15.190197 303.610260 -70.065475
-156.042557 304.220612 -68.480728
-154.299042 312.483124 -68.779175
-144.927155 320.914307 -70.199402
-149.914429 319.622864 -65.562988
-151.646378 322.862488 -71.795731
28.186020 25.470541 -66.930016
25.862665 29.455999 -65.855896
23.895817 31.063705 -66.907158
28.776484 49.723351 -67.428909
-53.670506 62.392975 -62.539948
-64.314346 61.225067 -65.500389
-38.441051 62.466026 -66.360703
-80.685013 69.347412 -68.236496
82.707344 86.272430 -71.184402
-18.273111 82.911232 -66.534798
90.581139 79.145210 -69.803375
97.401749 89.350609 -66.591782
-92.112122 90.511772 -66.536446
73.805710 87.674004 -64.947395
-40.787033 94.373940 -70.710587
101.776955 93.935768 -66.421181
-53.678070 99.748718 -69.387543
52.490490 98.946243 -66.861954
73.292679 98.837273 -68.496590
58.219471 105.485107 -70.040596
50.846142 111.211899 -67.255516
70.862976 104.660767 -69.511009
47.660530 108.736382 -63.866276
103.442215 111.197838 -67.803955
111.001503 115.958817 -68.744118
80.415436 111.306969 -64.189919
90.008713 112.902466 -67.757599
102.556206 109.545242 -66.219948
108.017189 111.455833 -62.026711
40.478481 116.334915 -72.027626
110.172165 129.298004 -67.215706
114.676689 129.885727 -69.066025
33.944847 129.783844 -67.128265
42.876545 129.226074 -68.520485
111.672501 138.290085 -66.051521
39.771706 136.253662 -70.068581
114.955841 139.698364 -65.269196
111.075775 134.908066 -66.684151
26.047392 147.434845 -65.559776
-47.781441 143.500763 -69.713646
-53.917343 148.490021 -67.824188
114.081200 143.331894 -66.056610
-72.484070 152.647690 -69.614410
-74.238594 149.297714 -67.138947
-57.211983 151.542053 -69.499451
34.676792 149.817673 -67.539223
109.025398 156.101303 -66.237160
-64.938919 155.378204 -68.141975
-44.349709 154.405777 -64.590767
38.459385 159.288330 -71.022171
-64.724251 159.994019 -69.491562
114.299339 153.904541 -63.645950
111.859085 166.495956 -68.225395
114.040794 159.189407 -68.888657
-37.353737 165.046310 -67.718803
-64.926849 169.072632 -67.906807
-70.006981 164.335480 -63.127090
31.219200 161.016525 -65.837570
-0.056602 173.108276 -69.692978
108.690102 167.661179 -67.498169
110.661095 164.832840 -64.561058
113.681618 167.228241 -66.619728
-63.969051 171.167343 -69.495628
-45.700108 171.416412 -69.191315
3.557461 177.570007 -68.737381
-24.689240 183.797745 -65.817482
107.078712 173.708496 -67.724083
-35.772427 170.628616 -66.131088
111.291847 178.686295 -68.661850
-40.685741 181.888458 -66.564240
111.199738 177.098083 -68.790497
-148.969055 191.711273 -65.613564
-29.427958 184.965652 -66.018394
-20.235525 190.522369 -65.040672
29.108751 185.998917 -70.758087
16.481676 190.070419 -67.355331
25.056618 192.269501 -68.495110
107.203987 194.983658 -69.620049
-151.149490 197.217163 -65.198586
-20.393053 197.903702 -68.474419
105.257980 188.181564 -66.696457
104.070107 200.824234 -66.665749
106.318802 190.078064 -67.749489
97.196091 204.998398 -70.833977
-153.550491 205.888184 -74.476982
99.895279 213.202957 -71.190674
-30.009823 205.120209 -66.767044
99.152885 206.479218 -65.876823
-125.855156 204.596268 -67.917854
-29.694624 201.737427 -70.172523
-140.761902 210.668152 -67.616089
92.951859 209.245697 -67.194031
9.749832 209.660797 -67.723572
23.999744 205.032074 -69.298637
-147.881668 209.697739 -67.778793
-138.530487 214.405014 -65.760246
-12.936474 214.992950 -68.375984
-124.520370 212.506149 -71.722000
-144.870621 212.342453 -70.630272
8.014254 209.814270 -66.288734
-23.236975 213.501038 -67.937294
19.678518 215.710266 -67.415611
7.757960 219.667557 -67.815460
88.297279 220.404846 -68.143654
-22.127172 221.434174 -62.984303
94.011520 219.747513 -66.843590
99.326775 216.788895 -67.581207
-145.916382 227.643631 -64.844215
95.868263 220.752777 -65.261688
6.854720 219.073059 -65.653175
5.183458 221.665680 -67.557739
-33.806000 219.269363 -66.420822
-90.356651 223.666519 -64.788849
-30.825487 223.106674 -67.328476
85.014999 225.585388 -68.592407
85.748474 227.930298 -68.366165
-35.176502 224.304062 -64.714485
-80.851707 230.750229 -62.906651
-2.386446 226.282364 -67.512016
88.678673 226.804840 -68.024284
-148.313782 231.717987 -68.936104
-167.148590 222.809555 -68.259010
-158.315643 231.219986 -66.645248
-19.568829 237.530746 -68.879166
-151.787842 233.481003 -69.248199
-6.907964 236.735931 -72.099731
7.397194 227.736786 -66.119225
-162.036316 232.514893 -70.409668
-162.417389 235.688263 -66.995102
79.352760 239.884842 -67.691216
4.737386 238.739807 -67.449509
-151.230392 233.707733 -68.276871
-142.044800 233.288696 -67.731483
-20.124664 234.911636 -69.310242
3.550272 233.855103 -69.406830
82.909119 232.587204 -67.461288
-159.407074 238.885300 -68.458412
-146.150253 237.937332 -66.191986
-124.394920 239.906830 -65.434448
81.733269 239.301208 -69.434380
-114.758179 240.561600 -64.699478
-147.175415 239.037476 -69.079971
-151.127899 239.635590 -69.965622
-146.709579 238.330811 -67.435112
-153.098206 239.576447 -64.989876
-165.551254 243.832977 -65.054459
-135.659042 244.461319 -66.598228
-134.246643 242.844803 -67.093613
-154.825668 239.928711 -67.049896
-144.796677 243.068741 -65.928749
-151.714966 243.846405 -65.004189
73.103020 234.286896 -66.804703
68.528427 248.351563 -64.938202
-159.968536 247.534012 -66.297173
70.142296 243.480911 -67.337219
-19.222698 246.315674 -67.136917
9.938066 247.336517 -67.479233
12.302800 245.311874 -70.271317
-146.053802 253.858170 -66.979393
15.261419 252.096039 -67.249527
65.760948 246.796402 -68.472816
12.367350 246.159164 -66.590431
6.252569 253.207886 -69.966835
-6.541212 250.550247 -64.815086
-18.401728 255.051605 -69.891998
1.037257 252.723602 -69.668541
3.300602 251.909454 -66.726830
57.609715 251.357574 -68.664635
-57.367451 255.161224 -68.119446
19.132607 258.166870 -67.868393
-58.977680 254.883484 -67.117714
-7.228586 258.619995 -67.073578
-63.725525 261.793610 -65.342323
-84.685455 261.272400 -71.707985
-81.350121 260.937164 -69.933815
-14.453389 261.773315 -66.736343
-123.785797 268.662079 -69.885574
-14.271392 265.561615 -65.307762
-119.798538 266.284332 -67.313286
-116.042465 268.333984 -65.101295
-103.011269 268.076019 -70.137138
-142.862946 271.662262 -66.703346
-145.441193 276.176422 -65.871452
-166.832397 274.689636 -65.463448
15.565675 290.668304 -69.525215
-57.470947 294.373108 -69.407883
-64.901382 294.551239 -68.120193
-43.019379 295.096680 -69.401428
-27.377346 293.332855 -69.386620
-93.727623 301.233215 -67.680443
-29.444201 297.898895 -66.116096
-2.269335 295.908508 -64.797874
-165.326416 299.337494 -68.459061
-13.320436 298.732117 -69.326424
8.344830 299.099701 -65.327705
15.379925 300.202057 -64.704483
-55.365410 301.595764 -68.451996
-28.404808 297.973328 -69.622932
15.688882 300.452209 -65.635201
-68.009186 302.858276 -68.736046
-36.890015 300.473602 -67.121597
-16.273170 301.263885 -66.535591
13.052885 300.901855 -67.860420
-12.005969 300.056183 -69.561272
5.696784 302.265961 -65.907959
13.415000 302.661438 -67.808258
-133.733749 301.970154 -69.032814
-141.607758 311.648834 -69.271439
-148.139511 321.352264 -71.100563
39.812641 22.187351 -60.808769
30.963003 19.865438 -65.647980
39.763153 25.130783 -65.978516
21.283871 30.587801 -65.939308
43.331879 33.674400 -66.019806
22.910837 30.444605 -64.550293
24.468197 39.605839 -68.864670
22.647038 45.149113 -67.980011
43.078751 42.369987 -63.876156
27.400501 46.641792 -65.765488
41.032791 42.758350 -66.233559
33.339081 46.937588 -64.155708
33.397633 48.886932 -66.411797
32.578476 50.689579 -64.997643
43.328335 52.127674 -65.918587
35.193470 53.315311 -63.237148
-37.962200 63.476830 -62.121861
-29.676888 57.117470 -61.965771
-88.110123 66.104935 -63.402412
-86.545708 74.013031 -68.035423
80.798637 77.567307 -66.662056
83.449760 80.954842 -67.179474
-15.546018 83.657097 -67.295540
-85.910248 81.116570 -68.530022
-24.063810 88.329445 -66.305527
-49.138859 98.070473 -69.515045
64.621407 95.188637 -64.759445
55.340343 101.230095 -64.025063
98.279854 98.630852 -66.617226
73.644707 105.203979 -67.816551
-63.817947 102.661118 -69.955460
-64.747177 105.954109 -65.668243
45.277939 106.534958 -67.390007
74.541901 111.056480 -70.052788
52.157555 112.164619 -70.086494
101.857979 107.294579 -68.547630
-91.267319 116.817139 -66.752487
39.318783 120.614563 -71.123032
107.592384 117.391296 -64.952782
47.108322 120.187698 -64.118599
104.006783 116.792892 -64.601631
-84.272308 123.715576 -66.195419
36.584610 123.846619 -66.025536
109.358810 127.705505 -68.133003
103.358406 125.581627 -65.861404
108.080009 124.429482 -68.626289
110.330742 125.138840 -69.707893
35.435558 123.891609 -66.930817
33.151600 128.556992 -70.062195
44.454556 123.832314 -66.181427
110.242447 133.195755 -66.749313
40.535664 134.379410 -65.331841
110.391800 141.428543 -68.027290
114.479881 138.913437 -65.182404
33.410259 131.385925 -65.785133
-76.666855 136.535660 -68.008118
117.312614 145.051239 -69.615936
-58.097637 149.424530 -70.623764
35.438984 145.678635 -68.094292
-72.991867 148.793594 -66.921478
29.821358 144.346390 -65.487000
-74.065758 151.407104 -68.134956
-43.333660 155.646896 -69.378540
-71.918083 145.996979 -68.579185
111.299461 147.704544 -62.895649
116.118645 150.492111 -67.272362
121.641243 155.024094 -67.328423
-71.625916 154.526520 -67.189774
9.712167 160.180664 -65.328575
-56.047836 162.869324 -65.790642
-47.014744 164.103134 -68.928993
109.295639 168.810745 -65.204094
-40.088032 160.973938 -68.776428
12.086506 169.047546 -65.439491
22.942595 168.814850 -65.946854
114.515099 173.381882 -67.921730
31.568897 170.889771 -64.190437
-1.518186 170.343491 -69.898285
31.977722 172.379242 -66.560928
-68.149269 168.772827 -62.128891
-62.466507 168.678604 -65.240906
-66.399597 173.045349 -66.087753
113.891685 170.781281 -65.540550
-44.904839 173.149292 -64.825645
18.831484 178.985092 -70.154716
-62.755730 182.121338 -68.948051
-59.566063 182.727173 -68.723885
-40.806149 171.035065 -67.999016
-34.436516 177.967346 -62.313622
114.125031 182.669464 -64.048416
-34.895885 184.832809 -67.379868
16.685925 181.522217 -66.733009
108.903206 196.394547 -70.551872
-150.409271 186.429489 -68.966293
-143.261261 184.824005 -67.954781
-151.121735 187.278534 -65.869186
-143.108032 190.479248 -64.080666
-27.699928 192.940002 -65.528923
-23.564983 194.875824 -66.060287
23.453293 199.769333 -64.473167
-141.378754 196.898132 -66.557556
-144.395218 195.200287 -65.650818
-21.022123 197.180099 -60.829159
14.683842 191.986877 -70.018661
-142.844833 202.295044 -67.545609
