-143.739868164063 -65.689529418945 -234.903396606445 2.144825220108
-3.769012451172 -71.636138916016 -320.722991943359 28.625762939453
-86.061706542969 -70.698234558105 -261.926727294922 5.873968601227
-1.910087585449 -73.539405822754 -331.097137451172 38.724933624268
9.586303710938 -77.001953125000 -326.994842529297 33.241123199463
-139.993988037109 -66.494728088379 -211.097534179688 5.083279132843
-10.205474853516 -77.350585937500 -313.939147949219 22.092376708984
-96.790832519531 -65.137413024902 -239.350830078125 14.700407981873
15.837814331055 -77.360336303711 -326.002227783203 31.934179306030
-103.793716430664 -65.675758361816 -227.206390380859 1.965552926064
-20.183158874512 -74.116355895996 -292.143432617188 0.696480691433
-3.693084716797 -73.643547058105 -304.921081542969 12.748406410217
-11.546653747559 -71.182640075684 -290.566833496094 1.608105778694
-14.013793945313 -73.483512878418 -281.426910400391 4.954508781433
-2.041160583496 -72.425086975098 -298.868652343750 7.138966560364
-18.170234680176 -76.719879150391 -281.312011718750 6.557088851929
27.706497192383 -75.863647460938 -313.370605468750 23.316251754761
36.630844116211 -75.288177490234 -314.218383789063 29.729507446289
9.379501342773 -78.188812255859 -299.157226562500 6.679573535919
18.088638305664 -75.141593933105 -303.865753173828 10.345052719116
25.940582275391 -77.415763854980 -314.076019287109 23.063898086548
31.278503417969 -81.883041381836 -315.690368652344 28.080698013306
-18.944190979004 -68.080101013184 -271.277954101563 5.675728321075
44.028533935547 -76.606552124023 -303.060699462891 29.880754470825
48.026168823242 -75.002853393555 -305.407348632813 34.358501434326
-16.127464294434 -72.445129394531 -256.426086425781 2.275860309601
-9.332527160645 -71.559059143066 -262.347930908203 3.509766101837
50.643554687500 -77.743568420410 -296.782745361328 34.512840270996
-7.464103698730 -69.755638122559 -254.953308105469 4.332820415497
54.074798583984 -78.690338134766 -297.622863769531 38.116706848145
48.137008666992 -77.119674682617 -299.132751464844 32.611312866211
-11.714218139648 -73.357948303223 -237.556045532227 1.562342524529
-72.499740600586 -65.149078369141 -196.069152832031 16.491985321045
-74.401115417480 -66.633575439453 -188.304290771484 19.945936203003
55.619796752930 -77.811553955078 -294.242279052734 38.949886322021
-86.530242919922 -63.762527465820 -173.817901611328 15.387263298035
-90.049934387207 -66.176841735840 -175.305023193359 12.344532966614
-75.096084594727 -64.740722656250 -183.955688476563 19.175113677979
-3.349166870117 -71.833206176758 -240.985870361328 1.581665515900
59.382369995117 -77.195404052734 -281.046997070313 30.550806045532
-78.940750122070 -65.619499206543 -176.164001464844 17.905179977417
-63.335689544678 -70.322708129883 -189.272552490234 10.818068504333
5.537918090820 -68.451881408691 -235.914520263672 1.454637289047
-75.913894653320 -64.228218078613 -172.688995361328 15.063319206238
62.133270263672 -80.102539062500 -285.877716064453 36.718986511230
68.023788452148 -75.242370605469 -274.601623535156 28.695613861084
65.335159301758 -74.790016174316 -281.753692626953 33.378238677979
-51.202064514160 -67.460418701172 -185.206665039063 6.891376972198
-70.612159729004 -65.689277648926 -165.290985107422 7.965235710144
-77.697494506836 -70.235778808594 -165.761535644531 10.278906822205
0.656372070313 -73.204154968262 -229.925079345703 3.266787767410
-16.650192260742 -67.467895507813 -201.520355224609 2.130566835403
66.192581176758 -75.777923583984 -271.722595214844 25.501644134521
65.927444458008 -78.854194641113 -275.035766601563 29.033344268799
69.855224609375 -76.938003540039 -275.056274414063 30.191976547241
-68.520278930664 -64.131011962891 -164.278381347656 8.133120536804
-53.892776489258 -65.448677062988 -175.150741577148 8.368839263916
-11.106239318848 -68.569114685059 -200.129852294922 3.347819805145
-29.826293945313 -69.836700439453 -177.923110961914 2.083084106445
68.600494384766 -75.389526367188 -265.954650878906 21.364387512207
-46.611938476563 -69.066040039063 -181.666000366211 7.244822502136
75.003082275391 -74.627563476563 -264.600219726563 23.290424346924
-43.645050048828 -68.223884582520 -169.766403198242 3.787925243378
73.968978881836 -74.513214111328 -265.810577392578 23.733671188354
-123.575332641602 -63.027084350586 -96.235382080078 24.157264709473
-32.866477966309 -69.358230590820 -174.129928588867 1.234327912331
-22.233825683594 -70.778793334961 -175.253555297852 3.311039686203
14.356033325195 -67.871910095215 -209.028411865234 1.210335612297
6.693328857422 -70.517059326172 -197.988235473633 3.118384122849
14.872528076172 -69.829811096191 -201.494415283203 1.167930960655
81.707275390625 -73.246223449707 -249.225601196289 14.848549842834
-121.971534729004 -63.253410339355 -90.524169921875 22.604911804199
-17.743598937988 -67.252555847168 -169.448120117188 11.128093719482
75.919967651367 -76.139045715332 -253.317245483398 15.022467613220
82.664962768555 -75.950622558594 -242.559982299805 11.055524826050
77.953262329102 -75.123825073242 -252.501190185547 15.306063652039
79.905776977539 -71.356056213379 -235.257476806641 3.110767126083
-118.260787963867 -53.751541137695 -82.587875366211 17.865640640259
87.048614501953 -71.050918579102 -230.398040771484 5.230335235596
-21.044181823730 -68.334579467773 -157.811523437500 13.453445434570
82.175384521484 -76.396163940430 -235.053848266602 5.247615337372
-97.325675964355 -61.857177734375 -100.130477905273 3.075971841812
-22.725860595703 -64.993095397949 -160.835815429688 12.131381988525
-105.465476989746 -61.255271911621 -86.254180908203 6.202221393585
78.988800048828 -74.702476501465 -229.153121948242 1.505725741386
13.281600952148 -69.537704467773 -178.370101928711 2.333028316498
21.825042724609 -68.814361572266 -190.757675170898 2.112043619156
-111.695571899414 -60.708290100098 -82.712158203125 12.273116111755
-101.491928100586 -63.187095642090 -84.561126708984 2.910823106766
-1.442070007324 -67.559112548828 -160.402755737305 5.627577781677
-91.316986083984 -58.037811279297 -94.826934814453 8.816759109497
-107.594482421875 -57.997039794922 -82.563476562500 8.401277542114
11.945755004883 -70.871757507324 -177.133010864258 3.964562654495
-10.533760070801 -67.441810607910 -155.318893432617 13.654016494751
24.822418212891 -70.324615478516 -179.578353881836 1.298526644707
17.790618896484 -69.214035034180 -169.222671508789 1.734058856964
82.118667602539 -73.360313415527 -217.512847900391 1.665204048157
-5.011962890625 -72.352554321289 -149.479980468750 12.020020484924
86.202423095703 -74.984268188477 -221.444824218750 2.085696220398
88.645462036133 -74.579498291016 -227.049926757813 3.878719329834
-99.332176208496 -63.530372619629 -69.532165527344 2.046687364578
88.227859497070 -76.654785156250 -221.704605102539 2.882875680923
16.633178710938 -71.329719543457 -169.052658081055 2.807407855988
16.954605102539 -69.303863525391 -166.063552856445 2.594017982483
-15.463096618652 -68.297752380371 -144.262359619141 23.599843978882
-57.693908691406 -66.726242065430 -106.393325805664 8.404452323914
-10.732612609863 -67.511047363281 -143.064086914063 20.941524505615
82.682693481445 -72.666915893555 -211.428939819336 4.645920276642
84.681945800781 -72.905242919922 -210.002807617188 3.616980791092
-13.551139831543 -69.864128112793 -139.360443115234 25.146024703979
-45.918167114258 -69.048728942871 -106.455184936523 16.763139724731
13.757431030273 -68.872314453125 -157.804534912109 1.019280195236
86.308609008789 -73.423278808594 -212.658966064453 0.948239266872
-98.604911804199 -59.262390136719 -65.021423339844 1.968069195747
-118.983131408691 -58.997810363770 -60.636566162109 21.174942016602
-106.923622131348 -60.998847961426 -59.249298095703 10.980215072632
7.022415161133 -66.414916992188 -138.511260986328 11.023171424866
-100.276245117188 -58.736114501953 -61.527954101563 3.657116651535
16.697799682617 -63.913909912109 -146.963104248047 0.968339681625
22.348983764648 -70.789810180664 -162.525054931641 2.024607181549
-108.947982788086 -57.017784118652 -56.127777099609 13.134994506836
-107.446228027344 -60.367195129395 -53.229339599609 13.495943069458
86.854949951172 -73.078475952148 -196.604278564453 8.763508796692
26.979797363281 -69.180519104004 -152.235427856445 1.532153725624
-99.732101440430 -59.734146118164 -61.643981933594 3.510611295700
-92.722839355469 -60.794990539551 -67.525573730469 4.913834571838
5.004821777344 -65.985290527344 -140.271743774414 11.286960601807
23.140106201172 -67.219406127930 -155.477554321289 1.934484243393
85.228927612305 -73.594268798828 -204.544433593750 5.948982715607
-103.060997009277 -59.035140991211 -52.581481933594 9.674010276794
-93.208305358887 -62.047233581543 -61.278076171875 2.072882890701
-74.786590576172 -63.990631103516 -72.880279541016 11.073724746704
88.451980590820 -71.477706909180 -198.587478637695 6.914792537689
-66.773559570313 -65.252868652344 -78.174957275391 8.690471649170
-93.245864868164 -59.093566894531 -59.908355712891 2.414281129837
-95.983840942383 -57.982131958008 -57.074188232422 2.206986904144
-93.366783142090 -60.770240783691 -60.680450439453 1.718868613243
-97.765563964844 -62.840835571289 -55.709655761719 5.321228981018
-105.050010681152 -62.031723022461 -44.778839111328 16.294002532959
-80.906539916992 -62.146675109863 -62.481994628906 10.083126068115
-80.751266479492 -61.750259399414 -64.643524169922 11.605327606201
-98.845329284668 -60.683746337891 -54.471496582031 6.369351863861
-89.024169921875 -62.323303222656 -58.014709472656 3.389486551285
-94.071533203125 -62.851875305176 -53.160095214844 3.958478927612
78.462081909180 -73.683418273926 -197.217651367188 15.889408111572
83.318496704102 -75.122100830078 -183.197280883789 18.057014465332
-98.326507568359 -61.056991577148 -45.281982421875 11.026067733765
81.724807739258 -72.875732421875 -188.146728515625 17.613584518433
12.574874877930 -68.067321777344 -131.672424316406 11.652513504028
36.332748413086 -69.336311340332 -148.568099975586 3.005677700043
37.079650878906 -66.704879760742 -151.731094360352 6.605276584625
-83.421234130859 -61.073860168457 -48.733428955078 0.871042430401
43.440002441406 -69.804359436035 -148.009719848633 8.750850677490
80.308410644531 -71.458007812500 -182.906295776367 21.021764755249
37.510467529297 -70.373130798340 -150.937805175781 4.218942642212
37.072219848633 -66.576583862305 -141.779785156250 3.949003934860
25.120834350586 -71.040008544922 -135.903854370117 2.343108177185
18.639801025391 -65.256721496582 -125.355926513672 11.075507164001
32.630996704102 -66.589958190918 -138.987228393555 2.734309911728
33.822357177734 -69.662727355957 -140.878799438477 1.359556794167
76.625244140625 -70.757614135742 -174.348999023438 27.659751892090
-12.258636474609 -64.856224060059 -101.552398681641 28.767433166504
50.224380493164 -69.328529357910 -145.566360473633 14.361416816711
-13.741333007813 -65.770057678223 -100.752456665039 27.207221984863
29.566207885742 -68.649291992188 -129.179489135742 3.316373109818
-13.369689941406 -67.194694519043 -92.309921264648 20.044195175171
-30.073318481445 -59.679046630859 -80.284332275391 6.053478240967
-27.697639465332 -61.640029907227 -82.496810913086 7.439819812775
25.742080688477 -68.545692443848 -122.278747558594 6.528051376343
-56.653289794922 -59.232749938965 -50.618316650391 8.358295440674
28.137481689453 -69.936256408691 -119.320083618164 5.173148155212
-55.032081604004 -62.051559448242 -54.812927246094 10.557390213013
-50.888618469238 -64.444221496582 -55.368591308594 9.099899291992
-40.526214599609 -60.144996643066 -63.697814941406 9.195751190186
-70.074264526367 -61.311660766602 -36.525024414063 7.288373470306
-69.404373168945 -61.944084167480 -31.341552734375 12.013422012329
-87.286727905273 -61.178771972656 -19.526489257813 26.753299713135
67.221191406250 -67.082649230957 -117.675949096680 12.883723258972
11.551803588867 -63.089714050293 -70.420654296875 22.536605834961
5.720352172852 -63.959579467773 -65.715454101563 15.700691223145
23.451660156250 -63.891784667969 -78.613433837891 28.903673171997
34.782623291016 -64.798553466797 -89.502456665039 13.665165901184
-13.091674804688 -62.713287353516 -42.904327392578 9.768817901611
35.799774169922 -67.893478393555 -84.482116699219 15.165860176086
56.090499877930 -70.746200561523 -102.491043090820 0.305133402348
-70.993576049805 -57.973648071289 -1.005706787109 41.776500701904
49.210876464844 -65.575736999512 -93.742095947266 0.492062956095
66.467620849609 -70.769416809082 -106.420349121094 6.781599521637
72.693832397461 -71.769859313965 -109.786285400391 6.408890724182
17.578430175781 -64.073860168457 -65.923431396484 27.127035140991
36.798477172852 -64.449295043945 -85.205963134766 14.470980644226
73.125244140625 -70.854835510254 -109.815612792969 5.973429679871
8.330123901367 -63.071243286133 -57.263000488281 17.311605453491
31.497985839844 -66.444023132324 -77.964904785156 22.540830612183
48.306121826172 -68.167060852051 -89.819869995117 2.533301353455
71.390304565430 -68.481063842773 -107.956161499023 4.138237953186
51.067077636719 -65.398414611816 -93.498733520508 1.802080750465
66.314529418945 -70.004409790039 -102.325805664063 4.795233249664
72.745574951172 -68.532005310059 -106.776885986328 2.690894842148
-44.318542480469 -59.127441406250 -18.107391357422 25.774723052979
-44.668151855469 -58.333839416504 -5.658264160156 38.065929412842
-43.879714965820 -56.026725769043 5.927185058594 49.806625366211
-77.137344360352 -80.382705688477 -345.117492675781 54.272365570068
-85.388786315918 -75.086868286133 -341.801910400391 50.292320251465
-75.196197509766 -75.182991027832 -342.975646972656 51.837963104248
-86.533248901367 -74.127540588379 -327.431457519531 35.845413208008
-67.169250488281 -75.237045288086 -338.360900878906 47.458309173584
-85.381317138672 -75.606597900391 -328.471832275391 37.090999603271
-78.416374206543 -71.275070190430 -322.332214355469 31.185241699219
-76.522239685059 -71.989868164063 -316.788879394531 25.677497863770
-62.161102294922 -77.257919311523 -331.211975097656 40.437843322754
-71.926620483398 -74.447311401367 -318.391662597656 27.219165802002
-63.460529327393 -74.785766601563 -329.764892578125 38.802433013916
-67.096763610840 -76.381446838379 -321.689727783203 30.861965179443
-65.781799316406 -74.108695983887 -320.275939941406 29.309438705444
-65.387290954590 -75.453147888184 -318.286651611328 27.352098464966
-55.954216003418 -75.114639282227 -323.706817626953 32.896194458008
-61.781734466553 -77.324569702148 -317.712432861328 27.091957092285
-113.655921936035 -74.243225097656 -265.216461181641 3.720012187958
-110.958602905273 -74.937164306641 -275.283996582031 12.340415000916
-151.777832031250 -70.141708374023 -232.762512207031 2.552351951599
-145.557601928711 -65.507621765137 -227.635742187500 2.690372705460
-10.742874145508 -76.150215148926 -326.278381347656 34.250934600830
-6.561492919922 -75.740219116211 -325.220336914063 33.121849060059
-83.417526245117 -70.081497192383 -263.022186279297 7.425291538239
-140.715744018555 -64.963256835938 -222.404205322266 4.313894271851
-87.367324829102 -70.539268493652 -254.102920532227 2.215243577957
-101.209976196289 -65.821434020996 -231.297882080078 6.289424896240
-12.925842285156 -76.936111450195 -302.394256591797 10.576190948486
-16.638916015625 -77.079627990723 -291.936279296875 0.783551037312
15.926971435547 -76.913154602051 -320.162384033203 26.088705062866
0.432662963867 -74.265045166016 -300.051452636719 7.972863674164
-110.042655944824 -64.509140014648 -218.767700195313 6.606791496277
-108.934989929199 -68.697837829590 -215.403869628906 7.116607666016
-21.268501281738 -73.095886230469 -281.767028808594 6.847692966461
4.785461425781 -72.011573791504 -296.047424316406 4.189997673035
-12.290191650391 -70.718597412109 -281.589263916016 2.862172603607
24.104019165039 -75.080230712891 -315.540039062500 23.435226440430
-123.319610595703 -66.007812500000 -190.739212036133 3.961112976074
-17.294670104980 -68.866897583008 -267.138061523438 3.413862943649
34.658828735352 -78.866256713867 -310.848388671875 26.342369079590
-11.635200500488 -76.298690795898 -271.898345947266 2.392170906067
31.438613891602 -79.024505615234 -309.132843017578 22.895700454712
-113.598114013672 -66.869857788086 -189.482986450195 1.410634636879
-17.685234069824 -73.764831542969 -262.692382812500 3.144181251526
42.448913574219 -75.664741516113 -303.871154785156 28.645971298218
36.315383911133 -77.624359130859 -301.818054199219 22.440208435059
39.460815429688 -75.140708923340 -305.717163085938 26.741106033325
41.716873168945 -74.177566528320 -306.566558837891 29.107114791870
-18.535713195801 -72.796516418457 -261.998901367188 3.357322692871
-17.394477844238 -69.486656188965 -257.046112060547 2.770506143570
-11.447319030762 -74.047409057617 -267.485015869141 2.412639141083
46.437332153320 -77.028945922852 -299.989166259766 31.251882553101
-8.172538757324 -74.549888610840 -256.698730468750 4.765162944794
51.609252929688 -75.661758422852 -293.600433349609 34.675533294678
53.216842651367 -78.759994506836 -297.953369140625 37.359779357910
-15.626640319824 -73.736946105957 -254.771743774414 1.770586013794
-99.704216003418 -65.328323364258 -183.999664306641 6.255972862244
59.358978271484 -74.417076110840 -294.992553710938 41.874122619629
-77.044662475586 -63.594566345215 -185.148040771484 21.725196838379
-5.241287231445 -71.371536254883 -244.757812500000 1.770314931870
-89.375846862793 -66.469444274902 -176.452087402344 13.450721740723
-10.602256774902 -73.678031921387 -242.293945312500 1.708073616028
-88.593444824219 -65.166549682617 -173.778793334961 13.242300987244
-61.598846435547 -65.584259033203 -189.111801147461 12.566668510437
-90.163909912109 -64.908035278320 -179.395370483398 13.774260520935
55.956451416016 -80.759658813477 -288.946502685547 36.730819702148
61.634445190430 -76.624557495117 -289.847656250000 38.976692199707
68.771865844727 -76.821151733398 -289.603179931641 42.080444335938
-84.796524047852 -66.208259582520 -172.741836547852 16.742120742798
-16.925727844238 -72.525337219238 -217.518676757813 1.508647918701
-67.421348571777 -68.371269226074 -175.509674072266 8.166666030884
-59.392204284668 -65.725875854492 -180.146804809570 8.360233306885
67.287322998047 -78.088073730469 -271.077789306641 25.976911544800
-55.807830810547 -66.301589965820 -186.826278686523 8.529944419861
-9.646789550781 -72.439491271973 -211.925750732422 1.962539553642
-1.160728454590 -72.540023803711 -218.718612670898 1.901426434517
74.306198120117 -75.610061645508 -270.733947753906 28.337881088257
6.876983642578 -74.748626708984 -222.228668212891 1.492018461227
-19.482948303223 -67.215011596680 -202.837158203125 1.126473784447
8.194290161133 -72.386718750000 -221.397399902344 0.319432407618
-73.562713623047 -71.282073974609 -163.322998046875 5.416564464569
-68.998939514160 -68.492561340332 -166.980560302734 5.647027015686
-69.431228637695 -67.375343322754 -161.165084838867 4.224192619324
72.142669677734 -77.984138488770 -272.316589355469 29.074762344360
-52.369194030762 -69.830551147461 -174.068084716797 5.471653938293
1.918785095215 -67.987121582031 -208.334533691406 6.728563785553
-60.917091369629 -64.612701416016 -156.295822143555 8.144176483154
-58.027534484863 -65.006713867188 -157.740264892578 9.100424766541
-50.287696838379 -66.916046142578 -178.370697021484 7.969507217407
-41.230468750000 -72.862876892090 -176.485412597656 3.643913745880
79.502029418945 -79.343017578125 -262.956939697266 25.538492202759
-37.233161926270 -67.696228027344 -170.977279663086 1.791910886765
1.634140014648 -71.253150939941 -204.870361328125 6.375564575195
83.947052001953 -72.393417358398 -249.177032470703 16.362302780151
-127.805793762207 -59.663536071777 -99.699783325195 27.944465637207
-123.151000976563 -61.090682983398 -105.266723632813 23.995580673218
-127.968566894531 -62.705680847168 -98.459060668945 28.411283493042
-119.733222961426 -64.898620605469 -100.702468872070 20.810167312622
-26.664916992188 -69.846611022949 -168.827270507813 3.872336387634
-22.189147949219 -69.522842407227 -169.822341918945 6.621973037720
18.013610839844 -73.665237426758 -194.393905639648 3.314764976501
-114.367286682129 -62.444351196289 -96.764099121094 14.953372955322
-117.825210571289 -63.202255249023 -96.242370605469 18.524801254272
-18.964141845703 -74.859138488770 -169.308731079102 7.248104095459
6.531173706055 -67.734802246094 -195.492034912109 5.306605339050
-112.211585998535 -61.311004638672 -91.633728027344 12.649634361267
-31.131233215332 -64.824882507324 -165.547729492188 6.716533660889
79.658660888672 -73.729827880859 -243.136413574219 9.322647094727
86.557083129883 -76.925148010254 -243.922729492188 14.516976356506
17.555709838867 -71.871887207031 -192.957717895508 3.523610830307
-15.945610046387 -65.382484436035 -169.284484863281 12.198517799377
-16.107620239258 -65.576820373535 -160.010879516602 15.810534477234
-115.039108276367 -64.157951354980 -84.339996337891 16.053827285767
-101.043563842773 -63.156181335449 -93.153732299805 2.891211509705
-94.950416564941 -64.136817932129 -101.708709716797 3.259937286377
-93.093261718750 -61.981025695801 -99.688964843750 6.154605388641
-12.314949035645 -70.307525634766 -163.519897460938 8.863342285156
10.676208496094 -68.856567382813 -185.193450927734 3.395076990128
80.719284057617 -78.118545532227 -229.628158569336 3.471661090851
-112.765373229980 -61.807319641113 -86.441192626953 13.385619163513
-109.434585571289 -63.927520751953 -82.985977172852 10.861094474792
-112.041877746582 -66.046920776367 -84.033416748047 13.660677909851
-117.087753295898 -64.597503662109 -77.962432861328 18.530012130737
-15.922088623047 -68.646354675293 -155.520385742188 16.819686889648
-8.122627258301 -64.668395996094 -168.639862060547 10.154585838318
-111.188499450684 -66.369659423828 -85.569381713867 12.857311248779
-9.824478149414 -67.187881469727 -164.343933105469 9.303764343262
-123.636871337891 -60.561752319336 -74.384490966797 24.323253631592
-99.165184020996 -62.537269592285 -92.913253784180 1.948371767998
22.067092895508 -72.922843933105 -174.002563476563 3.567048072815
-121.232604980469 -61.997673034668 -71.233093261719 22.439292907715
-105.994842529297 -60.806709289551 -81.895797729492 7.096154212952
15.112899780273 -69.353050231934 -178.783920288086 1.373850703239
-113.609542846680 -59.715217590332 -74.592346191406 14.300531387329
-11.789276123047 -67.482002258301 -157.925369262695 13.118530273438
87.344039916992 -75.746688842773 -235.256500244141 8.621150016785
-107.419792175293 -61.427452087402 -67.123626708984 9.400209426880
-116.339485168457 -60.260086059570 -63.832916259766 18.248422622681
-49.087905883789 -67.022399902344 -114.427825927734 9.881424903870
84.028869628906 -75.180480957031 -219.774749755859 2.426804065704
11.558959960938 -70.068923950195 -159.172195434570 1.153002381325
-107.913635253906 -61.581367492676 -70.776763916016 9.393441200256
-55.256347656250 -68.749000549316 -106.208206176758 10.830916404724
6.813003540039 -69.236480712891 -160.333404541016 0.928016364574
31.546279907227 -71.940612792969 -164.097488403320 1.557240486145
-97.386543273926 -60.626922607422 -70.164672851563 1.581882476807
16.058532714844 -68.100296020508 -155.080184936523 1.766113042831
3.810852050781 -72.525436401367 -145.385345458984 8.898129463196
3.427505493164 -71.936119079590 -147.015975952148 7.648323535919
84.683700561523 -73.926841735840 -213.789581298828 2.597138404846
-1.862228393555 -71.537475585938 -146.371856689453 11.866125106812
-6.234916687012 -68.043586730957 -141.585891723633 18.476493835449
-63.694881439209 -64.228713989258 -91.557708740234 2.159182071686
8.709152221680 -69.477844238281 -144.266479492188 6.039441585541
88.582092285156 -75.941490173340 -212.133056640625 0.618074834347
81.722915649414 -75.095901489258 -207.417205810547 7.394001007080
25.153411865234 -67.014259338379 -158.503067016602 1.519579410553
12.384628295898 -69.211631774902 -144.969543457031 3.124728441238
82.101470947266 -68.866836547852 -202.934768676758 10.484002113342
-79.924270629883 -62.933509826660 -77.086090087891 15.254723548889
0.652404785156 -67.381179809570 -141.015258789063 13.922727584839
-59.209564208984 -65.838531494141 -91.294891357422 3.002622127533
-61.336273193359 -62.230117797852 -85.999343872070 0.770444333553
-83.651252746582 -62.878211975098 -68.939758300781 11.070782661438
83.791625976563 -73.890220642090 -202.136993408203 8.643458366394
-76.671951293945 -61.563552856445 -74.393402099609 11.509554862976
26.245483398438 -69.977027893066 -151.215209960938 2.229499101639
80.946090698242 -74.131202697754 -200.217346191406 12.024785041809
11.568069458008 -67.886032104492 -141.272201538086 5.950905799866
16.442489624023 -67.918136596680 -142.355880737305 2.210188150406
20.978302001953 -69.937004089355 -144.426712036133 1.639491677284
29.709442138672 -69.411727905273 -154.600021362305 2.068689346313
87.959121704102 -73.984573364258 -203.856109619141 4.590265750885
36.435577392578 -70.033432006836 -155.455657958984 4.205082416534
27.016036987305 -68.400451660156 -150.137954711914 1.469320178032
17.297851562500 -67.736053466797 -146.880783081055 2.427180051804
21.540084838867 -70.664825439453 -142.019882202148 3.460367441177
38.222030639648 -71.807624816895 -156.984039306641 5.507995605469
18.736999511719 -70.653511047363 -138.631805419922 5.181005477905
86.243057250977 -73.730682373047 -187.664657592773 13.571999549866
20.985809326172 -71.121353149414 -139.300338745117 4.455681324005
41.666336059570 -70.036491394043 -160.047012329102 10.169648170471
-97.740829467773 -62.490943908691 -39.444244384766 14.940400123596
27.053146362305 -69.426544189453 -136.912826538086 2.503936529160
23.333068847656 -69.840194702148 -133.730911254883 4.796231746674
-92.911834716797 -61.392257690430 -26.819274902344 22.370561599731
25.169143676758 -68.043678283691 -131.441619873047 5.002974510193
47.541717529297 -68.998298645020 -148.335586547852 12.768008232117
-79.025825500488 -58.681114196777 -42.346099853516 2.632202148438
-18.422836303711 -66.430725097656 -93.159088134766 18.490756988525
-11.652053833008 -67.616485595703 -98.709945678711 26.076129913330
77.723419189453 -73.099258422852 -168.037475585938 28.237302780151
-26.568038940430 -64.866447448730 -88.586929321289 11.912763595581
47.301055908203 -69.741035461426 -145.342987060547 11.649167060852
-22.637908935547 -65.170227050781 -85.913726806641 11.594463348389
22.295730590820 -67.855171203613 -123.531341552734 9.614212036133
-78.272621154785 -60.046249389648 -39.784332275391 4.811065196991
73.957885742188 -73.408691406250 -163.402450561523 33.222717285156
-27.612411499023 -67.549591064453 -82.783096313477 6.010832786560
-38.281555175781 -63.782592773438 -69.036376953125 7.097009181976
-37.735198974609 -59.630447387695 -71.674194335938 3.167375564575
-54.724731445313 -61.709999084473 -53.320465087891 9.666567802429
-44.413375854492 -64.485557556152 -62.097900390625 12.828750610352
-42.722023010254 -64.385284423828 -59.991790771484 11.704648017883
57.589874267578 -69.800971984863 -137.444335937500 18.480237960815
-55.785171508789 -64.487899780273 -42.312988281250 2.660434722900
45.197814941406 -66.186233520508 -105.936737060547 1.614390134811
-59.800224304199 -58.847541809082 -18.691986083984 23.542329788208
-77.429931640625 -60.155860900879 -4.136291503906 39.224067687988
-41.335876464844 -61.265014648438 -26.524536132813 18.571235656738
-34.911705017090 -61.846801757813 -36.764099121094 9.923422813416
-2.529754638672 -68.092605590820 -55.677978515625 9.986166954041
14.986053466797 -69.443595886230 -67.860656738281 25.932193756104
23.720825195313 -67.217025756836 -77.201293945313 29.180494308472
48.959121704102 -69.018394470215 -93.621093750000 1.482879281044
50.010375976563 -69.602478027344 -95.142486572266 2.612981319427
31.721817016602 -66.741073608398 -79.731567382813 21.256021499634
32.202285766602 -67.898017883301 -81.774124145508 19.648262023926
45.900573730469 -70.179367065430 -88.252395629883 4.992642402649
5.112808227539 -63.769607543945 -56.265014648438 14.490458488464
19.567810058594 -67.958221435547 -65.776062011719 27.415281295776
50.027542114258 -71.395271301270 -91.614028930664 1.508388042450
50.032196044922 -68.125099182129 -91.608062744141 1.444512248039
57.940170288086 -69.659675598145 -97.360015869141 1.549232840538
65.265548706055 -72.025566101074 -99.919540405273 5.741005420685
-10.607505798340 -64.664985656738 -49.077575683594 6.487401485443
-54.251174926758 -62.695884704590 -13.064025878906 29.727857589722
-29.689804077148 -61.556053161621 -26.112457275391 21.619247436523
-54.849777221680 -57.260955810547 0.186889648438 42.651691436768
-56.483154296875 -59.625251770020 0.257354736328 42.673950195313
-46.572860717773 -60.375991821289 -3.979003906250 39.420616149902
-65.522781372070 -74.317817687988 -341.394622802734 50.414215087891
-86.536132812500 -74.404708862305 -323.530792236328 31.982505798340
-60.584972381592 -74.739189147949 -340.661987304688 49.842765808105
-57.295936584473 -73.426017761230 -334.170043945313 43.335956573486
-6.494789123535 -80.220443725586 -330.207397460938 38.358886718750
5.789199829102 -78.981986999512 -330.803436279297 37.814628601074
11.096862792969 -79.312896728516 -327.184173583984 33.439262390137
12.951004028320 -78.231697082520 -321.984313964844 28.019392013550
-20.113853454590 -74.968475341797 -294.135986328125 2.671456813812
-20.097053527832 -74.195686340332 -287.896026611328 3.710252761841
-11.265129089355 -77.542800903320 -295.884613037109 4.267200469971
-111.274810791016 -72.469581604004 -218.493087768555 6.402816772461
-5.074485778809 -75.022331237793 -303.288787841797 11.292785644531
22.819839477539 -79.195526123047 -318.593750000000 26.103155136108
3.578033447266 -73.468490600586 -297.366790771484 4.819386482239
18.846817016602 -79.759857177734 -310.738708496094 17.711528778076
-118.521934509277 -66.437011718750 -201.797790527344 2.299787998199
-17.329589843750 -74.242561340332 -276.828460693359 6.341101169586
-118.604751586914 -65.043205261230 -193.240158081055 5.326953887939
-7.676521301270 -73.246284484863 -272.887573242188 4.207714557648
-19.105560302734 -76.870147705078 -272.431762695313 6.693390846252
30.417739868164 -76.464950561523 -311.435333251953 23.517702102661
-18.699943542480 -76.481857299805 -269.028167724609 5.903388500214
-13.966796875000 -73.025405883789 -264.657531738281 2.467728376389
-12.734214782715 -76.789573669434 -265.432373046875 1.131396532059
38.073181152344 -81.212493896484 -302.980712890625 24.904083251953
-107.544937133789 -68.200622558594 -186.251296997070 1.892603754997
48.499374389648 -77.054168701172 -301.623260498047 33.727130889893
-12.462821960449 -77.642929077148 -259.036132812500 1.522401809692
-9.905326843262 -74.380340576172 -263.430694580078 3.962546348572
-15.053817749023 -73.384292602539 -255.938110351563 1.441080331802
-80.618263244629 -68.926933288574 -193.480575561523 16.732048034668
-17.318511962891 -74.526908874512 -252.032974243164 3.441059827805
-93.927917480469 -65.722694396973 -175.864273071289 9.064130783081
-80.862152099609 -68.973220825195 -189.583663940430 20.492700576782
-96.708320617676 -69.017158508301 -178.761077880859 7.934364795685
-11.477470397949 -74.410194396973 -250.611145019531 1.859566211700
-80.467185974121 -70.145706176758 -190.902267456055 18.927616119385
-5.281242370605 -74.142463684082 -248.420318603516 2.832149267197
-90.797149658203 -67.584976196289 -175.296401977539 11.771699905396
-76.889221191406 -66.166976928711 -185.290832519531 20.499221801758
-8.432456970215 -74.141448974609 -238.553527832031 1.757027387619
60.163513183594 -74.883560180664 -283.562011718750 32.507278442383
60.916885375977 -78.518539428711 -293.820190429688 42.411945343018
-4.889068603516 -74.436805725098 -239.990386962891 1.807345390320
-66.053558349609 -71.047897338867 -189.268096923828 12.342556953430
65.343338012695 -78.044235229492 -274.407531738281 27.989030838013
-84.857482910156 -67.904876708984 -169.976669311523 15.334772109985
-72.915489196777 -67.594482421875 -187.477890014648 17.993413925171
2.533912658691 -70.649887084961 -231.847976684570 2.257840394974
-85.180343627930 -66.781097412109 -172.432571411133 16.296098709106
-81.688858032227 -66.120719909668 -171.067062377930 17.352193832397
66.919448852539 -80.526901245117 -284.419586181641 37.877132415771
-74.848968505859 -68.601295471191 -172.704895019531 11.969168663025
-55.291252136230 -70.326698303223 -186.584701538086 4.799530029297
-0.589385986328 -76.791809082031 -229.354248046875 1.425525069237
-85.058029174805 -67.977783203125 -167.267593383789 14.056278228760
-12.900344848633 -70.352180480957 -213.437805175781 1.546243429184
4.891860961914 -75.816467285156 -227.907714843750 1.791733384132
-2.932380676270 -72.909057617188 -229.392852783203 1.611497640610
-14.558578491211 -68.684913635254 -213.549026489258 1.041846036911
-60.637546539307 -70.712158203125 -180.075561523438 4.879827976227
-2.733207702637 -73.836120605469 -226.169555664063 4.028644084930
-61.871105194092 -68.083793640137 -184.701354980469 8.784788131714
-18.362792968750 -70.617233276367 -215.014373779297 1.864005446434
-8.333114624023 -72.307022094727 -226.135345458984 1.735402703285
-79.259872436523 -65.041709899902 -165.191711425781 13.371234893799
-57.576095581055 -69.523445129395 -181.075531005859 4.786049842834
-73.970672607422 -69.974990844727 -162.192306518555 5.604054927826
-7.511207580566 -76.546920776367 -209.982116699219 1.681363463402
-9.001617431641 -72.653121948242 -227.347961425781 2.024709463120
-15.883232116699 -73.023323059082 -203.649490356445 2.842894315720
-4.498481750488 -74.510734558105 -220.868896484375 2.325611114502
6.763702392578 -72.372634887695 -219.907653808594 0.794694721699
-54.209945678711 -66.815612792969 -174.193771362305 7.232897758484
-44.398223876953 -69.738082885742 -183.585250854492 7.055577754974
-48.230239868164 -70.546348571777 -180.598968505859 5.392271995544
6.225311279297 -72.558364868164 -220.434570312500 0.524821281433
-50.325698852539 -68.750930786133 -171.846374511719 7.884893894196
-50.533813476563 -69.101005554199 -176.769180297852 6.700036525726
0.194984436035 -71.047531127930 -213.643127441406 4.146494865417
-43.656082153320 -69.274749755859 -168.909652709961 2.484831571579
13.443664550781 -74.980300903320 -213.475799560547 3.368389368057
76.312820434570 -79.709190368652 -270.767883300781 30.304431915283
-36.460441589355 -70.336624145508 -174.597610473633 1.866317272186
72.209869384766 -79.534034729004 -259.942199707031 19.500104904175
-35.020103454590 -71.866500854492 -169.911346435547 2.814477205276
-36.454803466797 -68.417732238770 -165.699584960938 2.686330556870
4.678054809570 -70.629959106445 -203.586425781250 4.261465072632
75.433975219727 -79.268714904785 -251.351745605469 14.511692047119
-27.179542541504 -70.321334838867 -168.122497558594 3.300023317337
-35.621383666992 -73.867256164551 -173.579437255859 2.557366847992
-20.783020019531 -68.566528320313 -169.662689208984 8.327793121338
-118.197959899902 -59.587829589844 -93.115493774414 18.388811111450
6.432205200195 -70.311454772949 -195.037750244141 4.523064136505
85.189682006836 -78.449325561523 -243.760101318359 14.179338455200
-122.695068359375 -62.650489807129 -81.445480346680 23.484535217285
-20.430778503418 -69.458595275879 -163.985198974609 10.507238388062
-88.517532348633 -66.251113891602 -106.222717285156 4.289348602295
-100.483543395996 -63.336906433105 -94.484588623047 2.007666110992
-79.674720764160 -66.766014099121 -105.862670898438 2.572542190552
-82.252258300781 -67.531135559082 -105.318405151367 2.140906810760
-7.627120971680 -72.592597961426 -164.546127319336 4.716540813446
19.596221923828 -70.591918945313 -186.741668701172 3.003371238708
-9.212051391602 -75.464859008789 -159.843795776367 7.426657676697
-91.330886840820 -65.597061157227 -93.968231201172 6.550305843353
-9.585876464844 -71.274452209473 -152.292999267578 13.463875770569
-95.631027221680 -60.874084472656 -91.143310546875 4.360403537750
-2.824661254883 -72.645080566406 -163.764602661133 1.919622302055
-106.166320800781 -63.233459472656 -81.776550292969 8.073990821838
83.094680786133 -76.738388061523 -220.979095458984 1.232175827026
-123.214195251465 -61.854507446289 -69.801971435547 24.547269821167
12.657546997070 -68.858993530273 -160.960540771484 2.493924617767
21.874084472656 -75.838554382324 -171.134140014648 1.888879537582
23.136169433594 -74.658676147461 -165.223007202148 2.462740659714
82.733413696289 -76.041381835938 -208.737411499023 6.006835937500
18.502761840820 -73.752655029297 -163.484283447266 0.537974715233
26.123794555664 -71.660865783691 -170.910827636719 1.771618247032
2.467231750488 -65.962455749512 -152.810836791992 6.387535095215
-55.679939270020 -66.224929809570 -106.041839599609 9.204748153687
-62.952934265137 -64.146026611328 -98.370391845703 3.274325847626
15.767303466797 -71.750373840332 -153.908996582031 1.293328404427
-110.270164489746 -61.095657348633 -48.316467285156 18.278875350952
27.828994750977 -73.297615051270 -163.900695800781 1.674816370010
-93.786087036133 -62.038352966309 -67.267120361328 3.380701541901
30.709548950195 -73.563613891602 -159.570999145508 1.404420852661
-86.705078125000 -62.857040405273 -73.252380371094 10.080600738525
-69.686355590820 -64.613624572754 -80.472671508789 9.218141555786
34.536743164063 -75.867263793945 -164.712738037109 3.213483810425
82.098251342773 -75.658012390137 -196.290695190430 13.523707389832
24.747314453125 -73.405021667480 -156.029953002930 2.222138166428
-69.653648376465 -62.891540527344 -84.204193115234 7.373716354370
81.816986083984 -75.737861633301 -196.530914306641 13.743077278137
87.771041870117 -74.141876220703 -196.869323730469 7.824297904968
-72.526336669922 -63.430480957031 -73.590728759766 9.166497230530
-68.031677246094 -62.409996032715 -75.736663818359 7.068413257599
15.800933837891 -70.627723693848 -141.076080322266 4.542919635773
78.788513183594 -72.706909179688 -192.917984008789 17.635736465454
79.835006713867 -75.473411560059 -184.712387084961 20.624914169312
83.835998535156 -75.832588195801 -191.273651123047 14.107495307922
-77.608154296875 -61.822380065918 -62.418243408203 12.014909744263
82.293197631836 -71.304306030273 -188.036514282227 17.431692123413
79.319915771484 -72.305221557617 -184.311798095703 21.293863296509
-109.679000854492 -59.387313842773 -49.011383056641 17.067773818970
30.292083740234 -68.238800048828 -140.249603271484 1.495379328728
44.718368530273 -72.031433105469 -147.835006713867 9.281170845032
27.592315673828 -69.073822021484 -137.204696655273 2.612044095993
42.671478271484 -69.459999084473 -147.944152832031 8.230083465576
83.425033569336 -73.133697509766 -181.988555908203 18.583442687988
38.728744506836 -68.499320983887 -147.214630126953 5.113191604614
25.413192749023 -73.335571289063 -132.943847656250 2.941398143768
30.844863891602 -70.027793884277 -136.205612182617 1.506540894508
84.978546142578 -74.336563110352 -177.346878051758 18.659244537354
37.952148437500 -68.448791503906 -140.813690185547 2.987368345261
23.159072875977 -69.771163940430 -134.259826660156 4.788911819458
45.286117553711 -69.730110168457 -144.904617309570 9.783154487610
-101.056594848633 -64.730300903320 -38.890777587891 18.108383178711
83.350891113281 -75.571784973145 -170.348770141602 22.238311767578
77.754302978516 -74.276992797852 -164.648437500000 29.301874160767
75.921676635742 -70.995887756348 -173.778533935547 28.494852066040
26.011093139648 -70.073776245117 -124.031616210938 5.357651233673
77.622909545898 -70.995697021484 -169.818237304688 28.039136886597
-22.991912841797 -65.117172241211 -89.500762939453 14.316740036011
77.594085693359 -72.031631469727 -163.819229125977 29.595256805420
-32.373786926270 -63.344779968262 -75.541778564453 1.815326094627
-62.167087554932 -60.947486877441 -52.622741699219 9.407927513123
-68.739929199219 -66.200515747070 -48.974426269531 3.709690093994
78.046890258789 -73.934020996094 -158.029174804688 30.154706954956
-68.620605468750 -64.059494018555 -44.375305175781 0.498802483082
-46.515289306641 -59.283561706543 -64.596893310547 12.813643455505
-48.352760314941 -65.088745117188 -58.620574951172 10.846393585205
-28.740562438965 -64.830734252930 -79.938598632813 3.585896730423
-45.208023071289 -62.119552612305 -54.921142578125 9.166229248047
-53.784439086914 -64.690925598145 -45.653503417969 2.888504981995
-68.901649475098 -62.714263916016 -32.373443603516 10.973324775696
32.181945800781 -68.295707702637 -116.100555419922 4.610499382019
-89.571197509766 -61.416648864746 -16.407775878906 30.457647323608
40.543640136719 -66.802375793457 -109.306915283203 2.139213085175
-79.880477905273 -65.195159912109 -23.431182861328 21.740781784058
-71.777442932129 -64.296112060547 -20.802368164063 22.992225646973
-82.623069763184 -64.434082031250 -10.398468017578 34.598979949951
41.901275634766 -71.496337890625 -104.697738647461 1.703493833542
-49.368080139160 -61.904296875000 -25.226226806641 18.201122283936
-66.491210937500 -63.416313171387 -6.965606689453 35.838108062744
-58.589851379395 -62.473045349121 -20.161682128906 22.454471588135
-50.432945251465 -59.779090881348 -23.047760009766 19.961730957031
48.982086181641 -69.737197875977 -101.664596557617 2.377288341522
-42.159179687500 -58.927474975586 -31.010131835938 14.258861541748
-54.554862976074 -61.248603820801 -18.637176513672 24.060417175293
-33.363731384277 -64.707283020020 -34.786865234375 12.406819343567
-1.504882812500 -67.008514404297 -55.169525146484 10.318061828613
8.032791137695 -66.488494873047 -67.734069824219 18.719861984253
55.179962158203 -68.937713623047 -99.337997436523 1.616108059883
20.071594238281 -66.139282226563 -70.425018310547 30.955018997192
11.092453002930 -65.512153625488 -66.161682128906 21.117490768433
6.028671264648 -67.637741088867 -58.265533447266 16.089534759521
-5.655845642090 -63.975631713867 -44.965789794922 11.496911048889
-21.277389526367 -68.776565551758 -39.206237792969 12.497059822083
-66.211914062500 -61.739616394043 -3.016113281250 39.542713165283
-65.038612365723 -61.511886596680 -5.100830078125 37.331836700439
-35.875434875488 -60.793388366699 -19.593475341797 26.935991287231
-52.008804321289 -61.451728820801 -9.714874267578 33.050071716309
-57.997428894043 -61.684951782227 1.790039062500 44.177192687988
-40.530761718750 -61.032234191895 8.609130859375 52.713737487793
-67.234855651855 -77.835739135742 -344.077087402344 53.291534423828
-84.297012329102 -69.557701110840 -322.731750488281 31.436084747314
-59.277282714844 -75.458358764648 -329.355010986328 38.704013824463
-90.234542846680 -70.222084045410 -267.674804687500 10.227220535278
-11.442016601563 -78.745483398438 -328.036865234375 36.182353973389
-5.999847412109 -82.534469604492 -327.749389648438 36.262165069580
-12.611137390137 -78.827468872070 -321.604553222656 29.808071136475
-14.168579101563 -77.942810058594 -323.549438476563 31.697387695313
4.171401977539 -76.662879943848 -330.579284667969 37.578403472900
-147.564239501953 -66.850036621094 -216.098052978516 3.366350889206
-13.662986755371 -75.179138183594 -312.107116699219 20.090406417847
-97.963371276855 -73.739212036133 -248.392272949219 5.771154880524
15.755920410156 -77.730972290039 -322.673797607422 28.642564773560
-11.473922729492 -72.650817871094 -298.738250732422 7.001239776611
26.727264404297 -78.963584899902 -323.693603515625 32.172695159912
27.530487060547 -76.763153076172 -317.778625488281 27.011993408203
0.088455200195 -75.649917602539 -297.016326904297 5.116705417633
-117.445648193359 -66.866348266602 -205.288040161133 1.780002713203
-7.451004028320 -74.199493408203 -280.690551757813 2.602654933929
33.050750732422 -77.935043334961 -312.596679687500 26.285995483398
-8.410110473633 -70.868324279785 -271.786499023438 3.649874210358
12.695739746094 -77.161880493164 -300.502746582031 6.854294300079
-15.422470092773 -71.836959838867 -271.041168212891 1.845495104790
30.063476562500 -80.510467529297 -315.608673095703 27.008728027344
-12.248123168945 -76.623184204102 -275.137023925781 2.801498651505
40.372741699219 -76.786247253418 -309.752319335938 29.759572982788
39.954666137695 -79.096542358398 -305.551574707031 27.454481124878
-109.131111145020 -73.517341613770 -193.000625610352 3.550601959229
-107.788452148438 -68.739494323730 -191.709335327148 2.561674594879
-9.114028930664 -74.404815673828 -263.100250244141 4.762867927551
47.235168457031 -81.689285278320 -307.791961669922 35.194747924805
50.112091064453 -81.360778808594 -303.979553222656 36.346195220947
-103.820983886719 -68.284713745117 -181.121826171875 2.006703376770
44.279785156250 -79.403808593750 -299.780548095703 29.379262924194
-84.552017211914 -68.309906005859 -186.841537475586 21.468675613403
-108.389396667480 -69.714607238770 -177.376129150391 1.544263720512
-97.080963134766 -70.017608642578 -183.848358154297 9.202033996582
-85.237335205078 -74.269004821777 -196.748901367188 14.297780990601
-9.944396972656 -75.436370849609 -248.931808471680 1.438922286034
-1.625122070313 -74.951766967773 -250.471221923828 4.459731101990
-92.901702880859 -67.804145812988 -177.907165527344 10.665953636169
-13.573982238770 -75.769111633301 -244.559936523438 3.955029249191
52.388229370117 -77.077865600586 -287.641082763672 32.984882354736
-57.999900817871 -70.066680908203 -189.453445434570 7.933616638184
-6.595451354980 -75.310485839844 -230.648193359375 0.612820506096
61.926589965820 -83.078063964844 -283.419647216797 35.612564086914
-0.409004211426 -73.303207397461 -238.603958129883 1.010424017906
59.595748901367 -78.124450683594 -285.122283935547 34.389579772949
-69.047767639160 -68.667083740234 -180.854537963867 11.360280036926
-77.948989868164 -67.153259277344 -171.832015991211 14.437920570374
-63.421882629395 -67.399467468262 -176.705444335938 7.646013259888
-48.770790100098 -70.426864624023 -172.051483154297 7.051080226898
-19.281204223633 -74.436126708984 -210.785247802734 0.908946335316
65.673141479492 -82.218109130859 -275.754180908203 30.788372039795
67.472717285156 -79.666641235352 -270.301269531250 25.816337585449
-11.848190307617 -76.915206909180 -210.110595703125 1.733185887337
-15.769401550293 -72.647422790527 -205.139907836914 3.418641090393
-7.230621337891 -74.829483032227 -214.693878173828 1.494159579277
-6.105010986328 -74.858146667480 -224.613052368164 1.632588744164
75.279418945313 -76.560523986816 -269.032714843750 27.519353866577
73.063949584961 -76.567955017090 -260.560668945313 19.484987258911
9.416336059570 -74.976310729980 -209.718475341797 1.768669962883
4.740417480469 -74.947143554688 -217.946746826172 3.363046884537
73.604263305664 -79.197937011719 -272.303527832031 30.141815185547
-33.919464111328 -71.937698364258 -175.043212890625 1.977103590965
75.855590820313 -79.967384338379 -264.024719238281 24.632392883301
6.283401489258 -76.147903442383 -203.205413818359 3.989595890045
-0.753959655762 -71.961685180664 -211.407379150391 4.398430824280
77.658096313477 -79.450920104980 -257.502288818359 20.346075057983
7.005432128906 -73.777908325195 -210.817443847656 0.756761312485
81.558914184570 -80.197174072266 -254.163543701172 20.126199722290
-40.067062377930 -71.914184570313 -167.633499145508 1.311534285545
10.557525634766 -76.447669982910 -210.691253662109 2.212133884430
81.708236694336 -78.906143188477 -250.234573364258 16.740655899048
11.769256591797 -75.012962341309 -204.254364013672 1.805854678154
-126.026733398438 -66.405921936035 -92.929061889648 27.009815216064
-26.054359436035 -70.920547485352 -163.119873046875 5.989477634430
16.776855468750 -72.622123718262 -199.656387329102 3.284308433533
-87.157135009766 -66.138153076172 -109.809555053711 2.222800970078
-89.153945922852 -65.288238525391 -113.382217407227 1.487740755081
17.691375732422 -75.708839416504 -192.271331787109 2.732731342316
7.403289794922 -72.062149047852 -191.154144287109 4.433215141296
-20.630607604980 -68.959396362305 -163.666931152344 10.607365608215
