# This PCD file was generated using the MATLAB® pcwrite function
# from Computer Vision Toolbox®.
# .PCD v.7 - Point Cloud Data file format
VERSION .7
FIELDS x y z
SIZE 8 8 8
TYPE F F F
COUNT 1 1 1
WIDTH 786
HEIGHT 1
VIEWPOINT 0 0 0 1 0 0 0
POINTS 786
DATA ascii
96.125461478036485 -75.620140848331346 -208.495815153226630
-30.084229197498097 -74.209822898021557 -209.397240600319321
95.573290804860065 -76.415555009550573 -210.249106999942626
-17.450566566294114 -73.259018197426300 -213.013821884068790
-84.297595831829327 -71.632635143388441 -211.797037523615813
-80.619004325241278 -72.555593045551618 -212.574907341770938
18.852374582801534 -72.901733734398789 -213.561111831804226
-31.174993831189138 -71.706048840045369 -212.321549399802137
8.591084134660180 -75.604712577428970 -213.565615591583878
-15.624939928498469 -75.477813702471153 -213.490987433777917
-22.115152013059792 -74.055051768116471 -211.583686542421475
5.848783375430000 -70.687727231566257 -213.337914870647069
98.574922954830100 -73.557351871263748 -212.273648824879189
-1.197689266517266 -73.573184016301397 -215.794157200372837
-80.998667536223621 -71.064180089085070 -215.152157460315493
-15.262246753719154 -74.014447458046320 -217.023533520427748
-149.370404807855692 -72.476268880867181 -216.050010216655892
-4.229748852093091 -74.554128894492976 -217.008842826566564
-11.909855442775667 -73.609050086827693 -217.783809084742160
-143.809198195797137 -72.054933568925080 -216.916639668261183
-89.189684717615208 -73.860724839147096 -220.010562427559762
-16.694298806697340 -74.306335489701027 -216.792065172766939
92.375191250741366 -74.736771966637747 -218.715207498642513
-100.345179133858451 -72.960549504826432 -219.955383444503781
8.349554126558667 -75.802800197107743 -221.128354218161803
83.022955304675165 -75.659663300540615 -216.366037869666712
-26.868849146683566 -72.775645683461732 -219.362251183560545
-20.060519397429250 -69.657515999421236 -218.578222035327911
-20.350117270583922 -75.389164779240076 -222.386364646815736
-146.841497932745710 -70.823897517212075 -222.795005942501717
-11.214930872747276 -72.424725795508948 -222.263590401665425
15.173879820047459 -72.809895325669785 -223.044082751783293
82.480479137942680 -76.264118503674553 -221.721556507192020
4.688463677991590 -73.769211956231430 -225.357065511655549
-102.242188338987219 -74.462761874050116 -224.215848481274207
-160.970860336939921 -70.596061427196119 -225.745004595005327
75.707272418176615 -73.607808257113490 -224.388337296198301
-132.258049676800510 -71.443137078019490 -226.669658954212707
-127.206708121143777 -72.856849409025315 -225.511221747837453
-19.886149189909585 -73.164014392866349 -225.511259460283981
-12.993612722708585 -73.449634465239640 -225.948246540115434
-9.543314821432430 -73.391615525869909 -224.004115075481678
-158.441084023554993 -75.115173258643011 -225.726053114504396
-124.984590452578914 -72.382502514773037 -226.653251357893851
7.982269121111085 -71.135943962077221 -227.180798049742123
-132.456071278257554 -72.980970798150068 -228.101607231309458
-123.627655069009265 -74.540982788960434 -230.312578132895737
-146.796729691083868 -71.141871604461286 -232.015808818606644
-138.982634704050753 -73.862759664446472 -227.713778681081067
73.590857049714799 -74.019354648705118 -231.516641809096143
-141.208229271122775 -74.621610000022102 -229.739362442090396
-133.981903804245889 -73.099757322974241 -230.896586047245165
-162.341228376943292 -72.055276213279612 -229.870910939576248
74.899176316680709 -75.474405931673019 -231.505701654721918
77.996587898130116 -74.475375733432614 -231.352494300200789
-152.377052177331564 -72.728797038724267 -234.652991811436380
76.232908725041739 -71.918673232558405 -231.099518384492967
-131.717083846356871 -73.799457812291891 -231.754939209882764
-125.437400803514578 -75.208318121072011 -232.616393954993470
8.436456502280059 -74.231366040879266 -233.531770441391927
-9.470807128685875 -73.687233585466615 -233.739443096359395
-156.158138388515908 -71.136428907650910 -237.812548031760798
-150.908101363907264 -72.336837563083463 -235.978645222515041
9.193650967982313 -73.126109516378222 -233.318499627782614
-143.825436670006439 -72.315371049003446 -236.099650131324495
-161.003603657841040 -72.050012528573518 -234.827745894514180
-148.943950978347516 -71.708546153717649 -235.001589462939307
16.623117198826968 -72.285395207503001 -234.669407573877180
-164.567992115051112 -73.434564834740314 -237.417496048069381
-3.038703298205077 -75.422178666186397 -235.676113162441141
-0.304770658716471 -74.804983815424066 -237.444880550142216
-12.502268913331946 -72.423945417804831 -238.198653059503584
-156.699815027774179 -70.727253095187081 -236.895223525121025
-4.367302817818932 -75.077557468131573 -237.249995840379597
-146.314669537386550 -73.768241642169102 -237.650663511637447
-21.462110274838629 -70.319110854692113 -239.728269830735513
60.126279939241698 -70.531347866805149 -236.090264213706092
68.432339022024749 -75.771573996043969 -238.189978896424918
-164.873049316431832 -69.303307865258972 -239.107264310841572
-25.076940239969858 -73.296833094838746 -240.898278930242356
12.830310642108422 -73.904815060472956 -241.073760500309760
17.750419611629834 -75.677004529446194 -238.171701613050601
67.225309386571439 -74.202245484092160 -239.574829309435358
-150.196165901442299 -73.155642215947992 -241.871508364183967
-158.664752082709526 -71.177999636558013 -241.102239455573027
-2.098338741256885 -72.849543735580269 -240.439775058628896
-162.427040414856407 -72.394822540005180 -240.796244584067807
-146.492292132752709 -71.128032598532187 -242.380071356402880
13.468868388168966 -74.811229738389756 -242.892965900745594
-4.799554036084757 -75.565038458039183 -240.370213606739924
21.928333564772803 -74.950048364421789 -243.783787694706120
-19.818042861891595 -75.524984143983772 -241.782615128312102
60.002973320489509 -74.507386953393564 -243.757756233727719
-60.570093314211249 -73.604463166225173 -242.541424381307877
-55.013410755760688 -72.773477254321335 -243.641248121354550
-48.370294736889761 -72.351828988129881 -243.901877953115758
-1.514333502138956 -74.420527583940824 -243.569822556456529
8.865590162546008 -75.578443169411230 -240.970895524167645
62.557807809503267 -73.918609505735049 -243.355458847499136
-160.607395922911536 -71.579394996954505 -247.943874067490327
-55.183818004502989 -73.559830238845095 -245.902328340314540
-45.512535710217726 -74.259449877735094 -247.403701530946563
0.833380983074716 -71.930357343028973 -244.752509029886426
-149.855108685784103 -74.738722059458965 -245.406168526675827
-67.063169593405490 -73.132779809378306 -245.436599287982517
15.477114502550487 -75.252846263574455 -244.108500600866023
-151.121056795214258 -73.172178220019177 -246.194239391798050
-161.951098190401126 -71.954828303655688 -244.755783960295815
-50.925144389289144 -72.940672091393282 -247.479623441649409
15.725508011967237 -73.541825458599220 -248.868344012901929
-7.400244532937486 -74.482910918862942 -246.333363498851355
-71.732000463177485 -74.900838500134753 -247.378774779835879
-158.725689724812355 -73.391366168337456 -250.169626083155066
-56.198150525855432 -73.984865449133210 -248.480270306739584
-161.884550897920036 -72.328946980688627 -251.305255893849363
-85.618446932728801 -73.664443481952361 -249.104467810044213
-63.367216564276347 -73.558064536980126 -250.176133448251989
-158.517469847782877 -70.961939665327534 -250.821143564604625
-150.238854339151032 -74.347307234451833 -250.289574449012804
-69.056901525205888 -74.353909730031901 -253.341024799567407
-145.161418692908654 -73.862854255382260 -254.048457383662566
-164.438414290009803 -74.323199062889088 -250.665714575478347
-150.118359392124290 -73.634569493171199 -253.095401858659869
-89.302844115497805 -74.370293013884748 -251.550413309799154
-73.325627400331413 -71.466518348046193 -252.983187124374894
-161.128941307626746 -73.179902769273752 -253.799728416194085
-93.863942309458963 -72.708066525861170 -255.360623328318496
-153.986461108039578 -72.822074418064147 -253.065186326418626
-151.384302323034973 -72.429017036557056 -254.629363175275529
-129.100061038658424 -70.769506383384083 -256.217506253704812
-131.412586044754704 -74.283728463601449 -255.760712948075906
-12.320277602962783 -73.774799128653626 -253.926675168118464
-154.892028205548201 -72.041082604320735 -256.696940094436513
-87.845485748607061 -73.964302018860494 -257.119292908078137
-116.502412007785892 -72.714084716806283 -255.088351209528440
-100.779612545033146 -72.843498287399413 -256.426832552356302
-94.819889728009244 -71.527421152039850 -257.683248127553611
-134.777222468035632 -72.730119657138090 -255.030224542252228
-163.001316230904422 -73.465614085643935 -257.456189934011945
-121.773862964637573 -70.505616987727478 -258.498518954310725
-104.267991948716457 -73.497614969998708 -257.643525706416426
-96.267040719773860 -70.724248772377734 -256.599943143273094
-92.129904136984777 -71.785391522336880 -256.158231514154181
-150.262408996261286 -72.337141687434979 -257.660648957156980
-116.245456344416723 -74.495726363572800 -260.037816924784465
-147.185605686907365 -71.637860830598314 -258.365039861357559
-98.713602376415608 -71.324876877093388 -256.718084253608595
-105.288759872349445 -72.876487676100012 -259.229439723117707
-160.745339085807444 -73.962614456031673 -261.787701245198775
-115.853694035809326 -72.744939678054166 -260.345502213897760
-109.260687552326885 -72.440786016960942 -259.793872857234135
-149.042151669694391 -70.372014672805918 -259.755512245828243
-167.493952627006848 -74.388974520963444 -259.602054124584299
-155.583639290579953 -73.427468841435342 -262.646029326827374
-146.593915272849188 -71.861995193275007 -260.610254310184359
-145.452341070561346 -72.092080497603931 -259.810657058489653
-112.528335836203155 -73.028575406076598 -261.346521358739324
-11.948110879786883 -72.260873881181965 -260.095576618374253
-124.526114074605204 -73.836286767734251 -260.585929917903172
-155.342515151093266 -72.419159131525802 -264.338280451254775
-139.692547502972104 -73.056390701811651 -263.171396171907247
-136.280053516149025 -72.302795028547237 -264.834760527367109
-12.904903442055453 -75.609313583683218 -261.972734180716316
-151.393464426933178 -72.351157126583431 -265.990331018879658
-145.324491691060757 -72.201363516674050 -267.014344028983942
-166.399211101186097 -72.657487698873425 -266.438604336590117
-11.625421614736982 -73.924805770815396 -277.297408284508094
-165.753701139283720 -73.529406631590803 -278.353397413415962
-8.960987123991057 -73.417790394089664 -278.133662245135497
-143.647851780500673 -72.320987153384763 -280.142147471363558
-167.481967839668698 -77.027290565282001 -282.480173140542149
-144.426380408016371 -73.390149758822346 -284.116312536903990
-140.902377165024376 -72.761804312397445 -284.977312987547805
-140.867994565768129 -73.133389164770605 -289.473644108578355
-135.146493648526899 -74.613035445190235 -285.563333381246480
-62.990823983779158 -74.159469918827867 -286.437241709843363
-125.602757545682366 -71.008888719105030 -287.718348461701055
-70.952344041603098 -72.679576757069086 -285.084739805268441
-36.780595090426878 -73.580271638416008 -284.324941978997174
-31.040395174412026 -72.556711966003164 -282.893677001063111
-24.829386570846740 -73.768070958119154 -285.689873819373645
-122.109987433656997 -74.000661212575920 -288.103535646859257
-81.746567347630005 -75.373484851535878 -288.841657820252180
-28.434332887403183 -72.215145543819588 -285.612201488384642
-12.320184255196374 -75.079199397819835 -286.557607044489373
-113.119432552842483 -73.774424329285111 -286.138722718795407
-2.302185908428421 -73.403767344790509 -286.256402734823382
10.090763893481949 -75.198463840324507 -287.912565172349503
12.779528292521901 -73.093557687127472 -286.452555075660257
14.611344500762677 -72.689743600417430 -287.071969174442017
-163.128736632667710 -73.161186399062018 -287.589039124739372
-43.952744588926130 -76.313419634686184 -290.686044028700451
-103.988305929588194 -72.089233192212049 -292.976007776198628
-85.528264552989171 -73.654916405327967 -289.397594046856511
-74.460294172792885 -73.122090118893624 -292.468426624154802
-66.244073226000268 -75.811126048658451 -292.295657159311872
-94.828786432539431 -73.075183609308809 -291.687500043691841
-32.787383442197608 -75.099238385796355 -291.087421239898674
-114.412487151739143 -70.881659364492492 -292.429649823672548
-111.093065411556736 -71.416793672209280 -291.584318804383201
-103.804684446603915 -74.241280408280488 -292.524027284362774
-17.812190950746817 -75.926667133754123 -294.292129556567545
-11.662714856683396 -72.492051045187779 -291.426392196666313
-14.009040181340007 -74.439559704055981 -292.239959882781534
-5.118941971924882 -73.039459333544841 -291.006938708729820
-119.479100956537650 -71.887770224760658 -293.571456032495064
1.811453121567444 -75.422068462085463 -295.212044439340900
6.292887955716816 -73.442727563037224 -293.506410199710956
19.687996403547274 -75.949937736258931 -290.893935494211121
10.828935549014108 -74.007634052605169 -293.050540668397161
14.312734945871950 -75.251809682667044 -291.955136529581011
-156.298977800910933 -71.705357433531887 -294.979236361285473
-143.397028509037142 -72.078410896243298 -314.726662399679583
24.910882773748941 -70.886244218074964 -14.798159398880660
30.822371118845300 -70.360124540273205 -18.250953965934212
24.879653336985271 -71.939843457811051 -20.458180132074428
22.251904175689059 -74.316772943818819 -21.083805285788660
23.415345267574107 -72.160431554096235 -23.245132901867919
21.564933341238643 -69.975098431084405 -25.350857753159474
22.704937415851465 -69.626773169880863 -27.446211392820466
19.296109323916401 -71.942345234726375 -28.793507470582185
21.181041656570272 -70.896599817757988 -32.052733826240988
24.506309743133190 -72.471062205292114 -32.489796958327297
29.443643112394060 -73.588461720031546 -33.992225642196686
41.390706099102090 -71.264500642461286 -33.783295488747029
25.854149609639528 -72.241141766519675 -38.128016791222905
31.959139449694447 -73.468770019915013 -36.396444540298532
34.042853039934037 -72.549700819203991 -36.025395139814890
28.542835968391152 -71.688283970915194 -39.198982377921126
37.416280507171678 -73.122070476424071 -38.557351317690106
33.237380234084192 -69.072862702900125 -40.229246836066586
35.944769070009812 -73.097180477167200 -41.787200501298152
-58.375656559493429 -72.134436051752104 -53.223244072652840
-45.448775469232309 -69.961747967570233 -51.179271306929735
-36.509004273778679 -72.698511324920489 -53.797510615008250
-80.086688954362700 -73.996424072974818 -56.800431868701970
-33.149302924594991 -70.307982881133000 -58.402690397242658
-81.795649523693896 -70.801844449272963 -58.014962887424012
-23.321479222166900 -70.132733339637255 -58.277253138939308
-87.608183347021679 -72.011928143129666 -65.762739108685736
-16.685739737172216 -71.996741961628018 -66.344688950003103
80.750801276925969 -74.449064803882848 -68.117028140915494
86.117786992146037 -71.519525831240614 -67.319492874458035
81.921649630874654 -72.667305081125320 -69.322363308528224
-15.696343927982621 -73.479460420470801 -68.750390231101250
84.935227888119982 -74.827439937701470 -66.912161934389076
-92.719120105354250 -70.145740315961618 -71.354123737509894
91.105625391163244 -74.760551517840668 -71.335147705251217
72.719325971361869 -73.238300981755486 -71.377425027820408
91.632941213886625 -73.664554261984946 -71.241587292305553
-91.799719327416611 -72.078501878496425 -77.098562513979857
-27.252753141313807 -75.196305210249690 -75.115780895063722
-27.036145191183873 -73.445375891301808 -76.927914327439368
99.789023995595173 -72.501519278961240 -77.812413981864808
69.235143534854714 -72.285926602428702 -82.978915535894600
-45.457430563584374 -72.163967867090250 -83.482922557165125
-49.322193812351216 -70.532692595393712 -85.103882751891774
98.406594059497124 -74.614266891196209 -82.927444678567269
98.580708470499516 -73.144373298195660 -87.627689550797243
-92.557201268278931 -71.548775782381426 -88.212089378654753
98.398755863632161 -74.208598382517692 -88.638427626676105
97.837868749349951 -75.494006622425090 -92.342863185311103
60.017982942375617 -73.909943148554362 -94.187018018985867
49.298359821322940 -73.679300940089647 -96.559584505038174
55.942027870601017 -72.956135522546958 -99.907295982143751
-78.603698444263244 -71.963512647934280 -100.116244796956693
93.456885051863054 -71.622288595007802 -101.365025406752807
-71.815330754306743 -69.841287381928893 -99.073767582561800
-75.629406494536440 -75.318797283416686 -100.337359551240496
-73.102358733157587 -73.487238692941148 -103.158700532946995
78.616450402561810 -73.653959767197335 -102.220040084971799
92.148029242399147 -73.941916426349110 -102.014233024730601
-83.462395376226482 -72.818666847290544 -102.690393169746955
40.793746905076723 -72.335474723721092 -102.510615469734006
51.786577065337248 -70.376391985733349 -103.126239235349146
39.646169670068097 -72.713418125198984 -108.589471744463339
51.888010515564140 -73.520298014189436 -111.166634585514970
111.109659694876257 -74.089685157397724 -110.787431082526012
33.262884653713130 -71.642858094721660 -113.187401109327169
-93.958012753744583 -72.893351563094342 -115.009824946616192
106.460991520823612 -73.863274018618583 -113.352549504174988
47.818972511154591 -72.928284323746709 -110.747430863974188
37.150094575453352 -72.088588480137702 -113.055970392092888
-89.213818308729756 -73.261008888332412 -115.445983822420658
106.833423760657354 -76.604032757200628 -113.537605334836428
43.554641645829172 -72.220095048182046 -117.853577526087207
-92.457816504699792 -74.693121545032554 -118.414121392291975
113.744527510607369 -74.447575161680192 -118.305463755685906
109.690447194007220 -73.773814392290376 -118.377144976192170
44.096348506475586 -74.733773656932968 -122.472949436696410
114.763903113003835 -72.822711228189632 -122.781284496114552
39.018679914266741 -73.275589960996996 -124.428877340087951
39.209646763553501 -75.278629580082679 -123.172289263159314
107.934487393455555 -71.986950645386585 -127.314646902672479
29.824816417726172 -73.869335896178555 -128.161716778921573
111.740476531946470 -73.987432372725308 -128.707595888504414
-56.596342183059029 -71.561121313128425 -128.857728931373742
-54.445603837480832 -69.079259305090901 -129.183159583625724
109.653925449136636 -73.504473971979195 -130.285610216570348
114.647677761362729 -73.553867471465153 -130.938244617291588
-77.568677336051323 -74.201962723796186 -135.292559915059257
-72.671757252055841 -72.181410042637069 -137.860689223027236
117.000044092930409 -73.868759094396580 -133.094711733119254
-59.445310345503060 -70.837748404018370 -135.215470957884577
-47.615082043135573 -74.660318862516633 -137.124362261224718
112.782479302464338 -73.983543719331735 -135.830014577446974
37.911880510405325 -72.890185382720475 -139.237686603742844
107.434052362775645 -75.433807089837245 -137.616556900954549
-60.815378227733191 -73.325523230582760 -139.940391303932159
-71.173526717809480 -72.710003707099361 -145.489464678932876
115.379823348707419 -73.049723481887483 -139.612878315340936
-43.093101445076584 -75.366960082857688 -141.372080595544958
-71.394933888571117 -69.507679682403150 -145.388791886401066
114.917024766302362 -76.612462684941647 -143.184389381293954
-66.678961104276553 -72.639702912041685 -145.731460387124116
26.274032187918166 -74.165176795037013 -145.419713013879147
-56.091583163125080 -73.216015382191983 -146.049946925307864
-73.156780494590237 -70.988847770164028 -146.548385132659348
-44.169929273967938 -71.590802749103531 -145.174287603653937
111.968592602214073 -74.430279557588307 -142.462005434830843
35.885706327297889 -73.102714644795029 -146.196664943810504
19.027910508372759 -71.015333621736772 -147.649560346007036
110.363117087204273 -76.957880836996893 -148.097951282303740
113.522735365637402 -71.586950983943012 -147.621952480549822
-68.250937699576625 -74.956687633636761 -150.698723165107339
-69.529010905525553 -70.487450578601496 -153.947388086871285
10.541387833318623 -72.113742394694825 -154.699642132518818
13.345004543152752 -74.994822624517070 -154.189510352158436
112.809043185393946 -73.297693984535840 -149.955636208421680
-69.456674951174236 -75.274880152558666 -155.525013606465876
-66.801301721990370 -73.888338524958044 -153.729585703291804
112.089767718393091 -71.680254302557046 -151.188897348329789
-51.574691746439782 -75.023413849943495 -154.990246389783294
-35.667400055195692 -71.710975882985238 -155.757356328052509
19.406942779186561 -74.246960215066295 -155.186427621335440
-49.779942282405955 -73.644323684487190 -153.750033527334324
22.726028293831217 -72.067891307264517 -157.667702468068740
13.327704404646344 -73.715790391971154 -156.719447053459504
-63.251218369865100 -72.732128619706742 -156.628660535978668
15.090640133851513 -72.669096791993042 -158.239865623456780
113.808237624627296 -74.101311120507745 -155.062858013611617
112.488978705528382 -72.950887686546608 -157.282229540426613
10.150515537843134 -73.231300651793845 -158.662528955826929
16.882754557136565 -73.769525983008919 -155.682374992289226
-69.458700572415395 -70.783964967144982 -156.617546034890722
-37.224210347004053 -74.068342752023412 -158.491356231661229
-46.312420211181170 -73.489098192618783 -161.026230838315371
22.119291405080194 -74.400650688970245 -161.508411067694112
107.308426396704661 -71.235089472399110 -159.640138271418664
-48.230379431977248 -72.653488836259072 -161.317072947082892
117.966280674785963 -75.317312783744583 -160.078127033339541
2.186573213341900 -71.620372180067548 -161.288509506701160
109.699098421447204 -74.068009250139937 -160.885515439143745
-65.347063884717755 -72.497825796717279 -162.531851429906993
-31.320065286926273 -72.893264468294120 -164.815576377967346
-61.248699601790292 -71.562668243969668 -161.333223214416762
111.042301772477884 -74.404707531955523 -162.709178959427675
-41.295224612594119 -71.933866826785518 -164.793854362553333
0.337172399864935 -72.466393781464902 -165.093387486370119
-0.882997370785595 -72.918987882710738 -164.484877942682374
-64.403864576945551 -72.158474893054162 -165.982424653606813
-61.900203835065071 -70.759358827063352 -167.193772987049584
-32.751550710478391 -71.489367308880105 -166.054038976176741
27.171870145696236 -72.170658575218923 -165.225912434116253
107.721886771259420 -74.448620005672552 -162.952548924747703
110.057445036426174 -73.154843629867244 -167.132619768528059
-61.744972340376755 -73.116238987687552 -169.920410282800873
-28.683452443110141 -72.813602474163474 -168.062044536542231
110.876298299675909 -73.624888551870228 -166.638098653034120
-62.716170388063503 -73.967375831185180 -170.485329456284688
-41.614887180755261 -72.040230926000604 -171.678647637783456
-39.707935121653748 -74.803273296120551 -169.990183232760160
109.128206781511878 -75.727280783301524 -166.568616022964335
-58.583608312338477 -74.223813680660371 -172.415575462108080
-28.692136014407961 -72.423499869807642 -172.129639433454287
113.077332317913985 -73.429091318255857 -170.802856394770117
107.171974280925355 -73.585915629788872 -173.009890066141082
-149.002311032128006 -72.240141782614415 -176.072668207359982
-142.554053457307020 -71.664648067671948 -177.534784885893401
103.179923506683480 -73.458055611873576 -175.904983893903733
108.339213245090377 -72.606112099036750 -178.100184924200903
-23.885522951102747 -72.302506906326741 -179.371168734368950
18.563425149219675 -73.455961108935114 -178.809453844768882
15.124954297693950 -74.132480037944902 -179.274370843070614
106.488802071634595 -76.503109208697452 -179.612840958325648
-34.256884465064680 -72.271491745475998 -182.314142515843884
-32.271749517604249 -74.963605359607683 -179.986580758268474
24.253507114456138 -73.727596127863691 -180.676498128692714
108.626330031080272 -73.586798000924716 -181.883209045907648
-142.099752588984472 -69.585649602135547 -181.080877290678671
27.069547871760651 -73.741292815170027 -183.870075975857333
24.741541969504468 -74.093196349674272 -186.873155510478369
-21.225485552898682 -72.139417687329384 -186.498538055455327
-29.424382146805932 -72.885838109995646 -186.655841495847994
-145.859768490072781 -71.107867114654695 -189.821029052874309
13.765659991229766 -73.989688905273496 -184.537123360465330
111.166983882027253 -72.306726507052005 -187.461064281695229
-142.868402483432448 -70.979512982669277 -188.074455614216902
104.465777463723697 -74.052488889074070 -188.563311618909864
-27.561904375719056 -71.022556571360056 -190.150523143682335
106.209793949333672 -73.598617422058652 -190.559622126546145
-147.854186258885022 -70.314403952417891 -192.644257264388841
-146.231989634028793 -70.882606230346354 -195.085569208201292
22.450530812664869 -73.713761515171768 -191.397858318280157
99.665800085574546 -72.608648802848151 -190.427784144838569
105.606928960097292 -74.886353094648442 -192.833583470130037
-24.692024419083701 -74.217346487914369 -194.989749070417332
-132.338912383867182 -70.182936684580255 -195.298178806852036
-126.076878417201769 -74.011803044191296 -195.458503101297310
-122.172789869108357 -70.754770553953264 -195.847698677652033
23.559071789571416 -72.799180052345037 -195.900447477090495
-147.339997119117299 -71.452915739612180 -198.482723080798053
11.011529031458510 -73.635023274121679 -197.139035412071564
-138.854081520281426 -70.900943165971981 -198.774552504089286
-16.490556899249089 -73.150428124538976 -195.378048398279333
-132.234806641170081 -70.989349845543884 -200.122826855968810
97.917225387879625 -74.092358963342292 -196.723200658603844
-138.495204190950972 -72.182497424477091 -200.922966949053773
99.209075112611359 -74.520013932892155 -197.569993890497784
-134.912311943471536 -71.863928204530183 -202.845831502494747
-11.897087257665580 -72.634397520781718 -201.582093311338525
-25.080554549335936 -72.565314839319385 -202.787920116245772
-131.669905693540699 -71.026579797983686 -202.457177611725882
-121.071894177658734 -70.241352767380675 -203.053760711045783
99.011296443067664 -74.615550668331920 -203.412366280346731
22.556681356424757 -73.222314351447011 -204.067818491015771
-146.990688410599773 -70.946531926457652 -204.644137169450289
-144.382194241222521 -73.823934690195046 -205.814895573196907
-9.534195596366848 -73.027678109098176 -205.780965863976263
18.320302903409925 -73.480157825407773 -209.469944728698437
-159.933843249756194 -72.152106492714012 -208.174932136166092
10.436187184407252 -71.056081381539272 -206.235148500424657
-20.650353493668899 -75.971704898876780 -207.970089177868175
-164.802957643587291 -71.515247633957131 -211.986680079365698
20.577226467388286 -71.517149049489930 -208.102170550682530
93.043258120930929 -75.933143675203993 -207.638241115201595
-76.529020461801650 -73.215701037950325 -211.779064686956417
90.695190790171836 -74.230087607315966 -208.206321019135970
-77.922966801759102 -72.902662918952672 -211.291778987422333
-2.597780455252510 -71.916375402264720 -212.372659958608779
92.934543802856879 -74.910976137232311 -209.708563654440354
-159.128315401303894 -70.846980347538164 -214.555686313534864
92.153011006075033 -73.919441445639507 -210.929042263132430
-28.519327986789854 -72.476985825164846 -210.900773446109753
-82.032240019030255 -68.546738593442640 -213.472991051840893
-24.279267496531311 -73.185747918869353 -214.601393817924929
85.988338016348592 -72.141550663782638 -211.149370665058171
-94.153637323822110 -72.601260138448581 -214.351599738440626
18.352059555210335 -72.393496112927053 -214.231222458694958
-159.185844989674223 -68.596763833611632 -216.131878859853401
-14.520639233649668 -73.504931651261884 -215.157034045938758
-145.053034464501962 -71.341239709600998 -216.702494768559035
-152.524492525284359 -72.741002887835265 -215.429499791550313
87.156823925062042 -71.636295406838599 -213.048498814297886
-148.799165689243182 -68.821594064876422 -218.128363920452671
-165.943726139213680 -73.457530265048433 -220.778578469274180
-21.998311092018966 -71.817583846716545 -217.590055195482705
-84.527006392571892 -70.597575136131411 -218.903214763205114
10.100185159908373 -71.684382276314722 -216.479820382513992
-153.038880082815723 -70.573300051234796 -217.673121431242691
85.344367145448501 -73.327668214937802 -217.232613071235022
-26.244577923398207 -71.892506058388975 -218.595423873415342
-1.224639032892522 -74.453651990552530 -217.717384974975005
18.609018320585783 -73.120142764210158 -218.755212321714822
87.678318888492768 -73.207033962517471 -219.806832898576772
85.604592890379962 -74.437116344597015 -219.222769089705423
80.103292081376182 -74.000176769611770 -219.476749240727827
-161.459437598449824 -71.869204417648803 -223.174207385478780
-103.328971964348369 -72.350690482567174 -221.799632331272221
-94.198403330715635 -71.737103650529562 -222.084206232733266
-148.875872097715359 -73.876922992377288 -221.779950340679846
87.979281941625970 -75.938198081227782 -218.384014536563541
-159.398785578863084 -74.034403658224647 -221.448900897874495
-149.627099693366887 -71.360254183805608 -224.564417918507814
-150.713314294585132 -73.416440345466640 -225.671274113503415
-16.466338027285069 -73.727324455203274 -224.632026685221973
-1.215447093648745 -71.632109980358479 -221.255979775641606
77.096025777298010 -75.337067576671330 -220.528162503031382
81.301893200450237 -74.784391313740045 -226.267621731566322
-154.210675956490434 -72.916232732511844 -224.721029861590893
-107.214325335503176 -73.087538938791042 -229.013805174918645
-98.990244546984229 -71.690592634003536 -225.599205493045389
-162.115680225311507 -68.474426225912126 -228.854301916988106
-130.792326206559579 -71.230232400829237 -225.664382085014239
-13.454542908806033 -74.615479990257754 -225.325378713967865
-5.220390108547661 -73.663909140479163 -225.050316214422253
-123.014274173735018 -71.788607015046026 -226.000892986238597
-113.800134391806324 -71.232724270412618 -227.723697358167101
-108.854282080591290 -73.350547766773701 -225.929976211609983
-14.853175334077800 -73.896035763519663 -225.083914372080926
83.901852758224393 -74.126394402599928 -225.917057307448403
86.143466744473429 -73.608353908595305 -224.753066297744596
-155.354631583150820 -72.687806874078944 -224.718001282531958
-138.612813285419946 -70.272816775503685 -225.910528029189294
-163.560056814230563 -73.262276814830713 -228.013860773351098
-147.807686131725774 -71.316624882443747 -226.598408950093045
-105.196967762450853 -72.895214884694568 -227.979055878280064
-16.155536570150741 -69.891715641280754 -224.861829407527125
18.673211236829506 -73.134312131377172 -227.915690795731194
-152.948215812039109 -70.716709618100310 -228.666138509772850
-146.529356558997108 -72.260192085747988 -229.172954157081733
4.830108270346771 -74.207892980410136 -225.737482524563973
7.026652645869344 -74.061548742353949 -226.466031836489321
-122.190787759583642 -70.585080302242417 -229.243225233545701
-164.049795491044392 -72.536851768988399 -229.443864982951823
79.530647834729891 -73.486167252949897 -226.533085199008497
-157.394085458177813 -69.755830238945251 -230.479124527871932
-115.720149137358575 -70.883825086845889 -230.170351261974645
-9.779323348704562 -73.535025794323019 -228.994911532608654
15.657918095485917 -74.807292579997096 -226.540928045147012
-109.555241043298906 -72.656550532188547 -230.202790499525378
-12.069103259898137 -72.551486704208315 -230.439462887852955
-4.375220048175182 -73.924974449641127 -229.960691662270847
-146.575454041671208 -70.103723515282056 -229.643490904255117
-123.220970595350806 -73.155554479972082 -231.078447748307269
-148.075932721051714 -70.952725200211390 -233.475866102680442
-144.913524495856194 -71.547680367711266 -230.776390803952552
11.856013156424931 -72.517647360763789 -228.693846634547072
-122.006818505211768 -71.118714448967992 -231.295714202158393
-6.764792450084397 -70.454468424736675 -230.053209212703962
82.133695583871642 -76.856285563800284 -228.990876418302804
-7.010968833045759 -73.947806365417776 -230.866447713455898
-141.427918148797318 -72.536110905647050 -233.089187044319942
-124.532031375945039 -72.619209423973743 -232.507176245679659
-12.287305954645390 -72.052142423881719 -232.595011271166840
-134.046053134540017 -69.893060158548977 -232.969265457902736
-164.316215366884251 -72.041863793525067 -237.291687389693834
-151.424795101495789 -73.609403376906286 -234.487758356737004
-150.242471452856961 -71.026484204548169 -236.196221601991624
-143.174075200636508 -70.149876106661011 -233.366659868500676
65.176880004332077 -74.104141992609044 -232.635141229995895
72.395009339820106 -73.617818497349560 -234.503353445403206
1.736922530683413 -73.036804833071770 -235.470374951866916
13.338907503455577 -70.724802121346414 -235.124138997899280
20.530801788044712 -73.496020013801896 -236.672087127591709
-151.381618522208555 -70.903527756558404 -236.856691447773073
76.980016612120693 -75.823496674103879 -234.417832943210470
13.265733767229321 -72.596164413518594 -237.157559490721212
-20.253257416570730 -72.966427684895365 -236.776164864010980
14.452916931760452 -74.065829788036581 -236.161885005077210
64.954726564217069 -72.816002664947035 -237.745306092126640
70.087817812420596 -72.715979123497249 -238.270727205261352
-7.869904928028194 -72.942648281729987 -237.851624861434914
-2.517461844291002 -73.611871251261391 -238.625294510791377
-23.597720354982023 -73.149588987873685 -239.762492717570098
0.726982330838574 -72.986315524658252 -241.927454037775362
15.952830021866427 -71.472663362714258 -241.390008309382807
-22.682387236452257 -74.261825007894132 -240.704952481472958
-0.533775881268013 -73.354280829761166 -239.080374255898391
1.921325580306264 -72.313254597314881 -241.858678649306825
10.987479914690031 -72.915033718443610 -240.580687658868385
-18.557906627418170 -73.571124126189844 -242.297276558363393
-12.243403666446660 -71.322569189781618 -243.122897779364195
58.876346502028909 -71.535102740286121 -241.342675301956604
11.166483467120505 -75.081535838264216 -241.974577233202155
-164.364790383122084 -72.152020323214629 -242.885006773566289
-144.855330231088203 -74.444888081451936 -245.530093711028712
0.366813914358271 -70.889487935638925 -244.162361308163611
-4.152522213461685 -74.274912651489444 -243.441784254986771
63.175927042891487 -72.831251756049085 -242.041736755795881
-8.749412635486571 -72.831189226804554 -246.602558794530097
-3.375058707056564 -72.009996660858860 -244.539248897580933
53.702038248757944 -74.865000473543319 -243.659814053876744
-63.630923492096350 -70.888037745225816 -247.316208840753831
-54.233007453219884 -71.902009636839139 -247.350505707840483
-7.950862977684923 -74.144856415707238 -246.586974605496863
51.116875840755398 -76.062154663672814 -245.515058331757615
-75.844466556329238 -75.006007641894854 -248.132559060173577
54.886063115304395 -73.623047167936221 -247.717260402688424
-60.685630313717766 -70.642212107442418 -248.632314956105887
-10.465490564251859 -70.453086757521589 -249.933711432738022
53.863484816793374 -73.166367344030220 -247.595646686724791
-78.744409884913281 -71.290639020404143 -248.921688780848257
-12.746537762237569 -73.106599731919076 -245.253075692791896
-64.689367232535403 -73.352195793807610 -251.161078250936924
21.986548187890822 -72.731522490345995 -252.886542085744765
-144.190335534815290 -71.683780473888305 -251.507215620749690
-13.152576969811209 -73.497681171372221 -252.828309592488182
-11.815740897752979 -73.514799697873329 -252.843650043865495
21.942893617375219 -74.589217107542865 -252.724273486958253
-95.935555856840679 -68.917750676950888 -251.479722829483165
-143.435579983670493 -73.510194998376022 -255.664904400052734
-121.324465554101167 -72.435478155862057 -257.413174785185049
-100.047953143460219 -71.849502515848371 -254.986393885551792
-82.309143588393724 -72.428708026455126 -254.037657615990582
-142.785745587560029 -72.341213889057627 -258.086164912961067
-101.111052890684405 -73.147104820789551 -257.310557528752611
-102.759195337781392 -70.547977112353422 -257.146088896739457
-85.439734554097427 -74.013693145258173 -255.665380968283472
-116.072742959217095 -74.123273058099784 -257.861170788199729
-106.488816052436491 -74.151896540617599 -257.646401470223964
-100.629295593628640 -70.139421511736515 -258.095280210784324
-104.779451025497139 -72.868923805712484 -258.882159073574201
-107.128878703752306 -71.707251553261315 -256.774506071331416
-106.292220650254876 -73.638932090640452 -261.597545503564049
-142.156477637622658 -73.803271461109489 -264.263884167542074
-115.460381332186216 -69.351918041142682 -263.067499912897517
-135.173745082884665 -72.450314659920991 -262.062149227341592
25.898780153644470 -75.218062616820390 -260.912575280016256
-166.068635297322743 -71.023960940203779 -265.529852992299368
-123.385563377230255 -70.515613083805789 -266.048693306050723
-145.851813562108276 -74.189905981472918 -268.611126696957342
23.935618586734201 -71.890770356185541 -264.689910459142311
-12.721513805399816 -73.282312915226953 -271.106757194253362
-144.276976751664478 -71.835724593649999 -273.584929533241734
-163.832988259600597 -72.086052529152838 -275.334372389022235
20.352386927132500 -73.827840034633482 -276.268956539713372
-7.446446646085537 -71.813107796660745 -280.022734280956001
17.152976714928503 -74.328700234913995 -284.702038589392032
-144.810395703538916 -70.642555512873969 -282.975652620934738
-5.401365129785471 -73.314651557954818 -282.266551309995918
-130.291558481191174 -73.015289871200054 -287.651793121573803
-141.681590984880955 -71.359031886725475 -284.308609989094634
-123.390215876456722 -72.637616544051781 -284.075563795415633
15.671474904687040 -74.443415105387885 -284.248613415686009
-132.379660919896537 -73.679306287540200 -286.915385320578082
-59.550172347908521 -71.656403706477178 -284.022471019453747
-49.870072377368501 -72.205927187977196 -284.419001040620060
-122.254262444416455 -70.713182196915241 -286.804360578597255
-68.921128765535897 -71.381311026550662 -287.058822570845109
-97.175677530491228 -72.067302053483331 -285.405737782194194
-89.201832236969537 -73.375183718368319 -288.008170379964668
-41.199558549268055 -75.639559725448834 -287.457039426417566
-29.408039623339391 -74.736921431623713 -284.090248399313850
-23.220199511541438 -71.651085693105685 -285.947230250788721
-165.234165883116646 -73.012343528363289 -285.780470458214324
-112.886207428732135 -70.328301797463766 -287.759637295101300
-111.601842131960709 -75.304448436775900 -287.646097530981592
-32.489288647478880 -70.741612913356050 -287.865681952417049
-25.095485654909822 -74.005701168052255 -287.205216513199730
-13.434860259683488 -72.542485060507204 -286.785308497484664
10.528364241333579 -74.139521629238260 -289.753534498908436
10.168217481516955 -73.937248250675893 -290.054839822021620
-53.273179390609528 -71.374031197837098 -291.594269450343177
-49.397417034143970 -72.687211564456035 -290.804234237155413
-34.921954936967424 -74.132459811028497 -292.367220070391454
-35.162215703656116 -72.492514671796570 -289.760179692007057
-22.518072508288142 -72.371387939820082 -291.475606081383603
-21.711300307549099 -75.502573499801969 -291.593731383989564
-17.729303517611740 -74.660217433725080 -289.314043920335962
-11.391836316764122 -70.957454147337941 -290.081268555078736
15.536100462918897 -73.223377322111588 -291.195925047361641
-86.712097808124142 -71.093732266536321 -292.779853315563571
-162.837990925194504 -72.983328018399362 -292.496259041471944
-93.497024553362252 -71.298071263355425 -292.730184608990101
2.054100526691142 -72.423559185031522 -290.559893590309798
6.329878826196543 -71.715738168525661 -293.861860059576941
-140.997223493832109 -70.606394393609264 -292.448928428093552
15.882896137299488 -73.151594294146662 -294.512606597136653
-133.753190954014428 -70.914515375740891 -296.649826278728028
-145.502941268118576 -71.538521135031885 -296.618042721695872
-153.216115117858777 -71.595089512906370 -299.195540538135219
-152.912457655159983 -71.943451149321021 -299.201843906273893
-155.182029270804804 -72.382934314408502 -301.087471203005919
-156.288679156970915 -73.375614617814719 -305.424816221881201
-153.664478313600938 -71.517491139470536 -312.602719262991286
-150.860319704144246 -70.993696779170548 -313.619264386327643
-151.254838232696073 -72.580230112025163 -312.850396753679320
31.737713598369858 -75.382930879789910 -11.436343749304793
38.235465829127691 -72.807566210761394 -12.971478795383216
25.504817957449546 -74.005971284262671 -12.234878385381560
41.013905928519272 -71.654027900303703 -14.326130336485299
30.868711580041040 -69.589020942849160 -14.746389395571665
36.638268217466127 -73.341166623929396 -15.194309744606034
24.925012722746324 -70.668540226742707 -15.786424120242014
41.357751568043781 -71.150083705138016 -15.673211444726437
41.101566693422484 -71.018365469682394 -16.750715345831789
45.848130111673257 -72.136024653295948 -17.461081833560211
44.310399601670440 -72.081871200739926 -20.222530390649805
40.715971990058037 -70.577275902168182 -20.991591898126021
43.821124194421913 -72.134078672880207 -22.549701904830989
47.715220790589498 -71.835944055197345 -22.097248139287174
19.129052699537656 -72.567541190088932 -21.917707405350242
46.774382333750296 -70.265550028418090 -28.671822463599888
44.446629812168865 -71.072472787754364 -31.211712097214104
20.640422089361611 -71.446294351101216 -29.261993308300561
42.398538222245968 -71.993009986352916 -33.374611929581114
41.872694307491322 -69.018865090774639 -33.975589102159141
46.813567692746851 -73.367840781435660 -33.048696818119765
21.102693358811088 -71.591770722040977 -33.065984626377329
43.443437799445803 -73.149942376868466 -37.580349558754996
40.658310040762551 -73.338811617936798 -37.924001035200163
36.135733781032421 -71.871971411296244 -38.793435928898475
-63.885429419058546 -69.775599854155828 -50.035412371564071
-54.667187009900125 -70.639122241376000 -49.320919505148630
-49.281006194855060 -70.831613423513247 -48.385973058170833
-68.930577448133647 -71.063964965569255 -50.621857837871396
-73.003657526753940 -70.646325240272830 -48.747612506397388
-41.936870745790806 -70.427769186111732 -51.837203177256839
86.628250672465995 -71.391742338584862 -67.014687358205066
88.107775508422421 -74.793259943077231 -66.881404624596229
83.436077708887510 -71.873392706868287 -66.490311046318340
94.053214008216315 -72.736728321558246 -70.468080603484367
-17.026195686545680 -71.021448045167872 -72.534984620840731
-38.052337918969094 -69.700046311471922 -75.277216622432633
-25.981708728039898 -71.610410368461629 -77.996342270586922
-30.318797226786693 -71.878062897788723 -76.902418463259238
-43.057609228803436 -69.871879799381489 -78.655247653280810
97.781224547955333 -74.748878791494249 -80.727088373415512
-51.227752682378295 -70.990252238610580 -86.407550532274598
61.206107393418009 -70.606682717646393 -86.527593022860714
57.257632074275335 -73.113485109456875 -86.838425032734733
55.469636271125722 -72.526047553271553 -87.550255833183570
68.790253824792558 -73.261496793127108 -86.625535542973751
-58.737251546819344 -71.041235836341684 -92.523572769198609
52.205107902920076 -70.545722846861338 -90.271033046179014
-66.211168607186096 -70.878820687549549 -92.614769271967305
-95.473472764280800 -71.456896039897501 -94.851318491376844
45.429499623507589 -73.221204007486705 -94.157813138009857
104.939381165904464 -73.985160719753353 -96.243457615853657
-65.958545388906686 -71.357227974177320 -98.506847221421765
105.562281240449209 -73.036020679420304 -96.599557033137586
100.664789837838853 -70.917055194367776 -96.561608485926769
45.282567548091912 -72.319198688649180 -99.084687342192069
101.264893604958701 -72.687055635925717 -98.471328626245452
56.684246945897755 -73.325598285320794 -98.883505972006930
75.201192075033816 -71.836545829911586 -98.968042090465133
109.500144803723089 -72.639025173531309 -102.695997457016517
38.816520602497313 -74.199627080886714 -99.447922950017897
75.363191859640139 -72.844343303775574 -99.808085649122773
94.503042323224832 -70.747017660681919 -100.824678166385809
101.801192827540817 -75.216828803869333 -102.420486756873686
54.270411459023180 -73.213602176629976 -106.223239798054379
42.005116210980219 -72.248752649163521 -107.289200383976265
51.372994513552541 -71.372344165452546 -107.034872771141693
111.080052660972896 -74.576350040138252 -104.701712544121619
108.959365586110593 -72.128707963527802 -106.589671723807271
36.123522016441271 -73.566510464865928 -110.042284416718644
50.210088745194042 -72.953193464694593 -107.419689342326933
103.630869383979785 -76.316902338082372 -109.531263597984236
111.231305267112717 -70.494949952894615 -111.699514655695111
111.166359332142278 -74.160304500208753 -111.419473733867761
45.672216227558522 -74.059652880203956 -115.960599572238920
32.738151645245502 -72.223922448799229 -116.937862394159481
-91.951556818741523 -72.817756846923416 -117.903625742681868
44.582577218687440 -73.586994491222001 -119.638751643455919
110.219273191871835 -72.725684392284975 -116.896255014764790
41.332213165053375 -72.560999373616866 -118.066288038653937
110.673049317299004 -75.451532998228970 -119.469108970929000
111.560358093750665 -71.303417804584441 -121.324833628787360
31.917897333893137 -72.133664098818329 -124.061401160819742
40.315797307492005 -73.754380190816704 -122.500795941027064
32.551686115938558 -75.322831774500955 -123.785676417331786
43.603762607156021 -72.995376335231342 -125.343736236598801
108.994674228648407 -71.786759374444316 -125.568946845474301
109.880573585752785 -72.714733464186097 -123.969346969546365
112.630381388431587 -72.241564949897324 -127.409099353371516
-58.481405119550999 -68.725703254642923 -129.281330024329918
39.367730314440635 -72.015221240102548 -127.200814677192227
-74.472664256986377 -70.747599641064369 -132.934608323073121
113.260240524347509 -72.505197941120841 -131.177151543143680
111.895974450022152 -71.130212699041181 -129.242442965286955
-55.325585206036116 -69.623139716918047 -132.234880322253360
38.878941981287170 -70.846079956639372 -133.105375121359657
29.684367789856584 -72.413206683325967 -133.525784826514723
-55.076168436762124 -72.236983380977975 -134.803954258868401
26.016540839131299 -71.216294049799828 -133.269917787424333
-49.990032614777689 -74.195823078067988 -135.142256560749587
34.522461112060221 -72.378573571445443 -134.802421350678230
111.616856630367138 -72.121044422281571 -136.665033647544647
-70.258222543979443 -71.382217229230278 -138.680610582609745
113.985940988816523 -70.413412088985453 -137.400516812387679
-49.954621530633702 -71.747225817074820 -137.387462016250907
-75.763764237797659 -69.336732874825159 -138.615058209460443
-58.777157332758804 -71.747193133835012 -136.740404012457759
27.538329061037512 -72.813039087516430 -137.648940411234435
-74.384370365146935 -69.079371141734214 -138.036010765429239
25.913544664925173 -72.937894251937990 -140.439689390668605
33.739645755590224 -74.502202804502275 -139.283917787129639
-46.107620466235453 -67.239903356837289 -141.153948455916577
113.744512819567916 -70.789644529440039 -138.555149932073874
117.319301846997888 -71.907008378095810 -138.060536073029681
-47.701837310377542 -71.078750168628389 -142.271734591967856
36.614623753164246 -74.163887379444347 -140.721119101855862
-75.491515562978009 -71.527402181026702 -144.265269489387919
-69.264398119198560 -70.872005548067861 -142.803535596041314
-47.102817579602934 -72.547303315699068 -143.328677855103962
-41.087601610418545 -70.658963002823057 -146.830005787867265
34.824998482336873 -74.581327012324039 -146.730425319114943
116.653916674058721 -72.907592950841291 -145.809766428085823
-69.494741253038370 -70.488118797829571 -145.587896747028793
-66.849904971826632 -68.921340436656692 -144.833136959673368
-72.281826467245011 -70.728302241098362 -151.383892416851580
-75.693351056875684 -71.080770821180352 -148.508629214041747
-53.864433433594535 -73.083907106628104 -148.377438885651429
14.259667963955573 -71.359446554349162 -147.823372713273187
