# This PCD file was generated using the MATLAB® pcwrite function
# from Computer Vision Toolbox®.
# .PCD v.7 - Point Cloud Data file format
VERSION .7
FIELDS x y z
SIZE 8 8 8
TYPE F F F
COUNT 1 1 1
WIDTH 788
HEIGHT 1
VIEWPOINT 0 0 0 1 0 0 0
POINTS 788
DATA ascii
84.515410482882714 -127.042332956335457 -284.561502867067986
32.226021567118714 -87.313253681735290 -286.346909566111037
13.322263819354781 -68.458530758303581 -288.711585206862935
137.051247508142978 -174.660761502289517 -279.341154896539251
23.495806196010811 -74.569302938636980 -287.376371689375389
6.334588760068250 -60.785979165805443 -291.186080729409070
2.042036750990839 -53.350942308998910 -287.245554576184304
54.883136992837130 -101.132111407249909 -285.942204215657455
36.149332230734252 -87.096515939894900 -291.727177398402432
-1.006544937203913 -57.986724087299031 -297.105184981954721
63.633646334877106 -112.978845333006930 -290.409340084710095
39.338172972717722 -93.903624013163380 -289.080653910374508
22.834702663144220 -78.944153620084222 -291.594180765882982
0.767148374507606 -54.356047349916977 -294.836269756318245
20.854660378137844 -72.091209323309897 -296.019388574143875
7.281155873216143 -64.133323427269957 -296.994663651134033
1.155489968729505 -55.073666859039498 -294.368328626364985
112.388874974616130 -154.308345680188950 -286.890960782014304
122.624917358502188 -158.345428570137955 -290.659880366672724
127.436475542091870 -163.692271477371577 -304.316375093847626
-51.609999064536382 -39.190777749584285 -21.442646235735005
-41.781946475474072 -47.257976233131160 -18.534685774203986
-48.148647135901086 -41.091707588105621 -22.795497273870481
-36.819132674842834 -54.804856924928316 -24.986368819539642
-53.079984265743050 -39.012979701113579 -30.308164159668507
-38.099876161630277 -51.462571125428184 -30.386879576706257
-35.044451118367007 -51.047714379313248 -33.606513890860128
-34.343749579540010 -49.928032258998044 -44.368958157350065
-45.490053673176675 -39.432951359742546 -37.975686761367768
-33.984643831338339 -46.972326894340995 -42.352350843622574
-49.567641470140586 -39.646499042000457 -45.314463289449449
-39.752580160798082 -45.566999133932626 -46.062876881668430
-44.819522815231444 -40.457874666467646 -43.071236062038039
-39.893472672769867 -47.202921776385637 -46.620919980424929
-48.798122055968932 -38.352863591358187 -48.752863054701244
-41.856496204242546 -45.136009449895681 -45.855087528948211
14.771912022446323 -94.633881274090413 -49.396548426745653
4.762438737990117 -89.967458464403080 -52.847855767622768
52.171366560173659 -125.990687461149662 -52.116722553933130
54.573762739720230 -123.972293856471836 -62.679943622249354
-70.509373703693214 -14.196922071826961 -76.488829017956220
-76.468617328103292 -12.053805694355461 -82.956746031015442
1.141964119466060 -80.958325901253502 -76.181097602058671
54.104853864354034 -124.019458907144426 -68.923195314380465
6.459513585913903 -83.599739344636404 -78.824859008200917
26.930587235289117 -98.218669378483426 -84.969881429838239
-63.364967905042668 -26.638631427462670 -95.418477106784280
-50.914460056403151 -33.170287819450394 -101.158477038039749
-86.995537264389966 -3.359172943835702 -102.996083313251106
-61.626441271359091 -20.402230127927879 -105.584814536482043
41.799091189140476 -110.028373305988168 -89.555597928494450
35.872354315711313 -108.550095293723160 -97.054304647822605
-43.602349664419876 -37.214671606443432 -104.581835911063450
-69.200744814098613 -17.442541538887085 -109.646596008452576
-45.930259348275818 -25.980428743296812 -112.402999645319326
-86.929379162079897 -1.168097932049463 -108.155693082405065
64.007210774202775 -127.408680868142298 -103.575627276064324
-38.600605114919176 -40.577219452117802 -117.380139721223301
-89.265947913093100 3.502011766164074 -120.523664163165236
-45.327993540069201 -35.257238814390234 -118.639901121287664
-84.889642933338749 -0.027237645774974 -121.081657065297691
56.464014699498144 -122.240308895259233 -112.433570013007625
-33.574935156739897 -41.010395950516525 -118.043420748608057
-89.367178281609739 1.755567551738778 -128.633980934537675
-88.973152287207171 -0.600776477123517 -127.591552103300401
-87.775802151348316 2.138368026257780 -126.760682715975193
-92.474996433858735 4.366346562841926 -126.701036249702241
-37.792439233378317 -39.477580428703021 -116.764708951920170
-33.715056338124199 -47.657976357239363 -123.536792150235030
-39.469273081069247 -40.375405866499705 -120.917803594838389
-87.445094378038306 3.673019239549348 -133.412896472775344
-38.696661015011642 -41.818120723637875 -129.989281423490922
-89.457074846344653 3.550644587785428 -144.055690618723588
-91.260162848358419 4.446901050092293 -143.123948728331186
-34.383469450535550 -46.505804648828928 -126.920602768936178
51.772538516984945 -117.512941633635563 -122.985368385741324
-93.911252871603963 5.431725474933899 -146.604531662643780
35.419313677831504 -102.007543779136043 -136.740569036740766
-32.463943339442537 -43.033060980433149 -140.888017723128740
49.633096742488881 -114.100844413401873 -133.232282316752901
-25.414413495211633 -47.600288530959901 -137.080261888007442
55.306097606984231 -118.058988710911990 -140.066039733819366
30.836383353500388 -93.968744192555846 -141.647254669639807
50.694356734340239 -114.284960671706372 -135.876249546760562
-89.753915581305719 4.213839144400580 -148.990254237653119
-95.175194790610803 8.035460814686147 -154.116226800664577
-92.253239536243754 12.283548205733624 -158.612387836263053
52.763435203160917 -117.688567321687785 -141.162317183960738
-12.839354373517310 -64.390621613729081 -155.040655012141514
35.234719637763725 -100.075652586650634 -148.674200431093993
35.125128934971663 -99.049682505275797 -154.623852711546959
-83.897135468724997 2.976011686796454 -173.129439877391349
27.963189011270295 -92.319566856292710 -149.273217302472489
-15.538774893881353 -59.191006190553345 -162.225430857809357
-19.491871039724714 -50.986023779705306 -162.514164373266254
-90.130591115405906 7.307938059692333 -176.747870912894768
-25.661760279563289 -47.741564516146795 -171.326440633611497
-1.495796724422597 -66.284705513899269 -166.599510192954000
-26.872419787801839 -45.423159511570617 -166.482995603489286
46.598693607799497 -111.994395544666972 -155.858935560794293
46.049685694956771 -109.732454042422447 -157.356697206415305
48.435969764810345 -112.479582003064607 -163.666530707121808
-92.185475876540778 5.270425988235914 -173.753752632255555
30.738690349510826 -95.556178703833027 -162.791971716756876
-16.120089704165856 -55.040304182535699 -170.116977034233912
45.324584103189686 -109.041207911596530 -167.982310274847862
44.385851615470592 -109.003731325968715 -169.846377968536530
28.419947065357043 -92.926098336453023 -160.272182254496158
24.237428268368184 -86.927454713084629 -169.093321849386683
-87.889205638554458 9.543768897730843 -183.189819466136356
23.776440782818518 -94.188340434584234 -180.389086935248912
-11.756025075141295 -57.009212980839656 -177.321929636782841
-82.934071391607674 7.220429287675515 -195.752512126268158
110.974647283651393 -161.375937454225834 -167.646338942342766
108.183656721825628 -161.731999556902281 -165.427686301609043
109.937270200816130 -164.659338165630004 -171.663624139500740
107.509005861490806 -158.272857570868211 -174.733093338868088
22.513534745329274 -88.370985377282807 -186.235211750919632
16.814099910015209 -81.623257774365328 -187.033551780004700
-20.015971074448615 -54.210638368785197 -196.203281833843107
105.765213219065629 -159.262132233033185 -178.894256840201848
111.084980622791221 -162.215026284969724 -180.185136303830291
13.841976357697241 -82.434614148040012 -188.088583739100017
-9.252572251063206 -59.228632388770400 -186.505986307952043
112.999941542291253 -163.835814022525938 -185.719214454723357
23.816575097579552 -86.686720187477022 -188.565439312152449
-76.147963736453775 -1.579210578376859 -199.152674807654876
-81.290709971386704 1.658028155619292 -201.158390422765478
-20.967046311954192 -54.210860723624606 -198.674308417016704
9.899260174304381 -75.294062204555800 -190.522953844841993
22.245433625809845 -83.269844481061853 -194.143007199740083
118.700821213747986 -166.918869206409113 -190.039729304615008
101.217527796155707 -152.242811669118623 -189.543554121940304
93.137377036181277 -150.079243231999470 -188.565630286449277
93.672011161775146 -149.007180741077718 -191.104802964734859
14.723903206824396 -84.361833104917451 -197.755083753845753
-8.374875053193357 -56.958548217657118 -196.367022306084152
-66.948755483029544 -3.795333248823809 -211.133063421333105
111.337677690971020 -167.008684675160282 -187.097560266761008
108.653871099176058 -162.874661849299713 -190.692970428319740
114.374248215055019 -165.288353856130584 -191.514289504613288
116.083661560077672 -169.169205028752714 -188.648425542685032
19.094326270890996 -83.147374886214877 -200.792422075538497
7.414784671104151 -74.754672577305939 -197.743451452029433
109.075761823760899 -164.795077655134747 -194.077926580542965
14.298546326211671 -79.267141774109106 -202.856864231029107
122.265198912062374 -172.256629378637058 -191.214361025908261
102.001614735471236 -154.280794361988740 -192.040642167291395
-9.292323370358801 -55.103181846782604 -211.162329154707777
120.946288901093112 -174.043699962783421 -194.833306844373226
112.650491110136215 -160.720455962166056 -198.065957029662968
-6.413060049256764 -62.734352214778106 -206.669092730612022
115.789732975599549 -168.887428476726825 -193.912692303024102
19.106150438828386 -83.118449334230007 -203.041642521227885
-72.546229220733693 -2.883638266795032 -209.925737430226462
122.269962529921173 -169.128105299052152 -203.113501355144138
127.664025162273106 -171.491695421311874 -197.721169701942586
58.347644093926540 -118.227947125639659 -205.535188729179424
-66.257993162881675 -9.121177624828135 -219.074386647308529
4.742038899491241 -70.069777114403109 -221.212244498743786
118.012129742653883 -168.144648516335792 -203.980101799799002
68.309150286767476 -123.667558338666183 -209.694933790802537
10.552595248271736 -70.829630984659275 -213.465574227361714
-9.132239620965194 -56.717772491226143 -224.161969982796904
112.664371234284630 -160.523023590288318 -211.748769782224485
8.048419703702287 -66.137262686516806 -223.372956806102110
17.865181799987035 -78.574540131202568 -219.701598445610330
11.903664970523984 -78.545697308282712 -222.563461177550067
-65.489818664760364 -7.973177180934584 -229.170592053645578
17.312563911175040 -81.155513274048246 -218.352001100273100
26.101904663337500 -87.781554109949738 -217.762208073546361
81.825981690827007 -139.907688694692780 -219.708429891786551
14.287875073299368 -78.399445435084971 -225.119507977065780
-68.408212708566694 -8.051260056619398 -229.380082067928868
-55.208314851349712 -15.678255272388043 -229.514448902982309
-1.961120262415506 -61.120472734529308 -222.875215678713801
10.448132148148140 -75.560964035264959 -227.723705401834422
-56.040152988265490 -15.104970320633285 -231.183518244864786
97.755088707435164 -144.001443063171422 -218.464674734095041
17.049628041109180 -81.155714550411574 -224.836999912367986
76.099587996151371 -130.449936471708469 -219.160735056927734
80.670281846503343 -133.395671993653821 -219.239110458145717
104.281971902176906 -150.909627918947962 -221.331188104628097
-58.202016359856600 -13.711924403621438 -233.048175584409819
96.927993462128910 -146.487890822930012 -220.696881985423005
-0.248856156037313 -64.064763715466341 -232.239021559933150
-58.990134813874384 -14.871629102266212 -233.951739873553464
16.422188597231219 -76.155085285768905 -232.300816930708919
14.261417158664592 -74.963695771255715 -229.394650158482989
8.388391665057931 -64.191203108997641 -232.485179772599594
-3.037170993585832 -58.623615492250522 -231.172676958905612
-62.889644830833760 -7.920119237122776 -236.413796275275359
-4.472067028729604 -61.298494105010668 -235.359114320683318
-0.603194902292842 -63.293816429477999 -232.977962847402296
11.127962224496194 -72.136780528884955 -233.580140260343143
9.485244461474259 -70.447861680240464 -232.628416598974781
-10.801015378548044 -55.383659754560206 -237.362522094739518
12.039976244542139 -76.607575869240435 -235.500522865844772
-48.441898482748968 -20.025158349014731 -248.315141192635139
10.714602566439730 -73.716332776273134 -241.262250481139404
-9.268828988783540 -53.531288595669338 -240.224091881559048
127.075131530668187 -173.698506568065085 -230.792863277404280
7.455275246238578 -71.872233549684069 -239.855840508681126
11.524290749620882 -71.345030025428940 -242.563196358941525
132.973439951517037 -175.410003265117069 -240.573736288033956
12.548210146758898 -74.890752408238257 -246.703607155516778
-7.910800867371300 -58.436193030923839 -249.926720464899432
118.819974643120503 -161.371067350794760 -243.068200326378530
60.929317611327527 -114.840912060912544 -247.694574963674881
52.705632263879160 -106.171411131942818 -245.140406294205803
-35.273474079451191 -34.211224016303248 -254.077073145037133
61.735273621671162 -115.615336021422365 -243.998783434383597
-6.423037123851167 -55.188679666975936 -253.802358018047244
61.509098402640142 -113.989579919196601 -248.529466673196708
16.091802484265166 -77.897214623717971 -247.873968932462532
117.806051502672801 -159.412789794253570 -244.096518895363459
-31.303777846137955 -38.763388003462666 -256.874873276073515
68.366524050622019 -117.190109240474413 -252.244888622467528
82.245188463638698 -135.748954114415938 -250.107265474556755
82.462722197992690 -130.197045187906980 -249.634667079390852
95.597661422835131 -146.180422564717787 -246.694831665505262
85.100889983510058 -137.407358028289337 -251.937282652813593
86.545278377126380 -135.835093576108989 -252.767654434682896
-10.975843429834057 -54.470918512965270 -263.361666562491507
103.768056126098372 -152.661185113320300 -257.972160235447518
19.712409188537855 -75.061781550075395 -277.279791253645556
119.505629782855550 -164.671371484266359 -274.664570542581828
138.212755263620068 -175.353894118175390 -274.935107233082988
104.613460937082294 -147.375621893731363 -277.021035526889818
94.244995527750234 -143.360043135185151 -280.864641724887861
64.137581335558195 -119.081325723436166 -281.656908997326695
53.757594606968119 -103.788616620046724 -284.919288845855988
40.836343621607575 -94.904902141112828 -285.649288564975166
23.757972232456829 -74.606566218227869 -291.177545864269518
19.408154075379521 -77.621550211988250 -293.591158690427278
40.492245617784896 -90.482335082127747 -289.820798683170096
36.015289198273329 -89.424517051384981 -288.880069778292352
22.614715612231642 -81.511163852359331 -290.270181468029591
64.244818422203053 -114.387006465480340 -290.189656206468555
51.952347945485933 -103.578113167971907 -289.525537108959782
21.632943011729544 -80.968499675041400 -293.129625940598032
21.656045123471877 -74.715629997702592 -291.322092475352406
12.870467259059204 -69.962027338452032 -294.929154346105634
6.620860571655932 -67.777029689725964 -295.411736652912396
80.320956978093932 -126.839184216150571 -288.458312525976169
117.503784971480400 -156.659170303990749 -286.624834270623239
99.088078889911174 -141.921415917851391 -286.175084646333687
126.139723854566540 -167.735482650356971 -285.651862200246683
126.605826675148222 -165.322465864539396 -290.214104459668704
121.269132376108359 -163.609205285362492 -291.303107755900555
-53.668853539488559 -40.366251176571126 -29.017174401191973
-31.716506761417072 -52.650828205749832 -28.980022450099760
-57.403474547911124 -37.479465800629129 -33.249499182349517
-52.236043366369046 -36.364161165375634 -42.771739257671690
-79.817802282067731 -10.799925897649899 -80.923339064797361
-84.288853176913292 -4.259799302633297 -85.133832313718969
-89.419854898259345 -2.129204637908330 -89.901600845532215
-86.054010368833247 -3.315712349280929 -94.931248882720595
-53.700503739491985 -30.032540329545952 -97.553309905975837
-42.444178230952303 -34.160288081320161 -98.165766053327204
-59.853486379303178 -27.260766312083291 -99.581349947980868
36.680145899834507 -111.856307976114664 -92.057923152843941
-65.493753922881808 -21.997064426906391 -97.197074458465067
-90.583174110982540 -6.649882725729498 -110.963738766180242
-66.082223529041968 -18.593302146043840 -110.622007894551700
-82.007556076515655 -7.085087222172007 -113.735751194995458
54.529813589248455 -121.917054486659993 -100.593442047727862
-45.283896867631924 -39.014681477322114 -105.497795947188905
56.136369861536956 -122.853372468304116 -99.237929176765007
-47.032738695466449 -33.311209592090620 -117.972169077439332
-35.259735339182825 -39.254024326401478 -109.979082641535328
-87.784664750964339 -1.898129815171075 -115.065682258098448
-37.960375791804253 -43.619899441942962 -112.634140102021163
-39.896960540222629 -39.137411430933440 -125.499776709733823
-41.395115488981993 -39.995373699948487 -120.128943281929267
-93.048473285932303 2.984521166569294 -124.780386541361622
55.920463875847027 -117.552639360545513 -118.634089419392240
-90.615040536903138 7.699539120523909 -136.201637695277356
-40.146545390770697 -44.187167659608093 -131.787534319533620
-39.285309081313912 -41.822080300449201 -127.147935575394328
-34.310054713736605 -44.590026550174983 -127.286127014618856
37.554788589767590 -100.817700595932749 -128.610761075563545
-31.205154987349459 -48.685758714197860 -129.573702689903513
51.153852396867130 -119.206025296676557 -135.529656846173111
37.048375107647438 -101.213659886913618 -131.732785694959915
52.201251615178982 -120.872385106675765 -132.475314231601544
-35.102324292798180 -45.907539649834746 -137.309421781932770
39.024757295012186 -105.615157955431783 -132.550276148155376
-33.781225499119891 -45.355669491611209 -139.820673767410227
47.176903701121667 -115.810200567527005 -137.771601991234917
37.334134145100684 -107.941181475045909 -139.927358108915939
-24.722597881162656 -50.424294391100275 -148.203325535778163
-87.913787339738093 6.344210875099847 -155.212902605614858
-95.937877966141116 4.363764140964790 -150.057954111831606
-29.089258856030810 -47.689979017587063 -147.528910243685772
31.259055304709527 -98.027807995685208 -140.008938041762008
-86.792329765266317 0.203591687824499 -164.283798000516612
51.322826814705344 -116.926932575004727 -140.819305138652254
38.558686850826568 -105.781665873420863 -141.371464036135507
-31.577186681151041 -50.035253572837945 -153.775269757850111
54.066397619627061 -117.153442383904377 -143.648222928420608
48.413461457137352 -113.681656827406670 -148.351633708257481
-89.607238281999656 9.666917270137304 -161.905155248102346
44.048338572513238 -110.218843414561917 -153.686865292893231
23.352939432531009 -95.258379842221814 -152.940654094024296
-25.787993716286699 -52.154999825176034 -151.714551415681683
50.222164751648513 -114.995843918268406 -143.930934767032483
-14.637081242185467 -60.002924868255000 -154.375232593607734
-28.672060552140529 -47.458415233148656 -163.036563761612939
-29.791199480937095 -49.271804264228507 -156.416521093598448
-13.333942203515505 -54.663543138795276 -158.636598334428584
34.032945257575740 -99.103890497476755 -152.851913940421980
-22.517635820439814 -50.673296540504580 -158.606537764233423
29.439394660902330 -98.432176405138762 -150.246981271040397
-7.965516012613350 -64.527588643688617 -158.011026428839386
-20.924769187637303 -55.049101607080644 -155.240136848508826
47.513764125585773 -113.030992795056932 -155.653854863801627
28.985825094163481 -100.184314513753080 -154.257164611566793
46.685356108353822 -112.469908273957955 -152.074410809692750
-18.494004909422493 -56.857298843265326 -163.553350070998249
-23.772540114984800 -52.657205501946393 -155.671030045496479
-5.307582446416959 -66.137169454485814 -168.265978651519362
-20.811438398204807 -54.070552757597476 -158.867221063251179
-26.569054976164580 -48.046418116258963 -173.128133131436471
33.066146299222517 -97.589684680543172 -162.988391884918030
28.139828052490152 -87.201215262941560 -163.490683404105340
27.583347075260683 -93.800442002458809 -161.155415758484196
-24.864323094047705 -49.508089916367837 -164.427696753176264
29.287927991726185 -97.835726968088167 -166.973668806271348
25.967404620132690 -94.773469243859694 -166.908979316991605
-20.235232695555950 -54.936549130364668 -171.065208110639531
28.216219406405507 -93.358736822991403 -175.533718329699781
-26.088426113934027 -52.273271045733239 -176.038824380364815
-89.757452601827538 2.408475654500009 -177.422438882414980
22.700993632408590 -89.717626098261761 -172.899480492808181
-81.638004046107113 -2.829338278131132 -184.963261373041604
23.877592734189697 -90.630176795401610 -178.203664578799334
28.520128951511246 -90.034698324315229 -181.733439918556030
-16.318722427285863 -52.077681028069293 -181.959302286178598
-81.355170770796775 1.119891477459888 -193.734414369876873
21.391343882172727 -89.504006775991229 -183.979313300542856
24.247470284370117 -91.156218588207054 -178.251909820703702
18.675059207466028 -80.418833990509825 -188.194612401241585
112.302824787811630 -164.241169220712891 -180.576168610859213
-11.355232150577734 -59.690665794406293 -187.835473843653944
-80.870570079129749 -0.738883736112072 -202.841891560982390
119.626442905971089 -171.412831690794519 -183.991896192872247
14.733931832763510 -85.060447946590983 -191.329778045639671
88.577220144185247 -141.771356742764368 -191.519456909970472
99.720093697779902 -151.790490918691745 -188.587531714699651
82.261753119883338 -137.571842249934889 -194.645156289877576
85.837261130357518 -142.299649671156146 -194.707672334052660
9.782884697128161 -75.318968269991274 -198.708916040280371
-16.034283796148884 -55.736324578777378 -201.143801398675322
10.176783349084850 -80.896893599425027 -204.229780927897878
96.799885311927142 -150.168259346501401 -198.931341240872428
14.102073724947424 -84.167248927517221 -204.954170421695835
97.788176923665816 -152.742403579703392 -196.185415260270076
12.080923230192830 -77.837583220106040 -202.393131703171235
110.402457312931972 -163.624684305720280 -194.766131898824284
-70.856244736385705 -11.093916985884988 -217.249565803962213
121.944146841052486 -178.283963988729653 -192.239586156162460
5.278212406647704 -68.474700598051626 -220.788535164762862
-6.626400230471162 -59.614047933408692 -214.015221586788584
-4.415156454582707 -59.628813018681662 -220.952356471816273
-60.553841165987478 -14.292536206521532 -226.466931730332334
-4.181313084997370 -61.649466152893481 -216.955375639938211
-8.309594751869653 -60.390847251776258 -219.094258370071913
15.960327101115233 -75.774237605030066 -217.717979704812649
70.458857009436599 -126.371799438413348 -210.621283067008164
76.203533951634853 -131.462936985348051 -212.173266363306425
1.580630540195095 -68.695658375564250 -222.472696505157586
129.668301694773902 -174.605953143084065 -212.036779354452847
-10.447195960020551 -59.603016469532243 -224.213058503067117
111.477732147896234 -162.306899293504074 -213.211412925200619
-6.766010532655343 -59.258348287210360 -229.184184605471842
105.569596487926276 -154.312659577572958 -217.449904258464414
91.398454623615578 -142.445890227447421 -221.258637631048941
-10.756996740384963 -57.604943832517016 -225.513281067013395
-56.843500751710728 -17.001326024719063 -230.767900353608184
-2.428746266584412 -63.542990918179456 -227.250818691147202
86.142124304474862 -139.773215945094677 -225.547341776618538
-51.043782715876659 -20.242287001903833 -236.639542692604294
-59.581401166655766 -12.555077161065611 -239.216087892684612
98.484249903897023 -149.351744650067957 -228.469361704335199
91.967183582902237 -143.877923703153812 -224.483875901495907
8.711296496930096 -76.796086759841870 -230.476317404189786
-50.516354320982046 -20.629599483689987 -240.199278197511347
-44.848108730018822 -25.473454110551629 -241.430562104890953
-52.465974806664882 -20.695221022708409 -238.497111063345585
104.021592702089663 -158.199052687415872 -226.906729177528746
-48.793193285565302 -21.510076850634647 -240.994425596808696
-47.541511764543458 -26.562723543058695 -243.861580087960192
128.219070543738496 -176.826453626258029 -220.821169099329467
7.474688939146539 -62.162925346337460 -243.800817498949726
-9.510601064788297 -54.381752053250452 -244.109375099268590
7.392586941540152 -73.728902169021978 -243.567809720267661
-10.714242296859005 -61.330975871198454 -244.052792409964098
-45.290817003969281 -24.166822908502112 -246.458271534301844
-3.140542474399865 -63.447640474579110 -247.381537423309084
8.968638166795380 -79.458636890263449 -243.534863894553609
2.543598952818805 -70.603824150487441 -240.843825455418056
-44.073717086741638 -25.229473423762968 -250.662303729919074
2.688580087330500 -65.509966175058707 -245.953371621173972
10.498608682516540 -71.864910731510065 -245.721023076606855
-4.581922315301000 -56.829438535513326 -247.035706586255060
132.254085208864950 -175.432038400580552 -231.054751880216315
-37.022646681193770 -31.264687069233801 -254.783776115742569
-35.785835656805659 -39.610982275216955 -258.274555290135595
-38.872666142860844 -29.555839084346005 -250.505645896142454
13.343499324619778 -77.070710919596820 -250.232414889922666
-38.388420763697596 -30.893948888160395 -253.350158851977824
61.015425466510102 -116.251256435034648 -247.242163144611794
-32.855229923977944 -34.619280638813748 -255.761214888726613
72.708514063873793 -125.689016468653364 -248.667029001908475
100.031023473432526 -147.110780397261038 -250.022127659998915
105.870904367294912 -153.932971011889151 -245.663168045032677
-28.258659933071705 -36.777733596087330 -258.508952324253414
107.650508801439258 -152.120478742688249 -245.722150658797972
87.435633072394523 -140.174360253456229 -249.746011493950363
92.583497888317453 -144.998526527475235 -251.588701474698354
69.534924908403980 -122.007193922569641 -251.187177572834401
89.255748586861841 -141.301771506858159 -253.628208341814229
102.643607206237135 -146.083488860108787 -255.528166996721666
116.485073268799738 -164.974513425046155 -259.313084335059671
17.775203032356309 -78.890234631803978 -267.574907990462236
137.803543677105353 -177.722908373475036 -253.927275364231292
18.573750848830635 -77.854913246475235 -275.693580969670620
125.440828904109111 -173.639400678077635 -258.050475191328587
123.507072851761706 -166.966938328907332 -264.428586192149965
136.784626910707090 -178.383077508776239 -267.165195677269367
19.276555180156983 -77.182078137703485 -281.209345738053571
108.827594712863117 -150.804554172635477 -275.730743123838920
128.552920230071834 -170.852490714008241 -276.761730949503828
116.926735915864612 -162.218487783725664 -272.683312109682618
112.409294665988966 -153.496970354624864 -272.686077922494746
11.571002355180561 -77.623040135291774 -287.169436840189405
106.308612626617276 -147.161767621595203 -276.254796156927682
114.508498259572008 -161.141727403522850 -277.602621869942254
98.511386314325932 -141.025087515960280 -279.381555184491276
67.919101370182403 -120.761494074170230 -284.897835593674131
55.600252264996520 -106.981688689999075 -285.186858392243096
15.262367635329817 -71.873402156260624 -290.166850799152087
49.161259986625076 -103.960619232466868 -284.505575277933985
51.232560872207152 -106.946830642527573 -287.217602346742694
61.748829444205832 -115.094697292049375 -287.825857863000408
75.976224714359574 -125.955458731156142 -289.824174717835774
79.916786412649685 -131.483810112361851 -284.593911051806799
130.435524771592327 -172.868560530689933 -281.830144653317859
132.401248242370798 -171.997362557252330 -283.883430999072630
106.013166087225926 -146.930819549334871 -286.799560194336664
119.633575973689801 -161.885486366283430 -286.489211293301935
128.227080250551609 -165.790402792924311 -294.386043940622130
127.200225612251842 -164.068785754003471 -302.948322780151045
-56.438887826175630 -38.095417908875035 -22.933078372039780
-29.284223355446997 -55.994651090357038 -35.325341580760657
-51.057050282532778 -43.432336203909870 -42.504163643419055
-0.163649028154929 -75.852080311980444 -69.072157037907616
-77.092037902698621 -16.462378406263952 -75.845571405477784
-83.581140108750901 -13.624991488662658 -77.368681804429897
-71.008324214600222 -15.330485217798014 -75.555227258402965
-67.891616074255751 -20.088580356017772 -79.006935252441252
-80.565397170005625 -7.270961876741808 -86.068543215178494
57.305507726511628 -132.872829655774865 -66.994376254922742
-63.926159673140866 -23.752116414513438 -84.798105244897656
15.577254552346623 -91.117535944966235 -78.491584663997003
-86.869064392945418 -4.163408961560293 -97.718080896398405
-59.656827045331411 -30.359330323175783 -99.428578789028094
-89.425044279672704 4.491641051333346 -105.799757599913946
-85.328107208712694 0.143760163367190 -110.161777039169692
-65.269850327732939 -21.554363698463405 -110.316971805489629
49.687402548848318 -121.171213010238958 -99.211882900405314
-51.251523120701492 -33.165890153014544 -112.464300699562969
-92.650884740228690 -0.893071523791278 -118.587586016831125
-44.436575104081342 -37.381853477496165 -119.960283128444644
-71.155647858923004 -17.415898981768891 -115.726551420226272
-41.493945686621799 -41.686964415860302 -114.675689933303076
-89.370125118714157 -1.107046246322625 -115.432325210795071
-46.075690226331972 -38.011911475723906 -115.494300535658184
-87.707965222021556 4.648232926446397 -121.965561344637223
-90.952090451515900 5.098853873375020 -123.733678142878830
49.896508889198735 -121.388295084558578 -111.896976307463532
53.235826314529426 -123.545809871710986 -116.770540336915630
-39.829465265781231 -37.779591039302943 -127.165279498226496
-93.552915549389411 6.416510384154336 -134.027975408648729
-94.423379071163197 4.917442114187807 -136.418381504295240
57.804189495816424 -125.734253656540531 -123.944297212970071
-87.022018115999089 1.493094885450105 -137.843148081265610
40.396823332682480 -103.847742097439038 -130.605719036748042
57.789124169056173 -124.139808673228046 -124.263144854581654
47.352362749411590 -115.424361383993926 -125.203081943196878
34.696414432741598 -109.738969194555011 -126.140837662028886
-31.604787617485890 -48.324956512927969 -136.478239521469277
-40.067010916710544 -42.291845173900782 -141.917782661896581
48.435651983016307 -116.226664787063214 -134.599790977051498
-30.340645744916905 -51.390825904175912 -137.119610231862737
-90.777203465762639 3.741679774897037 -155.456518707561514
24.883516522658120 -94.606545828502661 -148.785653216737160
-28.037957048546616 -48.311600893753436 -154.872766181591800
-92.994738877672219 3.949806325244950 -160.497815045211411
-32.754613206416280 -45.156614477392893 -149.226410912945738
-90.781173712922111 1.983353006395276 -153.340749652790805
34.322273423780551 -102.346185006852181 -148.913914985442943
47.072970833034283 -116.702946249020385 -149.178864231752812
36.901469063781029 -103.976278212102216 -151.821043087884533
30.147886731747171 -93.359585933088852 -164.999734782093356
-7.585575441432830 -64.630327784426996 -159.783600265882995
-88.190251074746584 2.660434035376042 -165.825179378441732
-87.127025884824405 1.837196013778041 -171.855491890339692
-12.686058320076214 -62.605084931660471 -161.900753753400039
-6.771662566978122 -66.489038054649512 -165.167158459087375
-19.956300033349699 -56.753021672363253 -160.452499784575821
-25.153620227921785 -53.026966155853955 -161.403293533447481
-86.535967005366103 1.435096415688747 -177.825870463530521
-84.732611373536415 4.600173969155264 -179.740125464017410
-22.773931484123864 -55.160242073624012 -179.981450798227343
-21.685748667137908 -50.952395175922661 -169.243833638600790
-90.508083332691314 2.575510436855708 -174.579203075857237
18.637431449850077 -88.427478305438513 -178.473088474774784
-87.035322080973302 2.866193312611074 -180.017918719827719
-16.644829005244709 -56.961056078561178 -172.515257656707462
-20.125885520201209 -54.770944976967925 -173.003009301861681
-85.277284961599605 1.744545619859892 -184.956190446577295
-24.205487194156973 -52.018054505224441 -176.094105672197259
-87.569165513563334 3.504319148981551 -196.103298308968760
25.940131717351910 -94.005786926983248 -178.236523903030530
-22.613326291411461 -52.733671909737467 -176.658134361205299
-83.581125851497404 0.791566572596878 -195.839401748837048
-19.455180598808816 -53.010048705640642 -183.828120124816650
112.362105700303374 -168.227859204584462 -178.049314914018112
18.009714060885720 -89.259733107674450 -190.747477423323033
-21.886820314739893 -54.362081597207499 -190.448726035061071
85.850283818255917 -141.413185399936765 -186.232048865474667
81.159843940965089 -142.410032227067830 -186.168749132454735
-19.251932723904893 -52.943541804466150 -193.826521079014526
-11.973486360383205 -62.601435337192264 -189.544095939617023
17.329863001872319 -88.123632536671565 -191.710710564538886
23.356129483342123 -85.114126788236348 -190.070011456495706
19.708734009298006 -86.660641910741049 -188.414374325251032
-14.948111738506718 -60.660763440014861 -184.781855781152728
113.326508331725648 -166.576590480379167 -186.596451599688663
108.731482135548958 -163.247592899475904 -184.834409572524237
110.618652881341433 -160.199474453932339 -190.146294744635753
15.453755881561470 -84.348330282704467 -193.082644431066910
-12.195951483444190 -61.593805957129042 -204.189261087036641
-76.535079769137553 -5.362379490904189 -204.653957435757178
84.829708586931503 -143.356156068225999 -192.856090529493400
-14.646878200868848 -52.579512999920226 -203.235427139141848
10.041193910759880 -79.526314075745063 -197.840133575981923
12.446035355333358 -80.776332507139017 -200.780042863368436
-77.712878537802254 -4.260000311669486 -211.006290441696166
-5.337205803570001 -62.270958403511621 -203.196891726177796
14.748349309581450 -84.340184288646228 -198.293020275681585
93.660687451278335 -145.260352617603360 -196.709252097734918
101.622278412310948 -155.686197785984291 -196.086988526255709
83.676513366461819 -146.081329595720320 -199.610187167035519
109.356643302308782 -158.890964836185049 -195.374869161154891
-14.184427006949889 -57.757386510499025 -202.588885988102362
-70.537993677600383 -7.100283736486148 -212.602565877860997
122.545394155098506 -179.734252120270185 -192.064087527264348
-76.205287592044883 -4.293718122048247 -213.529127214581905
18.855542352639141 -80.147082425699509 -207.504736651788875
-72.332387205362423 -9.073709120107864 -221.544960718215833
-65.084462104770651 -10.710893348807232 -221.777179801677107
-7.965294019074499 -59.715233277225721 -210.229683327936698
-14.569520051257832 -56.477836682783582 -216.978992323723304
-11.168609726937937 -62.652439663531808 -212.458158524832982
10.290940829537256 -75.659005222098017 -224.856109702424703
74.202260629462188 -128.618176701479371 -214.361933562211561
10.012321955297189 -74.083153923900198 -214.714728157600575
-66.093850831455697 -10.969187895218283 -226.716075156014369
73.572725712127408 -127.891797248544918 -213.500442113275511
76.899595549968012 -136.121562174887799 -216.707755682367093
73.490537904197168 -129.607177917589070 -215.342559450709103
-64.008725434088078 -10.474894781842906 -232.200031585098969
104.873654715294776 -156.253158526160689 -217.760872805415744
105.084440571199480 -151.802008177301389 -219.310242696672418
90.388767073521933 -144.568510232978923 -218.936411552264246
85.938336353051653 -144.161446527983770 -217.759643349540539
102.442184248655650 -156.377264687543260 -220.075454752279938
91.193753762832756 -136.301830783554436 -221.556567146322323
87.337832139196138 -141.708980840402347 -222.512108892869151
9.342989774009219 -70.883484952449592 -227.229081290214566
15.451821223770246 -77.491621021996906 -225.112462277424669
2.200865645156092 -70.945943848752393 -233.818839456587710
8.255397445304006 -77.546843878572417 -229.721054712003621
-8.150461418249719 -58.297129348357885 -237.994434112996629
15.795279210961375 -82.316137563455726 -231.079631552146964
127.205193706365606 -178.205105705978042 -212.540634059924400
6.126218547244342 -71.511101885370437 -236.455191937773094
-60.181309806637067 -18.539820893910843 -241.106354136399943
-4.127449628375707 -60.384506637536894 -237.717748725396490
7.176230556057838 -73.189471040726815 -237.666331569048765
120.716257025601067 -172.215512002144948 -227.522028405903768
109.552508503785788 -162.160488216178180 -222.560845270102988
-44.914086531265120 -29.186996260748487 -244.240723224423988
7.979129283746154 -71.789415823221631 -236.920151911211008
-3.003164822172351 -61.252351972964370 -234.656831091573679
-48.483815770754553 -22.158694970080717 -238.968662331201529
-54.894100364877772 -18.610942177668235 -243.689426234799015
-49.216308846538112 -21.903628306376490 -250.201007865807753
6.236819996321920 -67.736041068880439 -238.689526687922069
-41.497993042661562 -32.420310460095934 -245.960248107707059
19.705679211347991 -79.233355762938061 -241.332269191423137
13.859431607199348 -80.451487461344641 -242.604607963667917
-2.644612240829289 -63.557087649192447 -243.296916623731875
-43.538252458733517 -24.419200311092609 -246.115862190843558
-46.701068030283139 -27.485420275315434 -249.222870506718436
-33.078305394925465 -36.476345896052294 -253.292189558008602
-40.317456788709578 -26.837842611455656 -250.642337560673923
19.294466642903394 -75.552359750454585 -251.358506199612663
66.845796273055640 -124.975029296320002 -250.910059508664119
61.973498883264405 -120.166558862857343 -250.174924720844984
-27.219436966337469 -38.015289224767528 -254.344430718830893
118.460951527105493 -164.670874038750412 -241.968609989096137
-21.863450551718515 -45.464759191982111 -262.274578779030264
76.857952797259941 -125.885357051798096 -247.573822969943905
121.204405075413263 -172.922360461018172 -245.727702123281233
107.469864997465066 -164.413048438645092 -245.777292670154395
-29.185064364499901 -39.647118435623014 -260.313078478001671
97.772609172403776 -152.754723217072012 -251.374526701994057
93.964327828435870 -144.429114842056038 -249.240743367234217
72.913793126182497 -131.695290086368203 -253.186320678237024
13.146398172377637 -80.091842015556722 -252.725273955208280
-18.829474168638875 -48.379195866963940 -262.935559792270340
-14.778038016610665 -54.563211318519777 -264.778967694391667
123.391106755476187 -175.217929618445879 -251.137505066785735
94.614834814811928 -141.273617792392145 -256.535324244481444
16.320919667920130 -78.110010153095800 -264.016272953344412
106.736455346845332 -155.134468092908719 -257.983465793031144
16.761594040267461 -78.956699758730878 -272.372736105108800
131.419017733892048 -176.396365338121569 -262.568335446058597
13.934915294418410 -72.912244916457155 -281.891989542005660
130.655198014565883 -173.020165770037352 -278.012030252674947
132.849677186510434 -173.804308938228672 -267.817077393144416
116.494230122631421 -161.249400130851541 -276.891824907543082
138.412282825260320 -177.826863025905226 -274.039169299130378
-0.530743533487602 -58.156380628570801 -291.960583266991932
87.285398741473131 -135.079122268357850 -281.306097646365743
71.901232854058350 -128.546888370306874 -282.369231554395071
133.594309463684056 -179.830839414353051 -274.461453479176498
80.400134691516030 -125.723494571851205 -279.475133764870236
125.406834287188161 -168.291205112237463 -279.244911219127800
67.005593395807523 -117.213070025108962 -290.550886547252787
61.822786959730415 -115.267577431673772 -286.167392583004869
72.180855463819313 -121.715320646226587 -287.693762404282438
9.969567332002349 -73.293079712880825 -291.830638863075080
75.390861946201198 -126.072419011283714 -284.665801309415770
84.856545550285148 -132.112725767287088 -285.977275102887745
97.733327157573797 -144.378295665818086 -286.369067386530389
95.783241384660784 -146.579491417889528 -286.709506605033368
110.343228128699110 -156.450829391545540 -284.580592455820465
118.323283951186340 -161.418790321199879 -292.388295091565169
121.330044621466129 -161.422429474737442 -303.079534290523782
-39.205228121664604 -54.804802328916068 -21.630993676423174
-44.690031345738880 -48.414324609485675 -23.467110608787394
-40.555079943139930 -48.333873882933659 -24.898107232956072
-54.040633000975085 -41.709289923108230 -28.635230117427497
-37.143479199674033 -52.812787715733194 -38.007393844806302
38.879311813689363 -118.894334626768767 -45.517891341892806
-85.394618508092677 -14.001121477808596 -77.066036619763693
-2.438097829901572 -81.831409963482770 -70.439436712799193
-92.442343188230637 -3.256965431244510 -85.217542800305139
-83.353906013323538 -4.488328879503968 -86.997382748502204
-64.464002505202160 -23.532248588056632 -87.919112421770464
-64.172452086442476 -21.002493443502729 -92.033584110569223
22.801397598709947 -95.577813287466327 -82.771293576126510
-57.269215273832422 -26.855042399907944 -91.090092601209506
59.230488244011561 -130.033490490134227 -84.870995252452474
23.028129586464949 -102.667020567583577 -85.570439510556881
34.005570905473711 -100.287857919316892 -86.750592389831368
-84.526128097392970 0.536116984445030 -109.180809890115768
-54.893469146437802 -28.276414859865099 -100.752894091751472
-62.513422371181392 -26.835388222680706 -100.290158853023243
57.453885930797547 -135.194302231996744 -93.698709577304612
-92.713224952274757 2.003221705634715 -105.515621918852617
-45.574781903340437 -41.414101497912228 -106.493019434519482
-88.397698040978725 -3.457418570356211 -110.116562532796976
-92.775952526207433 -1.360914051412934 -118.492356113267292
-87.251022686963665 -3.102086807012967 -116.455469873274524
-65.693054794235564 -19.455133412839558 -110.357485806777461
-75.361938102960380 -10.864489329137598 -117.229480782537919
-48.102281575785284 -36.772858752108419 -119.066816951988613
-96.022060553817184 1.099824132882006 -116.417122373084027
-44.040887891960836 -37.139144721841461 -112.839350917906884
-42.991736107253232 -44.135333041304733 -108.851392485701112
-95.303166934735813 4.384763508839015 -123.134620704542726
47.374677677512388 -122.141850436840613 -107.533475221256637
-45.368639089796652 -39.781004901494214 -120.456071551115443
-34.804907415400336 -45.072989896690487 -121.551505786558977
-91.522775655764150 -2.361004826751824 -122.476423329479516
-41.723319230022582 -45.630689091818070 -118.699872124904331
56.312153415372514 -126.672220568042007 -109.816500924490342
60.589441460439467 -133.429808091113330 -111.312744457938990
-86.063064216461285 0.802691056003439 -130.988214195093889
63.064969582099145 -129.752888620532332 -114.894983441923927
-37.319084217172161 -42.298010202014140 -128.050475659180933
-37.349260589089980 -45.361042562961771 -127.543911956557324
53.949919815414226 -123.674693780974621 -121.449929496716308
-33.411415550252300 -49.457042331499352 -141.126876812144531
-91.130175649534351 3.850968302122240 -143.668576219200446
31.923393290337977 -103.633673687938185 -135.645643833893899
57.828277505537706 -127.436084495673981 -128.502770626590319
-34.731341376794305 -42.087257687073091 -138.206478850983331
56.944413388736116 -130.305037658080295 -132.854512456084109
61.192115594339036 -125.450330415112049 -136.160706752284455
30.672755082587280 -100.612383854767700 -136.525282837061752
45.035737414293472 -116.664637620943211 -137.754014466616553
29.738858794591373 -102.900644966444560 -133.263174350037161
-96.468484794811644 3.822442437682525 -150.595943317962252
48.616884924862156 -115.768196068252877 -134.642725036200488
-35.569891950717320 -45.213392509702643 -137.932081821733618
51.484201587618806 -121.213223514450632 -137.697495580312278
47.467352274160710 -117.151387746871237 -133.712132262732553
60.472407707987450 -130.177618449510334 -136.756014483442925
32.767382864594360 -105.865882843576713 -146.599714677791894
-32.926911070879370 -51.688771780878767 -152.230542722494221
-28.241541803123120 -52.651961443151222 -155.496059920290122
-24.276483698832834 -60.258631389745496 -149.872078329080011
-92.353598744078511 3.611707705660592 -158.963018678140543
63.636282723082196 -131.213875806099963 -148.834846633454219
-14.935689887944420 -59.696986311469288 -156.991258644255282
48.000091417741253 -116.496490558922645 -151.312434805243726
-24.690839862242960 -54.739838300230133 -155.374182060720756
30.698371787121921 -102.060212154380281 -155.243882565525183
-14.099295411262624 -64.101375281101554 -157.764753657781597
-15.406687280377604 -57.736229148553747 -163.076933364802414
-15.699738979372547 -54.607959602486538 -168.631114462452587
33.115753494373841 -99.692222649229691 -162.161606097099195
23.122274705444063 -95.542196194443676 -155.460769777256672
30.025694851804310 -99.243663416729021 -160.961520398886762
74.554549173217680 -136.399119959480203 -167.250319823949269
-19.674633651319290 -54.458020745344591 -179.263865955024841
22.400529169079896 -92.172458407805095 -176.775429571065132
-12.819906168299482 -56.605430602358751 -182.827881569167261
104.826675984615605 -162.751511768933028 -167.897471019806630
18.451494242476350 -92.552375805704017 -174.031127225368351
116.496836208251352 -166.791925285253853 -168.758879966785003
-23.475435829563324 -57.302486823404323 -187.482864293138107
21.331639917550611 -90.055347780548018 -172.381684513353520
76.794291075337185 -140.630350233090269 -172.802020209693268
80.609256287611913 -135.994622044528398 -178.272726543453274
17.155903552554655 -92.164070559879434 -186.642900207096659
17.205984744460899 -81.845636758265329 -183.165043520099488
-13.528222753889125 -61.066478452633831 -193.951706317971855
-15.884235428532982 -60.206633428186827 -202.185977655192318
-13.150306770088775 -60.515204804491276 -191.580146584076886
104.808433754037367 -163.041768081154714 -179.700657757513056
-20.751904580398502 -57.965269616770875 -195.381880337056799
-7.401162868795133 -64.668623951182184 -200.819129505029764
100.878873548922144 -159.645091052336795 -187.116307822861017
84.488513933300027 -144.017725330206190 -189.827515840469317
-13.419683392791413 -60.995765944081874 -205.925222236446103
85.687872724908772 -145.888284886454954 -191.086697407257134
76.439635519314265 -142.990779922121078 -187.414866507179909
124.570107780867460 -175.919130718313397 -190.333253000858463
16.461264950107470 -86.042413809647158 -201.611239564803299
-11.946494066081229 -62.210040098414716 -204.827375556110781
107.409346534220589 -162.194627022874812 -196.019484281126040
103.230967102939161 -156.323923627265515 -198.877359265384598
13.625972463147612 -83.805461426791624 -209.232440393316551
8.871863552430462 -76.433678881504520 -206.968704401106862
10.892273115076030 -78.650855694773924 -208.165624156247333
107.707573840486958 -158.558462202572002 -196.482265553440499
12.756678338573316 -80.011331629954498 -214.972998652195940
10.414165746073103 -73.600117026518404 -216.608036247739335
-15.008093147398050 -59.979041091152752 -215.976842645190629
13.246416551469046 -76.676930905766042 -213.503542359812315
-8.015767260839723 -62.497841693265933 -214.288487403778049
8.747637476961735 -75.586325448327131 -218.109100546593282
14.222851093794439 -85.040957797002932 -213.895581125225192
-5.923501080610812 -57.997941496247464 -225.082599799100933
5.003150938272945 -66.922186593424414 -222.715529221699484
-9.704692885600295 -64.740540519734452 -225.677664991581310
7.326936516698119 -71.931507261684743 -229.622034649023135
121.825317933835095 -172.156916936387518 -216.039934778405353
-58.910153314817677 -15.308821757292094 -229.759293682992961
102.358609402202148 -158.717501113505392 -217.138618825169772
104.284170918872405 -155.942223648525669 -215.718048259394862
8.156548639686100 -74.391994610367249 -227.884004692356768
-4.351833775462602 -64.046876397068729 -237.844131067299287
120.231934245374219 -171.630668050779150 -220.492947361365680
-66.635514054079749 -13.288958413563421 -230.475600234473831
2.278045375756328 -71.744170416591160 -229.020907539421870
1.060767156368676 -68.549646093436451 -226.368330190825787
-52.572723278969178 -19.458779530005344 -238.409887738455211
0.481292113496288 -70.691395354332485 -238.384168131461621
13.862008163920869 -77.618464191054500 -229.223133476348778
