86.015243530273 -67.501655578613 -59.473033905029 3.391349554062
84.835060119629 -67.171409606934 -66.145324707031 2.358301401138
-92.897850036621 -63.901359558105 -63.388698577881 2.717139720917
-12.962473869324 -65.684402465820 -61.298793792725 2.200309753418
-86.059394836426 -71.530456542969 -66.629013061523 2.668864011765
98.188568115234 -66.087852478027 -69.493530273438 1.389744758606
-15.507531166077 -64.695877075195 -66.923309326172 1.383607268333
69.786315917969 -69.780578613281 -77.632797241211 2.102987766266
-38.415634155273 -70.071533203125 -76.580230712891 0.687421083450
-28.586889266968 -72.091873168945 -80.245910644531 2.417860507965
56.808948516846 -64.220794677734 -86.857086181641 1.564687728882
-46.175746917725 -77.955329895020 -87.935317993164 2.223942279816
62.966396331787 -63.164707183838 -80.441238403320 0.865379869938
54.521202087402 -66.577728271484 -84.887222290039 1.514908671379
50.333072662354 -71.759078979492 -92.136474609375 1.476595044136
66.541191101074 -66.304229736328 -92.367721557617 0.626188278198
59.359088897705 -66.991569519043 -99.140457153320 2.221169471741
104.597564697266 -63.563732147217 -95.385467529297 2.363015890121
104.709129333496 -71.220268249512 -95.612319946289 0.953317761421
58.949180603027 -72.078002929688 -98.017532348633 1.299029707909
109.815231323242 -65.928848266602 -100.070999145508 2.809867620468
-70.771118164063 -74.743347167969 -99.926589965820 1.506271839142
-70.646232604980 -70.643684387207 -102.892761230469 2.275270223618
105.730819702148 -72.021263122559 -96.959152221680 0.938707530499
55.243297576904 -66.176742553711 -101.796951293945 2.464273214340
72.422393798828 -70.125595092773 -102.059478759766 1.523338437080
-67.601516723633 -59.921302795410 -100.222793579102 1.657301425934
-79.326972961426 -65.101440429688 -106.193145751953 1.689183115959
95.854850769043 -66.204864501953 -111.081542968750 4.939597606659
44.026824951172 -67.770553588867 -103.473876953125 2.550045490265
102.328773498535 -67.683914184570 -101.943359375000 2.618666648865
44.483871459961 -66.024757385254 -110.602676391602 2.270932197571
114.482116699219 -64.146842956543 -109.094863891602 5.695590972900
-84.749984741211 -62.602947235107 -107.348297119141 2.175761938095
105.889617919922 -62.715034484863 -110.535446166992 4.395181179047
-85.737686157227 -63.881275177002 -115.519485473633 2.571608066559
-57.908222198486 -69.290641784668 -124.006896972656 1.101103067398
-58.335765838623 -66.280654907227 -128.609176635742 2.828163385391
-72.273857116699 -69.776969909668 -130.130813598633 1.601637125015
-49.156085968018 -69.129104614258 -130.877838134766 2.258840799332
-86.238128662109 -67.806694030762 -133.063415527344 1.747334480286
-77.529449462891 -71.138793945313 -134.660507202148 1.609688639641
-85.310737609863 -67.782424926758 -128.056640625000 2.774780035019
-53.774986267090 -71.179626464844 -137.525192260742 2.586866378784
-71.529693603516 -66.273551940918 -138.950164794922 1.146469116211
-59.395244598389 -67.478057861328 -134.818939208984 2.590685606003
-62.808876037598 -69.711761474609 -137.512115478516 2.663033485413
23.391082763672 -70.369323730469 -139.946990966797 3.025464296341
-85.549995422363 -70.241363525391 -144.359725952148 5.451276779175
-45.309329986572 -71.262619018555 -147.247909545898 0.962922334671
-97.823020935059 -65.112327575684 -149.885238647461 1.884960055351
-102.294105529785 -66.165786743164 -152.395339965820 2.826674699783
18.353948593140 -73.061454772949 -153.579559326172 3.137502431870
15.293407440186 -71.683906555176 -160.007278442383 1.100034475327
-100.225021362305 -68.214492797852 -159.331909179688 0.850971937180
-99.132484436035 -65.352493286133 -157.768463134766 3.050710678101
-94.571022033691 -66.684982299805 -167.890304565430 6.433989048004
18.935907363892 -64.611633300781 -170.540435791016 3.470948219299
-113.430046081543 -70.941589355469 -166.665969848633 7.881132125854
19.553962707520 -70.095497131348 -168.955490112305 1.318335294724
-144.814086914063 -70.883041381836 -178.060226440430 2.602460861206
17.394645690918 -67.815109252930 -176.300735473633 1.175447821617
22.646818161011 -69.744567871094 -187.156341552734 1.193192005157
-152.986572265625 -65.144561767578 -187.500427246094 1.437989950180
19.317020416260 -71.071601867676 -180.208206176758 3.098222017288
14.873621940613 -66.434738159180 -177.734451293945 3.071892976761
-136.798675537109 -74.994483947754 -191.917449951172 5.431545257568
-150.854904174805 -70.208618164063 -189.485549926758 1.540336132050
17.081726074219 -66.823966979980 -189.730514526367 1.107490062714
21.250131607056 -65.376617431641 -185.985839843750 1.306851506233
-146.360092163086 -67.214416503906 -192.051864624023 2.973488330841
-108.351409912109 -72.620101928711 -193.699661254883 3.261978149414
22.582672119141 -66.969680786133 -196.296875000000 2.322809696198
-125.996276855469 -63.949256896973 -191.390106201172 4.378202915192
11.612898826599 -69.644615173340 -197.986755371094 1.765582084656
-132.119033813477 -64.076797485352 -195.162811279297 1.156089901924
-149.767761230469 -67.838996887207 -192.484756469727 1.970689415932
-161.806213378906 -70.956130981445 -201.427108764648 2.920445919037
-162.877929687500 -65.872879028320 -201.603790283203 1.111333727837
-18.898580551147 -64.639144897461 -204.112838745117 2.419898271561
-166.223358154297 -67.329383850098 -201.746841430664 1.484525680542
-20.639680862427 -66.493766784668 -194.341979980469 1.824941039085
-15.645839691162 -66.549491882324 -197.643463134766 2.691892862320
12.584609031677 -67.563934326172 -195.467956542969 1.958612203598
-158.541122436523 -64.423240661621 -196.607208251953 2.595309734344
-110.565391540527 -65.797103881836 -201.890213012695 1.360079288483
-16.509490966797 -70.726776123047 -208.008102416992 2.362205028534
-155.603622436523 -69.524703979492 -199.593688964844 2.324422597885
18.709442138672 -64.056228637695 -199.703659057617 3.621705055237
-163.376098632813 -67.506805419922 -199.313034057617 1.888399958611
-120.481918334961 -70.781326293945 -204.974792480469 2.778315305710
-109.281410217285 -66.710487365723 -207.871276855469 5.830855846405
-126.360023498535 -63.256881713867 -208.117919921875 3.731639146805
-13.893622398376 -70.926605224609 -202.493515014648 1.215957760811
-18.975093841553 -64.529830932617 -204.134353637695 2.553767919540
-162.069335937500 -64.490692138672 -208.922470092773 2.485685825348
-160.418212890625 -65.698547363281 -212.663955688477 1.675552368164
-165.659591674805 -68.951538085938 -218.223739624023 2.222323894501
-148.862014770508 -70.755584716797 -208.071166992188 2.868488550186
-143.373626708984 -66.611900329590 -223.930618286133 0.920144736767
-6.474189281464 -65.554718017578 -220.982315063477 1.860769391060
-14.217516899109 -66.408256530762 -218.651535034180 2.705524206161
-101.494827270508 -67.365829467773 -222.217987060547 1.797663092613
-7.440744400024 -66.230712890625 -219.551727294922 1.678039669991
-164.781967163086 -66.253875732422 -225.616165161133 1.628555655479
-114.101867675781 -63.004261016846 -231.753341674805 2.558813810349
-0.410591781139 -64.973625183105 -229.690795898438 2.083733320236
5.820428371429 -65.678535461426 -229.876205444336 1.272414207458
-112.564727783203 -66.368087768555 -233.220947265625 2.758060693741
-3.139481306076 -61.784442901611 -231.962829589844 5.573923110962
-115.414550781250 -66.243118286133 -237.251708984375 2.862765312195
-4.105719089508 -64.123260498047 -240.933563232422 1.980235815048
-4.112040042877 -69.772262573242 -232.428634643555 1.474786043167
-1.252799272537 -65.120605468750 -241.363647460938 2.213260889053
66.566131591797 -68.719062805176 -236.780990600586 2.114817619324
-15.262190818787 -70.005477905273 -235.444778442383 3.329449415207
4.725511550903 -65.754333496094 -237.176925659180 2.212463140488
10.674136161804 -67.719329833984 -241.678039550781 1.484827399254
8.058177947998 -72.411209106445 -239.533599853516 1.212956309319
1.803296089172 -72.848068237305 -241.414566040039 1.730501413345
66.923362731934 -70.642654418945 -239.246643066406 0.769717156887
71.307754516602 -66.637588500977 -240.623672485352 3.150330543518
15.309112548828 -69.498168945313 -241.509017944336 2.524965524673
59.303924560547 -67.470413208008 -239.881118774414 2.240405797958
57.343780517578 -71.226684570313 -239.302307128906 2.215079069138
47.055095672607 -62.190715789795 -245.138717651367 4.308339595795
36.373268127441 -68.951812744141 -251.763824462891 1.179135799408
39.316722869873 -69.191795349121 -253.704986572266 1.298165321350
-133.816207885742 -67.458694458008 -254.042236328125 1.184493422508
-15.727309226990 -72.177169799805 -251.142761230469 1.314322233200
26.270570755005 -69.748886108398 -258.101348876953 1.774542570114
48.150604248047 -67.613845825195 -253.748901367188 1.328960299492
24.422906875610 -62.391204833984 -255.456756591797 2.318300008774
-100.160240173340 -66.193466186523 -261.206787109375 2.932215690613
33.266544342041 -66.357147216797 -254.567138671875 1.139179348946
-150.402633666992 -66.678649902344 -260.097717285156 1.530963063240
-116.022148132324 -63.559875488281 -261.305603027344 2.691775798798
-103.080116271973 -68.379096984863 -254.587982177734 2.634496450424
-6.710658073425 -65.883476257324 -259.301544189453 1.230963349342
-154.974380493164 -73.082939147949 -254.423034667969 1.843140244484
31.127576828003 -64.876937866211 -257.544281005859 1.694221735001
-112.122108459473 -69.851150512695 -254.351715087891 2.883443117142
29.397764205933 -67.576400756836 -257.613433837891 1.597877025604
-131.750061035156 -65.486640930176 -260.648620605469 1.818453669548
-118.763664245605 -68.465698242188 -259.652130126953 3.499034643173
-105.122001647949 -63.125350952148 -260.910614013672 4.308043956757
-116.168289184570 -67.358184814453 -264.864685058594 1.588112950325
-137.941619873047 -69.264564514160 -263.200012207031 2.560839414597
27.837223052979 -65.534240722656 -264.367767333984 1.635597467422
-118.258331298828 -64.091110229492 -265.959869384766 3.010450363159
-143.391067504883 -68.281021118164 -269.753967285156 4.515666484833
-4.759778499603 -69.793022155762 -273.272521972656 2.875473022461
-154.192169189453 -66.343437194824 -278.822296142578 4.222019672394
-10.424558639526 -69.319976806641 -282.647338867188 2.120133638382
-2.724350929260 -71.499710083008 -287.461761474609 2.747599363327
-135.042098999023 -70.636039733887 -287.570068359375 2.010543823242
-121.079643249512 -63.551185607910 -289.849670410156 2.960739374161
-138.615386962891 -63.257198333740 -290.984741210938 4.934599876404
-128.133041381836 -68.750350952148 -294.881683349609 1.542490959167
-149.616180419922 -69.025520324707 -295.722778320313 1.106708288193
-149.846481323242 -72.197242736816 -301.367614746094 4.428733825684
-149.939193725586 -73.533164978027 -305.418212890625 5.118778705597
-150.305648803711 -64.140823364258 -296.787994384766 2.017564535141
-141.977828979492 -69.013946533203 -303.263580322266 3.674373865128
-144.152450561523 -68.682250976563 -304.562286376953 3.077471971512
-151.022048950195 -68.766769409180 -310.600555419922 2.216091394424
24.888553619385 -72.099540710449 -31.552055358887 1.964470744133
49.948616027832 -70.279365539551 -34.914939880371 1.839597940445
28.485322952271 -74.062507629395 -37.214050292969 2.647872209549
33.380645751953 -70.052864074707 -41.058372497559 0.910223603249
-45.801277160645 -65.576400756836 -51.346504211426 4.971177101135
-78.417755126953 -66.482238769531 -50.021152496338 2.195724487305
80.759483337402 -66.752334594727 -63.818675994873 1.324474930763
82.791145324707 -62.734550476074 -60.759822845459 1.125018715858
71.202896118164 -67.653083801270 -66.541900634766 1.491339802742
-96.740089416504 -65.473052978516 -71.118255615234 0.862009525299
101.139511108398 -68.769752502441 -72.952545166016 1.458368062973
-35.324172973633 -61.352821350098 -76.065124511719 2.139436006546
71.618637084961 -68.313720703125 -76.731643676758 3.834215402603
-42.530635833740 -63.639888763428 -79.787261962891 1.994844436646
-50.133960723877 -66.049301147461 -80.240646362305 3.563912153244
53.211467742920 -66.530654907227 -89.475891113281 1.653458118439
102.646369934082 -65.964385986328 -88.592529296875 1.358133554459
65.939056396484 -65.572113037109 -93.868392944336 1.778892636299
56.786350250244 -67.062271118164 -94.858383178711 1.661303162575
48.603656768799 -68.278549194336 -103.976318359375 1.457919716835
62.017414093018 -65.583847045898 -98.111434936523 3.257081985474
106.530876159668 -66.841110229492 -99.851074218750 0.786733746529
71.740158081055 -71.380111694336 -108.591125488281 5.611919403076
52.368301391602 -66.846069335938 -107.597488403320 2.453406572342
78.509170532227 -67.528778076172 -106.806884765625 0.989445507526
91.843063354492 -66.990280151367 -111.920486450195 3.929715156555
-80.470321655273 -68.819442749023 -111.727966308594 1.880940198898
-85.438430786133 -70.061286926270 -108.962234497070 0.834435701370
-86.062629699707 -68.287582397461 -116.142318725586 2.214369058609
-61.761909484863 -67.089454650879 -116.140197753906 2.433425903320
-54.010025024414 -72.299514770508 -122.073959350586 5.324678897858
-93.105827331543 -63.025321960449 -120.427688598633 2.655312299728
-78.844078063965 -67.563964843750 -120.110153198242 0.689113795757
-76.924987792969 -67.344528198242 -126.145080566406 1.321931719780
-60.401943206787 -70.146545410156 -125.088012695313 2.771636009216
-88.436729431152 -59.584213256836 -129.886703491211 4.602083683014
-93.916961669922 -67.474906921387 -130.496948242188 3.474632024765
-50.504051208496 -67.318786621094 -137.913436889648 2.640642404556
-57.002998352051 -63.580978393555 -136.577285766602 1.545233011246
-76.478858947754 -65.353683471680 -138.305068969727 1.553023457527
-57.077671051025 -66.183349609375 -143.306869506836 0.999416768551
-73.363792419434 -68.130187988281 -148.538345336914 1.065827608109
21.343631744385 -65.114067077637 -143.284652709961 2.694510221481
-59.297126770020 -66.107360839844 -145.651962280273 3.440845966339
-48.691558837891 -67.130767822266 -148.529815673828 1.003938555717
15.700733184814 -68.918655395508 -153.497207641602 0.638348340988
13.774610519409 -65.858306884766 -152.773239135742 1.720175862312
-143.440887451172 -64.172348022461 -175.746704101563 1.496642708778
-105.217460632324 -70.270675659180 -180.702011108398 2.262557744980
-108.465957641602 -68.591995239258 -185.524032592773 2.741577863693
-146.917510986328 -68.237274169922 -194.983291625977 3.516807794571
-110.231109619141 -66.933174133301 -185.408432006836 2.627199411392
-152.780349731445 -64.036697387695 -196.224731445313 2.177610158920
-114.728813171387 -62.342571258545 -194.921600341797 3.756470203400
-144.444488525391 -69.374237060547 -197.965820312500 2.858805894852
-149.778335571289 -73.067062377930 -201.364624023438 2.104891777039
-153.121856689453 -72.277427673340 -209.695922851563 3.456690549850
-144.616195678711 -69.730636596680 -220.071350097656 1.912412405014
-154.130325317383 -71.904647827148 -222.515487670898 0.607794880867
-104.095634460449 -67.168487548828 -222.898254394531 1.227879762650
-100.506584167480 -67.475860595703 -227.269439697266 2.484465360641
-122.236968994141 -61.082984924316 -224.839492797852 5.121735095978
-111.406990051270 -63.387809753418 -227.807098388672 2.381312847137
-154.198654174805 -69.025672912598 -233.272705078125 1.079248309135
-4.073740005493 -69.821418762207 -230.877212524414 1.561408042908
-129.417694091797 -65.138267517090 -227.628219604492 1.221055865288
-157.722732543945 -68.155891418457 -236.330657958984 0.871786415577
-135.618606567383 -65.638107299805 -233.922637939453 2.207620382309
-10.223359107971 -68.506004333496 -242.890426635742 1.189511179924
6.627436637878 -70.219734191895 -244.001174926758 1.952044487000
63.099021911621 -62.020389556885 -240.874481201172 4.399885177612
20.729339599609 -68.587951660156 -248.057952880859 0.804003238678
62.217765808105 -66.015419006348 -247.403045654297 2.987725734711
39.971817016602 -64.253341674805 -242.988739013672 7.479436874390
54.068172454834 -67.101943969727 -248.567474365234 1.354700446129
-152.266265869141 -68.860702514648 -251.284301757813 2.480311632156
-153.076309204102 -65.249320983887 -250.586181640625 3.411402940750
42.428298950195 -73.457511901855 -251.635040283203 2.625054121017
30.273822784424 -64.472221374512 -260.329284667969 1.820577263832
48.812625885010 -62.985569000244 -249.627838134766 2.171472072601
-142.825164794922 -69.276123046875 -257.481353759766 2.228289604187
-135.475509643555 -65.900497436523 -253.838684082031 2.559403419495
-125.411827087402 -67.285324096680 -258.286437988281 1.238995671272
-132.385238647461 -61.327388763428 -258.045959472656 3.798423051834
-139.435943603516 -62.346191406250 -258.987243652344 3.317054986954
-122.762268066406 -66.564163208008 -255.867065429688 1.965081214905
-142.261077880859 -67.040390014648 -259.897613525391 0.929092705250
-126.247398376465 -68.800323486328 -260.329437255859 2.990973711014
-125.229927062988 -61.376914978027 -260.595367431641 3.533145427704
-126.296417236328 -71.900863647461 -262.655181884766 2.274161338806
-118.452789306641 -68.084899902344 -259.348999023438 2.964064598083
-2.854108333588 -68.111915588379 -264.836395263672 2.266909122467
29.730173110962 -70.217224121094 -262.883270263672 2.459969997406
-145.408584594727 -70.857803344727 -263.709838867188 2.211537599564
31.676534652710 -63.115341186523 -267.811492919922 5.235410690308
-7.112939357758 -66.336975097656 -268.631347656250 1.366766571999
16.423995971680 -71.255264282227 -283.665313720703 1.023783564568
-142.260787963867 -67.956481933594 -289.915740966797 0.652395248413
-122.392547607422 -65.775482177734 -288.088653564453 2.442472219467
-133.263885498047 -68.337982177734 -283.189178466797 1.730000853539
-157.622573852539 -65.365280151367 -288.219360351563 1.600036025047
-123.593887329102 -67.586051940918 -287.896545410156 0.701868355274
-116.571220397949 -62.866855621338 -288.065307617188 2.853293180466
-126.767417907715 -64.926132202148 -288.949310302734 1.564203143120
-154.109954833984 -68.794494628906 -295.963500976563 1.636549830437
30.367134094238 -69.669075012207 -13.794517517090 2.075889825821
26.223421096802 -72.953804016113 -20.479852676392 0.758871793747
39.893764495850 -72.507476806641 -18.447347640991 1.749095797539
45.560363769531 -64.195251464844 -26.201568603516 2.291986942291
25.130844116211 -70.190986633301 -27.618812561035 1.254707098007
27.099550247192 -70.591728210449 -31.221950531006 0.731588542461
-36.020442962646 -70.278915405273 -43.647159576416 5.717445373535
-78.675590515137 -68.833465576172 -50.206085205078 2.110056400299
-12.589476585388 -67.142044067383 -56.222301483154 2.880821943283
70.557945251465 -66.025375366211 -66.872131347656 0.983620703220
96.633483886719 -66.958953857422 -66.561019897461 0.710804462433
64.153861999512 -65.119171142578 -80.135986328125 1.501131415367
63.250724792480 -60.341754913330 -82.342712402344 0.583410978317
98.074722290039 -61.802291870117 -82.885543823242 6.642070293427
-61.287979125977 -63.597068786621 -86.375320434570 1.252072811127
-63.043975830078 -62.419521331787 -92.078704833984 2.490824222565
50.103790283203 -62.645702362061 -93.936355590820 1.791042447090
-60.201328277588 -63.071743011475 -97.755706787109 4.882715702057
-69.593162536621 -60.639728546143 -99.718429565430 1.577521204948
-101.326904296875 -63.961494445801 -97.462112426758 2.593896389008
-71.491523742676 -64.401855468750 -99.949203491211 2.101500988007
49.591335296631 -66.561828613281 -106.559631347656 1.951344966888
-70.397438049316 -68.101318359375 -103.497970581055 1.396211743355
50.774841308594 -67.380264282227 -98.863357543945 1.063487768173
98.356597900391 -68.620651245117 -101.023498535156 1.160727739334
89.975837707520 -68.290786743164 -108.013763427734 1.357552409172
-74.246276855469 -66.696731567383 -111.411102294922 1.140169501305
-82.468589782715 -67.155349731445 -109.237304687500 2.443629980087
-63.590415954590 -61.867233276367 -118.151916503906 1.798012018204
-93.956169128418 -64.050262451172 -115.637969970703 3.453949451447
-76.960968017578 -71.258636474609 -128.988723754883 1.554697990417
-88.593086242676 -60.384429931641 -128.243057250977 4.396526813507
-64.611900329590 -65.163558959961 -121.465423583984 1.782878279686
-59.173873901367 -66.904365539551 -117.660461425781 1.950555682182
-89.118423461914 -62.741176605225 -131.647293090820 1.202310204506
-60.517833709717 -65.274887084961 -129.489883422852 1.809442281723
-80.685241699219 -64.227584838867 -124.876312255859 1.351177334785
-70.363594055176 -65.653976440430 -131.814743041992 3.205667018890
-68.961296081543 -67.888961791992 -131.198013305664 4.357684612274
-59.570232391357 -63.177215576172 -136.978347778320 1.497656822205
-53.636798858643 -65.495986938477 -137.626480102539 0.834267973900
-90.772644042969 -65.821533203125 -137.253799438477 2.534277200699
-97.479393005371 -64.796188354492 -139.427597045898 2.973650932312
-88.857421875000 -68.336692810059 -139.450653076172 1.706833004951
25.395151138306 -67.448898315430 -148.959915161133 1.216639757156
-50.414962768555 -67.182952880859 -143.335235595703 2.108890771866
14.749220848083 -63.027801513672 -149.041168212891 2.294553756714
-97.669532775879 -62.380538940430 -160.423110961914 1.605847239494
-95.247856140137 -61.640399932861 -169.656707763672 7.097713947296
-95.998626708984 -58.892009735107 -171.513763427734 8.137056350708
-110.192787170410 -68.444908142090 -169.481582641602 3.883351325989
-106.225387573242 -68.433448791504 -183.202362060547 1.780109882355
-107.677894592285 -60.281734466553 -182.842575073242 3.352507829666
-146.800354003906 -65.449752807617 -186.772598266602 2.337286233902
-108.876289367676 -66.309326171875 -186.784637451172 2.212554931641
-133.618423461914 -60.111576080322 -188.895355224609 8.227281570435
-142.977920532227 -70.473594665527 -197.247573852539 2.385029077530
-125.024749755859 -67.008926391602 -197.587875366211 2.692234754562
-156.770446777344 -69.090965270996 -198.075408935547 3.172883272171
-140.760513305664 -63.704658508301 -199.449356079102 0.901846468449
-120.988098144531 -59.213272094727 -197.762252807617 4.915477275848
-134.736068725586 -64.856872558594 -202.577377319336 1.255464673042
-146.939117431641 -62.899383544922 -211.826309204102 1.967590093613
-130.750137329102 -63.937755584717 -221.891067504883 4.024716854095
-112.012931823730 -63.627281188965 -227.792022705078 1.911706447601
-152.694442749023 -68.453125000000 -226.464645385742 1.517520308495
-118.657585144043 -62.240310668945 -232.265899658203 3.217895030975
-105.917709350586 -64.427597045898 -233.261001586914 5.582082748413
-124.478012084961 -68.485824584961 -234.626831054688 1.236146211624
-131.859100341797 -68.387733459473 -234.840850830078 1.424706935883
-118.843009948730 -60.935459136963 -237.316787719727 5.545000553131
2.038057804108 -68.414085388184 -236.095321655273 1.527541041374
-148.977554321289 -66.068389892578 -235.568756103516 1.553528428078
7.160996913910 -69.685317993164 -232.888961791992 1.149318695068
8.308371543884 -63.335525512695 -242.623474121094 1.932381749153
1.337283372879 -68.624481201172 -240.610000610352 1.058374762535
13.152329444885 -66.434226989746 -240.895706176758 1.923952579498
-142.811889648438 -66.449752807617 -237.253860473633 3.273647069931
-4.367185592651 -66.878234863281 -244.716354370117 2.552070856094
18.570360183716 -61.408599853516 -241.347961425781 2.147474288940
47.687118530273 -63.521682739258 -249.262512207031 2.251901388168
50.760082244873 -65.494377136230 -243.781234741211 1.771871566772
-148.051712036133 -67.867874145508 -250.485198974609 2.435649871826
-6.285511016846 -70.424972534180 -255.131805419922 5.181897163391
31.403139114380 -65.556846618652 -256.113464355469 1.726542830467
-132.672653198242 -58.700183868408 -259.875518798828 6.139574527740
-128.796173095703 -63.591918945313 -260.734252929688 2.124581575394
-128.707672119141 -67.070281982422 -258.626251220703 3.137232065201
24.960289001465 -64.911956787109 -261.574371337891 1.648951172829
-139.052551269531 -64.979461669922 -262.536407470703 2.945191383362
31.536321640015 -68.538650512695 -256.824066162109 1.315632104874
30.566932678223 -64.966995239258 -266.717041015625 3.310387372971
-154.554748535156 -63.962242126465 -263.844726562500 0.795445621014
-147.925598144531 -69.269500732422 -288.728851318359 0.697755336761
-155.394409179688 -66.986831665039 -291.610504150391 1.531397700310
-142.386932373047 -66.377067565918 -288.926086425781 1.105651974678
7.594754695892 -67.616241455078 -295.639404296875 3.508282661438
-154.639816284180 -67.372505187988 -296.023529052734 2.744260311127
45.786689758301 -71.376518249512 -26.805313110352 0.975741982460
37.427894592285 -71.843933105469 -40.180496215820 0.824447691441
-66.543563842773 -65.903579711914 -48.183765411377 3.020745277405
-77.031402587891 -63.115680694580 -46.627506256104 1.744744062424
-27.659778594971 -66.657424926758 -51.471099853516 2.828874349594
-22.826078414917 -66.571640014648 -61.554508209229 5.873071193695
-12.914907455444 -67.350158691406 -67.862625122070 0.641312241554
-28.837360382080 -61.684684753418 -72.322631835938 2.798812627792
68.037803649902 -67.069534301758 -72.698089599609 2.183797597885
-97.300895690918 -64.345329284668 -82.465835571289 1.877920985222
-50.196563720703 -64.588897705078 -83.490585327148 1.398488759995
54.070449829102 -62.943840026855 -83.553863525391 3.467887639999
57.846801757813 -66.592544555664 -88.247085571289 2.288200616837
71.760513305664 -65.104598999023 -85.270584106445 6.229305267334
103.784812927246 -66.072494506836 -94.990158081055 1.093666791916
55.755481719971 -65.125000000000 -90.896347045898 2.048078060150
97.910446166992 -66.005126953125 -102.200988769531 1.170522212982
-78.868278503418 -66.666885375977 -104.332794189453 2.398741960526
-98.119979858398 -66.581626892090 -104.446945190430 1.650701284409
77.662284851074 -66.227233886719 -110.707534790039 2.565674066544
-76.917465209961 -64.497695922852 -101.037414550781 1.496783137321
-81.501129150391 -66.136474609375 -117.890182495117 1.992030620575
-83.989776611328 -63.076763153076 -120.629760742188 2.257752656937
-54.118659973145 -66.649902343750 -125.064514160156 1.394858837128
-80.394905090332 -61.547672271729 -124.537948608398 0.930559396744
-61.577194213867 -68.264900207520 -129.897613525391 1.222412347794
-78.991371154785 -69.680580139160 -135.941177368164 2.576348543167
-73.611961364746 -60.129688262939 -132.396621704102 4.478048801422
-82.254081726074 -63.318950653076 -126.239807128906 0.707903385162
-87.464218139648 -64.055358886719 -126.784545898438 1.975539207458
-60.573703765869 -66.477050781250 -130.680252075195 1.561299562454
-89.578529357910 -66.743591308594 -132.855087280273 2.074456930161
-52.853401184082 -67.580978393555 -131.550811767578 0.462795644999
-52.362071990967 -66.225601196289 -142.437835693359 1.108624458313
25.985015869141 -66.172286987305 -139.345046997070 1.583503365517
-59.879703521729 -60.188991546631 -134.124053955078 1.499281048775
11.180132865906 -66.974433898926 -147.055526733398 2.875657320023
19.687046051025 -62.346202850342 -146.955474853516 1.145519733429
18.024772644043 -65.757141113281 -151.962646484375 1.174648046494
-97.377189636230 -68.323883056641 -145.044845581055 2.953912734985
-95.625732421875 -64.781555175781 -156.702880859375 1.314539670944
-99.819351196289 -58.972511291504 -153.814529418945 4.048813343048
-94.459983825684 -65.486068725586 -155.898971557617 2.618700265884
-92.046714782715 -61.553382873535 -160.267120361328 5.822575569153
-151.947875976563 -70.367988586426 -177.378646850586 1.398811221123
-153.496383666992 -67.480560302734 -176.991546630859 2.009337186813
-105.046768188477 -67.634872436523 -187.309448242188 2.016107082367
-142.915390014648 -60.124076843262 -178.178115844727 2.984670400620
-111.616111755371 -67.166305541992 -178.743911743164 1.741236686707
-149.428573608398 -65.095916748047 -188.538116455078 0.557315707207
-114.585411071777 -66.081947326660 -191.150070190430 1.713561296463
-103.996902465820 -65.600280761719 -186.713546752930 3.010118722916
-145.805175781250 -66.180740356445 -195.298507690430 2.445420980453
-134.446960449219 -65.026107788086 -200.412765502930 1.151375293732
-106.882377624512 -64.295097351074 -199.752883911133 3.147479295731
-115.206291198730 -66.200225830078 -201.590728759766 2.116050958633
-115.827011108398 -62.826473236084 -203.063537597656 1.550894856453
-112.353988647461 -62.985912322998 -205.244796752930 3.810794591904
-133.505767822266 -64.128005981445 -199.256271362305 0.597820937634
-135.962890625000 -65.072799682617 -198.162307739258 2.442747592926
-131.445343017578 -67.887039184570 -199.639358520508 4.169444084167
-123.138885498047 -61.936000823975 -203.188095092773 2.209026098251
-121.434669494629 -61.186111450195 -209.607528686523 6.319531440735
-116.904289245605 -61.699146270752 -206.331497192383 3.168074369431
-146.679183959961 -65.598541259766 -218.932067871094 0.828671455383
-151.738174438477 -64.362548828125 -227.901306152344 2.724690198898
-157.726440429688 -62.005695343018 -222.973220825195 4.710877895355
-140.670074462891 -66.375946044922 -224.268112182617 2.643508911133
-138.076919555664 -63.875907897949 -229.466445922852 3.417634487152
-125.508613586426 -65.930320739746 -223.041168212891 1.975664615631
-142.073471069336 -61.190517425537 -233.593292236328 1.987364053726
-147.593475341797 -67.004653930664 -231.373931884766 0.564842760563
-142.296905517578 -63.734443664551 -225.593460083008 1.477534890175
-130.932128906250 -61.458427429199 -228.213882446289 3.056749820709
-149.748077392578 -64.185150146484 -232.414718627930 1.996605992317
-136.762420654297 -64.758331298828 -234.409103393555 3.361696004868
-125.428352355957 -61.329242706299 -231.808624267578 2.360441684723
-6.720969200134 -67.145553588867 -238.033981323242 1.218107342720
3.174327611923 -65.468742370605 -236.419921875000 0.668669879436
8.898882865906 -64.315567016602 -242.746627807617 2.149966001511
13.013595581055 -64.382438659668 -240.234100341797 1.718788266182
-9.211144447327 -67.205261230469 -245.638198852539 2.135728120804
-12.537990570068 -60.572334289551 -249.112426757813 5.042256832123
44.944286346436 -58.778106689453 -252.989501953125 5.392494678497
50.407928466797 -67.067260742188 -249.388671875000 1.334072470665
-147.523025512695 -63.879878997803 -258.162841796875 0.698531985283
42.848033905029 -63.122417449951 -258.987854003906 3.835505008698
31.079843521118 -63.370780944824 -251.740447998047 4.207698822021
-159.148300170898 -60.974811553955 -255.773712158203 4.936177730560
-151.183883666992 -63.157913208008 -261.697662353516 0.585644781590
-146.938461303711 -64.357566833496 -262.311035156250 1.505946397781
2.156363487244 -66.523651123047 -264.826446533203 2.854822874069
-156.517181396484 -63.970962524414 -266.459472656250 3.714501380920
2.222549200058 -63.886959075928 -277.135284423828 3.465851068497
-144.001724243164 -67.605285644531 -273.040557861328 3.924383640289
-144.721374511719 -63.791553497314 -287.009490966797 0.593992412090
-153.119949340820 -65.186889648438 -283.512878417969 0.876167654991
-150.996353149414 -62.208374023438 -282.651977539063 1.154221177101
-147.204574584961 -62.911518096924 -283.620605468750 0.691612124443
-155.490676879883 -59.043102264404 -290.288299560547 4.866879940033
-150.552200317383 -60.511753082275 -284.550109863281 2.695169448853
-151.917205810547 -64.544166564941 -284.034454345703 1.599293231964
-144.359008789063 -69.153244018555 -289.077239990234 2.612638473511
-141.545761108398 -63.767425537109 -288.829498291016 1.694930672646
14.785011291504 -67.071945190430 -295.348754882813 6.112940311432
-149.859466552734 -58.243846893311 -289.153503417969 5.797819614410
-159.181640625000 -63.794158935547 -291.601287841797 3.560722112656
-150.984497070313 -62.770603179932 -289.717224121094 2.064624071121
-148.391525268555 -62.767944335938 -295.276733398438 0.951992332935
-154.188720703125 -63.755798339844 -287.479980468750 1.607602596283
-152.377609252930 -68.760940551758 -292.377868652344 2.525194168091
3.911185503006 -59.351989746094 -295.088775634766 3.437723875046
-145.178253173828 -63.863010406494 -293.938140869141 1.305500388145
-144.529830932617 -65.544410705566 -293.690246582031 0.748471081257
31.662561416626 -60.640113830566 -20.197498321533 2.326294898987
38.484947204590 -64.143783569336 -14.109460830688 1.572471976280
41.995132446289 -62.216506958008 -25.959724426270 2.014009952545
18.874723434448 -70.341346740723 -32.372867584229 2.324258089066
30.703269958496 -61.404476165771 -37.112438201904 1.618646144867
42.855678558350 -74.503211975098 -37.473484039307 3.824306488037
-57.644973754883 -64.348571777344 -43.905174255371 1.788519740105
-56.613090515137 -66.309371948242 -48.034446716309 3.600185871124
92.349708557129 -64.696884155273 -58.939075469971 3.257462263107
-96.205253601074 -62.618488311768 -65.287796020508 1.783626079559
93.839187622070 -67.452606201172 -69.094619750977 3.647018671036
61.886528015137 -61.372524261475 -67.757354736328 4.605523109436
104.304603576660 -66.462493896484 -78.459564208984 1.128637313843
65.898094177246 -63.961662292480 -71.750076293945 0.941419661045
-40.100181579590 -68.346405029297 -79.188751220703 2.188116312027
58.241096496582 -63.447025299072 -84.872970581055 1.256598591805
-60.020591735840 -62.836929321289 -74.976119995117 5.756287574768
61.687988281250 -60.849647521973 -85.384475708008 2.663290739059
66.222831726074 -63.450366973877 -80.595535278320 1.788272976875
-100.085693359375 -64.216598510742 -79.687805175781 3.584692239761
51.318359375000 -65.854583740234 -91.586471557617 1.359829425812
50.110382080078 -66.978561401367 -96.033157348633 1.346142053604
66.459259033203 -64.033348083496 -92.508529663086 0.932281732559
52.821445465088 -61.124263763428 -94.789413452148 1.674238085747
-81.480545043945 -66.837936401367 -111.203598022461 2.013299942017
86.125007629395 -69.978202819824 -105.554183959961 2.397439718246
-75.395751953125 -61.334442138672 -114.732589721680 2.271317958832
-73.685829162598 -62.952941894531 -108.320465087891 1.480447292328
-85.328163146973 -65.469429016113 -121.910385131836 2.508284807205
-86.520950317383 -63.444484710693 -109.357604980469 2.702011585236
-88.399017333984 -66.725471496582 -119.927993774414 2.833779811859
-77.694107055664 -63.951805114746 -123.541885375977 1.224014043808
-53.062164306641 -60.121994018555 -127.265319824219 2.987752914429
-71.963462829590 -68.308883666992 -135.335571289063 1.371234655380
-53.023036956787 -61.075618743896 -138.542648315430 2.625892639160
-90.518615722656 -63.639144897461 -135.053100585938 1.480614900589
27.211843490601 -62.188087463379 -139.321304321289 3.025845766068
19.724536895752 -63.713333129883 -139.226043701172 1.073988199234
-92.744018554688 -65.898986816406 -139.241027832031 1.880290865898
18.714496612549 -63.381282806396 -156.243652343750 3.834331989288
-87.287681579590 -66.865379333496 -145.433853149414 3.399723529816
-94.848243713379 -63.397773742676 -145.746719360352 2.046250581741
19.179019927979 -63.427108764648 -155.470932006836 3.091402053833
-96.143440246582 -60.370769500732 -147.265960693359 2.370278596878
-94.692520141602 -61.157096862793 -145.090835571289 2.570482015610
-98.907310485840 -62.166584014893 -156.812210083008 0.854455828667
-98.841705322266 -66.461807250977 -158.034118652344 2.139040470123
-106.186294555664 -62.561218261719 -173.787643432617 1.108894348145
-103.990409851074 -60.946273803711 -168.044082641602 2.293515920639
-100.514808654785 -68.101242065430 -163.452911376953 2.419142007828
-105.125343322754 -61.489673614502 -172.976684570313 2.105006933212
-132.509033203125 -71.932899475098 -177.976898193359 9.323493003845
-107.461517333984 -63.747253417969 -176.483398437500 1.654774188995
-142.268005371094 -62.328529357910 -188.384384155273 1.842598915100
-148.877853393555 -68.398773193359 -185.466720581055 3.689734220505
-148.224563598633 -62.572044372559 -195.321014404297 1.673665523529
-125.731292724609 -62.811775207520 -195.584472656250 0.960661888123
-129.562530517578 -59.970882415771 -200.563308715820 3.913389682770
-117.727638244629 -62.888072967529 -196.381408691406 4.116403579712
-140.807373046875 -66.594833374023 -204.649169921875 1.758804202080
-124.229698181152 -63.211463928223 -203.421768188477 1.016153573990
-146.718612670898 -65.646064758301 -205.852630615234 1.443100094795
-151.109481811523 -69.804222106934 -205.553894042969 2.008070230484
-159.904876708984 -62.047161102295 -230.821304321289 5.095161437988
-141.537002563477 -64.748184204102 -236.281738281250 3.579290866852
-128.410064697266 -62.822036743164 -235.395980834961 3.405074834824
-151.509399414063 -61.665859222412 -232.175827026367 1.402885675430
-2.592580318451 -66.665283203125 -235.496749877930 0.583421647549
13.581976890564 -69.882164001465 -240.824951171875 1.418661832809
-0.365370631218 -60.702182769775 -240.364303588867 2.275230169296
-151.776489257813 -65.886802673340 -244.704254150391 1.553802251816
-5.431159973145 -64.796127319336 -249.145477294922 2.399241447449
-149.904266357422 -61.175113677979 -252.843811035156 1.147275447845
-7.372429370880 -64.027557373047 -251.743103027344 1.480344772339
-150.264694213867 -66.174102783203 -251.413146972656 1.666269779205
26.505636215210 -65.266159057617 -255.187377929688 2.352718353271
-155.202682495117 -63.617828369141 -256.161315917969 0.534352898598
-146.599243164063 -66.301406860352 -251.174468994141 1.250263929367
-150.239517211914 -58.917907714844 -253.186370849609 3.211134672165
-151.853317260742 -63.197937011719 -259.435516357422 0.436908602715
33.418098449707 -65.183425903320 -253.236541748047 2.330347537994
29.315322875977 -66.168304443359 -261.322875976563 1.928659915924
-145.331130981445 -63.653594970703 -256.029632568359 1.302729964256
-150.279266357422 -58.678371429443 -258.857147216797 4.388869285583
-157.180786132813 -61.314201354980 -257.791229248047 2.576932668686
-147.754699707031 -65.078704833984 -263.899719238281 1.578830838203
26.923456192017 -63.373020172119 -262.527069091797 0.748831748962
27.383850097656 -61.622676849365 -264.931793212891 1.073640584946
-153.188095092773 -59.332439422607 -262.200653076172 3.604381799698
-141.860717773438 -63.597915649414 -262.407012939453 1.254141926765
-151.766448974609 -64.786392211914 -266.683013916016 1.238791108131
-146.228363037109 -62.148498535156 -259.235382080078 0.639487326145
-148.893569946289 -67.157745361328 -263.739776611328 2.954413175583
-152.238403320313 -60.666385650635 -268.549560546875 4.001008987427
-151.097381591797 -64.906509399414 -269.816436767578 3.787056684494
-152.702743530273 -64.531799316406 -281.437774658203 1.648745656013
-147.546615600586 -68.605262756348 -283.879486083984 1.499343156815
-149.392364501953 -65.695770263672 -277.991577148438 2.251099109650
13.769318580627 -64.530944824219 -285.373443603516 3.072329759598
-155.352188110352 -60.528663635254 -284.356964111328 3.701302051544
-144.332672119141 -59.951049804688 -281.659271240234 4.839577674866
-4.764732837677 -69.061172485352 -290.348510742188 0.774663746357
9.895644187927 -65.686462402344 -296.738586425781 5.213585376740
-152.360244750977 -64.998039245605 -295.607696533203 0.659341037273
25.250633239746 -70.800559997559 -20.057716369629 2.330754518509
41.423748016357 -63.109813690186 -26.453178405762 2.923500299454
52.656845092773 -69.459381103516 -29.361331939697 2.428614616394
41.590869903564 -63.697360992432 -33.279907226563 0.321604818106
25.972898483276 -71.154205322266 -38.570579528809 0.361336499453
39.972156524658 -72.743263244629 -36.879680633545 1.332473874092
80.522872924805 -65.338859558105 -62.467960357666 1.338504672050
78.154426574707 -61.629264831543 -58.188587188721 2.094196796417
-15.453396797180 -68.490463256836 -70.479324340820 1.396101355553
65.899253845215 -62.346382141113 -65.111618041992 2.936356306076
-26.831216812134 -70.752571105957 -75.351013183594 2.518106698990
-26.340236663818 -64.236968994141 -79.970535278320 5.711896896362
-53.276329040527 -64.566070556641 -78.623199462891 2.609348535538
-49.361335754395 -66.981391906738 -80.086776733398 4.199093341827
64.590293884277 -68.746719360352 -81.888580322266 1.589973807335
102.468742370605 -65.930648803711 -92.819686889648 1.605643630028
-61.623397827148 -57.556022644043 -86.479965209961 0.431961894035
52.777267456055 -65.738677978516 -97.180755615234 1.111598730087
64.215286254883 -59.271938323975 -94.853195190430 1.650345444679
105.583137512207 -61.106319427490 -95.225692749023 1.511485219002
-63.579013824463 -59.513122558594 -98.863235473633 3.323337316513
59.079292297363 -57.636947631836 -97.320068359375 3.938828229904
-70.580970764160 -66.800552368164 -101.699035644531 1.951831817627
66.295394897461 -63.559120178223 -97.293472290039 2.387263774872
70.485542297363 -63.456413269043 -102.391937255859 1.342713236809
-69.313034057617 -67.384971618652 -109.554214477539 3.533897638321
-95.836753845215 -61.837829589844 -112.231979370117 3.365314483643
-67.024009704590 -59.860565185547 -110.385177612305 0.709723711014
-79.335014343262 -58.678512573242 -108.025512695313 2.013644933701
-64.461135864258 -60.825489044189 -109.508209228516 1.168364644051
-81.153869628906 -60.976100921631 -115.702407836914 1.421770453453
-79.514472961426 -60.640373229980 -119.197555541992 1.707132577896
-74.069770812988 -64.658866882324 -119.882781982422 2.093158960342
-69.526824951172 -67.798187255859 -124.975372314453 5.183700084686
-78.913246154785 -66.335510253906 -129.723876953125 1.526792407036
29.750520706177 -65.421142578125 -124.514907836914 5.278634548187
-52.010353088379 -61.067211151123 -127.987136840820 2.450290441513
28.366680145264 -63.416618347168 -132.442718505859 1.313486218452
27.722475051880 -67.000770568848 -133.941757202148 2.487474918365
33.401882171631 -62.074607849121 -135.156936645508 2.422868490219
-51.052360534668 -65.191688537598 -137.563125610352 2.071512937546
23.313982009888 -63.138599395752 -148.733230590820 3.342963457108
25.508234024048 -59.522624969482 -136.351043701172 1.229902505875
-143.595626831055 -57.500617980957 -176.895599365234 4.499731063843
-148.636108398438 -63.570247650146 -175.340164184570 1.609336733818
-147.730728149414 -64.274963378906 -177.670318603516 2.530896186829
-145.838378906250 -61.061225891113 -187.562728881836 1.237577676773
-145.969665527344 -61.842178344727 -188.756256103516 1.372595429420
-146.388214111328 -65.432006835938 -192.015731811523 1.470389962196
-139.580886840820 -62.532905578613 -193.568359375000 3.530306339264
-146.400802612305 -63.877986907959 -193.661560058594 1.056580424309
-122.022811889648 -55.075302124023 -197.070281982422 8.101047515869
-134.682876586914 -63.530132293701 -200.403411865234 0.837946653366
-148.008605957031 -61.629985809326 -209.771179199219 2.417826652527
-146.128723144531 -64.242668151855 -222.010162353516 1.500673055649
-150.330459594727 -64.234283447266 -222.050933837891 1.844895958900
-143.831695556641 -57.998138427734 -229.551864624023 3.828163623810
-155.977127075195 -61.606479644775 -226.671737670898 2.076214551926
-147.433685302734 -61.169914245605 -235.082458496094 0.360879123211
-149.893203735352 -61.674495697021 -229.852249145508 1.608366966248
-147.033309936523 -59.544281005859 -228.285797119141 2.118612051010
-138.483642578125 -57.756393432617 -227.790328979492 5.594962596893
-143.832000732422 -60.731884002686 -234.000000000000 0.868872106075
-159.383804321289 -60.420578002930 -233.409362792969 5.515557765961
8.350242614746 -61.044029235840 -241.764480590820 1.490912675858
-12.881194114685 -64.257583618164 -243.388519287109 3.309460878372
-147.474060058594 -66.075584411621 -235.618515014648 1.779833197594
-152.270675659180 -63.365238189697 -236.494873046875 1.942737579346
-145.303833007813 -65.849487304688 -234.134719848633 1.995440602303
12.765088081360 -61.758075714111 -248.488098144531 4.682013034821
-149.076187133789 -57.618679046631 -240.958694458008 5.742521762848
-146.187835693359 -57.860488891602 -252.631378173828 4.470520496368
-0.546353399754 -59.584300994873 -250.080627441406 2.916087150574
-148.068511962891 -64.378417968750 -257.356719970703 1.436974883080
-148.260452270508 -63.689781188965 -254.453918457031 0.568471014500
-145.610046386719 -62.109851837158 -257.423736572266 0.985615551472
-141.516510009766 -62.633480072021 -258.340240478516 1.181734561920
25.359148025513 -60.178531646729 -261.305328369141 1.944344282150
-150.758636474609 -58.834106445313 -267.121612548828 4.019036769867
24.390752792358 -65.825927734375 -269.565368652344 2.305225372314
15.580744743347 -65.981033325195 -291.770324707031 3.757481813431
0.651862144470 -59.546482086182 -290.297790527344 2.996964693069
13.943006515503 -59.641002655029 -289.889648437500 1.310387253761
28.594625473022 -65.457366943359 -17.144155502319 3.287544012070
43.505691528320 -71.858726501465 -40.440738677979 1.745281457901
34.776424407959 -72.474830627441 -41.705097198486 2.064825296402
-42.772026062012 -64.919921875000 -49.467906951904 3.121311664581
-90.772972106934 -61.211574554443 -51.602771759033 2.086496591568
-92.773422241211 -60.828857421875 -59.044422149658 1.738327026367
-18.329029083252 -58.384452819824 -61.499942779541 1.119975924492
98.682945251465 -61.518810272217 -73.525161743164 4.440664768219
103.419128417969 -56.519397735596 -76.852462768555 2.017409086227
100.455192565918 -67.383804321289 -79.460494995117 2.833404541016
-50.817653656006 -63.027038574219 -86.134078979492 2.806398630142
-61.369380950928 -56.799514770508 -83.699050903320 2.042346000671
60.756011962891 -61.583694458008 -89.534606933594 1.710773110390
51.591796875000 -59.006641387939 -87.377456665039 4.087743282318
-63.923538208008 -59.520282745361 -95.061660766602 2.821963310242
-99.249572753906 -63.202987670898 -106.459884643555 1.401434898376
84.790588378906 -63.181793212891 -107.936706542969 2.143172740936
-77.855506896973 -66.039108276367 -108.221664428711 2.018994569778
-68.027877807617 -61.835536956787 -110.658447265625 1.182647705078
-82.226280212402 -63.805389404297 -120.154144287109 1.377007126808
-86.503204345703 -62.655448913574 -114.949066162109 1.276513457298
-77.687644958496 -63.378837585449 -117.538070678711 1.407326579094
-69.810653686523 -64.405532836914 -114.467742919922 2.757760524750
-68.500930786133 -64.584594726563 -115.054061889648 2.118041515350
-81.590248107910 -60.786422729492 -119.388061523438 1.619285821915
-76.590415954590 -57.227226257324 -109.332839965820 1.842403173447
-63.559253692627 -65.842506408691 -118.675674438477 1.527217984200
-83.874313354492 -62.652069091797 -114.701217651367 1.457971692085
-71.371322631836 -61.465049743652 -121.325622558594 4.244072437286
-76.912162780762 -62.431560516357 -130.567321777344 1.858051419258
-77.447975158691 -59.269641876221 -130.210449218750 3.199428319931
27.478532791138 -59.488925933838 -127.435302734375 2.457631826401
-56.953289031982 -66.641189575195 -127.360031127930 1.933794379234
25.496690750122 -61.053203582764 -132.054534912109 1.520815610886
25.261856079102 -59.441165924072 -133.186706542969 2.040063858032
-138.711624145508 -62.490943908691 -195.034729003906 3.359269857407
-137.914825439453 -64.847167968750 -198.194198608398 2.447977781296
-157.284683227539 -62.002849578857 -203.842163085938 3.675447463989
-150.043853759766 -61.174369812012 -200.951187133789 1.094323277473
-155.148910522461 -65.730125427246 -199.055206298828 1.771285414696
-150.208786010742 -58.109931945801 -203.844528198242 2.736508607864
-139.158142089844 -65.093383789063 -206.038986206055 3.941696882248
-148.631042480469 -62.564537048340 -204.753402709961 1.198905229568
-147.660675048828 -58.656764984131 -224.773040771484 2.201981067657
-147.145324707031 -59.627079010010 -225.025375366211 1.501174330711
-148.870819091797 -62.455825805664 -224.233566284180 0.733219981194
-143.678878784180 -64.067626953125 -222.485473632813 2.288533449173
-152.101165771484 -60.171092987061 -226.598754882813 1.923593878746
