# This PCD file was generated using the MATLAB® pcwrite function
# from Computer Vision Toolbox®.
# .PCD v.7 - Point Cloud Data file format
VERSION .7
FIELDS x y z
SIZE 4 4 4
TYPE F F F
COUNT 1 1 1
WIDTH 1416
HEIGHT 1
VIEWPOINT 0 0 0 1 0 0 0
POINTS 1416
DATA ascii
-63.862206 111.668884 -175.550003
-63.544888 110.714119 -175.550003
-63.975903 148.841263 -175.949997
-63.981976 146.299271 -175.949997
-63.788868 109.761703 -175.949997
-63.751186 147.886719 -176.350006
-63.759964 146.933746 -176.350006
-63.978004 111.669159 -176.350006
-63.621387 110.714302 -176.350006
-64.070045 109.434372 -176.350006
-63.679485 147.886551 -176.750000
-63.981903 146.330276 -176.750000
-63.700066 146.933609 -176.750000
-63.872406 111.668907 -176.750000
-63.601585 110.714256 -176.750000
-63.898167 109.761963 -176.750000
-63.765484 147.886749 -177.149994
-63.978004 111.669159 -177.149994
-63.689487 110.714462 -177.149994
-64.069290 109.750374 -177.149994
-63.976967 148.396255 -177.550003
-63.745281 147.886703 -177.550003
-63.981411 146.536270 -177.550003
-63.776665 146.933792 -177.550003
-63.980507 111.669167 -177.550003
-63.974987 149.225266 -177.949997
-63.494102 148.840118 -177.949997
-63.201763 146.932419 -177.949997
-64.064087 111.928368 -177.949997
-63.850006 111.668854 -177.949997
-63.698788 110.714485 -177.949997
-63.971348 150.747253 -178.550003
-63.973816 149.715256 -178.350006
-63.984432 145.271271 -178.350006
-63.978905 111.669159 -178.350006
-64.068100 110.247375 -178.350006
-63.830589 110.714806 -178.350006
-63.987022 144.187271 -178.750000
-63.996605 111.669205 -178.750000
-63.969109 151.685257 -179.149994
-64.064064 111.939369 -179.149994
-63.868904 111.668900 -179.149994
-64.068184 110.212372 -179.149994
-63.779488 110.714684 -179.149994
-63.967876 152.201263 -179.550003
-63.989567 143.122269 -179.699005
-63.995903 111.669205 -179.550003
-63.972588 110.715141 -179.550003
-63.997307 111.669205 -179.949997
-64.017288 110.715248 -179.949997
-64.026001 127.872322 -180.712006
-64.064003 111.964363 -180.350006
-63.870506 111.668900 -180.350006
-64.066986 110.715370 -180.595993
-63.921684 110.715019 -180.350006
-63.991779 142.196274 -180.750000
-63.902428 125.012016 -180.750000
-63.992939 141.710281 -181.149994
-64.013878 132.946304 -181.149994
-63.735218 132.636627 -181.149994
-63.471394 131.683014 -181.149994
-63.381149 129.776779 -181.149994
-63.304523 128.823593 -181.149994
-63.276676 126.917526 -181.149994
-63.279957 125.963531 -181.149994
-63.313534 125.010612 -181.149994
-64.035751 123.789337 -181.149994
-63.757107 124.058670 -181.149994
-64.013435 133.131302 -181.550003
-63.513615 132.636108 -181.550003
-63.236694 131.682449 -181.550003
-63.253246 129.776474 -181.550003
-63.254425 128.823471 -181.550003
-63.211277 126.917374 -181.550003
-63.442707 124.057915 -181.550003
-63.723110 111.668549 -181.550003
-63.963459 154.050247 -181.949997
-63.994003 141.264282 -181.949997
-63.994122 141.215286 -182.205994
-64.013733 133.007309 -181.949997
-63.561714 132.636215 -181.949997
-63.251595 131.682495 -181.949997
-63.297146 129.776581 -181.949997
-63.202824 128.823349 -181.949997
-63.091003 127.870087 -181.949997
-64.036873 123.319336 -181.949997
-64.063751 112.068367 -181.949997
-64.065514 111.332367 -181.949997
-63.914207 111.669006 -181.949997
-64.013062 133.288300 -182.350006
-63.183220 132.635315 -182.350006
-63.996933 112.622208 -182.350006
-63.680408 111.668449 -182.350006
-63.978184 147.887253 -182.867996
-63.980457 146.934280 -182.988007
-64.012337 133.591309 -182.925995
-64.036987 123.271332 -182.750000
-64.037384 123.106339 -183.139008
-64.060898 113.263367 -182.750000
-63.515633 112.621063 -182.750000
-63.394211 111.667763 -182.750000
-63.998886 110.715202 -182.750000
-63.975903 148.841263 -183.343002
-63.995564 140.611282 -183.149994
-64.003227 137.403290 -183.520996
-64.007782 135.497299 -183.431000
-63.611938 133.590347 -183.149994
-63.994331 112.622208 -183.149994
-64.065186 111.467369 -183.149994
-63.922104 111.669029 -183.149994
-63.975574 148.979263 -183.550003
-63.981590 146.460281 -183.550003
-63.998676 139.309296 -183.701996
-63.883503 136.449997 -183.550003
-63.852360 134.543930 -183.550003
-64.038719 122.546333 -183.550003
-63.643684 123.105400 -183.550003
-64.061485 113.018364 -183.550003
-64.060150 113.575363 -183.843002
-63.780632 112.621696 -183.550003
-63.975498 149.010254 -183.949997
-63.982086 146.252274 -183.949997
-63.918198 140.262100 -183.949997
-63.819080 139.308868 -183.949997
-63.834251 138.355896 -183.949997
-63.757027 137.402710 -183.949997
-63.660404 136.449463 -183.949997
-63.662960 134.543472 -183.949997
-63.323936 133.589661 -183.949997
-64.051048 117.387352 -184.292999
-64.057877 114.528358 -184.061005
-63.872654 113.574913 -183.949997
-63.520531 112.621071 -183.949997
-64.066330 110.990364 -183.949997
-63.547409 111.668129 -183.949997
-63.962376 154.503250 -184.350006
-63.982334 146.149277 -184.350006
-63.936302 140.262131 -184.350006
-63.904774 139.309067 -184.350006
-63.806252 138.355835 -184.350006
-63.728207 136.449631 -184.350006
-63.688080 135.496536 -184.350006
-63.701061 134.543564 -184.350006
-63.389038 133.589813 -184.350006
-63.735382 123.105614 -184.350006
-64.044212 120.247345 -184.449997
-63.672478 114.527435 -184.350006
-63.554455 113.574150 -184.350006
-63.411034 112.620811 -184.350006
-64.066200 111.042366 -184.350006
-63.564110 111.668167 -184.350006
-63.975163 149.151260 -184.750000
-63.982418 146.114273 -184.750000
-63.794601 140.261795 -184.750000
-63.864376 139.308975 -184.750000
-63.609459 134.543350 -184.750000
-63.530586 123.105125 -184.750000
-63.918766 122.153046 -184.750000
-63.829712 120.246834 -184.750000
-63.776367 118.340698 -184.750000
-63.678425 116.433456 -184.750000
-63.466877 114.526947 -184.750000
-63.367756 113.573708 -184.750000
-63.343033 112.620651 -184.750000
-64.065727 111.242363 -184.750000
-63.671711 111.668427 -184.750000
-63.982288 146.168274 -185.149994
-63.802551 138.355820 -185.149994
-63.751030 137.402695 -185.149994
-63.644661 134.543442 -185.149994
-63.365337 133.589767 -185.149994
-63.489384 123.105026 -185.149994
-63.828465 122.152832 -185.149994
-63.755341 121.199654 -185.149994
-63.696091 119.293510 -185.149994
-63.603348 117.386284 -185.149994
-63.442799 115.479897 -185.149994
-63.399879 114.526787 -185.149994
-63.396854 113.573776 -185.149994
-63.472832 112.620956 -185.149994
-63.911705 111.668999 -185.149994
-63.975563 148.983261 -185.550003
-63.981377 146.549271 -185.550003
-63.996399 140.262283 -185.576004
-63.998676 139.309296 -185.578003
-64.000954 138.356293 -185.679001
-63.860752 138.355957 -185.550003
-63.795605 136.449799 -185.550003
-64.007782 135.497299 -185.830994
-63.662361 134.543472 -185.550003
-63.280739 133.589554 -185.550003
-63.568584 123.105217 -185.550003
-64.039658 122.153336 -185.714996
-63.871059 122.152939 -185.550003
-64.044212 120.247345 -185.744995
-63.779789 119.293709 -185.550003
-63.708267 118.340538 -185.550003
-63.581402 115.480225 -185.550003
-63.537178 114.527115 -185.550003
-63.927330 112.622047 -185.550003
-63.980865 146.763275 -185.949997
-63.980457 146.934280 -186.121994
-63.995762 140.528290 -185.949997
-64.010376 134.411301 -185.949997
-63.517536 133.590134 -185.949997
-63.846687 123.105881 -185.949997
-64.016205 115.481262 -185.949997
-63.797279 114.527740 -185.949997
-64.061455 113.030365 -185.949997
-63.808056 113.574760 -185.949997
-63.978127 147.911255 -186.350006
-63.995300 140.721283 -186.350006
-64.037506 123.055336 -186.350006
-64.053795 116.237358 -186.350006
-63.831898 115.480827 -186.350006
-63.646076 114.527374 -186.350006
-64.061310 113.092369 -186.350006
-64.060150 113.575363 -186.598007
-63.720356 113.574547 -186.350006
-63.994122 141.215286 -186.750000
-64.012337 133.591309 -186.912994
-63.942581 114.528084 -186.750000
-63.963486 154.039246 -187.149994
-63.078518 132.635071 -187.149994
-64.037102 123.224335 -187.149994
-63.964073 153.792252 -187.550003
-63.993843 141.331284 -187.550003
-64.013115 133.265305 -187.550003
-63.364216 132.635742 -187.550003
-63.173992 131.682297 -187.550003
-63.102547 129.776123 -187.550003
-64.037186 123.188339 -187.550003
-63.118313 124.057144 -187.550003
-64.037384 123.106339 -187.949997
-63.993164 141.616287 -187.949997
-64.013321 133.178299 -187.949997
-63.485615 132.636032 -187.949997
-63.239292 131.682465 -187.949997
-63.113346 129.776154 -187.949997
-63.199711 124.057335 -187.949997
-64.044212 120.247345 -188.302994
-64.053322 116.434349 -188.093002
-64.055595 115.481361 -188.309998
-64.014061 132.867310 -188.350006
-63.817616 132.636826 -188.350006
-63.492294 131.683060 -188.350006
-63.332523 128.823669 -188.350006
-63.249077 126.917465 -188.350006
-63.131035 125.010178 -188.350006
-63.454208 124.057945 -188.350006
-64.039658 122.153336 -188.459000
-63.867146 117.386917 -188.350006
-63.805923 116.433762 -188.350006
-63.965858 153.045242 -188.750000
-63.966797 152.653244 -189.110992
-63.798199 127.871780 -188.750000
-63.646976 126.918411 -188.750000
-63.432533 125.010895 -188.750000
-63.603207 124.058296 -188.750000
-63.808586 123.105789 -188.750000
-63.743259 122.152626 -188.750000
-63.659691 119.293419 -188.750000
-63.637951 117.386368 -188.750000
-63.640621 116.433365 -188.750000
-64.055702 115.437355 -188.750000
-63.990780 142.613281 -189.149994
-63.989567 143.122269 -189.507996
-63.727554 125.964600 -189.149994
-63.651531 125.011421 -189.149994
-63.937782 123.106102 -189.149994
-63.899662 122.153000 -189.149994
-63.857414 120.246902 -189.149994
-63.758652 117.386658 -189.149994
-63.811623 116.433777 -189.149994
-63.969074 151.700256 -189.744003
-63.969677 151.447266 -189.949997
-63.970528 151.091263 -190.350006
-63.971348 150.747253 -190.496994
-63.972244 150.372253 -190.750000
-63.984554 145.220276 -190.750000
-63.973122 150.005264 -191.149994
-63.983662 145.593277 -191.149994
-63.983227 145.775269 -191.949997
-63.973366 149.903259 -192.350006
-63.983135 145.814270 -192.350006
-63.973553 149.825256 -192.750000
-63.983303 145.743271 -192.750000
-63.973228 149.960266 -193.149994
-63.983028 145.859268 -193.149994
-63.973171 149.984253 -193.550003
-63.973339 149.914261 -193.949997
-63.983353 145.722275 -193.949997
-63.973019 150.049255 -194.350006
-63.982811 145.950272 -194.350006
-63.973015 150.050262 -194.750000
-63.973270 149.943253 -195.149994
-63.972973 150.068253 -195.550003
-63.972878 150.108261 -195.949997
-63.973026 150.045258 -196.350006
-63.448940 145.979996 -196.350006
-63.972801 150.140259 -196.750000
-63.982735 145.981277 -197.100006
-63.972851 150.118256 -197.550003
-63.972694 150.184265 -197.949997
-63.972649 150.203262 -199.149994
-63.972530 150.253265 -201.149994
-63.982735 145.981277 -208.320007
-63.969074 151.700256 -208.576996
-63.968220 152.057266 -208.750000
-63.985790 144.702271 -208.750000
-63.966797 152.653244 -209.242996
-63.986828 144.268280 -209.149994
-63.987534 143.972275 -209.550003
-63.962929 154.272247 -210.750000
-63.991234 142.424271 -211.149994
-64.023720 128.825317 -211.445007
-64.028275 126.919327 -211.261002
-64.030556 125.965324 -211.382996
-63.962257 154.553238 -211.550003
-63.972500 127.872192 -211.550003
-63.961430 154.900238 -211.949997
-63.988842 129.778244 -211.949997
-63.772820 128.824722 -211.949997
-63.665798 127.871460 -211.949997
-63.578556 125.964241 -211.949997
-63.975903 148.841263 -212.501999
-63.978184 147.887253 -212.589005
-63.706913 132.636566 -212.350006
-63.635769 130.730408 -212.350006
-63.399426 128.823822 -212.350006
-63.296276 126.917572 -212.350006
-63.331558 125.963654 -212.350006
-64.033173 124.870331 -212.350006
-63.893631 125.012001 -212.350006
-63.960751 155.184250 -212.750000
-63.975254 149.113266 -212.750000
-63.973625 149.794266 -213.136993
-63.915634 133.591080 -212.750000
-63.322124 128.823639 -212.750000
-64.033356 124.793327 -212.750000
-63.979431 147.364258 -213.149994
-63.993198 141.601288 -213.149994
-64.011353 134.001312 -213.149994
-63.418316 132.635880 -213.149994
-63.368172 130.729767 -213.149994
-63.312046 129.776627 -213.149994
-63.196526 128.823334 -213.149994
-63.587532 125.011269 -213.149994
-63.960526 155.278244 -213.550003
-63.973209 149.969254 -213.550003
-63.471836 133.590012 -213.550003
-63.301617 132.635605 -213.550003
-63.314671 130.729630 -213.550003
-64.033997 124.525330 -213.550003
-63.993549 141.454285 -213.949997
-63.416538 133.589890 -213.949997
-63.213818 132.635391 -213.949997
-63.226471 130.729416 -213.949997
-63.136848 129.776199 -213.949997
-63.383133 125.010780 -213.949997
-63.960285 155.378250 -214.350006
-63.972996 150.058258 -214.350006
-63.993439 141.500290 -214.350006
-63.282215 132.635559 -214.350006
-63.260792 131.682510 -214.350006
-64.033958 124.540329 -214.350006
-63.462833 125.010971 -214.350006
-63.972958 150.074265 -214.750000
-64.010979 134.159302 -214.750000
-63.440437 133.589935 -214.750000
-63.216846 129.776398 -214.750000
-63.960503 155.288239 -215.149994
-63.993469 141.488297 -215.149994
-64.034065 124.494331 -215.149994
-63.960495 155.290237 -215.550003
-63.973541 149.830261 -215.550003
-63.979504 147.334259 -215.550003
-63.993233 141.587296 -215.550003
-64.011108 134.103302 -215.550003
-63.541637 133.590179 -215.550003
-63.310215 132.635620 -215.550003
-63.243271 130.729462 -215.550003
-63.116325 128.823151 -215.550003
-64.033920 124.557327 -215.550003
-63.456635 125.010956 -215.550003
-63.960674 155.215240 -215.949997
-63.974674 149.355255 -215.949997
-63.975903 148.841263 -216.244995
-64.011635 133.883301 -215.949997
-63.744041 133.590668 -215.949997
-63.445415 132.635941 -215.949997
-63.400372 130.729843 -215.949997
-63.365246 129.776749 -215.949997
-63.277626 128.823532 -215.949997
-63.146858 125.963211 -215.949997
-64.033569 124.702332 -215.949997
-63.670830 125.011467 -215.949997
-63.960918 155.113251 -216.350006
-64.012054 133.708298 -216.350006
-63.521194 131.683136 -216.350006
-63.961304 154.952240 -216.750000
-63.991859 142.161270 -216.750000
-63.732418 132.636627 -216.750000
-63.614391 131.683350 -216.750000
-63.597771 130.730316 -216.750000
-63.480549 129.777023 -216.750000
-63.384304 127.870789 -216.750000
-63.311775 126.917610 -216.750000
-63.298859 125.963577 -216.750000
-64.033356 124.792328 -216.750000
-63.809433 125.011795 -216.750000
-64.021446 129.778320 -217.182007
-64.026001 127.872322 -217.395004
-63.559677 126.918205 -217.149994
-63.488857 125.964027 -217.149994
-63.885277 126.918983 -217.550003
-63.962776 154.335251 -217.949997
-63.990929 142.551270 -217.949997
-63.963722 153.940247 -218.350006
-63.990192 142.860275 -218.350006
-63.989567 143.122269 -218.503006
-63.965195 153.323242 -219.149994
-63.966797 152.653244 -219.462997
-63.988396 143.611267 -219.149994
-63.987289 144.075272 -219.541000
-63.968540 151.923264 -219.949997
-63.985100 144.991272 -219.949997
-63.969372 151.575256 -220.350006
-63.984135 145.396271 -220.350006
-63.982735 145.981277 -220.578995
-63.971256 150.786255 -220.750000
-63.982189 146.210281 -220.750000
-63.971581 150.651260 -221.149994
-63.981720 146.406281 -221.149994
-63.981419 146.532272 -221.949997
-64.319733 4.919293 -222.173004
-64.322006 3.966175 -222.057999
-63.981529 146.486267 -222.750000
-64.330208 0.532484 -222.750000
-63.981316 146.575272 -223.149994
-63.733978 6.824158 -223.149994
-63.981232 146.610275 -223.550003
-64.313103 7.693075 -223.550003
-63.509979 6.823623 -223.550003
-64.333389 -0.799436 -223.841995
-64.001396 -0.800229 -223.550003
-64.335670 -1.752558 -223.835007
-64.337944 -2.705686 -223.843002
-64.340225 -3.658803 -223.811996
-64.237984 -5.565303 -223.550003
-63.981354 146.560272 -223.949997
-64.166199 7.778314 -223.949997
-63.414478 6.823395 -223.949997
-63.878304 -4.613029 -223.949997
-63.883881 -5.566149 -223.949997
-64.348122 -6.964563 -223.949997
-64.089554 -6.518790 -223.949997
-63.971489 150.689255 -224.350006
-63.981129 146.653275 -224.350006
-64.064598 7.778071 -224.350006
-63.371578 6.823293 -224.350006
-63.678680 -5.566639 -224.350006
-63.115261 146.932205 -224.750000
-64.312782 7.826804 -224.750000
-64.348755 -7.231353 -224.750000
-63.795757 -6.519492 -224.750000
-63.981323 146.572281 -225.149994
-64.348618 -7.171063 -225.149994
-63.596558 -6.519968 -225.149994
-63.959049 -15.097246 -225.149994
-63.917229 -16.050449 -225.149994
-63.980911 146.744278 -225.550003
-63.954273 -14.144155 -225.550003
-63.919102 -17.003548 -225.550003
-64.313744 7.426065 -225.949997
-64.349701 -7.625852 -225.949997
-64.372017 -16.965866 -225.949997
-63.981205 146.622269 -226.350006
-63.115261 146.932205 -226.350006
-64.350479 -7.952431 -226.350006
-63.602436 -7.473076 -226.350006
-64.364525 -13.830574 -226.350006
-64.373260 -17.486364 -226.350006
-63.980877 146.759277 -226.750000
-63.512161 146.933151 -226.750000
-64.317039 6.045709 -226.750000
-64.350700 -8.045371 -226.750000
-63.442635 -7.473458 -226.750000
-64.363930 -13.580474 -226.750000
-63.462795 -13.192226 -226.750000
-64.373482 -17.579464 -226.750000
-64.320183 4.728673 -227.149994
-64.322006 3.966175 -227.367996
-64.362427 -12.954276 -227.149994
-64.374313 -17.929361 -227.149994
-63.980976 146.718277 -227.550003
-63.405262 146.932892 -227.550003
-64.323891 3.178807 -227.550003
-64.351357 -8.317889 -227.550003
-64.360764 -12.257478 -227.550003
-64.376144 -18.695761 -227.550003
-63.971390 150.730255 -227.949997
-63.980732 146.819275 -227.949997
-64.358971 -11.507081 -227.949997
-64.377365 -19.205158 -227.949997
-64.324402 2.964038 -228.350006
-64.351486 -8.373690 -228.350006
-64.357994 -11.096282 -228.350006
-64.378479 -19.671259 -228.350006
-63.999435 -19.862764 -228.350006
-63.971413 150.721252 -228.750000
-63.980732 146.819275 -228.750000
-64.324463 2.939288 -228.750000
-64.324287 3.013058 -229.108994
-64.351997 -8.588228 -228.750000
-64.356674 -10.543683 -228.750000
-63.980511 146.912277 -229.149994
-64.352478 -8.787828 -229.149994
-64.355301 -9.971485 -229.149994
-64.379326 -20.028255 -229.149994
-64.312897 7.778664 -229.919006
-64.323006 3.548026 -229.550003
-64.322006 3.966175 -229.927994
-64.352730 -8.893758 -229.550003
-63.927208 -8.425424 -229.550003
-64.354607 -9.678756 -229.550003
-64.353882 -9.377537 -229.766006
-63.971355 150.745255 -229.949997
-64.317451 5.872420 -230.119003
-64.319733 4.919293 -230.149994
-64.380234 -20.407854 -229.949997
-63.971119 150.844254 -230.350006
-63.903778 6.824564 -230.350006
-63.962158 5.871571 -230.350006
-63.873333 4.918226 -230.350006
-64.183022 8.731477 -230.750000
-63.751003 7.777322 -230.750000
-63.436756 5.870316 -230.750000
-63.383080 6.823320 -231.149994
-64.380310 -20.438354 -231.149994
-63.971241 150.793259 -231.550003
-64.308907 9.448410 -231.550003
-63.865223 8.730718 -231.550003
-63.970936 150.920258 -231.949997
-63.091454 150.745148 -231.949997
-64.309120 9.359260 -232.350006
-63.918423 8.730844 -232.350006
-64.379578 -20.131456 -232.350006
-63.970951 150.913254 -232.750000
-64.079926 8.731231 -232.750000
-64.378822 -19.816156 -232.750000
-63.970840 150.960266 -233.149994
-63.980305 146.999268 -233.149994
-64.310562 8.755912 -233.149994
-63.713001 7.777231 -233.149994
-64.378578 -19.714357 -233.149994
-63.678432 -19.863531 -233.149994
-63.943100 7.777781 -233.550003
-64.378868 -19.835257 -233.550003
-63.970928 150.924255 -233.949997
-63.980392 146.962280 -233.949997
-64.192795 7.778378 -233.949997
-63.640678 6.823936 -233.949997
-64.379585 -20.135056 -233.949997
-63.970684 151.025253 -234.350006
-63.750278 6.824197 -234.350006
-64.380089 -20.344757 -234.350006
-63.970940 150.918259 -234.750000
-63.980240 147.025269 -234.750000
-64.314423 7.140256 -234.750000
-63.589455 5.870680 -234.750000
-64.381210 -20.815054 -234.914001
-63.970989 150.897263 -235.149994
-63.980350 146.980270 -235.149994
-64.315453 6.710018 -235.149994
-63.736755 5.871032 -235.149994
-64.382011 -21.152353 -235.149994
-64.440414 -45.596184 -235.490997
-63.970600 151.060257 -235.550003
-63.980240 147.025269 -235.550003
-64.315971 6.492278 -235.550003
-63.862858 5.871334 -235.550003
-63.699535 4.917811 -235.949997
-64.355759 -43.690178 -235.949997
-64.337738 -44.643326 -235.949997
-63.970795 150.979263 -236.350006
-63.980259 147.018280 -236.350006
-64.384583 -22.228550 -236.350006
-64.429024 -40.830597 -236.744003
-64.228378 -42.737282 -236.350006
-64.242432 -44.643555 -236.350006
-64.440414 -45.596184 -236.350006
-63.970528 151.091263 -236.750000
-63.980194 147.045258 -236.750000
-64.318794 5.310321 -236.750000
-64.039032 4.918622 -236.750000
-64.124008 -41.784428 -236.750000
-64.030281 -42.737755 -236.750000
-64.028656 -43.690960 -236.750000
-64.128036 -44.643829 -236.750000
-64.440544 -45.651184 -236.750000
-63.970695 151.021255 -237.149994
-64.320107 4.763333 -237.149994
-63.769310 3.964855 -237.149994
-64.385765 -22.721249 -237.223999
-64.424469 -38.924301 -237.449997
-64.359650 -39.877560 -237.149994
-64.079124 -40.831436 -237.149994
-63.983208 -41.784763 -237.149994
-64.001884 -42.737820 -237.149994
-64.067162 -43.690868 -237.149994
-64.439232 -45.101982 -237.149994
-63.970421 151.135254 -237.550003
-63.980267 147.014267 -237.550003
-63.980457 146.934280 -237.779007
-64.422195 -37.971207 -237.766998
-64.298767 -38.924603 -237.550003
-64.048347 -39.878304 -237.550003
-63.940228 -40.831768 -237.550003
-64.378036 -44.643230 -237.550003
-63.969074 151.700256 -238.052994
-64.321068 4.360564 -237.949997
-64.046310 3.965517 -237.949997
-64.197495 -37.971741 -237.949997
-63.977673 -38.925369 -237.949997
-63.856850 -39.878761 -237.949997
-63.825428 -40.832039 -237.949997
-63.850307 -41.785084 -237.949997
-63.928185 -42.737999 -237.949997
-64.125664 -43.690731 -237.949997
-63.967609 152.313263 -238.350006
-63.982014 146.283279 -238.350006
-63.743088 3.011669 -238.350006
-63.388966 2.057691 -238.350006
-64.387924 -23.626146 -238.350006
-64.418839 -36.566612 -238.350006
-64.169426 -37.018707 -238.350006
-63.909595 -37.972431 -238.350006
-63.829575 -38.925720 -238.350006
-63.793453 -39.878914 -238.350006
-64.377762 -43.690128 -238.350006
-63.965816 153.063248 -238.750000
-63.984760 145.134277 -238.750000
-64.389381 -24.237045 -238.750000
-64.111038 -36.065742 -238.750000
-63.862419 -37.019440 -238.750000
-63.785595 -37.972725 -238.750000
-63.784927 -40.832138 -238.750000
-63.878807 -41.785015 -238.750000
-64.435455 -43.520988 -238.750000
-64.075378 -42.737644 -238.750000
-63.964520 153.606247 -239.212006
-63.986103 144.572281 -239.149994
-64.323181 3.474247 -239.149994
-64.002991 3.012290 -239.149994
-64.389809 -24.415342 -239.149994
-64.414276 -34.656914 -239.149994
-64.142967 -35.112461 -239.149994
-63.830147 -36.066414 -239.149994
-63.715523 -37.019791 -239.149994
-63.674595 -37.972992 -239.149994
-63.674072 -38.926094 -239.149994
-63.694752 -39.879150 -239.149994
-63.763027 -40.832191 -239.149994
-63.912506 -41.784935 -239.149994
-64.266579 -42.737190 -239.149994
-63.963181 154.166245 -239.550003
-63.986504 144.404282 -239.550003
-63.987289 144.075272 -239.850998
-63.706966 2.058450 -239.550003
-64.208389 -34.159206 -239.550003
-63.834469 -35.113201 -239.550003
-63.684647 -36.066761 -239.550003
-63.641724 -37.019970 -239.550003
-64.432823 -42.419090 -239.550003
-64.115608 -41.784447 -239.550003
-63.962578 154.419250 -239.949997
-63.095951 150.745163 -239.949997
-63.029308 148.839005 -239.949997
-63.060085 147.885071 -239.949997
-63.987846 143.842270 -239.949997
-64.389992 -24.492443 -239.949997
-64.125511 -33.206303 -239.949997
-63.809490 -34.160156 -239.949997
-63.669670 -35.113594 -239.949997
-63.666775 -38.926109 -239.949997
-63.763252 -39.878986 -239.949997
-63.914429 -40.831829 -239.949997
-64.266403 -41.784088 -239.949997
-63.961761 154.760239 -240.350006
-63.988731 143.471268 -240.350006
-64.325310 2.582599 -240.350006
-63.976162 2.059093 -240.350006
-64.135231 -32.253075 -240.350006
-63.804512 -33.207069 -240.350006
-63.651592 -34.160534 -240.350006
-63.522346 -36.067150 -240.350006
-63.541122 -37.020210 -240.350006
-63.576302 -37.973225 -240.350006
-63.662975 -38.926121 -240.350006
-63.803852 -39.878887 -240.350006
-64.062828 -40.831474 -240.350006
-63.960857 155.139236 -240.750000
-64.177956 -31.299870 -240.750000
-63.791138 -32.253899 -240.750000
-63.620014 -33.207508 -240.750000
-63.522392 -34.160843 -240.750000
-63.482567 -35.114040 -240.750000
-63.974152 -39.878483 -240.750000
-63.960445 155.311249 -241.149994
-63.989567 143.122269 -241.328003
-64.326775 1.972151 -241.149994
-63.783039 1.105504 -241.149994
-64.390114 -24.542143 -241.149994
-64.158180 -30.346813 -241.149994
-63.753658 -31.300884 -241.149994
-63.581738 -32.254398 -241.149994
-63.481213 -33.207840 -241.149994
-63.664497 -37.973015 -241.149994
-63.804375 -38.925781 -241.149994
-64.099251 -39.878181 -241.149994
-63.959965 155.512238 -241.890015
-63.990131 142.885269 -241.549988
-64.110901 -29.393824 -241.549988
-63.709381 -30.347887 -241.549988
-63.549458 -31.301371 -241.549988
-63.574623 -37.020130 -241.549988
-63.719997 -37.972881 -241.549988
-63.936573 -38.925465 -241.549988
-63.973625 149.794266 -242.207001
-63.073429 149.792114 -241.950012
-63.975903 148.841263 -242.166992
-63.990875 142.574280 -241.950012
-64.327835 1.525862 -241.950012
-64.035942 1.106109 -241.950012
-63.437122 -24.629721 -241.950012
-64.323425 -28.440214 -241.950012
-63.750305 -29.394686 -241.950012
-63.535282 -30.348303 -241.950012
-64.324966 -38.924538 -241.950012
-63.959160 155.849243 -242.350006
-63.037571 155.510040 -242.350006
-63.972980 150.064255 -242.350006
-63.976826 148.455261 -242.350006
-63.978184 147.887253 -242.737000
-63.991135 142.465271 -242.350006
-63.743717 0.152283 -242.350006
-63.395294 -0.801677 -242.350006
-64.390991 -24.908443 -242.350006
-64.397148 -27.486835 -242.394012
-63.733425 -28.441624 -242.350006
-63.472710 -29.395350 -242.350006
-63.706623 -37.019814 -242.350006
-64.424141 -38.786804 -242.350006
-63.961098 -37.972305 -242.350006
-63.958813 155.994247 -242.750000
-63.972290 150.353256 -242.750000
-64.391335 -25.054943 -242.750000
-64.395164 -26.657837 -242.750000
-63.785248 -27.488297 -242.750000
-63.595745 -36.066975 -242.750000
-63.828819 -37.019520 -242.750000
-64.334694 -37.971413 -242.750000
-63.971130 150.838257 -243.149994
-63.978737 147.655258 -243.149994
-64.329628 0.777418 -243.149994
-63.911118 0.152683 -243.149994
-64.391960 -25.313742 -243.149994
-64.393379 -25.909538 -243.149994
-63.915672 -26.534883 -243.149994
-63.543552 -27.488874 -243.149994
-63.736244 -36.066639 -243.149994
-64.106827 -37.018856 -243.149994
-63.958591 156.087250 -243.549988
-63.970798 150.978256 -243.549988
-63.991421 142.345276 -243.549988
-63.683292 -0.800989 -243.549988
-64.029495 -25.581509 -243.549988
-63.596478 -26.535645 -243.549988
-63.612370 -35.113731 -243.549988
-63.851547 -36.066364 -243.549988
-64.419952 -37.032505 -243.549988
-63.958679 156.050247 -243.950012
-63.970844 150.958252 -243.950012
-63.979229 147.449265 -243.950012
-63.991604 142.269272 -243.950012
-63.765293 -0.800793 -243.950012
-63.410873 -1.754768 -243.950012
-63.492397 -25.582790 -243.950012
-63.546089 -34.160786 -243.950012
-63.763168 -35.113369 -243.950012
-64.230339 -36.065456 -243.950012
-63.958515 156.119247 -244.350006
-63.970730 151.007263 -244.350006
-63.979050 147.523254 -244.350006
-64.331390 0.040069 -244.350006
-63.809494 -0.800688 -244.350006
-64.077766 -35.112617 -244.350006
-63.958607 156.081238 -244.750000
-63.970829 150.965256 -244.750000
-63.979103 147.502258 -244.750000
-63.991329 142.383270 -244.750000
-64.003395 -0.800225 -244.750000
-63.541012 -33.207699 -244.750000
-63.800991 -34.160179 -244.750000
-63.958797 156.001251 -245.149994
-63.015125 153.603989 -245.149994
-63.971119 150.844254 -245.149994
-63.978878 147.595261 -245.149994
-63.991447 142.335281 -245.149994
-63.705414 -33.207306 -245.149994
-64.195686 -34.159237 -245.149994
-63.958832 155.987244 -245.549988
-63.971970 150.487259 -245.549988
-63.978317 147.830261 -245.549988
-63.991184 142.444275 -245.549988
-64.332893 -0.590651 -245.549988
-63.675472 -1.754136 -245.549988
-63.613636 -32.254322 -245.549988
-64.012512 -33.206573 -245.549988
-63.959229 155.821243 -245.950012
-63.972713 150.176254 -245.950012
-63.973625 149.794266 -246.170013
-63.977608 148.127258 -245.950012
-63.975903 148.841263 -246.221985
-64.333672 -0.915521 -245.950012
-63.813271 -1.753806 -245.950012
-63.752636 -32.253990 -245.950012
-63.959877 155.550247 -246.350006
-63.990986 142.527267 -246.350006
-63.625057 -31.301191 -246.350006
-64.216133 -32.252880 -246.350006
-63.136497 152.651260 -246.750000
-63.990047 142.921280 -246.750000
-63.989567 143.122269 -247.003998
-64.333954 -1.036070 -246.750000
-63.867672 -1.753677 -246.750000
-63.948959 -31.300417 -246.750000
-63.258499 152.651566 -247.149994
-63.135441 145.979248 -247.149994
-64.334579 -1.295380 -247.149994
-64.024971 -1.753301 -247.149994
-63.656681 -30.348013 -247.149994
-63.960960 155.096237 -247.549988
-63.059696 152.651077 -247.549988
-63.144176 151.698273 -247.549988
-63.130962 146.932251 -247.549988
-63.989197 143.277267 -247.549988
-64.394875 -26.533737 -247.786987
-63.532406 -29.395206 -247.549988
-64.050377 -30.347071 -247.549988
-63.961681 154.794250 -247.950012
-63.962242 154.559250 -248.080994
-63.074574 151.698120 -247.950012
-63.988621 143.517273 -247.950012
-64.334869 -1.418559 -247.950012
-64.091370 -1.753142 -247.950012
-64.394493 -26.374939 -247.950012
-64.395111 -26.632738 -247.950012
-63.466030 -28.442263 -247.950012
-64.403458 -30.127829 -247.950012
-63.786606 -29.394598 -247.950012
-63.962700 154.368240 -248.350006
-63.304153 150.745651 -248.350006
-63.221130 149.792465 -248.350006
-63.158207 148.839310 -248.350006
-63.185585 147.885361 -248.350006
-63.987999 143.778275 -248.350006
-63.987289 144.075272 -248.523010
-64.335594 -1.722129 -248.350006
-63.701347 -2.707207 -248.350006
-64.394081 -26.204439 -248.350006
-64.395859 -26.947536 -248.350006
-64.397148 -27.486835 -248.617004
-63.815750 -27.488224 -248.350006
-64.399422 -28.440031 -248.691010
-63.706226 -28.441689 -248.350006
-63.963165 154.173248 -248.750000
-63.964520 153.606247 -249.135010
-63.156631 149.792313 -248.750000
-63.172707 148.839340 -248.750000
-63.985771 144.710281 -249.149994
-63.715549 -2.707173 -249.149994
-63.966320 152.853241 -249.549988
-63.984756 145.135269 -249.549988
-64.335915 -1.856528 -249.549988
-63.784149 -2.707009 -249.549988
-63.397228 -3.661056 -249.549988
-64.393890 -26.123638 -249.549988
-63.967838 152.217255 -249.950012
-63.981968 146.303268 -249.950012
-64.394020 -26.178438 -249.950012
-63.969013 151.725266 -250.350006
-63.980457 146.934280 -250.350006
-63.787251 -2.707001 -250.350006
-63.417328 -3.661008 -250.350006
-63.969730 151.424255 -250.750000
-63.979816 147.203262 -250.750000
-63.813648 -2.706938 -250.750000
-64.394020 -26.176739 -250.750000
-63.979588 147.299255 -251.149994
-64.336090 -1.927498 -251.149994
-64.394142 -26.227039 -251.149994
-63.969963 151.327255 -251.549988
-64.335953 -1.871698 -251.549988
-63.784248 -2.707009 -251.549988
-63.979389 147.382263 -251.950012
-63.410027 -3.661025 -251.950012
-64.393845 -26.105438 -251.950012
-63.969826 151.385254 -252.350006
-63.815548 -2.706934 -252.350006
-64.393547 -25.979439 -252.350006
-64.392593 -25.580641 -252.708008
-63.969860 151.370255 -252.750000
-63.979439 147.361252 -252.750000
-63.969746 151.418259 -253.149994
-63.777847 -2.707024 -253.549988
-63.399727 -3.661050 -253.549988
-63.979359 147.394257 -253.950012
-63.969738 151.422256 -254.350006
-64.335358 -1.620739 -254.350006
-63.706947 -2.707193 -254.350006
-63.979179 147.469254 -254.750000
-64.335594 -1.721809 -254.750000
-63.719250 -2.707164 -254.750000
-63.969841 151.378265 -255.149994
-63.979324 147.409256 -255.149994
-63.969673 151.448257 -255.549988
-63.979057 147.521255 -255.549988
-64.135269 -1.753037 -255.549988
-64.335098 -1.514279 -255.950012
-64.165169 -1.752966 -255.950012
-63.969795 151.398254 -256.350006
-63.979073 147.514252 -256.350006
-63.969673 151.448257 -256.750000
-63.978844 147.610260 -256.750000
-64.334511 -1.268550 -256.750000
-64.002571 -1.753354 -256.750000
-63.969795 151.398254 -257.149994
-64.334602 -1.307250 -257.149994
-64.389107 -24.120045 -257.149994
-63.978931 147.573257 -257.549988
-63.958473 -1.753460 -257.549988
-64.388718 -23.957445 -257.549988
-63.969654 151.456253 -257.950012
-64.334389 -1.215080 -257.950012
-63.969746 151.418259 -258.350006
-63.978676 147.681259 -258.350006
-63.691387 147.886566 -258.350006
-64.334564 -1.290430 -258.350006
-64.000473 -1.753359 -258.350006
-63.978729 147.658264 -258.750000
-64.387604 -23.493246 -258.750000
-63.969620 151.471252 -259.149994
-63.978512 147.749252 -259.549988
-64.334084 -1.090330 -259.549988
-63.874172 -1.753661 -259.549988
-64.387001 -23.240747 -259.549988
-63.969627 151.468262 -259.950012
-63.978687 147.676254 -260.350006
-63.733673 -1.753997 -260.350006
-64.333298 -0.759717 -260.750000
-63.969639 151.463257 -261.149994
-63.978291 147.841263 -261.149994
-63.662071 -1.754168 -261.149994
-63.978352 147.816254 -261.549988
-64.332664 -0.495787 -261.549988
-64.385292 -22.525249 -261.549988
-63.978127 147.910263 -261.950012
-64.065094 -0.800077 -261.950012
-64.384941 -22.378351 -261.950012
-63.969563 151.495255 -262.350006
-64.332489 -0.419798 -262.350006
-64.065094 -0.800077 -262.350006
-64.384621 -22.242350 -262.350006
-64.383484 -21.768150 -262.713013
-63.969624 151.469254 -262.750000
-63.543770 -1.754450 -262.750000
-64.332024 -0.227569 -263.149994
-63.936596 -0.800384 -263.549988
-64.382294 -21.269053 -263.549988
-63.969612 151.474258 -263.950012
-63.978127 147.910263 -263.950012
-64.381210 -20.815054 -264.093994
-63.969532 151.508255 -264.350006
-63.978012 147.958252 -264.350006
-64.331650 -0.070938 -264.350006
-64.380966 -20.713755 -264.350006
-63.829494 -0.800640 -264.750000
-64.380783 -20.635555 -264.750000
-63.969563 151.495255 -265.149994
-63.978046 147.943253 -265.149994
-64.380363 -20.460054 -265.149994
-63.969494 151.524261 -265.549988
-63.977951 147.983261 -265.549988
-64.379539 -20.116457 -265.549988
-63.725193 -0.800889 -265.950012
-64.378853 -19.830156 -265.950012
-63.977997 147.965256 -266.350006
-64.378372 -19.628559 -266.350006
-63.969475 151.531265 -266.750000
-64.146820 0.153246 -266.750000
-63.618496 -0.801144 -266.750000
-63.969582 151.487259 -267.149994
-64.330414 0.448286 -267.149994
-64.122017 0.153187 -267.149994
-63.751156 -18.910254 -267.149994
-63.969406 151.560257 -267.549988
-63.969074 151.700256 -267.708008
-63.978027 147.951263 -267.549988
-64.329910 0.656508 -267.549988
-63.976318 0.152838 -267.549988
-63.967865 152.206253 -267.950012
-63.376575 151.698837 -267.950012
-63.979130 147.490265 -267.950012
-63.470284 147.886047 -267.950012
-64.329681 0.752790 -267.950012
-63.898716 0.152653 -267.950012
-63.811401 152.652878 -268.350006
-63.305576 151.698669 -268.350006
-63.979740 147.234253 -268.350006
-63.281284 147.885590 -268.350006
-63.980457 146.934280 -268.510010
-64.329674 0.756009 -268.350006
-63.897415 0.152650 -268.350006
-64.375412 -18.387161 -268.350006
-63.965061 153.379242 -268.750000
-63.964520 153.606247 -268.875000
-63.255699 152.651550 -268.750000
-63.054409 148.839066 -268.750000
-63.492363 146.933105 -268.750000
-63.982735 145.981277 -268.821991
-64.374565 -18.032461 -268.750000
-63.963123 154.191238 -269.149994
-63.308720 153.604691 -269.149994
-63.157352 150.745300 -269.149994
-63.243431 149.792526 -269.149994
-63.255108 148.839539 -269.149994
-63.107586 147.885178 -269.149994
-63.984261 145.342270 -269.149994
-63.178638 145.979355 -269.149994
-64.374023 -17.807962 -269.149994
-63.962395 154.496246 -269.549988
-63.275322 153.604599 -269.549988
-63.290798 152.651642 -269.549988
-63.969074 151.700256 -269.727997
-63.675076 151.699554 -269.549988
-63.917004 148.841125 -269.549988
-63.121784 147.885208 -269.549988
-63.984413 145.279282 -269.549988
-63.080940 145.979126 -269.549988
-63.726517 0.152242 -269.549988
-64.373779 -17.704464 -269.549988
-63.961483 154.877243 -269.950012
-63.619644 154.558426 -269.950012
-63.176926 153.604370 -269.950012
-63.576500 152.652313 -269.950012
-63.109562 146.932190 -269.950012
-63.119938 145.979218 -269.950012
-63.985474 144.834274 -269.950012
-64.328697 1.165763 -269.950012
-64.373337 -17.520264 -269.950012
-63.268547 154.557587 -270.350006
-63.273621 153.604599 -270.350006
-63.576054 150.746307 -270.350006
-63.378731 149.792847 -270.350006
-63.499302 148.840134 -270.350006
-63.979042 147.527252 -270.350006
-63.687164 146.933578 -270.350006
-63.113941 145.979202 -270.350006
-63.986507 144.402267 -270.350006
-63.277817 145.026581 -270.350006
-64.126846 1.106326 -270.350006
-63.623318 0.151995 -270.350006
-64.372101 -17.002466 -270.434998
-63.960064 155.471237 -270.750000
-63.278446 154.557617 -270.750000
-63.515022 153.605179 -270.750000
-63.368675 151.698822 -270.750000
-63.132751 150.745255 -270.750000
-63.090630 149.792160 -270.750000
-63.187206 148.839386 -270.750000
-63.979805 147.207260 -270.750000
-63.671787 147.886520 -270.750000
-63.980663 146.848282 -270.750000
-63.050240 145.979050 -270.750000
-63.691566 155.511597 -271.149994
-63.238049 154.557526 -271.149994
-63.753918 153.605743 -271.149994
-63.679901 152.652573 -271.149994
-63.087875 151.698151 -271.149994
-63.107506 148.839188 -271.149994
-63.331783 147.885712 -271.149994
-63.436939 145.979965 -271.149994
-63.987080 144.162277 -271.149994
-63.166718 145.026321 -271.149994
-64.327637 1.609232 -271.149994
-64.371056 -16.565466 -271.149994
-64.369827 -16.049368 -271.455994
-63.958958 155.934250 -271.549988
-63.497570 155.511139 -271.549988
-63.300148 154.557663 -271.549988
-63.880718 153.606049 -271.549988
-63.361897 152.651810 -271.549988
-63.078175 151.698120 -271.549988
-63.206253 150.745422 -271.549988
-63.973625 149.794266 -271.837006
-63.474331 149.793076 -271.549988
-63.307083 147.885651 -271.549988
-63.684166 146.933563 -271.549988
-63.893333 145.981064 -271.549988
-63.148716 145.026276 -271.549988
-63.987953 143.797272 -271.549988
-63.642490 144.074448 -271.549988
-64.327118 1.826651 -271.549988
-63.845539 1.105654 -271.549988
-63.958981 155.925247 -271.950012
-63.571571 155.511307 -271.950012
-63.616943 154.558426 -271.950012
-63.487598 152.652100 -271.950012
-63.474777 151.699066 -271.950012
-63.975903 148.841263 -272.183990
-63.506504 148.840149 -271.950012
-63.109562 146.932190 -271.950012
-63.553738 145.980255 -271.950012
-63.988605 143.524277 -271.950012
-63.212490 144.073425 -271.950012
-64.368317 -15.418670 -271.950012
-63.406269 155.510910 -272.350006
-63.649940 154.558502 -272.350006
-63.859623 153.606003 -272.350006
-63.267498 152.651581 -272.350006
-63.970013 151.307266 -272.350006
-63.558475 151.699265 -272.350006
-63.976437 148.617264 -272.350006
-63.116886 147.885193 -272.350006
-63.606438 145.980377 -272.350006
-63.071518 145.026093 -272.350006
-63.988678 143.493271 -272.350006
-63.663139 1.105218 -272.350006
-64.367058 -14.891471 -272.350006
-63.314270 155.510696 -272.750000
-63.644440 154.558487 -272.750000
-63.487919 153.605118 -272.750000
-63.140400 152.651276 -272.750000
-63.839474 151.699936 -272.750000
-63.977180 148.306259 -272.750000
-63.481186 147.886078 -272.750000
-63.178963 146.932358 -272.750000
-63.594135 145.980347 -272.750000
-63.206818 145.026413 -272.750000
-63.250290 144.073517 -272.750000
-64.365273 -14.143173 -272.842987
-63.958183 156.259247 -273.149994
-63.403370 155.510910 -273.149994
-63.893440 154.559082 -273.149994
-63.600021 153.605377 -273.149994
-63.968369 151.995255 -273.149994
-63.401299 152.651901 -273.149994
-63.978100 147.921265 -273.149994
-63.233761 146.932495 -273.149994
-63.559837 145.980255 -273.149994
-63.301517 145.026642 -273.149994
-63.988964 143.373276 -273.149994
-63.221889 144.073441 -273.149994
-64.325851 2.358300 -273.149994
-64.089859 2.059365 -273.149994
-64.364685 -13.897074 -273.149994
-63.348969 155.510773 -273.549988
-63.962242 154.559250 -273.549988
-63.529320 153.605209 -273.549988
-63.967983 152.156265 -273.549988
-63.466698 152.652054 -273.549988
-63.158863 146.932312 -273.549988
-63.427238 145.979950 -273.549988
-63.271816 145.026566 -273.549988
-64.133163 2.059469 -273.549988
-63.548141 1.104943 -273.549988
-64.363647 -13.464275 -273.549988
-63.374771 155.510834 -273.950012
-63.874641 154.559036 -273.950012
-63.424622 153.604965 -273.950012
-63.968109 152.104263 -273.950012
-63.978458 147.771255 -273.950012
-63.201862 146.932419 -273.950012
-63.426239 145.979950 -273.950012
-63.445313 145.026978 -273.950012
-63.989174 143.286270 -273.950012
-63.153290 144.073273 -273.950012
-63.957413 156.580246 -274.350006
-63.888046 154.559067 -274.350006
-63.387222 153.604874 -274.350006
-63.393597 152.651886 -274.350006
-63.232891 144.073471 -274.350006
-64.325714 2.413740 -274.350006
-64.002159 2.059156 -274.350006
-63.957767 156.433243 -274.750000
-63.223671 155.510483 -274.750000
-63.830345 154.558929 -274.750000
-63.502319 153.605148 -274.750000
-63.967907 152.188263 -274.750000
-63.978378 147.805252 -274.750000
-63.528839 145.980194 -274.750000
-63.385815 145.026840 -274.750000
-63.988861 143.417282 -274.750000
-64.141762 2.059489 -274.750000
-64.361992 -12.770277 -274.750000
-64.360718 -12.236878 -275.135986
-63.958473 156.137238 -275.149994
-63.411171 155.510925 -275.149994
-63.788921 153.605835 -275.149994
-63.968117 152.100266 -275.149994
-63.514000 152.652176 -275.149994
-63.969074 151.700256 -275.528992
-63.207462 146.932419 -275.149994
-63.567936 145.980286 -275.149994
-63.309017 145.026657 -275.149994
-63.989021 143.349274 -275.149994
-63.211590 144.073425 -275.149994
-63.561943 1.104976 -275.149994
-63.958355 156.187241 -275.549988
-63.295570 155.510651 -275.549988
-63.767441 154.558792 -275.549988
-63.698719 153.605621 -275.549988
-63.251900 152.651550 -275.549988
-63.977119 148.332260 -275.549988
-63.487385 147.886093 -275.549988
-63.891434 145.981049 -275.549988
-63.246418 145.026505 -275.549988
-63.370892 144.073807 -275.549988
-63.707638 1.105324 -275.549988
-64.359589 -11.763580 -275.549988
-63.958351 156.188248 -275.950012
-63.234371 155.510498 -275.950012
-63.431648 154.557983 -275.950012
-63.776020 153.605804 -275.950012
-63.281696 152.651611 -275.950012
-63.901974 151.700089 -275.950012
-63.977070 148.352264 -275.950012
-63.975903 148.841263 -276.186005
-63.560085 147.886261 -275.950012
-63.420963 146.932938 -275.950012
-63.275917 145.026581 -275.950012
-63.988346 143.633270 -275.950012
-63.442589 144.073975 -275.950012
-64.328835 1.106808 -275.993988
-63.444420 0.151568 -275.950012
-64.358055 -11.123182 -275.950012
-63.958923 155.948242 -276.350006
-63.555771 155.511276 -276.350006
-63.576244 154.558334 -276.350006
-63.611500 152.652405 -276.350006
-63.970455 151.122253 -276.350006
-63.678272 151.699554 -276.350006
-63.973625 149.794266 -276.472992
-63.581703 148.840317 -276.350006
-63.106983 147.885178 -276.350006
-63.314362 146.932678 -276.350006
-63.752235 145.980728 -276.350006
-63.094017 145.026138 -276.350006
-63.988365 143.625275 -276.350006
-63.405590 144.073883 -276.350006
-63.813019 0.152448 -276.350006
-64.355568 -10.081685 -276.350006
-63.688873 155.511581 -276.750000
-63.396847 154.557907 -276.750000
-63.281174 151.698608 -276.750000
-63.215351 150.745438 -276.750000
-63.293629 149.792648 -276.750000
-63.205406 148.839432 -276.750000
-63.186283 147.885361 -276.750000
-63.744164 146.933716 -276.750000
-63.690033 145.980576 -276.750000
-63.987011 144.191269 -276.750000
-63.262615 145.026550 -276.750000
-64.331001 0.201339 -276.750000
-63.525593 -0.801366 -276.750000
-64.353691 -9.297687 -276.750000
-64.351608 -8.424410 -277.127991
-63.753864 155.511749 -277.149994
-63.964195 153.742249 -277.149994
-63.247349 154.557541 -277.149994
-63.413574 151.698929 -277.149994
-63.241653 150.745514 -277.149994
-63.274330 149.792587 -277.149994
-63.378906 148.839844 -277.149994
-63.700184 147.886597 -277.149994
-63.470539 145.980057 -277.149994
-63.986626 144.353271 -277.149994
-63.343212 145.026733 -277.149994
-64.331810 -0.138259 -277.149994
-64.333389 -0.799436 -277.473999
-63.711395 -0.800922 -277.149994
-64.349335 -7.471292 -277.476990
-63.960323 155.362244 -277.549988
-63.380047 154.557861 -277.549988
-63.679424 153.605576 -277.549988
-63.968571 151.910263 -277.549988
-63.966797 152.653244 -277.911011
-63.340553 150.745743 -277.549988
-63.361729 149.792801 -277.549988
-63.976879 148.433258 -277.549988
-63.675304 148.840546 -277.549988
-63.247841 145.979523 -277.549988
-63.986408 144.444275 -277.549988
-63.330315 145.026703 -277.549988
-64.335670 -1.752558 -277.783997
-63.734173 -1.753995 -277.549988
-64.337944 -2.705686 -277.890015
-63.391750 -2.707946 -277.549988
-64.340225 -3.658803 -277.910004
-64.342499 -4.611920 -277.856995
-64.344780 -5.565048 -277.739014
-64.347054 -6.518175 -277.617004
-63.961147 155.017242 -277.950012
-63.489445 154.558121 -277.950012
-63.252625 153.604553 -277.950012
-63.790550 150.746811 -277.950012
-63.689026 149.793579 -277.950012
-63.542263 146.933228 -277.950012
-63.235138 145.979492 -277.950012
-63.985424 144.856277 -277.950012
-63.797512 145.027832 -277.950012
-63.961685 154.792252 -278.350006
-63.045925 153.604050 -278.350006
-63.450199 152.652023 -278.350006
-63.355762 146.932785 -278.350006
-63.984528 145.230270 -278.350006
-63.344139 145.979752 -278.350006
-63.961838 154.728241 -278.750000
-63.739845 154.558716 -278.750000
-63.230026 153.604492 -278.750000
-63.339600 152.651749 -278.750000
-63.740574 151.699707 -278.750000
-63.894703 148.841064 -278.750000
-63.273186 147.885574 -278.750000
-63.066963 146.932083 -278.750000
-63.983868 145.507278 -278.750000
-63.412041 145.979904 -278.750000
-63.964436 153.641251 -279.149994
-63.521198 152.652191 -279.149994
-63.435474 151.698975 -279.149994
-63.567154 150.746292 -279.149994
-63.497028 149.793121 -279.149994
-63.386406 148.839859 -279.149994
-63.233086 147.885483 -279.149994
-63.982311 146.158279 -279.149994
-63.346764 146.932755 -279.149994
-63.966797 152.653244 -279.811005
-63.679001 152.652557 -279.549988
-63.147675 151.698288 -279.549988
-63.130352 150.745239 -279.549988
-63.176529 149.792358 -279.549988
-63.250607 148.839539 -279.549988
-63.978184 147.887253 -279.848999
-63.331184 147.885712 -279.549988
-63.981583 146.463272 -279.549988
-63.599163 146.933365 -279.549988
-63.967175 152.494247 -279.950012
-63.040432 149.792038 -279.950012
-63.372208 148.839828 -279.950012
-63.968800 151.814255 -280.350006
-63.971348 150.747253 -280.433990
-63.973625 149.794266 -280.420013
-63.453327 -31.413002 2.450000
-63.443039 -27.106312 0.850000
-63.480949 -42.974670 0.450000
-63.440323 -25.969717 0.050000
-63.439400 -25.582918 -0.344300
-63.482502 -43.625866 0.050000
-63.484940 -44.645367 -0.827300
-63.435543 -23.967922 -1.549999
-63.487053 -45.529961 -1.549999
-63.487217 -45.598461 -1.690500
-63.462170 -35.114090 -2.342400
-63.488037 -45.942463 -1.950001
-63.457615 -33.207897 -2.584499
-63.459892 -34.160992 -2.419201
-63.464447 -36.067287 -2.457001
-63.469002 -37.973484 -2.726200
-63.488934 -46.316956 -2.350000
-63.489494 -46.551556 -2.737900
-63.433147 -22.966125 -2.750000
-62.561840 -32.256832 -2.750000
-63.471275 -38.926579 -3.060200
-63.450783 -30.348505 -3.507000
-63.471588 -39.056580 -3.150000
-63.474236 -40.165077 -3.950001
-63.475830 -40.832874 -4.293699
-63.492363 -47.753353 -4.350000
-63.430424 -21.825829 -4.750000
-63.430290 -21.770428 -4.881599
-63.429501 -21.439730 -5.150000
-63.477478 -41.522373 -5.150000
-63.428852 -21.167830 -5.549999
-63.428631 -21.075529 -5.950001
-63.444778 -27.833910 -5.950001
-63.478645 -42.011173 -5.950001
-63.494026 -48.448753 -5.950001
-63.479515 -42.375168 -6.350000
-63.495079 -48.889549 -6.350000
-63.428013 -20.817331 -6.929300
-63.108482 -42.739956 -6.750000
-63.442753 -26.986315 -7.150000
-63.480545 -42.805370 -7.150000
-63.441181 -26.328417 -8.350000
-63.481243 -43.098167 -8.350000
-63.482018 -43.423065 -8.750000
-63.496456 -49.465950 -9.150000
-63.440178 -25.908216 -9.549999
-63.318359 -43.692657 -9.549999
-63.496590 -49.522549 -9.549999
-63.426090 -20.011333 -9.950001
-63.440063 -25.860916 -9.950001
-63.482830 -43.761765 -9.950001
-62.529564 -43.694542 -9.950001
