# This PCD file was generated using the MATLAB® pcwrite function
# from Computer Vision Toolbox®.
# .PCD v.7 - Point Cloud Data file format
VERSION .7
FIELDS x y z
SIZE 4 4 4
TYPE F F F
COUNT 1 1 1
WIDTH 1434
HEIGHT 1
VIEWPOINT 0 0 0 1 0 0 0
POINTS 1434
DATA ascii
-78.286652 143.020432 -188.350006
-78.527687 42.125221 -188.408997
-78.537933 37.836132 -188.350006
-78.289001 38.312141 -188.350006
-78.549805 32.865646 -188.350006
-77.812187 21.154751 -188.350006
-77.807091 17.342129 -188.350006
-77.941467 16.389347 -188.350006
-77.872147 15.436079 -188.350006
-78.352226 -10.297248 -188.350006
-78.461838 -17.922007 -188.350006
-78.285545 143.483444 -188.750000
-78.284050 144.109421 -188.973007
-77.961197 38.311356 -188.750000
-78.541862 36.189838 -188.750000
-77.984924 35.452003 -188.750000
-78.358955 20.202856 -188.750000
-77.735435 -14.111232 -188.750000
-78.269203 150.322403 -189.149994
-78.283516 144.330429 -189.149994
-78.529022 41.564121 -189.149994
-77.603600 38.310501 -189.149994
-78.540573 36.730537 -189.149994
-78.333473 37.359146 -189.149994
-78.541931 36.161037 -189.149994
-78.232330 35.452595 -189.149994
-78.551575 32.126949 -189.149994
-77.844566 16.389116 -189.149994
-77.874352 15.436084 -189.149994
-77.671021 14.482495 -189.149994
-78.466728 -10.296974 -189.149994
-78.269463 150.213409 -189.550003
-78.283348 144.402420 -189.550003
-78.124870 37.358646 -189.550003
-78.542023 36.124035 -189.550003
-78.409531 35.453018 -189.550003
-78.552139 31.889050 -189.550003
-78.026260 20.202061 -189.550003
-77.855270 16.389141 -189.550003
-77.925247 15.436206 -189.550003
-78.599632 12.007907 -189.550003
-78.653015 -10.335229 -189.550003
-77.788658 -13.158002 -189.550003
-77.846535 -14.110967 -189.550003
-78.270073 149.959412 -189.949997
-78.283478 144.348419 -189.949997
-78.530678 40.872524 -189.949997
-78.385956 36.406166 -189.949997
-78.527725 35.453300 -189.949997
-77.962807 34.498852 -189.949997
-78.553108 31.483452 -189.949997
-77.849823 14.482923 -189.949997
-77.842232 -14.110976 -189.949997
-78.260941 -17.922487 -189.949997
-77.648788 149.826935 -190.350006
-78.531670 40.457226 -190.350006
-78.130753 36.405556 -190.350006
-78.443329 35.453098 -190.350006
-78.141411 34.499275 -190.350006
-78.554054 31.086351 -190.350006
-78.306740 19.249628 -190.350006
-77.706268 16.388786 -190.350006
-77.903145 15.436153 -190.350006
-77.841354 -13.157876 -190.350006
-78.282845 144.613419 -190.750000
-78.475311 64.047058 -190.936005
-78.477592 63.093861 -190.845993
-78.482147 61.187668 -190.891998
-77.961952 36.405151 -190.750000
-78.341629 35.452854 -190.750000
-78.235901 34.499504 -190.750000
-78.554489 30.905054 -190.750000
-77.689667 16.388746 -190.750000
-77.910324 14.483068 -190.750000
-78.225647 -9.344398 -190.750000
-77.715782 -12.204974 -190.750000
-77.941254 -13.157638 -190.750000
-77.928139 -14.110771 -190.750000
-78.283020 144.538422 -191.149994
-78.470764 65.953255 -191.386993
-78.094124 64.046150 -191.149994
-77.970192 63.092651 -191.149994
-78.023376 62.139671 -191.149994
-78.483765 60.509167 -191.149994
-78.211746 61.187019 -191.149994
-78.533173 39.827431 -191.149994
-78.187531 35.452488 -191.149994
-78.303200 34.499664 -191.149994
-77.929581 33.545670 -191.149994
-78.555511 30.476854 -191.149994
-78.040543 19.248993 -191.149994
-77.744804 13.529569 -191.149994
-78.601837 11.087510 -191.149994
-78.106964 65.952385 -191.550003
-77.916237 64.998825 -191.550003
-77.860825 64.045593 -191.550003
-77.864899 63.092400 -191.550003
-77.928978 62.139446 -191.550003
-78.484138 60.352066 -191.550003
-78.112450 61.186783 -191.550003
-78.534271 39.367229 -191.550003
-78.002426 35.452045 -191.550003
-78.253899 34.499546 -191.550003
-78.066978 33.545998 -191.550003
-78.556419 30.096155 -191.550003
-78.584808 18.213591 -191.550003
-77.854752 15.436037 -191.550003
-78.330841 -9.344146 -191.550003
-77.961754 -13.157588 -191.550003
-78.031036 -17.923037 -191.550003
-78.282906 144.588425 -191.949997
-78.461655 69.765747 -192.334000
-78.373413 67.859322 -191.949997
-78.050583 66.905457 -191.949997
-77.919769 65.951942 -191.949997
-77.860840 64.998695 -191.949997
-77.839920 64.045540 -191.949997
-77.975273 62.139557 -191.949997
-78.482841 60.896168 -191.949997
-78.297249 61.187225 -191.949997
-78.534897 39.106327 -191.949997
-77.849525 35.451679 -191.949997
-78.156006 34.499310 -191.949997
-78.131485 33.546150 -191.949997
-77.606163 32.591694 -191.949997
-78.556770 29.950155 -191.949997
-78.557289 29.734655 -192.214996
-77.937622 14.483132 -191.949997
-77.830605 13.529774 -191.949997
-78.602654 10.743811 -191.949997
-78.497948 -9.343747 -191.949997
-77.892082 -12.204553 -191.949997
-78.009956 -13.157473 -191.949997
-77.939835 -14.110744 -191.949997
-77.952438 -17.923223 -191.949997
-78.269852 150.051407 -192.350006
-78.459373 70.718834 -192.464996
-77.994530 68.811523 -192.350006
-77.741013 67.857811 -192.350006
-77.633987 66.904457 -192.350006
-77.624268 65.951233 -192.350006
-77.648239 64.998184 -192.350006
-77.705620 64.045219 -192.350006
-77.797295 63.092236 -192.350006
-78.424950 61.187531 -192.350006
-78.535721 38.761627 -192.350006
-78.536797 38.312733 -192.705994
-77.597031 35.451077 -192.350006
-78.028610 34.499008 -192.350006
-78.160080 33.546219 -192.350006
-77.915062 32.592430 -192.350006
-77.778549 15.435855 -192.350006
-78.269913 150.026413 -192.750000
-78.282982 144.554428 -192.750000
-78.454819 72.625137 -192.985001
-78.457565 71.478134 -192.750000
-77.902878 70.717506 -192.750000
-77.618156 69.763733 -192.750000
-77.524940 68.810402 -192.750000
-77.523109 67.857292 -192.750000
-77.536682 66.904228 -192.750000
-77.570366 65.951103 -192.750000
-77.620537 64.998116 -192.750000
-77.692223 64.045189 -192.750000
-77.786995 63.092213 -192.750000
-78.481895 61.293568 -192.750000
-77.971573 62.139549 -192.750000
-77.865608 34.498619 -192.750000
-78.095581 33.546066 -192.750000
-78.005264 32.592648 -192.750000
-78.558762 29.117258 -192.750000
-78.043816 18.295897 -192.750000
-77.921219 14.483093 -192.750000
-77.923203 13.529995 -192.750000
-78.167702 9.718019 -192.750000
-78.650742 -9.385132 -192.750000
-77.916679 -12.204494 -192.750000
-78.269714 150.109406 -193.149994
-78.282791 144.633423 -193.149994
-78.450264 74.531433 -193.410004
-78.453125 73.333832 -193.149994
-77.896431 72.623802 -193.149994
-77.588203 71.669960 -193.149994
-77.519783 70.716591 -193.149994
-77.925392 63.092541 -193.149994
-78.537460 38.035133 -193.149994
-77.999886 33.545837 -193.149994
-78.009758 32.592655 -193.149994
-77.633835 31.638657 -193.149994
-78.559113 28.970160 -193.149994
-77.918602 13.529984 -193.149994
-77.742577 12.576362 -193.149994
-78.268402 9.718259 -193.149994
-77.976685 -12.204350 -193.149994
-78.068153 -13.157334 -193.149994
-77.718048 -17.923784 -193.149994
-78.269768 150.086411 -193.550003
-78.447990 75.484528 -193.690002
-77.606651 73.576210 -193.550003
-77.526764 65.950996 -193.550003
-77.793221 64.045433 -193.550003
-78.479332 62.366264 -193.550003
-78.040993 63.092819 -193.550003
-78.539070 37.359638 -193.718002
-77.906181 33.545612 -193.550003
-78.028854 32.592701 -193.550003
-77.859238 31.639194 -193.550003
-78.560242 28.497959 -193.550003
-78.587212 17.207891 -193.550003
-77.864624 14.482958 -193.550003
-77.843575 12.576603 -193.550003
-77.997635 -14.110605 -193.550003
-78.668732 -16.916210 -193.550003
-77.727242 -17.923761 -193.550003
-78.282982 144.556427 -193.949997
-78.446579 76.075821 -193.949997
-78.445717 76.437622 -194.087997
-77.525070 65.950996 -193.949997
-77.643341 64.998177 -193.949997
-77.787819 64.045418 -193.949997
-78.317192 63.093479 -193.949997
-77.922035 31.639345 -193.949997
-78.561165 28.110561 -193.949997
-77.675644 27.826244 -193.949997
-78.312790 17.343338 -193.949997
-77.799522 14.482802 -193.949997
-77.917305 13.529981 -193.949997
-77.747696 -11.251795 -193.949997
-78.269432 150.227402 -194.350006
-78.282875 144.601425 -194.350006
-78.444481 76.953918 -194.350006
-78.200119 64.046402 -194.350006
-78.540176 36.896835 -194.350006
-78.541344 36.406536 -194.714005
-77.881760 32.592350 -194.350006
-77.907440 31.639309 -194.350006
-77.639320 30.685566 -194.350006
-78.561478 27.981461 -194.350006
-77.871376 12.576669 -194.350006
-78.649467 -8.849684 -194.350006
-77.835503 -11.251585 -194.350006
-78.060081 -12.204151 -194.350006
-78.282883 144.597427 -194.750000
-77.924637 64.998848 -194.750000
-77.782066 32.592113 -194.750000
-77.914139 31.639326 -194.750000
-77.800110 30.685951 -194.750000
-78.562576 27.520662 -194.750000
-78.074791 17.342770 -194.750000
-77.715820 14.482602 -194.750000
-77.771751 11.623328 -194.750000
-78.335083 8.765286 -194.750000
-78.139053 -13.157165 -194.750000
-78.028137 -14.110533 -194.750000
-78.668625 -16.870211 -194.750000
-78.269905 150.028412 -195.149994
-78.282707 144.669418 -195.149994
-78.438011 79.662315 -195.149994
-77.524986 66.904198 -195.149994
-77.739464 65.951508 -195.149994
-78.542198 36.051842 -195.149994
-77.846039 31.639162 -195.149994
-77.838608 30.686043 -195.149994
-78.563431 27.162264 -195.149994
-77.921104 13.529990 -195.149994
-77.959679 12.576880 -195.149994
-78.282257 144.857422 -195.550003
-78.281769 145.062424 -195.694000
-78.436737 80.195213 -195.550003
-78.166870 65.952530 -195.550003
-78.543175 35.642040 -195.550003
-77.815613 30.685987 -195.550003
-78.563843 26.990465 -195.550003
-78.441071 16.390541 -195.550003
-77.874603 13.529879 -195.550003
-77.939980 12.576833 -195.550003
-77.822151 11.623448 -195.550003
-78.458969 -8.390707 -195.550003
-77.956902 -11.251295 -195.550003
-78.271004 149.568405 -195.949997
-78.281471 145.186417 -195.949997
-78.121925 81.202469 -195.949997
-77.866188 66.905014 -195.949997
-77.633240 31.638655 -195.949997
-77.802910 30.685957 -195.949997
-77.733589 29.732689 -195.949997
-78.564934 26.533766 -195.949997
-77.957878 12.576876 -195.949997
-77.927254 11.623700 -195.949997
-77.655128 10.669947 -195.949997
-78.177559 7.811787 -195.949997
-78.202980 -12.203810 -195.949997
-78.197952 -13.157024 -195.949997
-78.043938 -14.110495 -195.949997
-78.556763 -16.968578 -195.949997
-78.271629 149.306412 -196.350006
-78.280655 145.529419 -196.350006
-78.432220 82.084106 -196.350006
-77.964012 67.858345 -196.350006
-78.545120 34.825939 -196.350006
-78.565765 26.184668 -196.350006
-77.750031 10.670174 -196.350006
-78.364456 7.812233 -196.350006
-78.548370 -8.390493 -196.350006
-78.272469 148.955429 -196.750000
-78.274940 147.921417 -197.065994
-78.277214 146.968430 -197.087006
-78.279884 145.850418 -196.750000
-78.319977 83.109238 -196.750000
-77.726028 68.810883 -196.750000
-78.466339 67.803444 -196.750000
-78.396797 34.499886 -196.750000
-77.607216 30.685490 -196.750000
-77.717888 29.732651 -196.750000
-78.566193 26.007868 -196.750000
-77.680801 13.529416 -196.750000
-77.912476 12.576767 -196.750000
-77.949150 11.623752 -196.750000
-77.785934 10.670259 -196.750000
-78.058998 -11.251051 -196.750000
-78.213081 -12.203786 -196.750000
-78.052635 -14.110474 -196.750000
-78.668396 -16.775110 -196.750000
-77.736397 84.060951 -197.149994
-78.429977 83.024109 -197.149994
-77.587959 69.763657 -197.149994
-78.546822 34.115345 -197.149994
-78.548180 33.547146 -197.503998
-77.693588 29.732594 -197.149994
-77.641068 28.779364 -197.149994
-78.567261 25.557968 -197.149994
-77.649605 13.529342 -197.149994
-77.947975 12.576852 -197.149994
-77.892731 10.670514 -197.149994
-77.729729 -10.298735 -197.149994
-78.275177 -12.203637 -197.149994
-78.263954 -13.156866 -197.149994
-78.092934 -14.110377 -197.149994
-78.562263 -16.968565 -197.149994
-77.589424 85.013702 -197.550003
-78.167297 84.061981 -197.550003
-78.460579 70.215836 -197.550003
-77.913979 70.717537 -197.550003
-78.567947 25.271269 -197.550003
-78.647812 -8.159426 -197.550003
-77.861145 85.967453 -197.949997
-78.426376 84.532097 -197.949997
-78.301125 85.015404 -197.949997
-78.457100 71.672035 -198.283997
-78.459526 70.655334 -197.949997
-78.568672 24.968971 -198.136002
-78.248650 15.436978 -197.949997
-77.832573 12.576576 -197.949997
-77.957352 11.623772 -197.949997
-77.912529 10.670562 -197.949997
-77.685905 9.716867 -197.949997
-78.341240 6.859055 -197.949997
-77.790825 -10.298589 -197.949997
-78.138802 -11.250860 -197.949997
-78.280479 -12.203625 -197.949997
-78.258453 -13.156879 -197.949997
-78.064133 -14.110447 -197.949997
-77.934647 85.967628 -198.350006
-78.425674 84.826202 -198.350006
-78.454819 72.625137 -198.567001
-78.549919 32.818748 -198.350006
-77.676659 24.013737 -198.350006
-77.965149 11.623790 -198.350006
-77.963028 10.670682 -198.350006
-77.821709 9.717192 -198.350006
-78.611916 6.866552 -198.350006
-77.670517 5.904320 -198.350006
-78.647270 -7.933016 -198.350006
-77.887627 -10.298357 -198.350006
-78.219696 -11.250667 -198.350006
-78.355278 -12.203446 -198.350006
-78.318657 -13.156735 -198.350006
-78.090233 -14.110384 -198.350006
-78.668556 -16.840111 -198.350006
-78.114746 85.968056 -198.750000
-78.425484 84.906799 -198.750000
-78.551147 32.304848 -198.750000
-78.570152 24.348873 -198.750000
-77.694176 12.576245 -198.750000
-78.079414 5.905297 -198.750000
-78.286156 -13.156814 -198.750000
-78.668427 -16.787111 -198.750000
-77.693169 86.920250 -199.149994
-78.135849 85.968109 -199.149994
-78.425575 84.868599 -199.149994
-78.447990 75.484528 -199.475006
-78.451500 74.015129 -199.149994
-77.630966 32.591751 -199.149994
-77.676445 15.435612 -199.149994
-78.593979 14.374701 -199.149994
-77.861252 11.623542 -199.149994
-77.984634 10.670733 -199.149994
-77.937508 9.717468 -199.149994
-77.669289 8.763696 -199.149994
-78.647179 -7.892716 -199.149994
-78.218803 -11.250669 -199.149994
-78.357079 -12.203442 -199.149994
-77.683189 87.873337 -199.550003
-78.143875 86.921333 -199.550003
-78.424438 85.341797 -199.550003
-78.309746 85.968521 -199.550003
-78.443436 77.390724 -199.947006
-78.447197 75.816826 -199.550003
-78.445717 76.437622 -199.779999
-78.397141 31.640480 -199.550003
-78.015503 9.717655 -199.550003
-77.833885 8.764089 -199.550003
-78.614212 5.906574 -199.729004
-77.983925 -10.298127 -199.550003
-78.293701 -11.250490 -199.550003
-78.443581 -12.203235 -199.550003
-78.361557 -13.156633 -199.550003
-78.108032 -14.110342 -199.550003
-78.425644 84.837997 -199.949997
-78.436607 80.250114 -200.320999
-78.441162 78.343811 -200.266006
-78.572235 23.477175 -199.949997
-78.268021 14.483922 -199.949997
-77.798752 11.623393 -199.949997
-78.347954 -13.156666 -199.949997
-78.078033 -14.110414 -199.949997
-77.644493 87.873245 -200.350006
-78.105370 86.921234 -200.350006
-78.283745 85.968460 -200.350006
-78.425888 84.736801 -200.350006
-78.434326 81.203209 -200.690994
-78.316887 79.296722 -200.350006
-77.979965 78.342712 -200.350006
-78.401527 23.062365 -200.350006
-77.992134 10.670752 -200.350006
-77.943390 8.764350 -200.350006
-78.194984 4.952440 -200.350006
-78.646790 -7.730837 -200.350006
-78.002525 -10.298083 -200.350006
-78.313202 -11.250443 -200.350006
-78.480080 -12.203148 -200.350006
-78.272659 148.875427 -200.949005
-78.274940 147.921417 -200.841995
-78.277214 146.968430 -200.906998
-77.963875 86.920898 -200.750000
-78.326927 85.015465 -200.750000
-78.427498 84.062599 -200.791000
-78.429771 83.109505 -200.923004
-77.890907 80.248810 -200.750000
-78.108513 30.686687 -200.750000
-78.573166 23.086874 -200.750000
-78.002434 10.670776 -200.750000
-78.095207 9.717846 -200.750000
-77.724358 7.810704 -200.750000
-78.646515 -7.616547 -200.750000
-78.095726 -10.297860 -200.750000
-78.439796 -11.250141 -200.750000
-78.625977 -12.202799 -200.750000
-78.482353 -13.156344 -200.750000
-78.154335 -14.110231 -200.750000
-78.668365 -16.760410 -200.750000
-78.271248 149.468414 -201.149994
-78.279144 146.162430 -201.149994
-77.990028 85.014664 -201.149994
-78.173401 84.061996 -201.149994
-78.226372 83.109016 -201.149994
-78.068153 82.155540 -201.149994
-78.238007 22.108871 -201.149994
-77.857857 7.811023 -201.149994
-77.665672 3.998053 -201.149994
-78.270386 149.828415 -201.647003
-78.279755 145.907425 -201.550003
-78.074593 29.733503 -201.550003
-78.365105 22.109175 -201.550003
-78.280396 13.530849 -201.550003
-78.043404 9.717722 -201.550003
-78.055389 8.764618 -201.550003
-78.617516 4.521968 -201.550003
-78.646561 -7.634527 -201.550003
-78.109024 -10.297829 -201.550003
-78.467300 -11.250075 -201.550003
-78.547157 -13.156190 -201.550003
-78.269249 150.302414 -201.949997
-78.280365 145.651428 -201.949997
-77.398796 146.013321 -201.949997
-78.467903 22.109421 -201.949997
-77.784431 10.670256 -201.949997
-77.966560 7.811283 -201.949997
-77.679237 6.857473 -201.949997
-78.646347 -7.543657 -201.949997
-78.181625 -10.297655 -201.949997
-78.608398 -11.249739 -201.949997
-78.177536 -14.110176 -201.949997
-78.268776 150.500412 -202.350006
-78.281303 145.258423 -202.350006
-78.171066 28.780630 -202.350006
-78.575974 21.911079 -202.350006
-78.213783 21.155710 -202.350006
-77.962502 9.717528 -202.350006
-78.056084 8.764620 -202.350006
-77.840240 6.857858 -202.350006
-78.618767 4.000330 -202.438995
-78.659653 -13.116121 -202.350006
-78.668381 -16.768911 -202.350006
-78.281441 145.199417 -202.750000
-78.564117 26.875265 -203.115997
-78.512177 12.578200 -202.750000
-77.865204 9.717296 -202.750000
-78.028885 8.764555 -202.750000
-78.619423 3.724631 -202.750000
-78.646301 -7.525807 -202.750000
-78.176430 -10.297668 -202.750000
-78.279724 -14.109932 -202.750000
-78.268463 150.632416 -203.149994
-78.143944 27.827364 -203.149994
-78.407181 21.156174 -203.149994
-78.101662 7.811605 -203.149994
-78.006538 6.858255 -203.149994
-77.688713 5.904364 -203.149994
-78.619835 3.551801 -203.149994
-78.645905 -7.360558 -203.149994
-77.759346 -9.345511 -203.149994
-78.668320 -16.741411 -203.149994
-78.268494 150.618408 -203.550003
-78.382317 26.874830 -203.550003
-78.577461 21.288380 -203.550003
-78.137955 20.202328 -203.550003
-78.599304 12.145207 -203.550003
-77.682907 9.716861 -203.550003
-78.119560 7.811648 -203.550003
-77.916718 5.904908 -203.550003
-78.295525 -10.297383 -203.550003
-78.336327 -14.109797 -203.550003
-77.734207 -15.064338 -203.550003
-78.668510 -16.822611 -203.550003
-78.281532 145.160431 -203.949997
-78.071823 26.874088 -203.949997
-78.600548 11.625308 -204.199005
-77.919487 8.764293 -203.949997
-78.621368 2.911053 -203.949997
-78.645920 -7.367177 -203.949997
-77.764145 -9.345500 -203.949997
-78.298325 -10.297377 -203.949997
-78.268440 150.641403 -204.350006
-78.281418 145.208420 -204.350006
-78.292000 25.921511 -204.350006
-78.577621 21.221781 -204.350006
-78.286255 20.202682 -204.350006
-77.697342 19.248173 -204.350006
-78.205643 6.858731 -204.350006
-78.097412 5.905340 -204.350006
-77.726295 4.951321 -204.350006
-78.621750 2.752193 -204.350006
-78.645561 -7.217758 -204.350006
-77.828644 -9.345345 -204.350006
-78.314331 -14.109849 -204.350006
-78.268509 150.613403 -204.750000
-78.089905 25.921028 -204.750000
-78.570946 24.015873 -204.914001
-78.389458 20.202929 -204.750000
-78.048836 19.249012 -204.750000
-78.351448 11.624713 -204.750000
-77.850388 8.764128 -204.750000
-78.148056 7.811716 -204.750000
-78.286743 6.858925 -204.750000
-78.246811 5.905697 -204.750000
-77.976196 4.951918 -204.750000
-78.622696 2.355725 -204.750000
-78.654137 -10.806328 -204.750000
-78.409225 -14.109622 -204.750000
-78.668602 -16.860710 -204.750000
-78.281502 145.174423 -205.149994
-78.230972 24.968164 -205.149994
-78.573227 23.062775 -205.300003
-78.575500 22.109678 -205.488007
-78.602829 10.672211 -205.518005
-77.740990 8.763866 -205.149994
-78.645653 -7.255968 -205.149994
-78.268379 150.666412 -205.550003
-78.281380 145.224426 -205.550003
-77.929375 24.967443 -205.550003
-78.328049 24.015293 -205.550003
-78.516884 21.156435 -205.550003
-78.391754 20.202934 -205.550003
-78.162338 19.249283 -205.550003
-78.038857 7.811455 -205.550003
-78.268639 6.858881 -205.550003
-78.310715 5.905849 -205.550003
-78.126892 4.952278 -205.550003
-77.677170 3.998080 -205.550003
-78.623657 1.952886 -205.550003
-78.645355 -7.130768 -205.550003
-77.902443 -9.345169 -205.550003
-78.661140 -13.736520 -205.550003
-78.435425 -14.109560 -205.550003
-77.760506 -15.064275 -205.550003
-78.668549 -16.839811 -205.550003
-78.193047 24.014971 -205.949997
-78.404930 23.062374 -205.949997
-78.254440 19.249502 -205.949997
-77.859314 18.295456 -205.949997
-78.421631 10.671778 -205.949997
-77.996559 7.811354 -205.949997
-78.294243 6.858943 -205.949997
-78.392715 5.906045 -205.949997
-78.264191 4.952606 -205.949997
-77.924271 3.998671 -205.949997
-78.624687 1.522217 -205.949997
-78.653419 -10.504229 -205.949997
-78.661674 -13.962318 -205.949997
-78.668755 -16.925510 -205.949997
-78.268494 150.620407 -206.350006
-78.281471 145.187424 -206.350006
-78.248833 23.062000 -206.350006
-78.418900 22.109304 -206.350006
-78.448784 21.156273 -206.350006
-78.281342 19.249567 -206.350006
-77.990913 18.295771 -206.350006
-78.645348 -7.128198 -206.350006
-77.928345 -9.345107 -206.350006
-78.653381 -10.489729 -206.350006
-78.268433 150.646408 -206.750000
-78.281372 145.228424 -206.750000
-78.025833 23.061468 -206.750000
-78.344658 20.202822 -206.750000
-78.259140 19.249514 -206.750000
-78.017815 18.295835 -206.750000
-77.720863 7.810696 -206.750000
-78.101944 6.858483 -206.750000
-78.283211 5.905784 -206.750000
-78.312187 4.952721 -206.750000
-78.105568 3.999104 -206.750000
-78.625488 1.186037 -206.750000
-78.661942 -14.072819 -206.750000
-77.852211 -15.064055 -206.750000
-78.668785 -16.936211 -206.750000
-78.153801 22.108671 -207.149994
-78.293488 21.155901 -207.149994
-78.103912 18.296041 -207.149994
-78.504105 9.718822 -207.149994
-78.072540 6.858413 -207.149994
-78.310211 5.905848 -207.149994
-78.392288 4.952912 -207.149994
-78.226967 3.999394 -207.149994
-77.853554 3.045379 -207.149994
-78.626534 0.748508 -207.149994
-78.645164 -7.050909 -207.149994
-78.039848 -9.344841 -207.149994
-77.963806 -15.063789 -207.149994
-78.669014 -17.033510 -207.149994
-77.839912 22.107922 -207.550003
-78.185585 21.155643 -207.550003
-78.250061 20.202595 -207.550003
-78.626991 0.557423 -207.550003
-78.645149 -7.043589 -207.550003
-78.268280 150.708405 -207.949997
-78.281540 145.157425 -207.949997
-77.949783 21.155081 -207.949997
-78.150757 20.202358 -207.949997
-78.165840 19.249290 -207.949997
-78.046310 18.295902 -207.949997
-78.607384 8.765937 -208.315002
-77.751839 6.857647 -207.949997
-78.106613 5.905362 -207.949997
-78.268890 4.952617 -207.949997
-78.262070 3.999478 -207.949997
-78.024139 3.045787 -207.949997
-78.627335 0.414769 -207.949997
-78.063248 -9.344786 -207.949997
-78.011810 -15.063675 -207.949997
-78.669067 -17.056511 -207.949997
-78.268288 150.704407 -208.350006
-78.282272 144.853424 -208.350006
-78.011261 20.202024 -208.350006
-78.088341 19.249105 -208.350006
-78.034714 18.295876 -208.350006
-77.804192 17.342123 -208.350006
-77.665237 6.857440 -208.350006
-78.079414 5.905297 -208.350006
-78.277390 4.952637 -208.350006
-78.322769 3.999623 -208.350006
-78.139244 3.046062 -208.350006
-77.688126 2.091851 -208.350006
-78.644905 -6.940119 -208.350006
-78.177147 -9.344513 -208.350006
-78.662804 -14.434117 -208.350006
-78.266129 151.608414 -208.750000
-78.283470 144.350418 -208.750000
-78.284050 144.109421 -208.996002
-77.369049 144.107239 -208.750000
-77.941238 19.248755 -208.750000
-77.941811 18.295652 -208.750000
-77.837128 2.092207 -208.750000
-78.628586 -0.109537 -208.750000
-78.161308 -15.063317 -208.750000
-78.669350 -17.173609 -208.750000
-78.264442 152.316406 -209.149994
-77.629242 19.248009 -209.149994
-77.838814 5.904722 -209.149994
-78.116493 4.952253 -209.149994
-78.236465 3.999417 -209.149994
-78.178741 3.046156 -209.149994
-78.644913 -6.943139 -209.149994
-78.651978 -9.902630 -209.149994
-78.263954 152.518402 -209.550003
-78.286324 143.156433 -209.694000
-78.609657 7.812819 -209.735001
-77.737617 5.904480 -209.550003
-78.246269 3.999440 -209.550003
-78.208740 3.046228 -209.550003
-78.365051 -0.765915 -209.550003
-78.644753 -6.876819 -209.550003
-78.299843 -9.344220 -209.550003
-78.663200 -14.601216 -209.550003
-78.244713 -15.063118 -209.550003
-78.262764 153.017410 -209.949997
-78.287270 142.759445 -209.949997
-78.023895 4.952032 -209.949997
-78.018227 2.092640 -209.949997
-78.669678 -17.312510 -209.949997
-78.262192 153.256409 -210.350006
-78.109070 3.999112 -210.350006
-78.165245 3.046124 -210.350006
-78.644814 -6.902459 -210.350006
-78.651665 -9.771851 -210.350006
-78.309746 -9.344196 -210.350006
-78.663376 -14.672216 -210.350006
-78.261627 153.495407 -210.750000
-78.288017 142.448441 -210.750000
-77.815399 4.951534 -210.750000
-77.694199 1.138738 -210.750000
-78.644676 -6.844959 -210.750000
-78.437141 -9.343892 -210.750000
-78.669762 -17.347010 -210.750000
-78.261299 153.630402 -211.149994
-78.290878 141.249435 -211.378998
-78.293159 140.296432 -211.427002
-78.295433 139.343445 -211.490997
-78.297707 138.390442 -211.470993
-78.299988 137.437454 -211.483002
-78.011772 3.998880 -211.149994
-78.052422 2.092721 -211.149994
-77.780098 1.138943 -211.149994
-78.227432 -1.719371 -211.149994
-78.456810 -15.062612 -211.149994
-78.669960 -17.429310 -211.149994
-78.260399 154.007416 -211.550003
-78.274940 147.921417 -211.834000
-78.300659 137.155457 -211.550003
-78.302261 136.484451 -211.744003
-78.337837 6.859047 -211.550003
-77.900070 3.998613 -211.550003
-78.047241 3.045842 -211.550003
-78.644737 -6.870869 -211.550003
-78.651344 -9.635331 -211.550003
-78.259857 154.235413 -211.949997
-78.272659 148.875427 -212.177994
-78.275803 147.559418 -211.949997
-78.277214 146.968430 -212.276001
-78.303062 136.149460 -211.949997
-78.181343 6.858673 -211.949997
-77.815269 3.998410 -211.949997
-77.807999 1.139010 -211.949997
-78.397034 -1.718966 -211.949997
-78.644577 -6.805409 -211.949997
-78.650993 -9.490022 -211.949997
-78.670021 -17.453810 -211.949997
-78.272270 149.040405 -212.350006
-78.305763 135.020447 -212.350006
-77.928345 3.045558 -212.350006
-77.955727 2.092490 -212.350006
-78.575737 -1.718539 -212.350006
-78.664284 -15.052115 -212.350006
-78.670296 -17.568909 -212.350006
-78.259575 154.353409 -212.750000
-78.278229 146.543427 -212.750000
-78.306358 134.770447 -212.750000
-78.507011 5.906318 -212.750000
-77.871498 1.139162 -212.750000
-77.896805 -2.673294 -212.750000
-78.644630 -6.826029 -212.750000
-78.259285 154.474396 -213.149994
-77.305908 154.591125 -213.149994
-78.270996 149.571411 -213.149994
-78.278816 146.297424 -213.149994
-78.306160 134.853455 -213.149994
-77.704048 3.045022 -213.149994
-77.882523 2.092316 -213.149994
-78.644447 -6.750889 -213.149994
-78.650764 -9.393552 -213.149994
-78.670387 -17.609209 -213.149994
-77.375206 154.591293 -213.550003
-78.270439 149.805405 -213.550003
-78.279175 146.148422 -213.550003
-78.306633 134.655457 -213.550003
-78.182114 5.905542 -213.550003
-78.178604 -2.672621 -213.550003
-78.664734 -15.242815 -213.550003
-77.743294 -16.017420 -213.550003
-78.670647 -17.716909 -213.550003
-77.773827 2.092056 -213.949997
-77.832199 1.139068 -213.949997
-78.644592 -6.810799 -213.949997
-78.650757 -9.390101 -213.949997
-78.259331 154.454391 -214.350006
-78.270767 149.668411 -214.350006
-78.279175 146.148422 -214.350006
-78.306564 134.684448 -214.350006
-77.794800 1.138978 -214.350006
-78.290207 -2.672354 -214.350006
-78.644440 -6.746389 -214.350006
-78.670677 -17.730909 -214.350006
-78.271088 149.534409 -214.750000
-78.278809 146.300430 -214.750000
-78.306381 134.759460 -214.750000
-78.334091 4.952773 -214.750000
-78.665192 -15.434515 -214.750000
-78.670982 -17.858307 -214.750000
-78.259583 154.351410 -215.149994
-78.271950 149.174408 -215.149994
-78.278030 146.628418 -215.149994
-78.277214 146.968430 -215.546005
-78.305847 134.982452 -215.149994
-78.644592 -6.810639 -215.149994
-78.650711 -9.371692 -215.149994
-78.272659 148.875427 -215.707001
-78.305717 135.038452 -215.550003
-78.468506 -2.671928 -215.550003
-77.813087 -3.626616 -215.550003
-78.644508 -6.775690 -215.550003
-78.665321 -15.488515 -215.550003
-78.671318 -17.996107 -215.550003
-78.259895 154.220413 -215.949997
-78.273682 148.447418 -215.949997
-78.275810 147.556427 -215.949997
-78.274940 147.921417 -216.026001
-78.290878 141.249435 -216.244995
-78.295433 139.343445 -216.240005
-78.297707 138.390442 -216.274002
-78.299988 137.437454 -216.281006
-78.303253 136.068451 -215.949997
-78.302261 136.484451 -216.145996
-78.501068 4.000049 -215.949997
-77.678696 1.138701 -215.949997
-77.710480 0.185649 -215.949997
-78.634567 -2.614901 -215.949997
-78.012787 -3.626139 -215.949997
-78.671768 -18.185106 -215.949997
-78.260239 154.076416 -216.350006
-78.289574 141.797440 -216.350006
-78.644669 -6.843969 -216.350006
-78.650826 -9.418622 -216.350006
-78.261009 153.751404 -216.750000
-78.288406 142.284439 -216.750000
-78.111588 -3.625903 -216.750000
-77.730415 -6.486202 -216.750000
-78.665916 -15.737814 -216.750000
-78.340584 -16.015991 -216.750000
-78.672020 -18.290407 -216.750000
-78.261658 153.481415 -217.149994
-78.288269 142.343445 -217.149994
-78.219986 -3.625644 -217.149994
-78.644638 -6.828339 -217.149994
-78.650642 -9.343382 -217.149994
-78.666443 -15.956713 -217.149994
-78.672302 -18.409105 -217.149994
-78.262154 153.273407 -217.550003
-78.287491 142.666443 -217.550003
-78.437141 3.046773 -217.550003
-78.644829 -6.911089 -217.550003
-78.453148 -9.343854 -217.550003
-78.262642 153.070404 -217.949997
-78.238991 -3.625599 -217.949997
-78.666870 -16.134413 -217.949997
-78.672569 -18.521006 -217.949997
-78.263992 152.503403 -218.350006
-78.286034 143.277435 -218.350006
-78.050545 3.045850 -218.350006
-78.317589 -3.625411 -218.350006
-78.644852 -6.920019 -218.350006
-78.484146 -9.343780 -218.350006
-78.672722 -18.585205 -218.350006
-77.720322 -18.876883 -218.350006
-78.265289 151.962402 -218.750000
-78.285004 143.707428 -218.750000
-77.695152 3.045001 -218.750000
-78.525322 2.093851 -218.750000
-78.332947 -9.344141 -218.750000
-78.667297 -16.313713 -218.750000
-78.673042 -18.720705 -218.750000
-78.266411 151.492401 -219.149994
-77.343437 151.732208 -219.149994
-78.283569 144.309418 -219.149994
-78.281769 145.062424 -219.432999
-77.330956 144.107147 -219.149994
-78.313324 2.093345 -219.149994
-78.320885 -3.625403 -219.149994
-77.763062 -4.579859 -219.149994
-78.266907 151.283401 -219.550003
-78.268105 150.781403 -219.886002
-78.281532 145.161423 -219.550003
-78.635414 -2.970090 -219.550003
-77.914360 -4.579498 -219.550003
-78.645134 -7.037269 -219.550003
-78.651077 -9.525602 -219.550003
-78.397842 -9.343986 -219.550003
-78.533318 -18.874939 -219.550003
-78.281456 145.193420 -219.949997
-77.973824 2.092534 -219.949997
-78.651451 -9.681991 -219.949997
-78.667923 -16.575211 -219.949997
-78.673889 -19.073505 -219.949997
-78.268394 150.661407 -220.350006
-78.404099 1.140434 -220.350006
-77.944458 -4.579426 -220.350006
-78.645477 -7.180778 -220.350006
-78.651604 -9.745941 -220.350006
-78.268265 150.716415 -220.750000
-78.281143 145.324417 -220.750000
-78.634705 -2.671531 -221.125000
-78.417679 -3.625172 -220.750000
-78.645439 -7.164818 -220.750000
-78.651428 -9.673081 -220.750000
-78.340965 -16.969093 -220.750000
-78.674347 -19.265404 -220.750000
-78.281219 145.293427 -221.149994
-78.159996 1.139851 -221.149994
-78.028564 -4.579225 -221.149994
-78.646088 -7.437138 -221.479004
-78.674706 -19.414503 -221.149994
-78.268295 150.703415 -221.550003
-77.921501 1.139281 -221.550003
-78.434677 0.187379 -221.550003
-78.630150 -0.765281 -221.710007
-78.369484 -3.625287 -221.550003
-78.651833 -9.842631 -221.550003
-78.669113 -17.074808 -221.550003
-78.281136 145.329422 -221.949997
-77.706497 1.138767 -221.949997
-78.550011 -2.671733 -221.949997
-78.007660 -4.579275 -221.949997
-78.651802 -9.827631 -221.949997
-77.717247 -9.345612 -221.949997
-78.669167 -17.096409 -221.949997
-78.674812 -19.458803 -221.949997
-78.268303 150.699402 -222.350006
-78.187981 0.186790 -222.350006
-78.309288 -3.625431 -222.350006
-78.669533 -17.250109 -222.350006
-78.675125 -19.591803 -222.350006
-77.740891 -19.829935 -222.350006
-78.268265 150.715408 -222.750000
-78.281342 145.240417 -222.750000
-77.929382 0.186172 -222.750000
-78.291054 -0.766092 -222.750000
-78.414734 -1.718924 -222.750000
-78.387009 -2.672123 -222.750000
-78.011864 -4.579265 -222.750000
-78.646446 -7.587407 -222.750000
-78.652161 -9.978830 -222.750000
-78.268181 150.751404 -223.149994
-78.281174 145.311417 -223.149994
-77.613304 25.919889 -223.149994
-78.148552 -0.766432 -223.149994
-78.646385 -7.562547 -223.149994
-78.669815 -17.368910 -223.149994
-78.675278 -19.655304 -223.149994
-78.040291 -19.829220 -223.149994
-78.552734 31.640852 -223.860992
-78.555008 30.687754 -223.751999
-78.557289 29.734655 -223.703995
-78.559563 28.781559 -223.705002
-78.564117 26.875265 -223.768997
-78.291122 26.874613 -223.550003
-78.566391 25.922167 -223.841995
-78.294975 24.968317 -223.550003
-78.275848 24.015167 -223.550003
-78.212532 23.061914 -223.550003
-78.061203 22.108450 -223.550003
-77.967453 -0.766865 -223.550003
-78.208832 -1.719416 -223.550003
-78.250610 -2.672449 -223.550003
-78.177887 -3.625745 -223.550003
-77.957565 -4.579394 -223.550003
-78.675674 -19.822502 -223.550003
-78.268318 150.692413 -223.949997
-78.281258 145.277420 -223.949997
-78.545898 34.500244 -224.192993
-78.548180 33.547146 -224.022003
-78.086578 33.546043 -223.949997
-78.551559 32.132851 -223.949997
-78.568672 24.968971 -223.988998
-78.012283 21.155230 -223.949997
-78.012337 -1.719885 -223.949997
-78.093185 -3.625947 -223.949997
-78.646706 -7.696327 -223.949997
-78.652420 -10.087430 -223.949997
-78.670540 -17.671410 -223.949997
-78.676109 -20.003101 -223.949997
-78.268265 150.714401 -224.350006
-78.541344 36.406536 -224.647003
-78.340202 22.109116 -224.350006
-78.158684 21.155579 -224.350006
-77.776054 20.201464 -224.350006
-77.746933 -1.720519 -224.350006
-77.959808 -2.673143 -224.350006
-78.652428 -10.091430 -224.350006
-78.670624 -17.708109 -224.350006
-78.676201 -20.041801 -224.350006
-78.281082 145.351425 -224.750000
-78.534515 39.265827 -225.026001
-78.536797 38.312733 -224.856995
-78.539772 37.065037 -224.750000
-78.574364 22.586176 -224.750000
-78.328888 21.155987 -224.750000
-78.103561 20.202246 -224.750000
-77.877289 -3.626463 -224.750000
-77.702164 -4.580005 -224.750000
-78.676643 -20.226702 -224.750000
-78.268448 150.639404 -225.149994
-77.332397 146.013168 -225.149994
-78.529961 41.172127 -225.358002
-78.574471 22.542076 -225.149994
-78.087654 20.202208 -225.149994
-78.647034 -7.831206 -225.149994
-78.652794 -10.242629 -225.149994
-78.671509 -18.078608 -225.149994
-78.268738 150.518402 -225.550003
-78.280701 145.510422 -225.550003
-78.264282 21.155832 -225.550003
-77.967758 20.201921 -225.550003
-78.646973 -7.808306 -225.550003
-78.671623 -18.126907 -225.550003
-78.676918 -20.341801 -225.550003
-78.269966 150.003403 -225.949997
-78.279510 146.007431 -225.949997
-78.523132 44.031517 -226.104004
-78.525406 43.078316 -225.994995
-78.380203 22.109211 -225.949997
-78.168884 21.155603 -225.949997
-77.634560 20.201124 -225.949997
-78.270622 149.729416 -226.350006
-78.278152 146.577423 -226.350006
-78.572235 23.477674 -226.350006
-78.306206 22.109035 -226.350006
-77.931084 21.155035 -226.350006
-78.647491 -8.024996 -226.350006
-78.653290 -10.450629 -226.350006
-78.672295 -18.406406 -226.350006
-78.677376 -20.534700 -226.350006
-78.271797 149.238403 -226.750000
-78.272659 148.875427 -226.863007
-78.276985 147.066422 -226.750000
-78.274940 147.921417 -226.949997
-77.952126 47.842564 -226.750000
-78.516304 46.890804 -226.776001
-78.570602 24.159773 -226.750000
-78.377327 23.062307 -226.750000
-78.134804 22.108625 -226.750000
-78.672462 -18.475506 -226.750000
-78.511749 48.797104 -227.470001
-78.037453 48.795971 -227.149994
-78.514023 47.843906 -227.238998
-78.430244 24.015537 -227.149994
-78.143532 23.061749 -227.149994
-77.622414 22.107401 -227.149994
-78.647652 -8.090196 -227.149994
-78.653320 -10.465529 -227.149994
-78.677780 -20.701399 -227.149994
-77.758522 51.654709 -227.550003
-78.226601 50.702625 -227.550003
-78.435272 49.750023 -227.550003
-78.561844 27.828362 -227.725998
-78.493393 25.921993 -227.550003
-78.369171 24.968494 -227.550003
-78.073059 24.014683 -227.550003
-77.620132 23.060499 -227.550003
-78.648102 -8.281125 -227.550003
-78.653671 -10.610328 -227.550003
-77.765526 -10.298649 -227.550003
-78.673393 -18.866106 -227.550003
-78.678391 -20.957600 -227.550003
-78.058945 52.608532 -227.949997
-78.506294 51.080593 -227.949997
-78.375214 51.656185 -227.949997
-78.557289 29.734655 -228.332001
-77.912819 26.873709 -227.949997
-78.673615 -18.959005 -227.949997
-77.817268 53.561058 -228.350006
-78.505058 51.597794 -228.350006
-78.555008 30.687754 -228.557007
-77.870064 28.779911 -228.350006
-78.653564 -10.565528 -228.350006
-78.678787 -21.123497 -228.350006
-77.620010 55.466793 -228.750000
-77.946785 54.514465 -228.750000
-78.419846 52.609394 -228.750000
-78.545898 34.500244 -229.119003
-78.548180 33.547146 -229.044998
-78.552017 31.940451 -228.750000
-78.550453 32.593948 -228.914001
-78.648529 -8.457385 -228.750000
-78.653969 -10.734428 -228.750000
-78.674301 -19.245304 -228.750000
-78.679237 -21.313297 -228.750000
-78.037735 56.420994 -229.149994
-78.311317 55.468441 -229.149994
-78.400589 54.515553 -229.149994
-78.500359 53.562687 -229.181000
-78.543625 35.453339 -229.304993
-78.648521 -8.455245 -229.149994
-78.654137 -10.804528 -229.149994
-77.866661 57.373684 -229.550003
-78.233635 56.421463 -229.550003
-78.496376 55.230682 -229.550003
-78.540985 36.557938 -229.550003
-78.539070 37.359638 -229.768005
-78.648811 -8.575924 -229.550003
-78.654015 -10.756128 -229.550003
-78.674667 -19.400303 -229.550003
-78.679604 -21.467098 -229.550003
-77.667076 58.326309 -229.949997
-78.124962 57.374302 -229.949997
-78.333633 56.421700 -229.949997
-78.495865 55.445385 -229.949997
-78.529961 41.172127 -230.298004
-78.532242 40.218925 -230.238998
-78.535728 38.757530 -229.949997
-78.534515 39.265827 -230.113007
-78.675011 -19.542404 -229.949997
-77.742104 59.279694 -230.350006
-78.033676 58.327187 -230.350006
-78.207260 57.374500 -230.350006
-78.495872 55.442482 -230.350006
-77.788742 -5.532930 -230.350006
-77.971817 -6.485625 -230.350006
-77.798897 -7.439161 -230.350006
-78.649033 -8.670314 -230.350006
-78.654587 -10.993227 -230.350006
-78.270386 149.828415 -230.970993
-78.272659 148.875427 -230.776001
-77.510162 148.873596 -230.750000
-78.274940 147.921417 -230.830994
-78.277214 146.968430 -231.050003
-77.687950 61.185768 -230.750000
-78.160522 60.233799 -230.750000
-78.314308 59.281059 -230.750000
-78.380081 58.328014 -230.750000
-78.423462 57.375015 -230.750000
-78.493797 56.311279 -230.750000
-78.524635 43.403519 -230.750000
-78.523132 44.031517 -230.923996
-78.086288 -3.625964 -230.750000
-78.333466 -4.578496 -230.750000
-78.471115 -6.484433 -230.750000
-78.438591 -7.437633 -230.750000
-78.649025 -8.665724 -230.750000
-78.359573 -8.390944 -230.750000
-78.654366 -10.903028 -230.750000
-78.554695 -19.827991 -230.750000
-78.680855 -21.988195 -230.750000
-78.269493 150.201416 -231.149994
-78.278168 146.571426 -231.149994
-77.838547 61.186131 -231.149994
-78.149323 60.233772 -231.149994
-78.495804 55.468884 -231.492996
-78.504913 51.656494 -231.518005
-78.507195 50.703297 -231.408005
-78.509468 49.750198 -231.335007
-78.511749 48.797104 -231.298996
-78.514023 47.843906 -231.304993
-78.519127 45.708210 -231.149994
-78.315407 -2.672294 -231.149994
-78.636978 -3.624648 -231.356995
-78.487679 -3.625005 -231.149994
-78.639259 -4.577766 -231.389999
-78.533958 -4.578017 -231.149994
-78.641533 -5.530893 -231.300003
-78.649368 -8.810763 -231.149994
-78.591873 -8.390389 -231.149994
-78.650642 -9.343382 -231.339996
-78.653793 -10.662028 -231.149994
-78.652924 -10.296529 -231.332001
-78.676147 -20.019300 -231.149994
-78.681496 -22.257696 -231.149994
-78.268875 150.459412 -231.550003
-77.323288 149.826157 -231.550003
-78.278992 146.224426 -231.550003
-77.883049 61.186237 -231.550003
-78.451836 56.421982 -231.550003
-78.498085 54.515785 -231.869995
-78.220253 48.796406 -231.550003
-78.032425 47.842754 -231.550003
-77.866104 46.889252 -231.550003
-78.632423 -1.718404 -231.563004
-78.555344 -9.343610 -231.550003
-78.180229 -10.297658 -231.550003
-78.676323 -20.092701 -231.550003
-78.681786 -22.380695 -231.550003
-78.278824 146.295425 -231.949997
-77.886475 62.139343 -231.949997
-78.142822 60.233753 -231.949997
-78.225006 59.280846 -231.949997
-78.287476 58.327793 -231.949997
-78.326759 57.374786 -231.949997
-78.444817 55.468761 -231.949997
-78.500359 53.562687 -232.048004
-78.496017 51.656471 -231.949997
-78.417000 50.703079 -231.949997
-78.171471 49.749393 -231.949997
-77.677826 2.091827 -231.949997
-78.108398 1.139727 -231.949997
-78.441483 0.187396 -231.949997
-78.099701 -11.250954 -231.949997
-78.676262 -20.066002 -231.949997
-78.267326 151.108414 -232.350006
-78.279366 146.070419 -232.350006
-77.630394 63.091839 -232.350006
-77.896378 62.139370 -232.350006
-78.022346 61.186569 -232.350006
-78.102425 60.233658 -232.350006
-78.169174 58.327511 -232.350006
-78.159660 57.374386 -232.350006
-78.150032 56.421261 -232.350006
-78.253784 54.515202 -232.350006
-78.311661 53.562237 -232.350006
-78.273643 52.609047 -232.350006
-77.994019 51.655273 -232.350006
-78.187622 2.093045 -232.350006
-78.626099 0.930179 -232.350006
-78.653061 -10.354829 -232.350006
-78.336403 -11.250388 -232.350006
-78.676811 -20.296101 -232.350006
-78.682289 -22.589794 -232.350006
-78.279610 145.966431 -232.750000
-77.796173 62.139130 -232.750000
-77.918747 61.186321 -232.750000
-77.991875 58.327087 -232.750000
-77.939461 57.373859 -232.750000
-77.812737 56.420456 -232.750000
-77.542717 55.466606 -232.750000
-77.936966 3.998701 -232.750000
-78.036545 3.045816 -232.750000
-78.368721 2.093477 -232.750000
-78.655197 -11.249626 -233.026001
-78.045555 -13.157388 -232.750000
-78.677971 -20.780899 -232.934998
-78.682114 -22.518093 -232.750000
-78.266983 151.253403 -233.149994
-77.526779 62.138485 -233.149994
-77.825447 61.186096 -233.149994
-78.007927 60.233433 -233.149994
-78.052803 59.280434 -233.149994
-78.001175 58.327106 -233.149994
-77.865257 57.373684 -233.149994
-77.574936 56.419888 -233.149994
-78.175797 4.952394 -233.149994
-78.482666 4.000005 -233.149994
-78.507744 3.046942 -233.149994
-78.213257 -13.156987 -233.149994
-78.679047 -21.233198 -233.149994
-78.680954 -22.032396 -233.149994
-78.680244 -21.733997 -233.264999
-78.279869 145.859421 -233.550003
-78.531387 4.953244 -233.550003
-78.401253 -13.156538 -233.550003
-78.101639 -14.110357 -233.550003
-78.267090 151.208405 -233.949997
-78.279915 145.839417 -233.949997
-78.659111 -12.889022 -233.949997
-78.266899 151.287415 -234.350006
-78.279602 145.971420 -234.350006
-78.614632 5.731955 -234.350006
-78.315125 -14.109847 -234.350006
-77.733711 -15.064339 -234.350006
-78.614281 5.876785 -234.750000
-78.661774 -14.001418 -234.750000
-78.121811 -15.063412 -234.750000
-78.267105 151.201416 -235.149994
-77.649712 150.779922 -235.149994
-78.279640 145.952423 -235.149994
-78.070839 6.858409 -235.149994
-78.317406 -15.062944 -235.149994
-78.266953 151.264404 -235.550003
-78.545830 6.859544 -235.550003
-78.663696 -14.806916 -235.550003
-77.729691 -16.017452 -235.550003
-78.267067 151.215408 -235.949997
-78.279335 146.082428 -235.949997
-78.611267 7.138661 -235.949997
-78.222160 7.811893 -235.949997
-78.236282 -16.016241 -235.949997
-77.639511 150.779907 -236.350006
-78.067886 8.764647 -236.350006
-78.609962 7.683680 -236.350006
-78.665901 -15.729314 -236.350006
-78.266884 151.293411 -236.750000
-77.540718 150.779663 -236.750000
-78.419289 8.765488 -236.750000
-78.588280 -16.015400 -236.750000
-77.880363 -16.970194 -236.750000
-78.267014 151.240402 -237.149994
-78.279320 146.087418 -237.149994
-78.279495 146.015427 -237.550003
-78.667709 -16.486311 -237.149994
-78.668274 -16.721910 -237.550003
-78.266022 151.653412 -237.949997
-78.280342 145.659424 -237.949997
-78.206306 9.718111 -237.949997
-78.668732 -16.914310 -237.949997
-78.265137 152.026413 -238.350006
-78.281754 145.070419 -238.350006
-78.358307 9.718474 -238.350006
-78.186836 -17.922665 -238.350006
-78.263191 152.838409 -238.750000
-78.283539 144.320419 -238.750000
-78.284050 144.109421 -239.056000
-78.670433 -17.627909 -238.750000
-78.261742 153.447403 -239.149994
-78.605164 9.694624 -239.149994
-78.671135 -17.921507 -239.363007
-78.261398 153.590408 -239.550003
-78.604401 10.013312 -239.550003
-78.226730 10.671312 -239.550003
-77.738022 -18.876839 -239.550003
-78.260147 154.114410 -239.949997
-78.286186 143.214432 -239.949997
-77.671257 11.623088 -239.949997
-78.672295 -18.408005 -239.949997
-78.286964 142.889435 -240.350006
-78.603584 10.356212 -240.350006
-78.287254 142.766434 -240.750000
-78.155151 11.624244 -240.750000
-78.602982 10.605711 -240.750000
-78.673416 -18.874605 -241.042999
-78.288055 142.430435 -241.149994
-78.288597 142.203445 -241.299011
-78.290878 141.249435 -241.404999
-78.297707 138.390442 -241.408997
-78.299988 137.437454 -241.488007
-78.242050 11.624452 -241.149994
-78.673668 -18.980505 -241.149994
-78.258034 154.999390 -241.549988
-77.731483 141.248093 -241.549988
-77.661362 140.294922 -241.549988
-77.680534 139.341980 -241.549988
-77.598015 138.388779 -241.549988
-78.300537 137.207458 -241.549988
-77.918793 137.436539 -241.549988
-78.674271 -19.234203 -241.549988
-78.257584 155.187393 -241.950012
-78.274940 147.921417 -242.088013
-77.391533 139.341293 -241.950012
-77.467720 138.388474 -241.950012
-78.301140 136.953461 -241.950012
-77.785591 137.436218 -241.950012
-78.302261 136.484451 -242.130005
-78.601089 11.397709 -241.950012
-78.303589 135.928452 -242.350006
-77.718964 136.483063 -242.350006
-78.600632 11.589508 -242.350006
-78.674759 -19.437603 -242.350006
-78.257408 155.260391 -242.750000
-78.276276 147.363419 -242.750000
-78.304306 135.628448 -242.750000
-77.645180 12.576129 -242.750000
-78.600624 11.594808 -242.750000
-78.257179 155.355392 -243.149994
-78.276703 147.184418 -243.149994
-78.304245 135.655457 -243.149994
-78.304543 135.531448 -243.497009
-78.674179 -19.194403 -243.149994
-78.269592 150.158401 -243.549988
-78.269783 150.078415 -243.950012
-78.304787 135.428452 -243.950012
-78.257233 155.333389 -244.350006
-78.599945 11.877407 -244.350006
-78.269943 150.013412 -244.750000
-78.270386 149.828415 -244.976990
-78.276108 147.433426 -244.750000
-78.304222 135.663452 -244.750000
-78.600014 11.850007 -244.750000
-78.674629 -19.382904 -244.750000
-78.274940 147.921417 -245.302002
-78.303391 136.011459 -245.149994
-77.686462 136.482971 -245.149994
-78.600304 11.728608 -245.149994
-78.257744 155.120392 -245.549988
-78.272537 148.928421 -245.549988
-78.272957 148.752426 -245.549988
-77.448280 141.247421 -245.549988
-77.364960 140.294220 -245.549988
-78.303528 135.955460 -245.549988
-77.743065 136.483109 -245.549988
-78.675110 -19.584204 -245.549988
-78.233894 -19.828758 -245.549988
-78.257965 155.028397 -245.950012
-78.288597 142.203445 -246.148987
-77.571205 142.201721 -245.950012
-78.290878 141.249435 -246.069000
-77.938278 141.248596 -245.950012
-78.293159 140.296432 -246.108002
-78.297707 138.390442 -246.160004
-77.576714 138.388733 -245.950012
-78.299988 137.437454 -246.062988
-77.877792 137.436447 -245.950012
-78.599953 11.873907 -245.950012
-78.258522 154.793396 -246.350006
-78.259003 154.593399 -246.528015
-78.287971 142.466446 -246.350006
-78.600128 11.801308 -246.350006
-78.287392 142.710434 -246.750000
-78.259712 154.295410 -247.149994
-78.287033 142.858444 -247.149994
-78.286324 143.156433 -247.329010
-78.599953 11.875107 -247.149994
-78.260254 154.068405 -247.549988
-78.261276 153.640411 -247.898010
-78.600151 11.793508 -247.549988
-78.262085 153.302414 -248.350006
-78.263557 152.687408 -248.705994
-78.284302 144.001419 -248.350006
-78.599861 11.913807 -248.350006
-78.505890 -19.828108 -248.350006
-78.283218 144.455429 -248.750000
-78.281769 145.062424 -249.131989
-78.264381 152.341415 -249.149994
-78.265831 151.734406 -249.540009
-78.599983 11.863607 -249.149994
-78.674225 -19.213503 -249.149994
-78.599777 11.949107 -249.549988
-78.246094 -19.828728 -249.549988
-78.266838 151.311401 -249.950012
-78.108994 -19.829056 -249.950012
