# This PCD file was generated using the MATLAB® pcwrite function
# from Computer Vision Toolbox®.
# .PCD v.7 - Point Cloud Data file format
VERSION .7
FIELDS x y z
SIZE 4 4 4
TYPE F F F
COUNT 1 1 1
WIDTH 1431
HEIGHT 1
VIEWPOINT 0 0 0 1 0 0 0
POINTS 1431
DATA ascii
-75.142197 184.023727 -275.865692
-74.403381 178.839691 -276.927673
-77.503860 44.221619 -275.989258
-77.620499 102.323250 -274.247925
-74.736671 59.727009 -276.688934
-77.210747 114.267586 -278.300232
-76.340500 51.481899 -276.494110
-76.842628 167.335510 -279.659027
-72.918159 129.283875 -276.827759
-76.342926 106.794724 -275.899261
-77.380234 117.097153 -277.766632
-76.116188 194.237717 -278.702179
-77.956413 175.067566 -283.154114
-74.793503 105.316528 -279.730530
-74.681999 198.974899 -284.342621
-75.265236 196.139008 -287.880371
-76.053368 105.051155 -41.426159
-71.346153 116.198639 -44.666702
-74.727821 94.045685 -47.542862
-76.846230 68.635376 -61.959618
-77.059731 -30.763742 -65.594765
-74.873375 -28.810675 -69.137375
-74.926064 -24.894625 -69.402626
-79.350266 91.466064 -73.031487
-74.946716 -23.750818 -78.835228
-73.144409 141.353409 -80.680870
-73.089905 -5.316718 -82.609039
-71.983780 -34.785679 -85.172020
-73.773499 -42.769661 -88.018280
-75.055000 -25.840864 -86.693962
-74.023453 1.273162 -85.798065
-71.643105 -41.610588 -87.944695
-74.210472 -7.133717 -89.420464
-76.684792 131.307770 -99.932487
-79.212196 11.616179 -101.833603
-76.769661 4.199749 -101.364845
-73.980492 15.272577 -107.661270
-79.680527 -60.831173 -109.057404
-78.699974 17.594933 -111.748123
-76.974762 -64.067146 -112.174599
-74.727242 -64.551788 -112.823586
-73.936638 17.774078 -117.270905
-73.852608 -61.760773 -119.230415
-74.381630 106.959366 -125.510765
-78.600433 -62.387280 -128.620453
-72.608803 26.565289 -127.081924
-72.957916 102.054253 -128.961533
-73.164383 99.868790 -132.007385
-74.749603 12.379776 -129.803055
-74.001381 124.804207 -137.519348
-74.364052 123.796608 -134.847549
-72.879021 104.052696 -139.393387
-76.209030 91.815704 -140.147369
-74.237701 92.038589 -140.829102
-73.052177 -63.816296 -142.433212
-78.400208 18.332603 -140.315842
-76.413322 114.550972 -141.586578
-75.435654 117.091324 -145.555328
-77.961983 28.162764 -142.312088
-76.550117 25.417389 -148.246399
-75.874077 40.447834 -145.012848
-76.116547 -64.286240 -146.291550
-75.543610 19.514946 -146.419235
-70.380173 40.514538 -150.076233
-73.005692 114.300148 -151.585205
-75.705269 52.315556 -152.575943
-76.456696 20.113588 -153.559860
-74.027832 81.323349 -153.082825
-78.318138 80.560661 -160.500183
-77.440903 57.703094 -158.788437
-76.346214 -59.416618 -159.748703
-74.311783 53.905621 -161.300293
-74.722321 52.815144 -161.597870
-75.296242 108.394890 -162.043961
-75.796478 31.189608 -166.297455
-77.435684 -55.624378 -164.539871
-77.244705 -59.606110 -166.689682
-77.992233 111.613586 -168.036606
-72.937790 -58.236687 -167.386917
-73.191124 100.332840 -169.732635
-73.927933 22.129051 -172.628952
-77.272926 -59.329536 -169.074661
-74.686905 -59.444935 -175.818665
-77.490112 68.873016 -174.243820
-75.656731 194.283630 -176.680389
-76.332367 195.877243 -179.545334
-76.379959 -49.860928 -178.118591
-78.450348 -57.937889 -176.935913
-76.371590 81.335785 -178.783478
-75.364464 96.651085 -180.007050
-77.333145 26.485691 -178.444565
-72.499962 -57.375694 -179.650467
-78.685867 36.722389 -179.194016
-78.926750 68.391220 -182.392715
-73.193184 -61.103775 -182.864944
-74.574249 193.472748 -183.264282
-77.225304 -48.980099 -186.029694
-75.743080 27.398569 -187.217773
-74.276451 187.783859 -191.504135
-74.369179 -53.452061 -188.027878
-74.940392 196.998749 -187.334778
-74.844276 93.263054 -188.287689
-74.656982 69.983711 -188.072067
-76.452843 184.086487 -191.208801
-77.349304 -47.821281 -196.356689
-75.463821 -42.864895 -193.866898
-74.877502 201.164932 -194.321884
-75.621880 70.163406 -197.036362
-72.289024 198.660019 -191.371979
-73.233627 -45.497532 -196.138824
-74.059883 63.021141 -200.346466
-73.629601 -44.706856 -200.107574
-77.961861 43.736660 -201.487762
-73.464653 40.512321 -197.821945
-77.088898 85.641510 -200.892105
-74.264854 129.603485 -199.595047
-75.851608 78.253960 -203.484787
-78.059898 196.142899 -201.817749
-77.489990 133.771378 -201.892136
-74.549828 197.418472 -204.163864
-74.225609 78.554932 -203.472015
-73.990593 75.141464 -202.810410
-73.296791 53.082748 -201.703049
-72.924988 140.885513 -204.680038
-76.043854 200.472900 -204.314423
-75.999130 147.014786 -208.705841
-71.457840 42.581684 -211.264343
-75.132523 73.639702 -209.877686
-77.872734 67.688644 -210.912109
-79.225365 194.924347 -210.728409
-74.309776 201.323029 -210.555695
-72.806114 73.510506 -212.590942
-74.530388 61.855011 -219.020554
-75.851570 47.423931 -213.537903
-76.947205 70.499588 -213.427521
-75.621475 -29.180189 -216.046341
-73.585114 -31.569088 -213.461655
-72.493942 68.194389 -219.135681
-74.086746 45.505871 -216.425156
-73.672966 59.096905 -220.397095
-75.940758 51.195293 -220.267014
-75.250534 67.560211 -227.870056
-76.618233 81.502281 -226.399857
-75.849792 52.056381 -228.777618
-74.167236 90.018028 -231.391342
-72.292839 98.751503 -233.243729
-74.596725 69.029358 -231.917633
-72.038399 44.055771 -231.669098
-76.815262 78.983078 -235.123428
-74.216232 109.187508 -232.798431
-72.726357 85.376122 -231.317383
-74.337723 44.262772 -231.473999
-73.435455 93.480598 -235.209778
-75.563728 38.756897 -236.223068
-78.867989 43.069195 -237.015366
-75.248779 93.488380 -234.225647
-77.281548 200.230118 -236.317795
-75.271545 194.085236 -236.662628
-73.663078 122.575943 -240.114014
-76.986603 105.022827 -238.270996
-74.188965 31.512503 -238.876953
-74.279503 134.926865 -239.948486
-76.384705 113.764168 -240.653885
-74.299538 60.904293 -242.278610
-76.312195 132.902298 -240.958145
-78.376297 174.494980 -246.493637
-76.648628 31.442415 -245.938141
-74.887337 184.144623 -248.739532
-75.331337 191.647476 -246.709961
-75.709198 31.672998 -268.059265
-72.136345 214.392441 -272.440826
-75.721497 201.363983 -272.066254
-75.600006 196.831879 -274.956757
-76.065346 82.669312 -277.044891
-77.379219 201.152512 -278.200958
-75.219109 118.989105 -277.632202
-74.231789 73.498543 -279.686737
-76.153442 120.463089 -277.829742
-76.080009 213.994064 -278.859039
-76.223518 190.993195 -279.502899
-74.193764 196.817505 -276.143921
-75.544029 48.246399 -279.601257
-73.496582 166.172623 -279.580170
-76.122063 184.348495 -279.729553
-75.779922 144.040909 -278.799011
-75.395699 125.418770 -279.435516
-74.993340 185.564255 -281.524750
-74.881989 134.654266 -281.654755
-77.232498 113.214706 -279.186279
-75.197639 92.359848 -282.082031
-75.979729 75.884354 -281.372589
-77.228119 54.377365 -281.313538
-73.598320 46.191723 -280.789490
-77.543907 185.129471 -281.516144
-76.318001 178.899918 -282.867035
-73.953392 35.940315 -282.336121
-74.316170 203.613937 -292.788177
-75.301804 205.000748 -300.240417
-74.357475 92.290932 -42.405380
-72.640434 118.920639 -46.076210
-71.392075 75.483116 -51.691399
-74.679283 69.578659 -57.942230
-72.626419 -36.729000 -61.403061
-73.331856 137.382690 -64.679390
-77.375938 72.878052 -64.939186
-75.206200 -32.895626 -66.397339
-75.617325 -22.467863 -68.058403
-76.089462 92.715210 -73.993347
-74.658905 -49.649815 -75.905983
-74.490982 145.612885 -83.171921
-72.534760 -20.915266 -84.596817
-75.537025 0.995210 -89.048416
-73.961929 117.802544 -87.732635
-76.786697 -32.862873 -87.303177
-72.417664 130.178314 -90.367058
-74.516418 -56.996265 -99.284096
-76.190002 1.068385 -99.043022
-76.246986 10.591084 -100.903214
-72.186195 -54.925861 -102.485176
-72.556786 143.043716 -102.693558
-72.202362 -60.859684 -104.554436
-75.773659 6.316205 -105.468346
-72.747673 16.079777 -110.747627
-75.090958 4.184942 -115.526009
-73.896835 5.384498 -117.236794
-73.653030 -59.112366 -118.311317
-71.152687 9.451263 -121.021568
-73.939171 103.831802 -124.699562
-74.569595 105.341240 -128.379898
-77.004410 -59.744961 -131.501114
-74.554062 122.885162 -129.793472
-73.458267 98.193779 -128.467041
-74.815521 120.037285 -136.392715
-74.580421 16.904909 -139.836929
-79.118011 -61.778542 -139.706635
-77.701248 103.055687 -141.121811
-73.890068 113.843056 -141.709763
-72.171478 114.695114 -148.104218
-75.882492 96.052757 -148.056564
-73.498062 -64.195671 -147.852844
-78.819191 -60.857113 -150.235611
-77.785858 24.306784 -149.086121
-73.810318 -64.048141 -151.356094
-73.758224 110.808968 -154.106888
-70.984718 113.023277 -152.572067
-71.601768 109.132729 -154.437317
-76.476097 118.998657 -155.146301
-75.991394 95.762726 -155.518188
-73.735413 52.478951 -155.051239
-74.748558 32.356342 -155.066559
-74.277199 -63.623569 -157.696945
-73.194504 20.658064 -156.130661
-74.406425 107.054367 -167.398987
-74.046524 31.628975 -166.077087
-73.276024 109.191528 -167.355576
-72.881729 101.967308 -169.899307
-76.769852 39.237782 -169.760696
-75.624870 35.392231 -172.624695
-73.295341 72.386658 -175.427673
-73.172668 83.810768 -174.211349
-73.526489 22.556637 -175.587982
-77.169037 26.260479 -176.006683
-72.815773 102.099846 -174.939758
-74.072021 192.803024 -176.519592
-73.872871 200.764893 -178.846146
-73.432892 82.000473 -174.670349
-73.443275 94.558517 -181.268295
-75.576668 200.786270 -183.764618
-72.395622 28.604147 -183.848526
-77.337700 28.406059 -183.815155
-75.948311 96.378799 -190.168472
-74.864464 36.802437 -188.901459
-73.352287 190.549423 -190.775070
-78.372910 -48.163982 -188.470413
-78.484970 90.773918 -190.472382
-71.662338 191.554459 -190.066025
-74.684677 87.045921 -194.938782
-76.451576 31.401743 -191.633865
-71.924721 31.742645 -196.229004
-71.379150 57.332531 -197.926529
-73.253555 84.780594 -199.417053
-73.273254 68.791718 -202.056412
-72.887558 130.572327 -201.890717
-73.087257 -39.726479 -202.610748
-75.185387 141.192841 -204.764954
-74.865799 33.505192 -205.450165
-75.250603 -34.041447 -202.571945
-74.425537 -39.049366 -205.933121
-73.624878 197.461349 -206.346939
-74.038063 -37.168724 -208.445755
-76.276909 66.171158 -210.745712
-75.321472 53.094009 -207.085571
-74.667854 152.468338 -211.603363
-75.885612 141.713181 -212.334946
-75.119682 46.189087 -209.753662
-75.586098 76.948891 -215.752884
-75.781021 151.257156 -210.868408
-72.493225 -34.137730 -212.086655
-74.681900 34.119190 -215.756287
-78.115189 68.270866 -217.239594
-73.591644 -30.462582 -216.844543
-74.952423 48.997200 -216.940643
-73.335403 -32.954998 -214.133194
-73.207031 66.436966 -218.902039
-76.812843 60.871532 -216.484634
-70.460526 179.920929 -215.723953
-73.321877 176.292267 -216.461456
-77.038864 33.874035 -215.900604
-75.771889 193.959503 -219.688568
-75.171364 55.545334 -217.570587
-72.431442 183.199890 -217.924362
-71.839203 172.089310 -222.362717
-73.509941 46.174934 -224.740341
-74.116302 -17.983763 -224.581619
-76.646370 67.284622 -224.297348
-73.967125 -23.257559 -228.871475
-78.206779 208.959167 -226.835403
-74.142197 -14.506989 -227.048233
-72.429764 44.769547 -230.629013
-76.477570 -12.563046 -229.041794
-74.297302 83.059441 -232.577927
-75.282867 72.043823 -232.471695
-73.748878 100.758385 -231.118393
-74.943062 33.156109 -235.056381
-75.261520 27.599403 -237.486328
-70.288513 212.481400 -241.924896
-75.259918 135.801300 -243.215149
-77.985847 141.987076 -240.324356
-74.867630 129.963150 -240.914368
-75.719887 141.193466 -240.580597
-75.981178 134.452362 -244.922165
-71.415352 185.975693 -248.905228
-76.882919 175.742020 -250.401733
-75.102493 213.307358 -250.729309
-75.787514 198.687592 -251.156769
-79.078667 187.839401 -247.771301
-71.807526 216.459961 -252.009140
-70.339729 202.108780 -254.115555
-73.498260 175.052170 -255.630524
-75.155579 198.702866 -257.496918
-72.915230 199.012497 -258.019623
-73.540947 211.261047 -254.837799
-74.352463 214.273804 -256.733459
-71.926727 204.334381 -260.412201
-77.977394 216.601959 -263.381256
-72.874329 198.866425 -269.533478
-71.772942 203.857162 -269.063904
-73.055000 204.500107 -271.704895
-71.562836 217.235519 -272.782227
-73.951698 175.988861 -273.789795
-72.576111 77.124565 -273.943634
-75.538742 95.489578 -273.750031
-74.664276 203.801910 -277.282349
-72.104004 60.046570 -276.725403
-73.682274 136.370331 -277.446442
-73.922234 143.629898 -274.939911
-73.777458 174.598801 -275.204773
-74.127495 158.674606 -277.950073
-73.694954 150.768555 -277.926208
-76.708748 203.903122 -281.042450
-77.201607 30.594101 -282.296631
-80.298721 166.852020 -279.382172
-71.933662 161.196991 -278.575775
-74.719131 108.436394 -281.938416
-74.151199 152.831833 -278.778076
-76.596901 209.581345 -283.982086
-75.278580 64.584747 -281.902313
-72.744514 193.551529 -278.582855
-67.877419 184.721069 -279.529510
-74.031441 211.519104 -282.070496
-73.857391 203.827957 -283.962921
-73.732483 196.532471 -287.963287
-75.541275 205.296234 -285.498566
-74.053581 197.978210 -291.227173
-76.013725 193.192093 -291.784943
-74.296959 192.527481 -298.525635
-75.844170 198.847809 -302.514038
-75.695908 109.730774 -38.632538
-73.964661 99.130814 -43.891586
-69.224258 87.182228 -41.485088
-70.906914 81.759735 -49.021290
-73.276382 -39.553616 -57.280479
-75.050789 -27.322872 -61.235043
-76.905579 -25.979286 -67.212372
-74.656967 89.202477 -66.441750
-74.008255 -43.997711 -70.613983
-74.568726 -44.080959 -71.787468
-72.645149 -19.870478 -70.529579
-70.715034 -7.694581 -79.540192
-72.073273 -6.578850 -83.027519
-72.395538 3.373592 -84.573235
-72.728027 -4.706130 -87.545349
-76.396820 -55.233070 -87.504631
-73.493469 6.054031 -90.394913
-72.997635 -28.277081 -88.153473
-76.995834 2.759084 -90.773155
-73.872536 -4.946218 -90.260063
-71.746170 -42.394428 -94.726639
-77.661369 -53.674557 -93.820564
-74.075218 147.516434 -95.131310
-73.855125 12.151936 -96.756416
-72.379631 137.920013 -105.147026
-70.548828 4.949447 -108.933525
-73.953560 -57.286198 -109.611580
-74.011169 19.690523 -115.402946
-73.848099 14.898684 -116.871368
-71.736961 -61.717209 -119.321487
-77.751694 -60.016178 -117.561134
-75.365913 11.348330 -119.165016
-71.881958 18.232130 -123.022934
-73.153961 21.677336 -123.592789
-73.000610 -63.982323 -123.981552
-71.515083 128.346054 -126.012108
-73.889809 96.793602 -127.785126
-78.106544 -64.294067 -129.999939
-69.461250 -61.373028 -133.569122
-74.732208 96.301521 -134.219513
-75.890892 104.411545 -139.349854
-75.077278 28.159138 -134.776398
-73.287300 123.484520 -135.521027
-74.412895 13.366853 -135.152222
-72.801704 122.904961 -139.356354
-73.461800 123.217323 -142.067398
-72.670853 88.995544 -143.482941
-71.726059 88.568619 -139.545822
-73.381889 37.348660 -142.882996
-72.115921 -58.763664 -142.251083
-74.722244 -67.015594 -141.949234
-74.578362 26.814735 -145.833603
-73.445023 35.272526 -147.125671
-72.998840 23.299671 -142.112122
-72.604263 116.742943 -148.188461
-72.749046 82.405113 -152.606171
-74.786514 37.249611 -152.189621
-70.660660 29.075443 -149.650513
-72.075081 19.864592 -151.258972
-76.547630 93.714378 -155.825119
-75.545204 53.911098 -152.985565
-77.541267 -63.209694 -155.633209
-74.214790 54.185432 -155.381699
-75.759544 113.854805 -155.940079
-75.120216 -60.981407 -159.991287
-69.755852 114.874016 -159.708923
-72.898186 80.089676 -162.643463
-71.689651 107.840752 -165.343277
-75.301445 24.695137 -163.820190
-72.579681 -57.580002 -170.056854
-71.716949 76.714493 -168.912155
-74.989983 84.923935 -167.403885
-74.574982 85.115982 -168.393661
-74.271164 198.117386 -167.004211
-71.770355 103.714554 -171.709610
-75.670143 -59.496208 -169.172073
-72.844795 194.734589 -169.716263
-74.554344 -54.951618 -174.371201
-70.203354 72.697235 -170.239410
-73.778915 -58.015911 -175.862167
-71.614403 203.091156 -175.716049
-76.481735 -48.022816 -177.572342
-72.026512 -58.035694 -177.234650
-75.517548 -51.301003 -181.400589
-73.562599 69.439896 -181.177811
-76.494987 35.131569 -185.904266
-74.534401 66.157776 -187.009995
-74.877357 180.467728 -186.574173
-75.216583 174.410126 -188.511658
-74.542740 -54.453972 -187.824127
-73.374123 180.180740 -189.752594
-71.366592 -50.278053 -190.514328
-76.182259 68.106621 -193.113510
-77.050659 38.900383 -193.295502
-75.560036 87.535065 -194.551971
-75.436806 -40.949272 -191.492233
-74.034355 -44.262863 -199.812210
-74.758781 42.374775 -196.678909
-68.082825 -48.397572 -200.558640
-74.208092 -42.912544 -198.960129
-73.050362 70.583908 -200.523895
-74.231499 135.181702 -203.926727
-72.202965 84.820763 -197.244797
-73.549179 75.374565 -204.575516
-77.322876 -45.862858 -203.952820
-74.494476 132.770737 -203.976288
-68.586647 200.787277 -207.343185
-73.280815 54.765186 -203.693069
-71.417969 140.525955 -207.288040
-72.760635 69.909012 -204.907104
-76.339867 39.448910 -209.865875
-71.997986 -31.761761 -210.684402
-72.526382 72.336494 -209.873489
-76.065338 197.131714 -209.865250
-74.521912 59.394760 -211.475952
-74.124947 34.909698 -212.804962
-76.196556 -33.909603 -213.345551
-72.891907 213.516891 -215.721008
-72.269707 -28.456444 -214.979797
-71.572052 184.057816 -214.455246
-77.348572 70.459496 -215.610382
-73.842094 40.868687 -215.668671
-76.437225 183.570618 -219.227707
-69.286659 199.966064 -221.431793
-74.964005 -22.458902 -220.845169
-72.542618 190.378952 -218.123596
-72.777512 185.987106 -218.612991
-71.714256 202.492920 -221.921646
-71.800835 -23.256140 -221.431870
-75.008507 184.484299 -221.561050
-73.339294 175.893860 -223.602554
-73.589767 41.510876 -225.199158
-76.714928 60.515072 -224.684158
-69.782623 208.172180 -222.604797
-74.255592 205.280716 -224.510971
-72.665024 35.888763 -224.393570
-71.297966 214.700272 -227.140305
-73.521065 47.168499 -224.271988
-73.025108 52.959801 -228.796265
-70.954819 193.916229 -229.439651
-70.874016 -10.554773 -229.720673
-75.346161 79.452499 -232.494019
-74.257439 199.850525 -230.990234
-68.246399 209.779053 -231.445374
-74.265373 215.430344 -234.868881
-75.198540 35.756527 -232.560669
-74.422447 55.020340 -230.066055
-74.115952 30.809919 -233.685699
-73.180519 110.144241 -231.467606
-74.044365 103.781242 -235.853638
-73.680756 42.724586 -234.742554
-73.572083 -8.730472 -234.628922
-72.340355 98.870415 -234.730118
-70.441139 54.981873 -236.960007
-75.316101 198.289124 -236.288986
-73.547630 118.907768 -236.183624
-72.328156 33.820553 -234.101044
-72.209610 200.548904 -239.336807
-72.446510 213.374054 -235.100739
-72.362091 36.377182 -236.939972
-72.571777 214.118271 -238.523300
-75.376366 199.562119 -242.688980
-75.972313 202.083603 -243.400131
-73.743774 211.267075 -246.210709
-70.383606 184.130600 -240.624725
-74.674782 61.530804 -246.277130
-73.114105 204.398926 -242.025406
-74.487411 166.512207 -245.646301
-76.208656 145.532318 -245.986816
-71.511612 171.582703 -245.902557
-71.645882 155.203308 -247.274551
-73.599617 144.522461 -247.548798
-74.250229 144.924988 -248.272690
-71.716743 201.875519 -244.957504
-75.771019 165.714188 -249.583588
-73.807320 195.946152 -254.021744
-72.450722 168.019745 -249.568741
-75.192749 64.980881 -250.674942
-73.696419 203.083160 -253.912384
-71.477562 192.882614 -251.304733
-71.275490 219.364426 -256.504211
-72.937981 60.330322 -268.817169
-73.879738 219.603271 -272.658661
-73.241379 187.460190 -276.427521
-75.278534 120.226067 -276.864655
-70.256256 83.322235 -278.195099
-74.174286 78.731575 -275.130096
-74.135124 164.646912 -276.498413
-72.296303 56.916195 -277.945892
-74.151222 38.329380 -276.678833
-72.581253 40.597759 -279.688385
-74.724419 96.162170 -282.056641
-71.371864 126.777092 -280.688477
-71.567314 164.907318 -285.743408
-73.485504 68.986099 -283.257690
-74.488434 62.303829 -284.332214
-76.789314 172.426926 -282.462128
-76.229256 51.146236 -281.714966
-73.006432 32.580475 -283.750854
-75.074440 40.943344 -286.215210
-77.474213 209.011230 -284.316742
-71.420921 24.216791 -6.676665
-73.544861 21.095022 -8.468879
-70.489227 23.287369 -13.085485
-71.136467 29.942076 -12.490755
-72.902077 23.394262 -18.103130
-73.763298 24.314362 -19.642717
-74.248962 24.652437 -23.069073
-70.410622 7.541713 -25.537329
-72.290894 22.637346 -26.252808
-70.310989 17.048346 -28.624420
-71.481308 15.532052 -29.722601
-70.114304 22.354721 -29.053499
-71.360931 134.831329 -45.185745
-71.036148 71.329597 -50.358952
-70.295387 141.263977 -56.614647
-77.991234 64.248268 -58.628124
-73.629562 -23.123667 -62.597717
-73.497856 77.552353 -71.596306
-74.953423 95.222015 -72.595520
-73.304520 -48.868301 -76.340363
-73.592186 -46.666775 -84.618294
-70.779289 -8.687378 -86.173325
-73.911285 3.689273 -85.265755
-76.130592 -2.742676 -91.334518
-69.712959 123.283669 -88.761505
-73.379311 -46.426346 -89.572975
-75.167358 118.145477 -89.492401
-75.398186 122.176277 -92.104401
-72.778976 -26.810221 -89.961952
-72.117134 -1.954553 -94.219917
-75.432358 9.257775 -99.408424
-73.241463 -0.979369 -98.058510
-71.776192 -59.219978 -103.293777
-68.688278 11.799888 -109.989090
-73.288666 142.892136 -106.131142
-74.219048 -65.669189 -110.220444
-73.346771 -60.160206 -112.485619
-68.230820 4.572621 -109.571136
-73.914108 9.780616 -118.224571
-74.409431 -59.499428 -119.615501
-71.693497 104.470360 -118.615959
-72.705658 -65.455185 -123.012077
-70.517197 126.442795 -124.292091
-72.941498 -64.405304 -125.641190
-70.781799 99.510254 -129.220505
-73.259636 -63.913551 -127.948769
-71.828644 11.625207 -125.834030
-71.582558 93.882652 -133.289001
-73.339302 -64.794472 -134.460968
-69.946777 118.446480 -134.288773
-71.099876 24.048927 -138.162308
-73.850563 103.914139 -136.396851
-70.078537 122.939835 -137.121460
-70.868759 18.981569 -137.629883
-75.043617 -57.732193 -138.308792
-70.594315 119.930122 -141.771286
-74.671936 39.578812 -143.385284
-72.952019 37.434536 -146.348526
-74.141617 -63.706982 -145.237183
-72.884003 101.779610 -141.751877
-73.734062 96.230118 -144.874130
-73.800644 115.600533 -146.642899
-71.560089 -63.169296 -150.530457
-72.489174 -59.162334 -149.639984
-71.657410 40.270317 -150.989029
-71.354797 119.568237 -147.802078
-70.593071 87.743690 -150.553772
-74.191811 -57.538513 -151.016815
-73.962433 98.658348 -151.384567
-71.668938 113.309914 -155.512344
-72.484810 -62.055618 -152.466888
-69.052536 113.290550 -155.790375
-72.164543 24.642506 -156.370331
-72.506348 -59.551670 -155.730240
-72.534187 94.136871 -160.389923
-74.625092 92.178154 -157.216141
-73.056908 78.152626 -166.152649
-70.588257 200.664963 -164.626709
-71.114784 192.390640 -169.040146
-73.697693 -54.053768 -169.763535
-69.987907 -57.530701 -171.568451
-76.279251 32.850018 -168.730988
-74.487328 -55.514977 -174.152161
-72.829620 26.175272 -176.614456
-70.719292 67.177429 -176.691452
-71.406593 198.468079 -180.284271
-74.110428 38.638851 -178.411270
-72.166100 -58.196255 -173.686310
-72.789482 -53.886414 -180.974167
-76.921761 77.024010 -179.199539
-74.295532 -53.371494 -182.124100
-72.012619 197.081039 -180.485062
-72.453636 198.103134 -181.534210
-76.024857 -57.054306 -182.081238
-72.380615 75.455208 -184.749359
-72.886345 183.085236 -188.931198
-75.113976 171.721710 -186.997208
-73.100204 28.197371 -187.138702
-73.296127 191.020233 -187.734344
-72.777313 185.427444 -189.330948
-71.498596 193.402710 -191.776077
-72.522789 -45.124744 -191.471237
-71.964935 187.729263 -192.806305
-72.913460 59.532860 -192.234436
-76.415718 72.970978 -196.527130
-69.747299 182.392181 -191.528305
-72.917480 171.509689 -194.508179
-71.859268 -49.226898 -197.248718
-70.643639 201.715225 -192.791641
-71.560844 194.969864 -195.238098
-71.868301 61.379871 -194.644608
-73.269417 32.156910 -195.325424
-70.142563 38.778255 -199.993927
-76.279663 68.714157 -198.961823
-72.545509 215.671448 -200.177078
-71.751122 33.572220 -199.820053
-72.393501 -43.718300 -199.267944
-70.154716 54.897984 -200.006805
-73.208092 -41.305958 -201.113281
-70.075081 79.014877 -200.741989
-74.775093 64.304359 -204.947571
-75.240875 -41.703560 -207.223434
-70.953491 197.729950 -208.949677
-73.262192 216.158524 -209.255966
-73.836685 72.555115 -211.801559
-73.514336 139.871506 -208.182648
-71.753448 204.011581 -208.645233
-73.970169 -36.342491 -209.685562
-72.514076 33.532940 -208.851990
-72.759697 -33.928566 -208.171982
-71.639084 156.945496 -213.508423
-72.267731 197.567459 -212.262985
-73.989151 -37.915310 -213.397110
-72.161972 210.596085 -213.181183
-72.620338 202.414154 -212.888092
-75.475250 67.091438 -213.274292
-69.188263 -30.139090 -214.882599
-72.622391 156.226288 -213.776764
-72.173325 173.009705 -216.308563
-71.841171 -30.425583 -216.437057
-71.453751 192.920212 -218.948883
-71.487976 212.622787 -215.846588
-69.853439 201.952377 -217.249954
-71.966255 66.588097 -218.005859
-71.543625 34.339535 -216.936234
-73.600487 208.621429 -219.749741
-71.580322 49.698864 -216.796310
-73.181511 43.027874 -216.968399
-70.616928 173.337173 -218.541595
-71.939354 -24.663361 -219.901306
-74.634308 208.045334 -219.371368
-71.682343 58.797676 -222.337524
-69.883751 160.938644 -222.287964
-72.137756 53.057289 -221.263428
-74.879616 198.008682 -219.356644
-74.876114 169.740463 -218.712936
-70.410400 199.422943 -218.953629
-70.892830 175.444977 -220.508377
-74.122879 59.531578 -222.678986
-72.813690 -30.085035 -223.139984
-72.867813 190.879059 -222.611893
-73.690453 185.015411 -225.306900
-69.884140 217.212997 -223.680695
-73.133202 204.989075 -224.885025
-72.742859 203.423569 -223.286484
-74.567902 -23.155294 -224.918381
-74.650894 51.311268 -225.607712
-72.944740 -24.310181 -226.612518
-74.950752 36.199726 -224.829605
-74.190353 70.915703 -226.403549
-68.443390 33.381954 -225.948318
-70.288330 -17.011721 -228.870331
-76.895767 52.379143 -230.107208
-74.607834 75.540894 -232.824005
-70.533867 36.237507 -233.662125
-73.392838 71.457504 -231.598450
-74.050163 53.257538 -234.484177
-71.139595 62.355225 -237.467209
-71.411102 -0.122490 -236.147522
-71.651451 111.223793 -239.247650
-72.303001 61.040974 -238.852646
-71.365753 -0.045895 -240.339844
-72.513176 25.800175 -240.037140
-71.950912 62.119698 -245.250916
-72.365044 59.818497 -242.306351
-73.880135 27.554476 -244.729721
-73.119339 142.971619 -242.117401
-72.710701 175.148361 -244.835785
-72.230202 150.673218 -242.656235
-74.804337 130.041412 -244.276031
-72.191612 189.300629 -246.462952
-74.925011 137.197922 -246.431976
-74.510086 152.396225 -248.573502
-74.149467 156.101563 -248.943237
-70.400360 156.165314 -253.606445
-72.651649 164.756165 -250.801559
-74.378151 187.184494 -249.587677
-72.992813 26.660166 -251.563766
-71.595131 218.343491 -251.924774
-73.354324 62.859272 -265.421295
-69.617363 195.272644 -262.130707
-71.809113 197.889160 -274.243439
-74.112709 57.700546 -271.957214
-72.733276 181.584671 -275.481689
-71.790207 190.923248 -275.268890
-71.574020 35.559059 -276.523590
-73.568947 104.360374 -274.743134
-73.360901 172.488861 -277.866669
-74.907799 150.365738 -275.583557
-73.552559 92.512047 -275.621796
-72.141502 80.682480 -277.236603
-72.819061 220.045883 -276.184875
-74.044060 161.197449 -280.205231
-70.923012 76.023872 -273.803192
-67.077393 38.202557 -280.184784
-74.022171 105.313599 -282.657562
-73.306160 102.601807 -279.593292
-72.361259 87.014557 -279.914001
-72.826035 67.341042 -280.604004
-74.220070 62.721622 -279.373383
-71.431000 213.612473 -283.028656
-70.127022 144.778259 -279.746704
-73.838928 46.223053 -282.269592
-74.364029 34.333000 -283.039642
-71.180054 184.005066 -284.423584
-73.804237 198.634262 -288.234711
-72.220215 202.835800 -288.155243
-71.111145 207.254501 -290.738617
-68.692581 205.839584 -293.613037
-70.118927 203.665451 -300.882111
-74.357918 19.260265 -1.465516
-70.498001 14.200757 -4.682792
-72.263954 15.664680 -7.483861
-72.811508 4.769441 -5.849471
-68.870018 11.124186 -8.143765
-72.118034 5.014353 -12.154436
-73.244789 6.648736 -13.163559
-72.023621 -0.227324 -15.495580
-72.912827 1.599250 -19.158392
-77.029060 8.177648 -25.369194
-74.026215 7.385666 -25.708424
-71.615280 13.822879 -30.038004
-69.501732 118.734734 -41.071949
-69.795708 122.469559 -41.075268
-71.460457 90.972481 -41.042870
-75.015778 -40.485561 -58.856461
-70.899590 -31.460718 -56.779510
-72.660095 85.062630 -64.715790
-70.955956 74.778984 -67.628250
-69.520226 90.711769 -67.988510
-72.312195 99.033379 -76.113800
-68.526199 -5.807682 -76.365768
-71.849747 -18.611628 -80.115700
-69.619423 106.323883 -83.544250
-70.669975 -3.085259 -84.049141
-74.529480 116.328163 -78.912498
-72.231583 2.051168 -86.109047
-72.676949 -56.937378 -88.563301
-69.392555 2.502717 -89.211403
-75.795555 -50.220123 -87.671654
-69.318062 -42.409069 -91.250801
-71.500450 10.069484 -98.614899
-71.271881 -57.834930 -97.550400
-70.373543 0.955505 -100.275665
-68.592056 -53.877216 -96.558022
-68.510834 -59.209911 -101.105370
-69.076195 7.520353 -105.317139
-68.248009 139.725677 -107.859154
-72.213593 6.097552 -107.642899
-71.244614 -61.718769 -108.227074
-72.695671 13.704485 -114.628586
-70.896713 -62.882679 -117.249527
-73.277199 -68.592102 -116.068428
-72.390289 106.679359 -115.720345
-68.947586 -61.032841 -120.858009
-69.376350 -62.602383 -122.007156
-68.850868 9.078466 -124.026512
-72.030319 106.601440 -123.776741
-69.603691 19.831728 -122.738472
-70.960381 16.206127 -125.239937
-71.505203 121.965172 -125.261032
-69.866882 -65.061493 -129.147049
-71.793182 98.026077 -131.978653
-71.839661 131.054428 -126.029648
-72.448891 105.958458 -126.807014
-71.279648 22.856707 -129.370117
-67.155464 96.231262 -130.118622
-72.573280 -62.371948 -130.117355
-70.298706 96.509628 -127.917557
-71.213692 128.707687 -130.119461
-71.947067 120.037796 -133.817917
-72.885666 92.208656 -136.847046
-73.044334 -67.591072 -136.602325
-75.187508 120.880478 -140.644836
-72.520706 117.774963 -135.177170
-73.231178 121.081810 -141.304962
-68.931236 122.589661 -138.405197
-73.059891 103.640831 -138.089752
-70.770355 34.036896 -138.657562
-72.284515 36.957008 -141.399033
-71.478470 26.311762 -141.811890
-73.056084 25.652050 -144.771362
-73.279625 49.242752 -144.401108
-72.545601 32.746181 -145.698364
-73.508224 17.557142 -146.090622
-74.192177 47.757706 -148.649979
-71.717194 115.766418 -151.742523
-69.892662 87.591438 -152.787842
-72.691216 42.322628 -150.429688
-73.175262 48.360603 -153.066635
-74.609062 -68.249664 -158.912399
-73.788681 23.144817 -159.035263
-71.811172 80.617874 -159.674713
-72.014900 32.775566 -163.272278
-72.067238 -54.607075 -163.614655
-71.951408 89.481415 -164.281403
-72.758217 -63.962067 -161.164047
-70.641403 83.395760 -166.536942
-71.837692 199.585999 -167.784180
-71.648544 75.712006 -170.192871
-72.619125 24.391653 -170.738922
-71.767464 191.310928 -169.402359
-72.347748 84.644363 -172.129425
-74.318054 76.336784 -176.287186
-73.251160 81.964363 -172.388763
-73.043625 79.740196 -174.463028
-72.375977 -53.291069 -175.936707
-71.345940 192.612106 -177.620392
-71.734467 24.066042 -179.717072
-74.433990 65.798981 -179.893143
-68.352760 75.581093 -181.768204
-70.556160 38.427208 -182.528198
-71.289001 205.181122 -186.777695
-68.238976 166.812592 -186.332275
-71.861748 189.747650 -190.727737
-73.790100 -49.670422 -188.613678
-70.757591 209.522873 -188.142883
-70.598122 196.653992 -186.817810
-70.639091 170.315125 -186.071762
-70.888145 -54.041561 -187.757095
-71.065269 29.156487 -189.637482
-70.860626 197.418716 -188.350830
-70.562790 200.745804 -186.900681
-73.415611 39.009468 -189.792801
-74.236038 171.972305 -189.884521
-70.897346 201.841858 -190.254532
-71.759850 196.912643 -189.085602
-69.222694 162.957809 -189.419907
-73.126915 66.499641 -193.750015
-71.247368 192.957611 -193.544296
-72.903244 215.334961 -191.347916
-74.873238 202.578491 -192.551437
-70.728218 -49.752575 -196.468597
-74.109230 71.414482 -198.125336
-71.040596 -40.369465 -198.540527
-73.662460 43.779758 -199.211670
-75.422867 200.429230 -201.855652
-72.888519 -43.844036 -201.997269
-68.150719 57.958481 -206.461700
-72.325638 35.539238 -202.631424
-69.501610 -32.095806 -207.794403
-70.241219 149.942062 -204.913528
-69.937286 38.460106 -211.572937
-69.000023 43.758545 -208.178635
-72.870064 -35.264366 -210.602737
-71.799591 72.607826 -208.509781
-70.464470 51.880341 -208.995773
-72.274506 146.617798 -212.201904
-72.111633 73.163155 -209.526398
-70.211342 195.751953 -213.048492
-71.701088 61.996532 -215.620956
-69.604164 68.395378 -213.494934
-71.634850 155.433594 -217.969620
-71.050423 162.962433 -218.400650
-69.964874 -30.552332 -216.119034
-70.942192 157.101227 -216.504440
-75.008118 -27.550901 -220.643692
-69.473312 61.737839 -218.715195
-72.099411 40.946037 -222.854691
-72.433701 -18.894714 -219.257080
-73.928154 44.063583 -223.518188
-74.534180 68.557129 -221.719421
-72.849922 160.041443 -219.469589
-70.917046 169.547256 -222.046066
-70.253349 190.879486 -222.882645
-72.935104 36.865112 -220.901825
-70.886124 174.854691 -225.972412
-72.209427 180.243607 -225.103104
-71.095131 198.878616 -222.956528
-72.239983 -22.381620 -224.971085
-73.322281 215.330322 -232.128464
-69.398788 49.915981 -229.836288
-71.812935 -22.245621 -227.040695
-71.255478 33.976273 -231.085953
-70.945061 -14.234037 -227.609879
-68.193710 57.064137 -228.600098
-73.074547 66.026855 -234.795486
-74.574829 46.887169 -229.778214
-72.792511 59.856651 -233.482773
-73.538498 36.458263 -234.249023
-73.599792 32.674500 -238.006943
-67.953583 118.953354 -238.484695
-71.929825 121.248512 -236.636307
-71.809944 2.735623 -238.428986
-68.044106 133.099106 -242.780289
-72.403145 -0.549255 -239.210617
-71.112854 120.001389 -240.832291
-70.362793 217.174088 -238.952911
-71.687500 140.788101 -236.392181
-70.748039 124.761978 -241.086639
-74.142479 8.240782 -242.482224
-72.778877 192.063141 -245.529099
-71.454803 161.463058 -245.849747
-72.087334 145.066895 -248.803955
-70.645477 171.733032 -252.009430
-70.669998 183.115234 -259.292236
-71.023491 217.415939 -263.889923
-72.694824 59.711334 -270.358459
-72.750961 211.150879 -277.881836
-72.842171 131.039658 -277.684357
-75.209007 117.320724 -275.938202
-70.979408 106.740013 -280.875793
-71.378685 215.322571 -281.568359
-68.951080 58.187344 -274.932343
-70.487434 80.475403 -279.205353
-73.887650 88.321281 -279.482880
-72.547913 64.839561 -282.348541
-70.915993 92.033783 -279.186554
-71.953339 75.399010 -276.424103
-74.708916 54.246010 -283.938751
-73.135872 125.455544 -279.869324
-75.035004 49.018974 -280.263245
-67.251785 141.637955 -283.402740
-71.621399 141.381866 -282.076202
-68.313606 175.579163 -283.195740
-69.324013 176.918549 -280.890228
-73.470505 197.188507 -292.665161
-69.458290 191.667160 -301.364777
-71.911377 199.598648 -300.448029
-71.049614 23.665310 -4.800446
-73.669594 16.880205 -9.412230
-70.146233 19.157873 -6.421463
-68.577347 25.976585 -9.090031
-72.967628 28.880932 -13.210518
-72.712067 34.077492 -12.838093
-70.961784 23.465614 -18.293869
-70.293579 31.861204 -19.016470
-69.511063 23.449961 -24.308805
-69.579399 20.078711 -20.629164
-71.084412 20.891918 -21.964848
-71.435593 28.371695 -24.468903
-69.222534 24.891987 -29.295507
-73.009521 22.730486 -28.727346
-70.850487 18.546541 -30.517731
-70.279366 104.488083 -37.149921
-71.308060 77.908455 -45.816769
-66.179192 70.823326 -53.215260
-70.650040 65.530937 -57.939236
-68.444000 -30.799240 -55.601833
-70.261963 141.721191 -57.049057
-69.372765 -24.039049 -57.041340
-71.479118 -24.570641 -58.036125
-69.437851 -21.758797 -63.444584
-68.878326 75.892601 -66.247650
-69.100159 -51.007744 -67.298508
-71.950470 -49.903656 -72.422867
-68.784760 145.011429 -74.947014
-74.835434 99.671303 -73.857040
-67.813202 -14.012072 -77.463051
-72.779137 -50.525280 -81.138184
-74.085228 -53.377567 -92.576836
-69.765793 -56.839832 -90.037827
-70.798988 6.565714 -90.366669
-71.030975 -9.802646 -88.508278
-72.811218 3.290124 -91.219101
-72.725845 -34.458218 -91.461021
-71.736946 -2.897905 -94.245544
-71.794518 -55.795670 -90.672539
-70.731102 -55.955959 -96.990707
-69.758232 13.751222 -102.365349
-67.856819 8.052960 -102.829391
-70.230186 131.734863 -104.753746
-68.287788 128.845200 -106.808800
-69.369453 -56.114845 -106.008423
-73.305176 9.134323 -106.929192
-71.895638 -60.217308 -106.484734
-72.648804 143.403030 -108.728470
-71.183617 -60.800869 -114.197609
-73.563034 14.504555 -110.276695
-69.016808 9.050275 -110.260292
-70.344223 -57.279716 -113.011345
-70.447800 133.224457 -115.061790
-73.809753 16.948881 -112.522278
-72.394867 134.768906 -117.406990
-68.174171 13.615703 -120.656242
-70.837128 14.287510 -120.814056
-71.268845 -57.898319 -121.750221
-71.738815 109.859558 -124.129288
-71.556610 99.479706 -124.547150
-68.976654 -63.512589 -125.929962
-68.132660 16.886551 -129.371780
-69.834511 105.467087 -131.021332
-68.885063 -57.023838 -131.212738
-66.805367 18.975821 -135.253098
-69.445915 21.663391 -135.948044
-73.468826 -67.093636 -134.439835
-71.760941 91.856369 -133.172958
-70.039764 26.249508 -136.990662
-71.040855 20.667173 -139.738480
-71.315704 19.883764 -144.368484
-70.924156 -60.512424 -143.050903
-73.447350 25.898232 -143.794556
-71.168823 98.831787 -143.297592
-69.324074 116.127754 -146.956650
-69.870834 95.295311 -148.426697
-71.940071 117.752075 -148.147690
-71.956886 86.821594 -149.985825
-66.683151 44.765606 -152.309723
-69.270691 -58.849434 -151.677185
-68.923203 -64.267082 -153.592545
-70.645950 89.073097 -156.445221
-70.843750 20.184153 -157.995255
-71.295135 31.478561 -157.440552
-70.150856 95.749908 -159.097061
-69.837555 -57.077553 -160.924454
-74.054817 78.503731 -163.172226
-69.317245 -64.111618 -161.123688
-72.413116 26.106308 -166.139816
-71.955574 21.253626 -166.171677
-69.755402 84.221748 -167.860794
-71.753815 -57.033329 -168.491745
-72.351189 34.047073 -166.582748
-67.153328 77.950722 -171.055374
-68.478287 -58.155842 -171.127228
-69.594643 -61.670708 -172.147614
-69.775513 75.750397 -170.548477
-70.205223 71.125916 -173.936020
-67.855286 200.623062 -175.223846
-73.204590 74.427231 -175.591141
-69.952469 71.231033 -181.305679
-73.432304 203.987991 -179.680908
-69.623634 -51.137112 -177.550049
-69.193169 80.404205 -178.771317
-70.102646 201.531906 -183.819122
-67.131882 203.723785 -182.116470
-69.076370 193.619339 -181.512497
-70.550522 211.778152 -182.957367
-70.760445 -54.373840 -184.885239
-73.166481 68.082756 -184.477753
-73.141365 160.886627 -188.082458
-70.397278 59.079483 -191.279282
-71.884468 74.717346 -191.567932
-68.574135 -48.010105 -191.581909
-69.796120 39.193718 -187.574051
-73.721870 171.822495 -192.289673
-68.513321 217.391418 -191.048264
-73.252853 192.312332 -193.117065
-70.243248 194.088806 -196.776642
-68.891884 54.785549 -197.951202
-72.708290 -47.053581 -197.410965
-70.695885 37.689167 -204.334930
-71.221680 34.962669 -205.839508
-73.381203 33.972706 -206.964966
-70.071060 143.781509 -207.731247
-72.616890 150.509415 -204.966339
-68.835426 139.870667 -207.007095
-71.987312 50.634193 -208.685333
-71.039452 219.426819 -206.286667
-71.137253 63.169933 -211.168503
-70.918549 36.728676 -209.496155
-71.389900 -35.631329 -209.645691
-73.742989 60.734180 -213.911484
-72.229927 37.247433 -211.632950
-71.588226 -28.044260 -211.264572
-70.664795 175.948532 -215.520203
-67.685570 165.918274 -214.717834
-72.188187 185.528290 -216.938232
-70.280632 35.755894 -217.795486
-67.661308 164.763000 -216.847275
-67.786781 216.245377 -216.604004
-70.969818 -30.582806 -219.854660
-69.051582 58.835007 -218.757675
-67.760384 43.584618 -224.650040
-66.142708 -21.797884 -221.314743
-71.750069 41.338612 -228.542542
-69.714088 195.886154 -223.902588
-71.848267 57.379089 -227.709488
-69.622536 53.800041 -228.207764
-74.203072 57.084286 -228.561615
-74.802162 54.778091 -228.092972
-71.316765 37.275112 -228.589874
-72.832367 40.000362 -229.343399
-72.688545 -6.861520 -230.920456
-71.861931 41.200626 -231.878433
-68.818481 58.467461 -231.928329
-72.259109 -13.138637 -235.221146
-67.564926 -7.624859 -233.550949
-69.502953 -4.033412 -237.264008
-73.394775 -10.100586 -239.111221
-68.006958 123.503052 -239.697678
-70.400551 194.792358 -242.492874
-71.842934 11.700679 -240.146072
-71.753418 185.902679 -244.973343
-72.172310 65.046967 -242.994156
-69.925674 8.494524 -243.449814
-69.881042 18.085039 -252.226898
-70.056076 207.650146 -250.858795
-71.788300 66.846909 -251.199280
-69.485718 165.800476 -250.363632
-68.293510 191.687363 -252.648849
-71.215454 163.780624 -255.853836
-71.642975 207.762589 -252.957397
-70.056442 178.181000 -252.125092
-70.617378 208.617294 -258.126862
-69.713692 197.507233 -260.313843
-69.520859 208.786270 -258.206940
-71.698547 24.711636 -256.686920
-73.643623 64.899200 -260.134857
-72.643372 28.991240 -261.235260
-68.654877 215.719574 -262.972992
-71.984436 209.585510 -267.807770
-70.460739 203.479843 -269.030792
-69.445518 217.403519 -274.055847
-72.109596 185.602341 -274.262512
-73.628624 191.242752 -279.549957
-70.498100 184.979767 -278.382874
-72.254189 164.750565 -274.524597
-73.948357 206.455231 -274.852142
-71.858864 156.511444 -278.102966
-68.679329 124.264183 -278.214081
-70.843559 116.902359 -278.134094
-70.117760 109.526161 -277.883057
-70.910965 102.863388 -280.631317
-68.263107 105.225243 -282.567017
-70.191872 41.211891 -280.645966
-69.117279 117.520615 -281.752838
-72.116608 117.390930 -279.637665
-71.286720 53.511158 -281.003510
-69.338928 213.004425 -278.129120
-70.996277 145.770844 -281.686615
-71.027298 167.574142 -280.213257
-70.680763 183.801865 -282.850616
-70.949974 168.815109 -283.107361
-72.398987 206.646912 -286.906219
-68.919083 203.076187 -285.719604
-70.303329 204.813522 -303.496124
-72.753189 19.316713 -2.009182
-69.906570 7.642702 -3.095694
-69.708900 27.777609 -3.958335
-72.501427 1.669971 -7.843216
-68.473389 8.696938 -12.072885
-69.154312 23.122637 -13.569227
-70.070511 0.161274 -16.802952
-69.027145 7.544207 -16.095055
-72.844650 6.625645 -21.232466
-71.865738 2.491450 -21.158045
-71.359291 8.356316 -22.168833
-68.024803 3.953958 -23.881643
-72.795822 11.326750 -25.883068
-68.463837 15.038666 -28.863068
-70.832771 13.678640 -26.994144
-67.966774 5.998048 -31.056101
-69.703453 15.735378 -29.327896
-70.412064 14.183137 -29.747282
-68.988800 18.480251 -31.853374
-72.469353 13.117988 -31.126152
-67.567978 110.487701 -37.674828
-69.614182 94.533852 -39.339569
-68.165733 74.192703 -46.146839
-69.188232 135.909851 -46.691040
-69.331993 -18.478964 -61.558304
-69.288872 70.872002 -63.975780
-72.385323 -17.037191 -71.209793
-69.181396 -13.918717 -75.155830
-71.186981 -10.067106 -76.703674
-68.699348 -12.883701 -76.352974
-68.340828 -11.507792 -80.383087
-68.867661 112.469818 -84.198341
-70.516434 -61.081123 -85.552055
-70.951202 142.139221 -88.737465
-72.636055 -53.538319 -85.695526
-69.308083 -49.121777 -86.019493
-66.849518 127.543076 -91.928871
-69.787796 -3.392938 -90.261490
-70.171951 -25.101162 -88.972183
-68.646042 133.974319 -92.778717
-70.499054 7.257143 -93.512108
-69.235748 -50.974052 -97.144066
-70.468857 -4.466025 -94.568176
-68.227905 -35.737694 -92.985184
-70.318672 135.041763 -95.766060
-70.542336 6.133897 -96.942467
-66.581848 8.127333 -102.190964
-71.372818 0.801039 -98.543762
-69.500824 127.647499 -100.446434
-69.208435 147.424973 -99.936790
-70.576515 -58.027943 -103.349655
-68.821533 136.692520 -102.013329
-70.458481 -62.892105 -105.714676
-73.940697 3.426425 -105.615173
-70.357185 13.713514 -103.777367
-69.823135 9.114661 -112.030449
-71.648819 -63.951622 -112.570419
-68.362251 124.914230 -116.568016
-72.020203 107.941795 -112.395630
-69.869637 109.932755 -117.673187
-71.396889 -59.300148 -121.860931
-68.392227 104.531532 -118.497635
-68.529259 18.733448 -123.213890
-68.927811 132.996658 -124.136391
-69.341690 139.874893 -121.360085
-71.414818 -66.664246 -120.272339
-68.397400 124.874832 -123.082199
-68.911240 8.295444 -126.552147
-68.183144 125.918732 -126.163826
-70.228958 -58.749195 -128.199554
-66.657677 140.122482 -130.623398
-67.582794 118.625000 -126.909424
-68.221222 15.648262 -128.705811
-71.120689 122.578430 -135.454575
-68.901093 -62.775879 -137.050995
-72.087585 116.407555 -141.412247
-69.137962 26.972635 -137.170547
-69.081123 -63.037193 -136.328857
-70.463776 92.379425 -135.813248
-70.976616 -66.266022 -142.317093
-70.689148 99.893509 -138.602173
-72.623329 99.016586 -143.381210
-72.435867 38.060627 -142.768326
-71.316429 121.331161 -138.990753
-70.960953 104.676727 -138.840271
-69.447311 33.572155 -143.269440
-73.279396 89.062637 -141.938095
-70.172333 33.452621 -144.518600
-72.220184 99.607910 -147.907440
-70.016533 37.892197 -145.202347
-69.081398 39.491501 -149.865921
-69.056557 28.799618 -149.224457
-70.200249 19.474417 -148.871277
-69.065613 -63.837086 -150.348129
-68.061142 24.452276 -152.917328
-68.642151 85.571808 -154.242828
-68.929726 28.290241 -157.819839
-71.519150 -62.025177 -159.200745
-69.137878 92.764267 -156.281174
-70.156700 23.852116 -157.970612
-72.064117 -61.494572 -163.697861
-66.994392 199.553574 -163.658112
-71.542580 191.341614 -168.545975
-69.366859 30.533998 -164.514450
-67.100174 31.787397 -168.889465
-68.870964 158.547394 -174.633652
-70.610977 27.934278 -170.899734
-67.922707 72.724846 -173.147186
-66.939903 159.754425 -179.045517
-70.176659 157.911758 -180.878815
-66.624504 75.984215 -174.625397
-68.074661 194.150467 -176.943161
-67.590652 33.061256 -180.944366
-67.653259 74.918800 -180.947937
-69.474960 38.717041 -179.821228
-72.103004 68.575752 -186.531067
-68.272392 33.475883 -180.223846
-68.662880 180.751358 -179.239517
-71.499008 27.955778 -183.598358
-68.822830 191.413147 -184.544098
-69.284874 69.482704 -187.871201
-69.044327 30.815371 -184.641174
-69.401199 213.775665 -184.543137
-67.669022 -51.316086 -187.257614
-72.531616 158.198120 -186.750626
-68.656723 39.325794 -185.087860
-69.149780 70.246132 -190.292740
-69.542671 34.773434 -192.823303
-71.693642 189.313675 -192.651413
-68.540375 184.745193 -193.633789
-72.329659 175.776352 -195.039780
-68.404778 31.558872 -194.706589
-69.007874 61.465454 -199.225098
-72.509193 -44.703678 -200.735138
-69.868904 37.598812 -198.830582
-68.842117 66.311577 -200.969955
-70.037804 -43.414177 -202.725647
-71.527130 42.441196 -202.539337
-68.258263 66.296158 -198.661118
-67.547478 53.754993 -203.564850
-70.272278 -34.258137 -211.916168
-68.801285 -41.388496 -209.443466
-69.083092 60.235279 -211.068878
-66.281319 51.167019 -210.567520
-68.225189 152.518280 -213.124786
-70.095802 194.327240 -213.062393
-70.004295 53.479309 -212.094620
-69.136375 -29.430000 -214.759781
-66.695938 181.040222 -214.231903
-66.741859 53.161140 -212.078644
-67.789619 193.216446 -216.613754
-69.118210 184.216904 -213.929749
-67.289650 182.314651 -215.004929
-72.948669 64.412621 -213.685730
-71.104897 63.016335 -216.214172
-69.515327 58.226093 -218.023911
-69.986183 44.919296 -216.073395
-67.999535 51.757484 -219.445007
-68.906570 206.770004 -221.337402
-65.477661 54.551395 -219.218430
-72.265053 38.579971 -218.661270
-69.292183 41.293785 -223.473648
-68.936188 183.408447 -224.787094
-69.983505 54.940979 -223.458725
-68.048836 203.624939 -226.665115
-66.875648 175.161514 -225.999664
-70.947289 -12.549977 -228.100998
-72.758736 -26.322443 -224.902802
-68.917351 -18.806131 -225.081909
-70.907509 194.485809 -227.521973
-69.203041 -15.212660 -230.231506
-69.659668 -9.305497 -228.557037
-66.966911 204.325790 -227.584900
-69.549210 67.657021 -226.081711
-68.083870 -18.508972 -230.947433
-68.250580 44.292469 -229.298233
-71.691216 40.137978 -232.669815
-67.878090 -9.032193 -231.038010
-71.018341 215.953110 -233.851028
-68.612602 -17.197903 -237.139389
-69.381981 61.741978 -236.628235
-69.600388 203.776825 -234.580597
-69.840446 0.548991 -237.521515
-70.808731 137.553848 -244.335724
-70.404861 124.920303 -241.334900
-70.374611 142.667404 -243.011169
-69.290421 25.547245 -240.238373
-65.148262 202.606232 -242.358795
-71.808571 206.055954 -245.876022
-66.287964 202.956619 -243.550812
-66.500893 134.680832 -244.324707
-69.326317 158.976624 -245.965744
-72.742523 138.456451 -244.399689
-68.768204 24.120745 -253.222672
-71.531349 154.758713 -249.883743
-69.244736 65.282295 -254.327332
-72.486374 25.064383 -252.135223
-72.408394 20.790983 -251.732590
-72.222626 174.686356 -252.154495
-71.793671 187.020813 -253.531693
-70.043625 219.047913 -254.446976
-67.114403 218.003693 -253.075928
-66.277405 186.512085 -257.393311
-70.514824 202.493378 -252.867691
-66.372383 210.730255 -257.518585
-67.635887 212.436218 -257.708649
-72.559235 196.013535 -257.337128
