# This PCD file was generated using the MATLAB® pcwrite function
# from Computer Vision Toolbox®.
# .PCD v.7 - Point Cloud Data file format
VERSION .7
FIELDS x y z
SIZE 4 4 4
TYPE F F F
COUNT 1 1 1
WIDTH 1425
HEIGHT 1
VIEWPOINT 0 0 0 1 0 0 0
POINTS 1425
DATA ascii
-56.316151 -72.491936 -246.309601
-160.924225 -72.860146 -236.653671
29.214664 -52.989922 -250.002396
-149.249146 -60.808304 -195.733932
-62.040199 -23.825558 -77.408333
-155.873260 -72.727028 -301.174164
-68.114738 -85.335175 -100.528351
86.024902 -52.032509 -57.678722
4.285521 -73.253456 -159.096527
85.062668 -59.064709 -58.846874
50.022606 -71.020973 -243.858368
-58.206192 -71.745560 -132.399551
-134.259460 -66.178108 -234.465103
-163.734528 -74.179321 -215.034851
-146.192932 -79.687355 -196.151611
-143.141830 -71.615387 -203.543060
80.644135 -63.438042 -59.984936
-117.142700 -71.186264 -224.946564
-140.003754 -69.205688 -224.955307
-11.487070 -66.953232 -255.487701
-54.422207 -77.919197 -242.624039
-61.794827 -34.367695 -54.639713
-150.498657 -65.955986 -285.713959
-102.293732 -66.577644 -168.770935
-91.537621 -60.719173 -123.301689
9.546178 -86.116302 -265.120056
85.703766 -78.041359 -90.908447
80.675056 -56.609306 -85.159088
-109.571358 -61.782497 -180.956284
21.024685 -60.282154 -31.612625
92.627060 -53.424938 -59.229218
-150.972595 -75.266693 -276.501678
16.578197 -79.083733 -252.370071
-66.966507 -58.909252 -121.127823
-12.590076 -52.174805 -245.734756
-74.649460 -62.217716 -106.256805
-92.290276 -66.066093 -132.532181
3.061887 -81.336540 -248.896957
-157.958527 -69.800339 -248.143494
-68.989998 -72.927849 -153.698273
-67.679794 -61.073872 -115.615768
-49.250210 -87.307617 -82.816315
83.304970 -63.778782 -105.843147
-13.123598 -52.944538 -265.018097
-28.469130 -77.144638 -217.921677
-113.487640 -70.041374 -258.037170
-166.826538 -70.642410 -273.890137
-80.740913 -59.749573 -122.371193
-114.653603 -67.936523 -196.517929
-98.656136 -64.634018 -110.748047
35.187531 -60.825363 -122.172554
-19.514194 -76.344627 -222.534790
21.231211 -52.453037 -245.118240
11.688084 -51.972130 -295.428528
84.033768 -77.703239 -82.282791
-43.971123 -73.374809 -146.220444
-106.317451 -72.069084 -260.533783
62.553078 -68.621979 -89.243423
-79.481369 -69.385391 -254.922272
-83.841347 -50.299744 -46.260635
101.875023 -43.136997 -80.468437
84.921455 -50.055702 -67.081078
36.841698 -61.585442 -128.167267
-161.141083 -67.668579 -224.238403
-46.175766 -81.853371 -244.969757
-103.532242 -72.827385 -226.903915
60.835438 -59.071449 -93.389397
5.757904 -75.722481 -239.429138
-90.156609 -50.506886 -120.087204
-7.981925 -75.269913 -233.413132
-60.650269 -52.938221 -106.217583
-132.303513 -74.835938 -223.865173
-58.656380 -81.284103 -170.278458
-77.218880 -83.531624 -88.455498
-137.781097 -80.146255 -288.370392
-78.559441 -69.464272 -131.098053
28.482567 -53.430309 -246.221512
-148.033173 -62.936447 -246.305832
-157.826172 -74.194618 -239.548553
-10.759954 -77.928802 -211.469055
107.482285 -68.971092 -95.916656
61.911049 -49.782188 -85.498688
-12.543433 -69.755310 -204.883484
-51.815170 -84.481476 -204.517075
-144.257889 -83.504753 -259.926392
-153.325211 -69.890816 -253.207825
-58.318245 -77.328140 -167.757263
25.214560 -52.985081 -254.808121
82.527077 -57.698418 -104.409737
-1.593692 -49.864449 -242.442276
-135.642670 -78.973602 -260.049774
85.617371 -72.076271 -222.102966
24.041918 -53.239620 -259.655914
2.057475 -53.662338 -292.853607
27.227228 -68.363579 -32.300056
65.085098 -52.483101 -67.018715
39.366714 -56.553688 -39.472321
-142.466568 -64.543114 -289.045105
62.940048 -58.036907 -85.106659
103.716606 -43.134266 -83.789749
11.467510 -69.258698 -194.157333
-134.150543 -64.924583 -260.733459
-136.812073 -84.156708 -256.359863
57.224670 -59.659206 -103.813454
80.673462 -44.141502 -55.487583
-51.058563 -76.534515 -191.086700
-25.407854 -68.029800 -198.360367
-56.736412 -36.304283 -66.915436
15.594442 -66.830765 -144.135315
-151.814545 -66.338028 -194.876877
-68.826416 -19.267763 -75.310547
-146.468643 -65.437630 -188.516739
26.470781 -70.118561 -153.194580
-95.727760 -68.701996 -151.751129
74.189590 -49.978745 -108.572647
-155.813507 -64.462196 -257.464661
-103.407318 -65.463577 -173.980743
47.910374 -54.719391 -116.561676
-26.710131 -70.753677 -176.364334
52.578117 -69.072899 -87.800079
-60.790379 -48.491325 -60.599113
-38.225269 -78.470879 -161.334091
-78.767769 -58.389191 -117.964241
-0.083968 -53.355156 -292.733917
-59.163326 -59.848057 -133.435608
-148.792633 -60.522655 -225.721664
26.304752 -54.626389 -266.853577
3.992231 -78.682884 -283.403351
-144.876541 -60.858475 -183.947586
-39.531616 -73.164322 -285.058472
39.442154 -56.250053 -115.718422
27.110264 -76.209999 -159.059464
-1.238747 -50.058907 -245.488998
86.271263 -74.779427 -76.024895
-155.122894 -69.238914 -257.067017
29.321234 -52.095909 -250.388901
-80.874512 -66.734940 -134.265472
-91.154503 -66.292061 -60.311623
80.681366 -54.185345 -75.840393
103.914955 -64.246864 -83.541870
-3.995166 -78.613350 -249.193649
60.512608 -47.564621 -83.908005
-12.469855 -70.244987 -204.776825
-0.558208 -50.324299 -260.839111
-17.731737 -74.202705 -69.389847
-96.535744 -30.433798 -76.674446
-4.198132 -73.001717 -241.505020
-152.474701 -78.355568 -232.378067
90.894356 -46.459061 -83.804459
13.798748 -68.253540 -198.884918
111.415779 -73.912361 -134.487686
-9.968298 -78.075294 -228.555206
-30.327929 -47.479652 -63.285500
22.242617 -63.277096 -137.412476
-34.022354 -79.107819 -289.024048
-155.153488 -75.687927 -284.619293
-7.937078 -75.468346 -226.317093
101.635956 -77.801392 -198.380981
-75.678810 -67.835030 -143.804504
-144.393692 -72.090286 -276.633972
113.143723 -75.291885 -172.458694
-12.293540 -50.290234 -53.386662
-136.425507 -70.301338 -293.481567
-28.359135 -78.185738 -177.279938
14.929111 -54.748112 -289.560852
-9.175666 -57.058189 -280.196777
-109.334175 -68.434357 -173.611008
-30.394642 -75.963074 -167.698273
-67.989876 -55.493679 -121.865723
-136.112228 -67.434647 -258.298553
-13.332372 -76.627678 -255.049835
-117.470116 -68.418304 -291.959656
-79.223846 -67.811493 -106.826263
-12.503070 -69.157883 -269.271698
103.998192 -45.116726 -69.466972
7.922459 -70.991440 -161.461090
-1.795505 -70.702187 -229.526566
-62.385300 -87.544380 -83.254547
99.910164 -53.467255 -99.256035
-2.449132 -54.513290 -293.953827
-76.505112 -68.351479 -132.792236
-70.121399 -80.476189 -212.858780
15.470886 -78.906754 -216.736588
53.269741 -61.052940 -92.372963
-29.034985 -72.820541 -192.124832
35.467133 -67.651604 -258.742737
78.658775 -74.983032 -75.869980
-148.263535 -84.965034 -245.783310
-90.845787 -68.715538 -134.559250
-6.637184 -68.039978 -237.509842
-44.573967 -74.663094 -191.635834
96.699776 -46.718597 -63.683250
-149.695282 -63.266956 -265.014374
-33.043663 -76.493103 -243.385468
-16.483101 -74.076736 -226.039810
-52.413651 -68.688904 -148.151398
22.856535 -71.690872 -35.795975
47.508541 -72.463760 -19.543663
94.543549 -74.943146 -209.423874
-36.321735 -76.372421 -161.798935
-0.511672 -80.309540 -163.787766
-59.123280 -58.462975 -123.009171
31.486479 -74.898445 -171.038742
-63.545120 -75.696884 -245.919846
-56.893063 -39.364090 -53.710869
13.741394 -68.785851 -214.405792
62.833145 -59.092491 -88.695557
-164.791489 -72.903496 -219.548264
8.200523 -50.975105 -286.303284
88.869202 -55.439270 -98.412849
23.049288 -72.094757 -151.111664
-8.737485 -72.791840 -205.769485
69.021896 -71.248062 -78.588799
95.392265 -67.745735 -66.198799
-48.601772 -77.618217 -186.594498
28.168736 -78.566971 -160.463852
8.453380 -77.877296 -222.740494
-98.250717 -54.122047 -108.295975
-151.171036 -67.445534 -289.095642
34.166328 -61.292496 -39.583904
96.271889 -43.333771 -64.082794
23.203018 -67.795219 -172.379105
74.651497 -72.649300 -230.628235
85.249680 -44.532867 -58.665966
-117.590599 -65.762810 -261.752014
-8.066072 -80.122772 -272.488831
3.283402 -52.509289 -239.135880
-60.422993 -75.361252 -170.684998
-147.260742 -67.594894 -248.109604
4.337497 -66.689796 -235.738098
62.359516 -60.685318 -82.736443
58.124111 -73.479507 -96.396248
-136.262436 -73.454948 -255.192566
65.854805 -63.996487 -80.449112
-67.817566 -77.941917 -61.963631
-49.811996 -70.467514 -47.732769
10.612942 -51.105629 -236.674561
-145.706497 -73.284615 -252.870636
-57.138351 -59.186268 -136.269135
85.835548 -76.478157 -217.775787
-54.227879 -62.924435 -140.194550
21.479538 -64.426636 -279.292511
18.392767 -73.595032 -225.771973
111.026665 -77.878525 -168.398300
-64.899429 -86.190735 -95.193016
36.048759 -70.872330 -12.749175
64.257797 -49.835102 -99.502548
27.223091 -52.474476 -33.493492
-11.309514 -70.811981 -248.743698
18.721493 -55.562229 -277.313690
-143.158203 -82.455162 -196.314545
73.434258 -64.512711 -107.884583
-153.139511 -83.527527 -291.268646
-153.667496 -74.490349 -254.148819
-61.887970 -65.580658 -129.305222
75.983856 -55.370247 -89.092896
-0.984028 -69.521248 -227.957703
-12.635008 -73.816315 -225.554367
-110.026810 -67.496567 -202.073685
49.015087 -55.759678 -113.595268
-80.649689 -86.338661 -97.368477
-25.762568 -67.797523 -187.844345
114.300957 -70.236061 -117.537460
63.712864 -49.963116 -66.843887
-108.835129 -75.010132 -290.516266
-115.611794 -64.851814 -232.948807
82.789612 -70.770935 -226.733170
50.640541 -64.504204 -91.120216
-29.611090 -70.171730 -169.057983
-10.545647 -55.992409 -283.545807
-47.957970 -81.780418 -185.554031
-81.988228 -75.178436 -215.386475
-167.838043 -70.764961 -260.997406
99.649017 -41.668453 -68.791077
6.031000 -76.964317 -234.008789
22.609064 -50.050137 -241.708008
-56.944347 -73.067505 -289.945038
9.319223 -73.274117 -244.149918
-16.382673 -72.821625 -241.595062
-153.974747 -69.631508 -285.071777
80.306778 -47.109348 -95.217590
16.950949 -49.331848 -250.377548
86.746048 -54.448215 -60.411526
66.977219 -69.044456 -83.013695
-146.814728 -81.199997 -215.675003
23.305559 -71.606308 -148.116852
11.695932 -81.757416 -227.186844
25.602777 -55.371262 -15.375471
-59.348011 -56.932186 -117.927582
-114.723770 -70.883698 -228.305450
31.331604 -70.056442 -155.139984
17.806688 -69.306274 -191.641083
33.710888 -62.126633 -127.652512
-144.813370 -67.329666 -220.791534
6.171460 -54.635754 -293.374634
-149.871750 -61.413914 -200.414017
-66.381561 -19.183422 -67.221840
-98.171814 -61.401043 -109.445320
-87.220345 -18.948029 -79.468437
-90.694687 -62.175732 -53.298409
21.878157 -76.852455 -266.904602
16.661484 -62.289474 -239.489517
-156.134720 -73.147491 -304.847778
17.290518 -76.259483 -188.722046
2.462927 -61.289703 -243.328949
-80.598160 -71.507919 -118.810387
20.644491 -66.756630 -146.113373
-58.946533 -56.660393 -84.021767
-70.238129 -70.319862 -151.912079
5.046508 -81.830078 -276.133331
-75.260872 -81.720787 -210.033951
-58.027206 -80.225761 -173.223557
32.219475 -77.183525 -146.914963
48.461678 -69.581520 -253.375000
10.662584 -60.490448 -289.326691
49.471626 -68.722412 -22.222736
6.985597 -76.098267 -244.390930
-154.163086 -68.040573 -225.160828
-123.467712 -65.268089 -196.454285
93.702019 -55.095985 -103.476646
61.029156 -67.412323 -96.307625
-109.187584 -66.790268 -196.708908
66.583748 -64.712204 -94.331749
-75.827797 -79.941956 -103.616692
-51.578823 -83.101570 -87.269905
20.587015 -76.191895 -161.682098
100.825806 -57.915943 -102.827530
-46.110485 -68.526695 -144.206726
17.313850 -70.534866 -282.244598
116.633247 -68.347000 -133.466766
-160.195770 -67.602814 -220.649261
12.749287 -71.872986 -194.899780
-63.296162 -21.018642 -77.099030
-98.701820 -37.226685 -88.692993
-149.372498 -68.495537 -258.100586
13.060819 -48.558422 -254.995514
73.711899 -61.052071 -108.435104
-152.409378 -63.107178 -178.610260
26.953558 -68.642097 -257.874969
12.857289 -83.475220 -254.327728
-16.790009 -75.961975 -242.135086
-140.419037 -72.751183 -285.989838
-67.533943 -77.031120 -60.362797
-78.821037 -72.985031 -210.128754
-59.242649 -73.701439 -172.036591
28.134224 -71.553009 -35.810097
90.841141 -44.369305 -67.874466
108.884323 -72.421295 -189.825806
42.674473 -70.784798 -14.902360
-58.082108 -69.028816 -127.809959
-0.593415 -73.811974 -162.945831
-154.522141 -84.169983 -254.802658
-31.762516 -72.900620 -54.526058
47.585049 -51.995361 -36.106987
8.207429 -74.604515 -158.877106
62.526577 -49.346748 -80.579376
-68.694321 -74.782028 -147.191162
-144.698303 -59.285412 -194.739578
-75.826469 -73.066048 -209.823135
29.102444 -51.900829 -251.595520
17.280071 -72.175888 -246.679672
-54.137794 -81.694778 -176.018799
-140.789261 -78.099281 -225.590042
-22.573784 -66.857063 -190.084381
-146.805710 -61.520168 -201.695847
-62.832272 -59.068638 -87.954880
79.052155 -67.529457 -226.342590
-59.307228 -82.714157 -208.733200
-152.829803 -70.641518 -279.217316
86.992165 -70.230400 -104.530998
33.857494 -70.466713 -129.822083
-30.540972 -69.759590 -50.298210
-78.861877 -70.310493 -250.193466
34.552277 -57.018604 -130.583603
-23.643309 -72.313934 -197.725983
14.549962 -78.087242 -293.549164
-78.949142 -34.940655 -105.721382
-144.267380 -65.792297 -210.186859
-73.088043 -61.819153 -101.712158
45.225948 -56.409103 -117.412468
-126.195450 -66.439430 -286.544617
-99.704231 -74.052147 -257.553314
-46.385109 -76.881859 -62.931992
-74.319206 -66.674400 -139.542175
-79.672050 -68.902290 -138.098663
63.908428 -47.797245 -90.125183
93.391281 -59.353413 -60.462727
29.641182 -67.477722 -262.043457
-60.652988 -73.467682 -248.693146
-39.690842 -81.857498 -81.707932
-79.086472 -60.409538 -113.538147
-46.114895 -77.992165 -189.007278
-93.705322 -72.022949 -96.033882
72.816772 -56.653656 -100.986710
-117.059753 -67.403015 -258.630585
-76.125000 -57.968018 -109.561226
-154.097794 -68.962082 -294.482727
-75.343910 -18.472315 -68.852432
-67.132156 -51.073608 -109.330162
18.270987 -54.179821 -241.897827
38.426910 -72.044594 -42.672546
45.785385 -63.394794 -253.187927
-60.460625 -47.153992 -56.918236
-71.150345 -69.070656 -139.545517
-3.962838 -60.531940 -240.485825
-104.719490 -69.162109 -228.493988
-133.970612 -79.774048 -258.294098
-116.598671 -62.969532 -201.073242
-2.723016 -76.360680 -280.820465
-146.377213 -74.672745 -241.415680
-155.771851 -79.874733 -289.721802
-94.880707 -73.349525 -252.442017
86.560165 -69.751877 -215.416702
-74.264191 -19.585081 -63.250614
-57.251041 -37.028652 -76.496880
-152.690750 -67.778343 -214.049805
-86.604713 -68.468590 -254.029205
14.751176 -49.905876 -270.218048
99.639000 -72.453560 -203.554657
-161.674133 -67.517159 -242.094650
-155.220032 -64.622704 -293.354919
-13.325894 -67.256195 -204.720352
-60.617901 -58.610352 -133.799286
-134.844162 -68.003571 -254.920380
1.981498 -51.321770 -274.199646
-54.777214 -76.518738 -243.438995
-54.928799 -57.522781 -127.248177
15.744079 -71.056305 -240.125275
19.108377 -81.823509 -244.946030
95.312721 -47.985992 -108.269524
-142.047729 -66.903290 -186.686218
-146.679703 -81.414101 -295.119659
30.966436 -56.528362 -41.159996
-69.696945 -65.989624 -99.388367
-20.018740 -74.452599 -65.735481
-26.812340 -73.906456 -239.841736
-166.701157 -69.407906 -247.323196
17.033228 -51.250858 -244.175720
-15.915648 -54.324837 -240.550949
-46.383995 -80.044151 -154.848419
-146.007950 -63.353245 -292.000336
28.939766 -74.624710 -130.424072
4.949117 -78.181381 -236.856674
-141.726608 -73.301369 -195.964264
16.000587 -52.299786 -262.009399
34.866974 -53.307732 -40.750168
-9.653162 -55.179989 -238.679962
-20.407887 -76.682686 -190.428711
-87.415619 -75.542221 -115.414467
-28.293413 -70.586823 -77.671249
2.682934 -49.742695 -256.071808
104.331314 -53.262150 -88.118553
65.252663 -63.966084 -72.760712
14.300822 -49.718395 -241.689407
-12.895523 -51.096821 -247.706055
-86.209534 -56.351189 -47.530079
23.765898 -70.231415 -193.741302
17.620403 -70.517342 -181.533951
19.582735 -52.893063 -240.303345
-146.415955 -77.430153 -302.142944
30.900906 -52.579067 -42.009232
-8.275216 -54.845142 -58.818756
-22.247971 -76.146240 -66.520203
94.980736 -54.062469 -60.531769
-81.166992 -63.014473 -111.216667
88.728020 -76.708908 -80.174393
56.820358 -68.311729 -240.493744
0.812656 -51.491646 -251.046967
3.979843 -76.822472 -238.966049
-96.762611 -49.495644 -57.155544
-78.582962 -73.676651 -248.228790
-13.506349 -53.232525 -260.847260
-136.368423 -72.200500 -201.226318
-91.844360 -77.213676 -216.034454
-51.223076 -78.516426 -186.278244
27.952728 -60.198318 -39.308651
-96.955322 -38.133286 -103.589294
105.969345 -44.211136 -82.921410
8.309120 -74.539963 -229.872360
92.190063 -44.834774 -107.351456
-53.250893 -70.980873 -290.110626
104.387871 -62.293770 -99.093925
-72.670525 -68.869240 -136.477676
-13.892135 -50.200405 -252.666901
-145.454620 -67.537315 -311.251251
-134.697662 -68.796806 -256.323425
-73.525909 -79.951790 -101.760742
-99.265030 -60.040546 -79.863060
66.233139 -47.041428 -74.327667
96.159828 -53.104210 -82.864220
-150.203949 -65.993820 -286.256317
-10.262861 -67.507660 -245.360580
22.646278 -62.288601 -276.467621
-82.852554 -71.007790 -118.613266
-152.068466 -74.834373 -293.834534
67.715210 -48.182911 -64.492973
-99.496246 -55.347275 -100.621986
28.953781 -53.490208 -263.400848
-91.215561 -51.547840 -49.903603
49.467381 -70.933037 -30.436367
88.206833 -51.308189 -72.613503
-35.725986 -70.924812 -52.015369
-66.895714 -53.291656 -112.781151
22.543282 -64.772987 -171.327057
-54.923901 -62.590626 -124.983894
88.130463 -44.680019 -56.113739
81.772057 -48.866749 -57.870289
102.641342 -57.129627 -101.783806
99.916382 -74.001396 -201.861771
-95.701530 -28.145214 -70.408089
-82.819176 -63.540817 -125.796013
-90.864769 -72.285797 -116.747276
-132.716949 -69.479752 -286.041901
-86.345444 -64.908028 -135.328140
68.857475 -68.314667 -237.644852
-150.744507 -79.466537 -271.157928
-90.149055 -74.437965 -213.170944
-56.193470 -44.061752 -81.335411
-62.655693 -62.286732 -109.455292
-5.933264 -68.629608 -289.911255
98.967941 -72.315681 -98.040176
-45.700157 -78.443100 -164.694946
-73.456711 -79.302025 -69.500206
-165.510895 -68.060005 -237.200027
10.424979 -56.674530 -292.784027
-67.190903 -60.586151 -105.076736
50.569489 -69.162514 -28.244692
15.111349 -81.534874 -226.804489
-40.017532 -80.433792 -71.458527
-41.830288 -80.805565 -192.871613
100.768723 -52.017879 -87.054420
104.739990 -70.729118 -178.142319
-86.111633 -77.025833 -213.560516
31.417042 -77.834404 -128.372345
98.551270 -43.831432 -60.104942
-147.849274 -84.529854 -269.650848
-60.442875 -23.722778 -69.312027
-141.980179 -76.726471 -223.601898
60.986149 -67.152611 -84.468529
-43.972073 -73.385979 -167.629410
5.734569 -65.812088 -236.031006
-146.513565 -85.827225 -260.198517
40.873848 -69.360733 -253.709229
43.811867 -72.242134 -123.047234
66.727776 -67.974976 -81.572823
90.128838 -74.111633 -217.462646
-51.828350 -74.510902 -88.541565
-33.125870 -75.707558 -184.168671
-97.183708 -69.277214 -217.515625
66.495621 -53.978264 -91.723938
-81.226448 -63.500263 -110.058784
-78.973755 -56.129353 -115.422798
77.157104 -49.461460 -110.834274
-19.215481 -72.591080 -208.642456
19.124069 -71.486275 -219.285797
-130.832214 -72.786247 -264.516144
-10.923487 -51.457024 -251.020584
70.793831 -71.676155 -234.526703
6.645389 -60.890614 -241.265579
-77.649010 -54.751724 -114.120338
58.479321 -69.943726 -243.252563
68.928291 -65.031448 -65.782318
15.300623 -77.634956 -211.755783
-98.825676 -70.251472 -223.865524
-62.795731 -75.817978 -167.765945
15.017201 -72.844986 -157.001328
60.837540 -50.789684 -89.687103
-143.948563 -77.173035 -204.003159
94.769371 -45.084023 -105.790459
32.115879 -76.862976 -153.482407
-88.014893 -62.776627 -140.547272
0.956156 -62.970474 -236.571548
-61.582661 -78.088287 -206.982071
-144.615311 -86.131493 -290.487518
-51.577286 -72.858139 -135.300568
-62.675606 -67.098511 -132.140030
-96.104782 -64.828201 -72.132385
-98.168190 -65.006218 -118.403015
-143.163055 -76.846657 -186.720901
-149.348801 -73.395004 -313.138702
7.470235 -52.806423 -239.690582
-56.078327 -60.285267 -80.912430
-143.553467 -65.925835 -187.409729
-99.478600 -47.975082 -104.213120
-42.984509 -68.129326 -158.203033
-49.512451 -56.626461 -76.248550
-159.800247 -69.081795 -252.440018
-52.946701 -76.576355 -183.313187
18.324913 -49.865162 -244.898880
-89.547791 -70.804703 -131.754196
-95.422432 -70.500458 -290.895050
-28.881451 -77.638107 -188.449036
-166.043442 -68.048958 -250.805237
26.112617 -72.249046 -25.813337
-19.981791 -76.830780 -178.641159
-44.705299 -57.944923 -45.659218
-98.757950 -41.201649 -64.920792
8.204528 -54.510494 -242.374817
62.821129 -68.361923 -90.641167
-60.417187 -87.549744 -92.911057
-57.613243 -28.908981 -67.142113
76.442574 -71.436211 -236.137054
28.623043 -67.938789 -148.092896
-48.383217 -76.902779 -195.579880
-163.207230 -68.299904 -198.288605
94.432877 -76.880424 -91.863785
-67.463860 -61.194424 -94.682304
-15.360624 -56.884056 -258.382721
92.250786 -76.642380 -210.938614
-38.059200 -80.480309 -203.378174
-48.366138 -69.954956 -132.372147
8.322783 -70.217323 -198.151688
-154.935120 -75.021606 -291.343079
-30.705265 -77.979744 -167.215195
-78.083015 -63.282558 -120.088593
106.907082 -73.220154 -194.012253
15.803589 -76.119232 -191.683075
-74.416634 -75.400764 -210.891998
-96.380013 -67.447914 -108.594421
-63.719429 -71.941284 -288.447052
29.009836 -56.240089 -34.007538
21.193001 -65.180687 -277.505615
-93.970116 -28.121597 -66.500580
-93.253944 -53.302132 -52.977566
-148.043732 -68.115845 -174.358963
-58.995346 -44.017830 -85.338951
111.631126 -70.586594 -126.791153
-11.929577 -77.441566 -291.621674
-97.200134 -43.605461 -58.303749
-69.691101 -61.900322 -111.328819
-143.981415 -67.512367 -256.426056
25.123615 -72.710335 -139.888657
-68.059868 -64.037407 -103.223228
67.444107 -67.977379 -97.363525
78.632813 -56.400272 -89.920593
104.907654 -43.024612 -96.936752
-144.022736 -83.229805 -231.542908
-150.187134 -78.154953 -210.271774
113.790710 -74.977829 -147.867065
-92.628868 -62.653229 -146.258835
-36.172489 -70.802704 -176.624557
64.724831 -47.493179 -67.415413
-94.255966 -71.639565 -252.218018
-13.079726 -68.689552 -227.423492
-32.947338 -79.184685 -238.658463
5.611922 -66.602661 -293.167236
-9.985453 -82.052788 -172.433090
3.108125 -65.768967 -236.032883
-135.799026 -78.009079 -230.739883
36.343845 -60.976231 -123.810165
-55.471069 -69.039253 -48.567513
100.309593 -73.946915 -87.488083
65.751457 -50.170609 -66.084023
26.942810 -71.715446 -17.664698
29.750168 -71.953865 -136.374039
-72.068504 -46.900097 -45.654133
-36.988533 -75.553398 -59.477753
-58.214451 -78.496147 -208.681473
21.114031 -54.483780 -250.904373
-81.276154 -61.270138 -123.556625
101.943687 -64.294327 -102.122108
-150.429535 -63.418510 -265.894470
-15.850720 -58.814747 -270.864899
-134.941299 -76.715492 -198.728806
-44.679649 -81.740875 -193.451538
-47.136055 -83.547791 -200.492645
-85.311928 -70.093430 -127.215233
-13.695941 -66.871017 -205.003998
22.275909 -71.876869 -23.744915
-151.712387 -62.140305 -289.417480
100.445946 -63.712353 -71.459961
-51.809090 -79.413666 -244.626572
-77.500374 -63.408970 -123.345711
-96.352577 -62.908234 -152.736786
100.134941 -42.558270 -67.585991
-49.779762 -74.261139 -247.061310
-148.883041 -75.204857 -290.354401
-12.232521 -75.568634 -276.085938
-150.014587 -83.856766 -252.161560
-134.233505 -74.405754 -197.739471
72.847008 -58.721722 -60.794224
-74.319214 -66.523613 -100.345428
32.771801 -78.751823 -145.172607
-75.905243 -83.154114 -83.747238
-13.395959 -67.599251 -68.115875
-60.352459 -74.878159 -244.540436
44.678482 -75.374306 -116.744904
-160.434998 -71.949791 -287.500275
28.019707 -53.111126 -255.167740
-2.162759 -64.510246 -258.632965
-133.807007 -63.711800 -201.752670
-91.902557 -67.057938 -256.173523
25.880220 -53.298779 -37.716248
20.855700 -57.070713 -241.620300
-21.452522 -76.181747 -225.367203
-127.804970 -64.133385 -204.570999
80.078781 -54.929794 -57.230576
-147.840820 -64.229340 -279.199188
-102.971268 -63.675129 -161.253845
-146.286911 -64.072701 -261.154327
25.420578 -64.768959 -141.196243
-81.665794 -76.047638 -66.814690
-62.522072 -71.707397 -49.706764
74.659721 -47.117908 -92.203590
-16.355997 -70.035820 -240.747284
98.537857 -67.194458 -103.003571
-53.670990 -81.416786 -180.702332
-39.419930 -72.980232 -158.993790
102.835182 -65.454147 -75.226952
-5.337897 -53.774426 -288.822418
-136.437988 -83.109177 -199.442154
-151.022079 -74.535118 -286.366547
21.684544 -70.995697 -164.500259
-149.895279 -67.605515 -251.780350
94.799538 -46.299690 -69.312195
-100.470955 -64.795143 -154.099274
-64.520576 -63.311386 -110.520485
-59.521786 -61.816620 -118.494499
-42.176922 -78.170135 -154.697784
0.666162 -55.397842 -240.809494
-48.766533 -80.580475 -86.939850
77.252686 -58.513279 -57.515224
-10.918070 -56.388325 -281.059082
-159.860779 -70.854134 -268.681274
-86.925369 -63.434505 -113.634445
23.092915 -61.057217 -34.523045
61.443619 -55.015553 -97.408188
-67.907600 -81.068527 -73.359131
-35.377316 -72.923630 -179.809814
43.410595 -63.242565 -20.476889
-42.883106 -77.568336 -286.297180
45.583633 -74.663109 -115.622482
-70.647049 -73.193634 -285.269073
66.889641 -48.732956 -69.039940
25.886522 -68.729980 -161.484589
31.351799 -75.576553 -155.269272
-147.229874 -84.296829 -275.365845
96.098396 -76.323013 -208.249054
-32.022049 -67.641655 -172.416183
-146.082397 -63.262733 -193.765274
-163.558334 -72.572136 -199.518051
116.941193 -72.811989 -153.839081
-150.123154 -80.679764 -188.297104
-146.825943 -75.713936 -282.691498
-43.769684 -68.126083 -153.842010
36.239182 -71.369164 -16.571417
-113.882156 -68.895844 -192.261398
-155.515930 -71.427322 -228.589737
27.326069 -69.546890 -167.669601
27.466286 -52.663479 -33.813187
3.470379 -74.168053 -227.827271
12.603862 -52.795589 -245.290039
105.687599 -58.641365 -84.141090
-135.682404 -76.151123 -202.328735
-132.521606 -64.412613 -200.318146
-74.283081 -70.304993 -140.531982
101.096901 -43.036961 -94.335999
-108.444778 -65.766479 -166.511078
-63.831348 -73.952927 -159.674911
20.950300 -70.077385 -19.853476
-61.938950 -52.220577 -120.583183
-58.097122 -25.195517 -74.112778
-63.323200 -73.672264 -159.321945
81.840553 -45.528496 -97.258087
-51.031975 -83.946854 -80.377655
74.567307 -47.243412 -65.106964
65.968658 -52.348370 -76.618111
56.462738 -71.337097 -247.810364
19.001097 -77.411644 -187.744049
-83.649864 -71.728165 -107.017586
115.370354 -72.432648 -140.732269
3.278294 -54.725113 -291.844757
27.395855 -73.309059 -20.720209
-64.517166 -55.660748 -42.466885
-144.612793 -77.970695 -248.168945
25.139055 -71.447998 -181.746780
-30.120625 -78.261353 -178.986038
-57.005211 -71.947281 -145.603973
24.387947 -71.057930 -139.103210
-150.203217 -76.963058 -223.737671
-15.227391 -74.754501 -223.850311
39.444153 -52.032974 -36.478676
33.101433 -68.250656 -124.123100
-16.772617 -79.603676 -203.867584
66.287560 -58.368736 -101.621742
-60.725143 -53.726936 -64.524780
-80.701477 -31.147764 -53.842377
101.060867 -48.689606 -86.452301
-146.072296 -64.436546 -189.071899
62.173145 -50.227707 -100.233330
54.785030 -64.251747 -89.724220
-34.355530 -85.291771 -190.359833
20.315002 -63.279350 -145.411331
-146.688232 -63.583694 -258.407593
-41.374344 -63.185074 -77.824135
-149.051971 -67.790268 -291.065674
14.394907 -68.760986 -243.429977
-1.553642 -70.933380 -226.561111
88.324821 -54.846592 -57.757774
-100.854439 -47.765762 -88.221756
5.199503 -75.357796 -157.700928
-92.336945 -21.557487 -80.073044
-145.199814 -62.549377 -218.992813
18.024122 -68.281776 -150.480209
-126.705528 -70.222183 -266.588654
-113.561150 -68.217834 -226.427994
64.301376 -69.894913 -88.896545
-30.112633 -77.095619 -165.735870
-123.254959 -63.447624 -200.784775
-49.601875 -72.242744 -85.140984
69.700264 -45.294212 -64.672089
28.028112 -80.079773 -140.082458
-9.205833 -71.103867 -223.928787
-150.749313 -76.722801 -271.598328
-3.256353 -53.120892 -275.815125
28.341955 -70.932671 -40.208347
-11.311487 -65.865707 -248.265854
89.422928 -76.946335 -213.007690
94.308128 -44.227142 -86.947685
-155.361633 -60.982990 -200.156296
11.705304 -78.644653 -212.486786
61.741642 -69.064293 -83.334160
12.371239 -52.632988 -280.143982
4.398215 -73.274513 -163.345428
23.136372 -77.868904 -171.132553
29.953085 -60.997719 -136.100555
-122.439903 -61.501339 -197.090439
-147.791092 -82.280159 -260.451355
42.231712 -62.032558 -39.453453
26.133066 -75.930450 -137.954620
51.073345 -66.057060 -99.549843
-56.175598 -84.244591 -91.976746
30.883480 -52.561935 -41.062763
-146.683075 -61.806099 -222.163116
-20.401569 -82.266464 -183.953384
-14.410806 -73.230942 -254.766266
8.928432 -80.357140 -246.249985
-68.010818 -19.071795 -79.532822
-155.408142 -69.638794 -245.203201
-135.143341 -66.607903 -289.797852
3.305698 -74.692589 -293.403198
-1.343046 -68.656075 -225.307632
39.560627 -52.324677 -18.910122
-148.785538 -79.209404 -216.172043
-53.698067 -65.744400 -132.657303
16.508224 -65.814995 -199.626938
-68.590042 -18.944576 -69.235046
-145.520554 -71.990234 -198.211777
61.405666 -72.952080 -92.420013
71.153229 -47.431370 -59.093712
9.130283 -76.090149 -219.197968
3.634253 -85.037178 -261.700165
23.946358 -67.065773 -253.901184
15.372719 -67.802391 -195.932281
110.527168 -74.996445 -175.437012
25.451139 -54.426952 -277.652191
-85.139542 -63.593945 -126.076965
-10.464501 -81.558067 -172.690826
-32.803421 -71.959068 -163.269547
-114.764526 -73.841003 -258.142487
41.619286 -49.755768 -39.841190
-87.519302 -38.727871 -111.031860
-76.704262 -18.453342 -70.344872
7.759700 -53.770016 -291.649170
-16.265482 -52.096127 -241.217041
103.525269 -74.782227 -191.785721
-66.053993 -56.486755 -69.551430
83.588020 -54.203003 -57.606091
-134.189606 -81.664360 -227.095428
-38.827667 -39.848579 -66.669930
-156.471176 -74.674347 -291.785767
-78.857094 -21.674322 -61.224060
7.599382 -72.734970 -162.063416
92.536713 -55.066666 -88.633087
26.255169 -71.987511 -147.244492
53.460136 -76.009476 -95.563263
-30.277609 -79.470802 -73.452629
99.115280 -45.715019 -101.204987
-21.108391 -69.164124 -55.670914
-47.200920 -77.242691 -241.912369
25.870113 -78.050034 -146.017120
-99.558128 -72.635139 -258.227997
-144.522598 -60.117050 -195.264282
48.915035 -70.682800 -89.814445
-109.892296 -69.970024 -186.927475
10.288863 -67.756538 -155.064697
-46.286800 -66.188072 -83.783051
-146.317612 -76.650742 -205.734009
16.289116 -80.636009 -235.487488
3.992115 -54.369648 -239.811722
53.986069 -63.132515 -92.674812
-95.505470 -67.154343 -142.453491
16.596195 -76.477554 -215.941788
43.150700 -66.827225 -256.602203
7.898182 -72.176872 -221.726242
-63.406845 -75.840057 -250.748260
-88.912704 -70.729507 -292.433960
-15.211671 -46.530499 -54.009804
-14.659936 -77.519226 -212.826096
-58.719116 -78.071152 -249.370300
19.571293 -74.211624 -235.567322
-143.094818 -73.305756 -285.574921
-65.486084 -80.894760 -210.584579
20.313625 -63.239342 -247.700256
-107.257233 -68.805809 -261.550323
-62.852886 -55.387032 -68.102470
-7.636391 -53.029629 -238.782059
-44.419151 -74.666451 -166.513153
85.122749 -73.752281 -76.045181
-21.051395 -69.564064 -193.291763
17.344051 -56.571850 -240.968124
-0.874976 -60.680008 -245.307129
-127.038864 -65.849197 -262.329498
-37.452141 -73.464249 -74.236893
108.758759 -43.299110 -89.918564
-78.728516 -64.569092 -111.423622
-80.239471 -69.925522 -288.140167
-21.570997 -83.855553 -181.013397
87.998428 -72.724045 -101.271736
-144.790451 -67.315712 -214.821899
-5.639574 -50.763577 -271.470245
-146.897018 -71.409271 -312.497589
-51.348034 -79.985413 -180.233780
-51.874435 -80.964615 -200.326874
2.355729 -66.976288 -292.481781
-113.829964 -68.241234 -256.887024
-97.438492 -69.263763 -149.762619
11.591092 -78.450592 -216.241394
6.994818 -61.486240 -244.613480
15.542637 -54.172127 -277.118500
-62.165138 -77.482780 -167.217514
-81.711624 -57.521004 -116.942429
-147.928192 -79.160316 -310.876312
4.964664 -73.501099 -230.358841
-154.061523 -62.780144 -197.044403
-52.053806 -65.686150 -85.602448
-15.962121 -79.301262 -203.639969
-61.718090 -72.969902 -245.776993
46.454842 -72.076607 -26.053455
10.157948 -78.128380 -235.419128
-40.033535 -71.726044 -290.997894
-0.315711 -72.115120 -165.010544
-151.216843 -71.054436 -312.717194
10.717315 -49.292183 -235.978027
-82.376152 -71.872299 -255.283203
109.991692 -71.311386 -124.118263
-11.321170 -69.110275 -227.335083
-140.816101 -82.901947 -229.240555
-152.656906 -80.243416 -298.107941
-149.633499 -66.928619 -257.312347
13.919493 -56.525135 -265.526611
-79.670303 -64.678795 -112.301865
88.710617 -55.493332 -107.000053
-65.811264 -72.945328 -151.899796
-42.680412 -70.315475 -160.744110
-69.915825 -35.294876 -50.938763
-115.012947 -66.315605 -290.751221
7.341353 -79.152863 -233.244629
63.801525 -71.263069 -86.559105
27.513865 -70.470978 -148.652267
93.916435 -55.486092 -99.829529
25.503233 -65.125687 -261.806915
103.626762 -63.319164 -79.163170
-141.623810 -77.741768 -194.095993
-36.270119 -48.872063 -69.426651
33.808155 -68.296196 -40.657784
76.657234 -48.203640 -110.321762
-71.886787 -68.996529 -138.165817
79.733917 -62.653782 -108.582367
-50.695911 -53.066666 -45.230492
104.230446 -66.222015 -78.859268
-152.829468 -85.392975 -293.118591
13.671906 -54.395741 -294.732697
31.561590 -64.519707 -133.443680
-83.607903 -64.047050 -106.612953
-19.282885 -67.465721 -197.236862
12.238754 -79.078461 -226.866119
-149.867920 -75.731209 -290.406799
-29.129061 -80.146057 -189.384171
19.446383 -72.654984 -158.909103
14.089643 -73.609215 -285.485565
-62.576012 -64.262100 -131.730438
-149.101944 -68.541855 -261.000000
11.841194 -68.376945 -200.203445
-54.655926 -75.935181 -90.756065
-137.402222 -76.863777 -288.774811
8.946888 -76.503494 -211.742920
87.273300 -48.503502 -111.920113
63.878456 -68.135971 -91.398392
-47.009304 -80.974197 -196.759720
-59.068691 -70.871590 -129.792709
29.510561 -58.953812 -19.967821
100.042168 -41.624985 -82.807732
17.225121 -74.624420 -226.191498
29.176033 -76.076088 -134.055862
-167.743729 -71.673172 -238.903290
-43.994892 -73.309219 -150.263306
24.090120 -77.351768 -155.489914
-85.060333 -36.849686 -53.093166
-22.012915 -78.975319 -290.075043
-144.005722 -81.017159 -188.127991
-154.935242 -64.985153 -255.059967
101.105347 -44.545177 -96.000793
40.822636 -58.916546 -124.983803
75.922997 -62.142948 -110.057983
-65.282227 -74.571907 -93.437164
13.990547 -81.703712 -246.579529
-79.349373 -62.302601 -126.722031
-149.695892 -65.306419 -301.887970
-7.452043 -74.878883 -212.053207
86.907768 -44.585869 -58.629230
38.975170 -77.052917 -115.735985
-77.618187 -66.973495 -119.328789
51.880127 -68.839478 -248.791214
-23.460180 -38.437473 -61.385262
4.977342 -74.917854 -233.120468
-23.651291 -43.093853 -60.665428
-78.996689 -76.300423 -290.135376
3.954232 -49.360386 -271.534363
-64.565598 -21.195230 -63.943027
-89.577423 -79.243065 -93.277817
-49.435017 -67.637451 -150.833054
-120.583611 -65.380745 -204.930435
97.554497 -66.596428 -66.041916
-79.085197 -80.004730 -105.780411
-98.218826 -55.970631 -67.821487
5.235384 -60.623665 -285.844086
-87.719795 -19.948353 -87.619270
96.578247 -72.605415 -100.062508
-2.429987 -65.789894 -237.357788
66.597687 -45.628525 -62.985447
19.858185 -51.593941 -287.978760
-68.300476 -69.619850 -100.350357
54.571686 -56.308437 -109.249680
-151.363495 -81.388947 -255.340729
-65.314552 -76.172607 -97.680557
79.834465 -58.645309 -93.932281
21.954948 -53.237396 -243.538437
53.696178 -70.158577 -250.891525
-89.042564 -66.780067 -116.696175
-33.144848 -78.921555 -182.650436
-100.699066 -51.877525 -103.962433
109.570938 -72.902832 -130.727921
-89.570557 -68.241936 -143.471054
106.702164 -73.635483 -167.591705
2.086364 -75.998238 -242.187546
19.954924 -80.017479 -194.993958
-42.537724 -75.485008 -81.340996
110.470169 -70.544991 -121.406143
1.500201 -53.262589 -290.357513
28.985794 -72.722275 -17.283953
-152.470917 -61.378044 -230.155563
-151.750916 -71.197769 -175.807602
-157.089249 -66.745865 -235.525772
-62.500805 -75.304192 -286.092316
42.873722 -65.428383 -24.179903
63.570438 -66.489601 -237.827393
-25.171131 -78.108635 -181.380325
13.300522 -71.843880 -147.584000
84.127304 -80.200256 -89.690399
32.238647 -59.103321 -125.275742
-74.238525 -68.512169 -130.877319
61.730434 -47.478271 -75.881516
-106.575935 -65.799713 -186.638824
-99.449654 -73.327988 -286.478729
109.646797 -70.099037 -169.931686
-47.434292 -76.217232 -58.186935
-88.304886 -65.742409 -130.472565
-155.423462 -72.108154 -312.795715
-75.632828 -61.933987 -102.841919
23.369593 -61.133644 -142.540878
-24.014025 -70.704750 -74.805046
13.443178 -70.600739 -242.409882
-149.002457 -83.132240 -225.001495
-14.697108 -70.307220 -215.621338
80.826752 -76.143402 -78.917801
-159.513046 -70.146309 -281.828003
87.323013 -72.273842 -216.992554
-103.864571 -69.220665 -170.215683
28.710037 -53.207481 -257.381104
8.916115 -51.243816 -291.856873
-112.437737 -66.086800 -187.302719
100.576782 -72.540985 -198.822632
26.786232 -79.278664 -167.525497
75.032616 -46.942951 -94.388641
11.749988 -50.723995 -248.309998
68.394943 -55.309906 -95.141281
-61.724239 -52.487400 -116.749107
102.255913 -42.814049 -60.900547
-101.978584 -65.495422 -168.883469
82.881355 -44.855614 -56.752945
-66.465103 -27.289740 -100.827850
-69.188271 -63.926350 -103.377281
-13.000313 -51.862186 -253.697800
-55.936424 -70.703453 -90.093010
-100.469139 -51.066692 -95.409187
117.445808 -73.782745 -161.754456
38.602455 -64.825333 -249.966736
-142.477249 -63.824528 -263.151886
-166.152649 -74.477829 -284.593689
19.454092 -68.356575 -173.981720
3.181615 -51.881023 -287.863342
-76.261642 -75.028320 -252.191727
86.786926 -73.363541 -217.574997
5.946412 -75.730690 -163.800385
-142.059006 -76.690079 -291.596039
103.912682 -74.279182 -194.062469
2.551299 -74.749382 -241.841797
-69.063454 -24.674561 -96.926743
-7.804932 -68.021446 -220.560135
-84.897957 -21.246916 -93.487045
-124.363472 -67.993805 -291.790375
-21.062515 -74.718201 -291.581482
90.098747 -72.600143 -219.577469
-72.225510 -73.901398 -138.641769
-47.002277 -69.955376 -162.019119
-67.814148 -73.891762 -149.960144
-54.673527 -70.640099 -143.686768
-149.715179 -68.433540 -222.024567
-41.596268 -55.362736 -47.349785
-36.487465 -75.044807 -77.653893
-9.141565 -71.855804 -212.248138
-37.421917 -79.353363 -166.889618
-47.891956 -71.637794 -136.126221
-68.849640 -74.293259 -151.368103
-78.951828 -62.043869 -45.324871
-28.550425 -71.009796 -54.626625
-85.285683 -67.388054 -120.569809
47.765575 -70.370201 -30.830250
14.557200 -72.252022 -223.341965
-2.091826 -78.434715 -228.447678
72.925270 -44.657661 -61.777435
-124.197990 -74.953552 -288.025909
-54.301186 -74.558220 -242.565018
43.665024 -68.949455 -33.265472
-65.606895 -69.648972 -48.435364
106.870293 -71.726624 -97.819466
14.958113 -68.745163 -203.497040
12.198950 -81.310234 -272.445221
-6.700226 -74.204407 -234.972382
15.532910 -50.961456 -265.193970
26.232948 -66.265076 -265.515350
18.274626 -81.950432 -261.292633
-73.818336 -70.099625 -141.721024
-39.552567 -73.778862 -198.352524
-32.449615 -72.481064 -180.709549
-146.694077 -64.231842 -245.101196
52.134720 -65.764885 -246.325562
43.110115 -50.750301 -27.235109
-133.943466 -67.019760 -193.684143
-67.009430 -76.683998 -163.220413
25.037680 -51.427277 -256.323822
97.914825 -77.304329 -199.332855
-20.075005 -73.255432 -242.402069
-60.538441 -68.704338 -139.694611
42.579414 -67.233078 -111.956512
-140.312576 -67.269302 -261.806946
-153.570129 -73.583916 -221.878433
39.575386 -68.723022 -131.602173
-166.430145 -75.026695 -263.786194
82.899033 -47.853596 -59.854225
-121.314651 -71.739937 -202.027206
-24.914852 -70.364372 -181.032593
-156.807693 -69.839508 -310.956512
-149.180664 -66.402260 -200.190292
74.594315 -48.579693 -106.807671
-142.840805 -60.392200 -227.082153
-8.639124 -66.947075 -214.925354
94.747864 -43.636742 -58.759468
40.787228 -59.480835 -115.946579
-60.289524 -34.647781 -87.737473
-58.610687 -76.656357 -182.447189
102.883163 -42.093376 -84.952095
-3.842479 -77.103279 -220.436432
-108.484322 -74.396156 -290.387665
-78.975319 -63.600731 -47.204601
-0.100884 -65.827881 -262.122894
1.822593 -86.494034 -259.527435
-85.204941 -69.270721 -108.097984
-61.892754 -59.637096 -107.573799
-70.950943 -57.929180 -43.277752
46.486473 -70.128105 -94.246513
14.919218 -80.138199 -237.908279
39.080456 -56.825188 -117.951813
-90.412445 -21.147066 -70.409195
16.058064 -63.000431 -142.043381
-19.677528 -55.140865 -250.370789
13.649998 -52.754627 -288.826324
-133.035217 -64.430206 -262.275482
-23.267197 -71.666046 -221.765106
-151.191742 -62.696995 -224.866486
19.689869 -69.951912 -184.509735
102.342102 -43.831276 -62.524166
-151.961792 -81.552803 -202.010223
-42.440857 -73.938225 -172.696381
-81.172852 -69.441620 -290.826202
31.797543 -77.875587 -140.573746
-36.775578 -76.364685 -244.681259
14.355456 -77.508125 -187.807449
93.926598 -75.277466 -79.816719
-57.707611 -36.076450 -60.188080
-145.823853 -65.332214 -218.786285
-149.290939 -66.424568 -229.625229
72.614693 -74.432625 -96.809280
-132.374573 -62.208000 -205.549225
-4.981317 -53.388184 -283.448547
49.124168 -70.149055 -105.260017
73.777351 -47.294514 -109.561737
-148.579025 -80.073418 -231.700287
-17.162085 -78.068588 -198.550934
30.264191 -79.634644 -163.724258
-115.971764 -67.687363 -225.150925
-41.743019 -59.721142 -79.910927
-151.748520 -79.164055 -310.374451
-65.865059 -19.686527 -62.844215
-151.237411 -74.089310 -296.782745
-150.316864 -76.182854 -194.064178
7.648717 -78.495720 -222.114868
-164.589508 -69.358467 -221.096313
-43.180656 -79.543098 -195.936646
11.232599 -56.268906 -245.422211
29.300323 -52.972546 -265.383453
-90.037468 -69.695641 -62.499393
-60.198013 -83.469101 -206.644180
-48.061081 -52.958900 -81.733284
-31.229944 -41.250790 -59.956520
-124.624573 -63.156403 -205.219635
10.550920 -52.745609 -241.629944
110.381142 -77.898491 -176.867264
43.930763 -52.257088 -118.334900
79.830399 -57.527637 -97.370148
65.321190 -64.672180 -93.180573
-47.804932 -76.518967 -143.981155
-154.713333 -69.931839 -262.027557
3.309570 -69.511574 -235.568558
-149.538513 -69.435455 -288.478455
41.791210 -53.613201 -21.032887
-3.010387 -78.850655 -222.390991
96.790596 -73.023102 -78.076042
-68.424881 -82.905258 -82.788521
18.541327 -63.150394 -152.389069
11.259514 -52.949242 -247.652496
87.935265 -50.024284 -71.472099
27.198080 -52.557095 -28.988937
-141.106491 -67.146996 -202.604111
24.159029 -62.701244 -141.726898
-27.831852 -78.093033 -74.332642
26.753229 -77.263878 -182.763321
75.877823 -71.150253 -102.226807
-9.849088 -49.888451 -242.936279
-61.277851 -56.889359 -116.140373
-14.854321 -78.465691 -199.301453
-138.507019 -72.706154 -231.355057
71.591713 -67.924606 -67.337166
-42.729183 -85.372986 -192.579391
22.448833 -57.538452 -15.288933
93.830467 -52.578671 -85.316475
-156.709427 -71.870491 -307.852600
-117.802940 -76.329788 -289.079254
85.776932 -44.474972 -62.698639
-112.589355 -70.977798 -258.712433
104.709694 -45.216808 -98.506157
34.174805 -71.206024 -155.535034
24.495436 -80.530800 -179.598190
-166.296997 -74.603874 -249.944427
16.480379 -49.501648 -236.321747
-148.706802 -84.277618 -257.028290
-71.408699 -60.678986 -102.599411
-67.732269 -69.541626 -141.349548
103.410164 -42.106220 -98.670189
-150.873413 -78.869194 -283.821442
-46.880688 -74.416275 -239.816925
-52.852364 -80.933411 -69.602577
-94.595207 -69.383858 -71.244797
43.706032 -54.024223 -113.837471
-107.417152 -68.999908 -290.572693
65.411446 -46.176708 -69.463188
-67.385956 -83.573601 -209.856445
40.376415 -80.762718 -120.142326
102.208122 -42.537338 -83.787437
13.654203 -78.434074 -196.366348
-48.455521 -73.918861 -242.510590
-15.380968 -72.781242 -231.390198
85.357536 -77.231026 -221.855194
-15.928986 -74.162598 -214.526932
12.219073 -72.076195 -227.759933
-26.922087 -78.129036 -181.086914
18.363817 -63.381882 -242.182907
-143.538818 -71.693161 -311.473297
-57.730518 -79.022934 -203.927856
25.853523 -61.628353 -29.009521
-115.915581 -70.095985 -292.150635
-51.660709 -71.775734 -132.704224
-19.789509 -72.313072 -212.090591
-151.527863 -68.834587 -223.372650
-70.945419 -81.496407 -76.068550
-156.391663 -71.287636 -291.489075
10.785425 -49.457775 -241.984375
70.813118 -58.304607 -102.776962
-143.750656 -80.918373 -205.556183
-66.350174 -72.252167 -146.750381
-19.696554 -76.021317 -291.529846
21.145761 -80.665901 -248.745270
12.233122 -69.971123 -234.835495
26.034370 -65.248459 -262.751740
9.404531 -71.863922 -208.292953
19.887072 -76.410904 -238.200531
-115.834251 -71.348610 -286.406891
44.888096 -71.805450 -17.045851
-6.666279 -75.961433 -231.379593
-94.645386 -31.349812 -100.756851
-32.031406 -66.773468 -78.281616
68.241867 -58.261238 -99.006165
-157.279373 -64.955544 -196.305038
48.571541 -49.681805 -22.751225
75.450584 -47.474079 -107.726120
-146.673615 -66.165276 -174.681229
-143.526688 -68.744469 -222.595596
-93.151031 -24.428743 -84.852356
-149.570602 -67.302261 -214.717651
18.620159 -78.728516 -182.232315
-62.685413 -56.959564 -69.541954
-58.066833 -27.312309 -68.909355
113.463860 -72.633461 -140.883499
-67.677269 -20.982162 -88.108963
14.183458 -52.216789 -239.772827
15.946296 -70.622002 -207.480438
55.891415 -72.860855 -244.398712
63.607510 -57.488148 -79.541756
-134.215408 -67.278969 -233.133835
-8.047697 -71.929916 -282.129578
-155.378708 -79.913940 -291.566132
-11.861770 -68.483826 -230.247330
-124.098190 -72.783272 -233.699524
64.603195 -49.513569 -91.194000
109.266541 -76.170280 -179.599335
-98.214676 -53.522614 -112.730499
-117.483925 -76.483315 -286.902496
-60.031685 -40.605354 -51.595444
-23.200840 -76.805008 -241.451263
28.043695 -80.138519 -155.647278
53.461292 -74.523422 -94.130211
-34.395744 -78.274536 -291.360809
58.675934 -74.536484 -241.495926
78.162544 -46.846344 -111.896461
32.214909 -80.695068 -139.583466
43.483532 -77.215439 -119.148766
-17.054596 -54.458755 -245.165436
-158.420990 -69.128525 -272.734192
-143.563202 -79.000099 -233.559036
-105.648613 -65.351250 -177.518768
59.091728 -74.318260 -92.854401
30.060259 -74.120201 -132.420898
-29.182981 -80.263054 -241.976135
-11.292431 -77.990463 -265.430481
-148.424118 -79.302902 -307.036896
33.086754 -68.948593 -259.422424
-73.016251 -77.017410 -209.140594
26.368645 -78.192215 -155.191315
-152.081223 -77.950394 -300.002319
-74.387047 -72.008560 -143.109924
-9.268253 -73.755661 -248.213760
41.502159 -67.132095 -254.434280
-138.027176 -86.508675 -290.587891
97.637070 -51.403164 -64.670784
-81.865311 -76.586250 -251.725449
-155.537491 -63.382626 -288.627319
-146.220947 -84.041542 -223.439468
111.437462 -69.261467 -155.244553
-41.381760 -67.600784 -156.440033
-5.736820 -71.344116 -286.886139
-150.793289 -71.474800 -189.032684
20.578976 -67.649025 -248.007813
83.080673 -70.647552 -64.733116
12.339124 -53.920364 -252.328781
22.665808 -73.168571 -148.528702
14.827806 -74.824760 -180.994339
-62.243240 -54.592251 -123.918221
13.798073 -72.080307 -185.082703
-109.043465 -72.863869 -260.643799
-81.759895 -19.101995 -66.344597
-93.697952 -65.716057 -121.823837
42.173363 -78.246277 -116.581650
-139.498001 -78.849037 -290.980225
-2.481745 -77.463058 -218.379089
-146.107422 -85.043266 -257.607330
5.228777 -51.566128 -271.946228
-37.559914 -80.170868 -164.655991
82.823990 -69.279617 -101.216927
-152.218430 -78.611946 -312.647156
113.574387 -77.052124 -156.224564
-64.479652 -47.533840 -53.834106
113.422974 -73.545692 -151.380905
90.731079 -74.285439 -96.479179
25.322697 -77.486580 -177.445251
-69.052635 -75.577370 -246.518799
-15.809194 -71.563927 -212.579803
-60.038860 -49.665497 -57.726704
46.920006 -67.982292 -96.564957
-123.862473 -67.708794 -287.186279
-32.783016 -49.506737 -64.186821
-154.398376 -76.383797 -306.275787
-150.054901 -76.952080 -203.754166
104.488609 -47.595764 -84.104065
-163.197433 -75.471558 -291.135651
-163.738510 -69.120949 -247.696060
-125.495140 -65.525696 -231.418640
97.534309 -74.257248 -81.034836
-73.220741 -56.400593 -42.749332
-75.345055 -43.812084 -103.587738
-28.299732 -80.185654 -75.344490
30.994091 -66.593636 -261.939392
-131.966293 -67.073631 -286.028625
-74.184341 -69.298279 -146.962677
30.815489 -70.310417 -133.501450
-7.406653 -54.039398 -272.151703
-144.426056 -69.518005 -273.758179
35.982853 -60.919235 -35.543430
-19.207167 -74.438629 -205.993469
14.414105 -72.644081 -238.338562
-115.869797 -65.097786 -232.081406
-126.074432 -76.495239 -259.372528
-84.241264 -82.018501 -109.035530
-79.465149 -69.245781 -127.215355
74.547348 -43.529720 -62.656940
