# This PCD file was generated using the MATLAB® pcwrite function
# from Computer Vision Toolbox®.
# .PCD v.7 - Point Cloud Data file format
VERSION .7
FIELDS x y z
SIZE 4 4 4
TYPE F F F
COUNT 1 1 1
WIDTH 1425
HEIGHT 1
VIEWPOINT 0 0 0 1 0 0 0
POINTS 1425
DATA ascii
-96.853340 -75.979332 -291.504333
-94.736969 -68.643768 -152.049561
55.338867 -75.466309 -103.674004
-78.857094 -21.674322 -61.224060
97.989525 -71.097351 -197.418579
27.743500 -65.551361 -15.679612
91.810326 -70.790558 -208.788940
-97.837303 -64.626091 -115.280731
-3.473768 -79.317970 -251.028671
-37.505783 -75.983101 -157.397491
-144.382172 -85.756432 -298.215546
31.723291 -77.958832 -143.095016
-31.113068 -76.851013 -168.181107
-67.564384 -21.907143 -62.825935
-90.412445 -21.147066 -70.409195
99.156242 -49.528805 -75.422379
25.251720 -51.765579 -282.881958
-90.671097 -33.284367 -105.231102
11.693235 -56.134563 -284.488373
86.786926 -73.363541 -217.574997
-98.582642 -62.908539 -104.415665
-143.833603 -73.467812 -242.751526
-90.354134 -67.636200 -130.007965
-40.017532 -80.433792 -71.458527
-40.045448 -87.258583 -194.443573
-77.059891 -72.458321 -143.868347
105.491066 -77.485619 -181.770782
23.063719 -76.833969 -181.965759
96.751747 -47.242050 -61.590080
-95.727760 -68.701996 -151.751129
-162.080215 -69.228325 -272.459747
-132.716949 -69.479752 -286.041901
13.984948 -76.975716 -190.710968
-151.517349 -79.473213 -277.504913
116.941193 -72.811989 -153.839081
-88.565125 -44.681595 -48.430763
17.113461 -78.845001 -198.597687
-135.852768 -73.808899 -262.937775
-132.383896 -77.456726 -227.443802
-43.422432 -75.975471 -164.076355
-28.785896 -77.138206 -242.383850
-59.630363 -32.426243 -61.206455
-113.403473 -65.367668 -196.851517
-51.620361 -71.331810 -289.667999
21.479538 -64.426636 -279.292511
-77.617439 -68.433701 -123.270218
-78.697372 -18.859755 -75.934380
-90.092667 -64.673134 -55.314995
-56.199684 -31.333643 -74.221573
26.871870 -59.702332 -134.605743
73.964165 -54.553486 -78.493752
94.543549 -74.943146 -209.423874
101.909569 -43.377880 -80.975517
-75.680313 -70.965027 -98.525246
15.372719 -67.802391 -195.932281
103.299232 -44.092022 -70.618073
-95.005417 -69.675484 -252.724670
-63.296162 -21.018642 -77.099030
85.283409 -46.223915 -57.947754
-82.852554 -71.007790 -118.613266
-152.428360 -71.888771 -216.751099
37.802711 -62.819466 -36.103207
-151.983978 -86.136345 -256.381165
17.941614 -64.082047 -148.552551
5.968434 -78.658684 -227.539383
19.405289 -72.903961 -210.464722
-145.359818 -74.190651 -199.805649
13.373893 -51.796467 -287.492493
-78.951828 -62.043869 -45.324871
-148.878403 -60.613583 -210.994858
-94.232147 -73.483765 -291.992859
-6.302648 -53.363289 -237.061401
104.230446 -66.222015 -78.859268
73.046852 -64.231941 -62.295692
74.247887 -65.906471 -104.885254
-52.852364 -80.933411 -69.602577
-52.624668 -80.817215 -186.334183
2.301211 -84.699852 -257.548615
70.929718 -74.241470 -82.607361
-78.136604 -66.110382 -107.019562
-14.102922 -64.333344 -55.407963
-136.164795 -70.889915 -285.448395
-163.585083 -73.952805 -260.464264
20.660715 -78.532616 -175.596817
-146.135712 -70.326591 -276.416229
79.284019 -45.498943 -86.270493
-28.100224 -72.916794 -77.598862
19.507267 -65.326843 -152.551666
-62.073025 -77.056801 -174.888901
116.189514 -74.061096 -142.057816
-51.231716 -77.877449 -245.379272
-96.535744 -30.433798 -76.674446
22.782890 -67.954720 -167.612228
-0.558208 -50.324299 -260.839111
18.316761 -51.356037 -255.864761
13.799196 -49.755920 -259.633026
-98.794456 -62.358429 -93.984795
17.404081 -80.326256 -272.963898
18.032803 -75.803093 -230.899979
-14.988862 -60.456875 -52.947479
-89.975212 -22.028294 -85.001831
74.841049 -46.809010 -60.676792
-150.385330 -78.849495 -200.059601
-64.391739 -35.754978 -96.654221
31.850752 -70.560356 -163.212952
-57.514076 -35.733353 -63.302666
62.265755 -72.479515 -242.293182
-98.214676 -53.522614 -112.730499
-145.520554 -71.990234 -198.211777
-40.802799 -80.792694 -198.158829
-145.606750 -82.985588 -210.574539
9.877360 -77.711456 -290.320679
11.152489 -67.366379 -157.589966
9.319223 -73.274117 -244.149918
53.553368 -65.233910 -95.115196
75.983856 -55.370247 -89.092896
-155.378708 -79.913940 -291.566132
-62.791439 -70.885826 -248.130707
-146.767120 -84.185654 -195.295837
-135.343674 -74.019554 -290.377594
-45.579483 -39.608646 -72.196365
57.846073 -71.817764 -92.350533
38.421730 -70.201942 -133.365891
-24.043932 -74.573463 -195.764771
111.245583 -71.525253 -162.356720
-14.206752 -75.987404 -285.095123
-34.447491 -75.108963 -205.914673
82.978004 -49.772381 -60.709862
-75.856010 -66.392776 -48.517189
-15.985093 -69.808342 -195.901825
-141.728928 -79.138756 -289.623413
115.704361 -74.162491 -157.609497
98.018654 -56.435692 -108.264717
-134.438507 -68.025131 -287.026215
8.505995 -49.379620 -264.310150
-153.638626 -63.479774 -234.510986
29.953085 -60.997719 -136.100555
79.834465 -58.645309 -93.932281
2.429811 -77.063965 -159.464859
-19.677528 -55.140865 -250.370789
-59.483204 -76.801262 -53.455864
-8.222290 -68.628555 -220.872757
-104.748085 -72.811600 -228.017166
70.813118 -58.304607 -102.776962
19.307442 -52.519573 -241.802048
94.948051 -42.627808 -64.592010
-47.200920 -77.242691 -241.912369
-64.273529 -73.503944 -155.396149
3.737819 -75.894058 -285.492767
-101.615433 -70.583084 -260.395538
100.313217 -53.081699 -66.476631
6.400863 -74.691360 -287.688782
46.137535 -61.502777 -34.636032
-144.426056 -69.518005 -273.758179
-54.227879 -62.924435 -140.194550
32.809185 -71.028198 -38.774487
-67.354897 -76.980568 -209.264328
87.043098 -59.374813 -59.574574
100.576447 -47.583645 -101.030457
-5.367822 -68.741936 -228.984009
-75.905243 -83.154114 -83.747238
-91.015915 -69.170380 -289.115967
-1.134027 -68.661873 -293.658936
-30.026432 -80.208801 -78.444000
-164.640869 -67.990768 -267.817535
31.796570 -77.793594 -155.655045
-151.163254 -64.575951 -291.499786
73.647217 -71.839928 -100.047867
80.111847 -75.269012 -95.028923
31.283272 -65.249222 -260.117767
-104.660103 -71.488411 -224.286850
107.005623 -72.639816 -182.589554
2.608747 -62.297085 -269.585724
25.214560 -52.985081 -254.808121
-0.511672 -80.309540 -163.787766
-96.618881 -35.419250 -63.222984
13.468637 -81.262863 -220.067917
94.317993 -72.201805 -213.097458
17.469463 -50.459667 -255.661240
10.229692 -70.600525 -240.698776
-149.485443 -62.172043 -249.914368
87.317749 -74.331230 -70.229469
-28.924744 -79.299004 -185.762634
-115.084656 -74.209892 -287.678955
-141.436920 -69.526344 -195.993271
7.929981 -71.770882 -208.233017
-84.648117 -26.620630 -58.398907
95.694435 -55.620293 -98.922455
-69.897362 -77.026344 -159.649445
-11.929577 -77.441566 -291.621674
-126.340889 -66.343498 -265.199127
-48.686569 -67.359322 -46.751072
-2.652171 -67.029999 -229.859695
23.539202 -71.077782 -179.683563
-79.846870 -57.512150 -45.355110
27.219532 -50.846687 -41.180809
-78.006828 -29.322538 -54.812111
-48.667622 -81.452354 -201.830872
-59.986164 -84.070061 -206.102509
-148.263535 -84.965034 -245.783310
-35.226040 -77.992439 -205.046280
16.640081 -73.906670 -234.672073
-7.804932 -68.021446 -220.560135
-77.572586 -54.998566 -43.821663
-8.073801 -70.528542 -213.912918
71.153229 -47.431370 -59.093712
-23.574554 -76.561249 -178.919724
106.752937 -71.724251 -116.457039
-116.934608 -72.439445 -196.019028
-125.104912 -72.085587 -296.471069
-13.695941 -66.871017 -205.003998
20.911489 -74.716545 -272.214539
38.293259 -70.272896 -256.047882
62.064262 -57.840927 -98.629333
25.662954 -78.991066 -170.107788
-64.725525 -78.811523 -156.803009
113.941818 -68.554726 -143.650360
115.992607 -74.711052 -131.186768
-89.025703 -47.585987 -118.597748
24.183117 -52.127583 -38.193104
-133.524002 -71.910805 -224.755066
-56.633278 -82.033226 -206.228607
-157.826172 -74.194618 -239.548553
-142.267746 -66.917862 -261.114319
-56.104584 -53.042130 -84.036682
-78.956749 -66.895149 -130.714737
92.588158 -53.916790 -80.740929
16.480379 -49.501648 -236.321747
-5.818555 -71.027611 -227.055435
-33.400188 -83.121872 -192.756729
22.895809 -77.989830 -162.762497
-49.779762 -74.261139 -247.061310
58.675934 -74.536484 -241.495926
-75.040085 -66.947151 -99.591408
-25.171209 -67.752968 -195.030197
-77.069778 -67.998474 -104.331474
-62.032742 -41.545902 -95.129730
-20.725979 -74.774338 -181.609970
-118.890045 -72.792603 -261.714355
-39.918400 -65.467659 -77.032410
-28.659218 -77.690819 -207.030304
-145.836807 -83.093124 -194.741257
47.585049 -51.995361 -36.106987
-34.745464 -78.105537 -169.064728
18.412510 -76.757263 -171.913300
-69.153625 -83.885963 -208.738770
93.712509 -52.474915 -59.706657
49.467381 -70.933037 -30.436367
35.152779 -73.859718 -137.214920
74.266220 -59.091835 -107.091148
18.033648 -75.658844 -208.818909
-144.200729 -70.450630 -174.991699
-58.767120 -77.204216 -57.104683
-150.791077 -64.876106 -207.109421
100.537071 -43.429001 -66.863518
-52.766937 -47.863754 -83.025917
-154.309341 -61.726383 -229.192734
14.338857 -79.102310 -224.118652
-78.583794 -84.268570 -87.511635
-69.191261 -74.754219 -102.496216
-148.968643 -64.537376 -194.341583
-57.475815 -55.451286 -42.979458
-99.287056 -69.091942 -160.066833
-157.085022 -69.700554 -262.469543
27.610348 -53.674042 -249.019974
57.224670 -59.659206 -103.813454
13.649998 -52.754627 -288.826324
-86.723091 -21.616718 -92.147087
-72.858948 -57.450966 -110.005386
-62.852886 -55.387032 -68.102470
-18.435093 -57.583908 -63.072422
3.144746 -85.679688 -262.824249
-79.669128 -70.705582 -100.979141
111.240715 -72.003883 -117.924240
-134.233505 -74.405754 -197.739471
-166.826538 -70.642410 -273.890137
-2.574942 -72.729485 -214.158249
2.208860 -67.418312 -233.338272
-150.072433 -84.281799 -283.912689
-148.765503 -82.529999 -256.877167
38.019478 -72.663910 -109.969185
-148.876480 -75.957443 -257.455231
-52.172520 -79.684074 -66.744629
-15.761993 -80.562553 -179.828369
-66.384315 -53.470112 -67.291534
50.006527 -64.202957 -101.935143
14.394907 -68.760986 -243.429977
-150.552994 -78.521820 -252.724457
94.603996 -43.786980 -113.230309
90.607803 -47.570095 -65.707161
-19.803474 -72.900208 -220.518005
111.177925 -74.205597 -168.630005
57.813282 -67.864960 -98.429230
75.763947 -75.505867 -94.181046
96.269402 -76.742630 -207.745850
-58.562641 -60.938240 -116.165085
-71.409645 -50.817219 -98.530563
-90.156609 -50.506886 -120.087204
-22.438250 -77.934044 -195.509384
101.105347 -44.545177 -96.000793
-75.208603 -67.909149 -288.071350
16.141520 -51.008911 -276.778961
-1.597845 -65.739548 -268.067200
-137.490326 -85.073746 -286.434235
-3.376907 -64.729576 -244.440613
-51.815170 -84.481476 -204.517075
-109.209290 -72.596466 -257.845856
-4.821263 -79.756714 -168.721054
79.763229 -64.526855 -108.345970
-95.853218 -67.840134 -217.741409
14.665454 -80.386803 -210.819977
-146.688232 -63.583694 -258.407593
-126.435577 -77.498466 -290.627106
-58.443863 -69.933586 -139.343231
-57.381618 -68.445290 -122.917870
16.668770 -76.532928 -233.824692
46.705532 -64.013359 -248.946899
16.877844 -73.797073 -170.799713
-145.622879 -63.828827 -254.486816
-30.116650 -74.445221 -78.236076
-32.013264 -74.336098 -212.582977
93.088837 -75.332039 -206.154297
-14.290218 -69.415314 -230.984085
-113.182045 -72.302849 -262.113190
4.977342 -74.917854 -233.120468
-18.728168 -78.647537 -288.157684
-151.777802 -77.254601 -245.788132
58.479321 -69.943726 -243.252563
-46.286800 -66.188072 -83.783051
-125.030922 -64.305801 -261.356262
87.862442 -77.341606 -78.370285
-81.226448 -63.500263 -110.058784
-142.458618 -73.962112 -255.146973
-113.039581 -70.439949 -197.441223
19.202103 -71.016655 -174.217010
47.687191 -62.073635 -19.789690
-37.472759 -77.115570 -197.310776
-149.730316 -72.371956 -185.898209
93.198204 -70.781227 -105.783936
-142.911682 -61.055161 -232.147156
-161.395477 -75.354111 -289.890930
-55.506119 -72.760750 -138.895172
-28.372435 -67.944656 -184.135559
73.097137 -73.357887 -236.065933
83.786896 -46.893959 -65.924850
4.749938 -50.495651 -244.164536
-8.080949 -72.593048 -237.947647
-3.427306 -77.412636 -281.432922
-82.260567 -25.718380 -100.653725
111.631126 -70.586594 -126.791153
-148.745438 -84.812836 -287.464172
-93.037872 -75.127876 -218.556030
104.246155 -59.684822 -77.180168
111.043198 -75.249451 -162.804520
-148.689423 -84.394608 -289.511841
-67.037674 -83.677933 -78.417313
84.002792 -45.169590 -70.546333
-145.473557 -69.055687 -244.086075
106.870293 -71.726624 -97.819466
3.402238 -60.446548 -289.671936
-118.789177 -64.538940 -233.169983
-153.180344 -68.394516 -234.793869
27.532433 -63.900391 -134.600449
-44.711788 -75.893753 -148.623749
-47.397221 -49.389500 -80.323868
-94.021484 -39.968761 -111.264450
-78.861877 -70.310493 -250.193466
-38.844761 -70.289345 -76.633430
22.750153 -73.197052 -256.397369
-154.516449 -73.198669 -248.863037
4.867531 -51.407459 -237.323822
7.532139 -77.144119 -238.315933
28.643097 -70.624542 -39.173752
-130.157547 -68.805984 -254.347824
38.759125 -52.101131 -18.383463
-144.238495 -81.437347 -260.536926
66.375946 -46.592510 -93.495239
-12.471055 -75.187973 -201.309937
-129.544235 -70.752296 -235.250443
-1.358214 -71.045082 -219.423965
-113.506310 -67.660774 -186.888687
-55.692463 -81.007263 -203.964172
0.761456 -75.684135 -161.391693
66.495621 -53.978264 -91.723938
99.280624 -68.082802 -97.476524
-134.993057 -67.776817 -264.143738
-10.535365 -45.310020 -57.834366
-63.789516 -67.792717 -92.158150
-14.023885 -77.535210 -177.521088
-152.463455 -77.697189 -201.865158
-46.160603 -69.087341 -148.972626
-146.367355 -76.150673 -186.381470
63.960762 -49.671665 -78.010796
-59.905144 -86.672157 -87.729668
-109.363426 -70.488327 -292.897278
16.332811 -76.305672 -232.709442
-92.236656 -67.477936 -145.380753
99.280533 -50.355309 -90.943481
-125.760727 -74.475655 -291.730377
-16.518906 -50.125069 -52.148502
-141.106491 -67.146996 -202.604111
-86.787239 -67.804626 -291.069489
58.461979 -55.483940 -100.748627
20.895439 -59.049648 -250.959381
-6.689971 -50.330929 -246.294678
88.562675 -62.272709 -61.927624
-160.434998 -71.949791 -287.500275
26.942810 -71.715446 -17.664698
47.990108 -52.613731 -32.784309
-143.725723 -65.229126 -284.745728
-104.448479 -69.230011 -166.288315
-53.492626 -68.457520 -47.047329
43.522785 -55.857845 -30.611143
-141.726608 -73.301369 -195.964264
-109.931091 -67.994553 -256.873535
-152.474701 -78.355568 -232.378067
47.508541 -72.463760 -19.543663
-99.478203 -67.409325 -222.721405
23.068707 -77.142914 -169.584076
-147.026505 -83.913956 -270.779938
78.029778 -51.557270 -73.087914
-112.210320 -70.896507 -293.867798
-58.779804 -74.489883 -141.035873
-147.171539 -75.509682 -240.163620
-46.774433 -75.544113 -138.736649
-54.266331 -66.077194 -125.651726
76.405136 -53.423901 -57.681999
-60.222412 -69.794853 -90.737450
2.142695 -53.387814 -279.188263
-145.518814 -82.211243 -228.693130
-36.987865 -77.646423 -60.880390
88.763916 -43.855873 -56.775455
23.121578 -78.227409 -187.167953
-44.853531 -86.171120 -198.949966
-81.173401 -83.835030 -105.564461
92.643417 -47.960320 -58.753452
69.276360 -66.379341 -69.384079
-127.978867 -66.978363 -293.023254
-38.978764 -77.248886 -173.643143
-125.710602 -64.364716 -230.289368
-2.601082 -84.127548 -258.569031
20.093697 -76.432175 -200.747879
-16.776129 -66.549438 -204.885895
88.390831 -46.555222 -108.742371
-37.277397 -72.330673 -288.201996
-22.345678 -77.063683 -68.308456
-146.468643 -65.437630 -188.516739
8.428020 -65.684677 -237.384125
-62.832272 -59.068638 -87.954880
69.700264 -45.294212 -64.672089
54.224712 -68.133598 -245.557541
-78.151764 -60.935280 -128.364319
23.953773 -61.818493 -253.326996
27.136456 -71.494179 -136.136063
-37.230675 -78.522858 -208.992050
77.947456 -76.108894 -82.973564
95.168427 -43.763859 -102.518562
-38.738670 -79.217941 -155.550751
102.237892 -65.019661 -96.479958
24.188520 -70.705101 -262.312927
28.401489 -52.469574 -267.525513
-91.502014 -70.847267 -217.355942
10.225254 -68.976646 -236.715408
109.163254 -69.587578 -125.104919
-100.542091 -68.915184 -219.965805
46.454842 -72.076607 -26.053455
82.742859 -56.388424 -98.590630
112.711411 -67.660316 -121.687859
-148.986404 -77.876183 -234.245712
-67.801949 -62.467491 -118.058220
-89.315689 -55.302082 -121.038452
-109.852661 -63.260124 -178.712555
-27.815376 -76.675842 -173.958466
26.825777 -51.537098 -19.715218
-84.782951 -72.168877 -251.292557
10.288565 -67.933807 -216.378403
-99.558128 -72.635139 -258.227997
-14.220181 -74.813774 -269.549713
18.494368 -77.320450 -221.831375
72.619209 -48.055077 -105.493301
21.890991 -69.493622 -277.207855
-33.576229 -77.426743 -166.911163
-81.711624 -57.521004 -116.942429
63.908428 -47.797245 -90.125183
9.404531 -71.863922 -208.292953
-64.479652 -47.533840 -53.834106
29.383549 -69.660255 -158.642761
-91.255676 -72.751373 -257.975830
-14.878248 -77.528404 -174.544785
83.542038 -51.544449 -74.277397
-11.118823 -50.608776 -246.624802
-142.677002 -66.184525 -194.266159
-115.937927 -71.542343 -230.033554
61.492516 -65.499329 -82.941925
-69.486893 -73.704643 -153.750458
-109.892296 -69.970024 -186.927475
65.699539 -53.471504 -78.712189
21.982521 -72.224533 -33.823307
-153.991318 -68.231194 -197.610428
64.711464 -73.681725 -238.881607
-67.152504 -47.957191 -44.589462
-135.642670 -78.973602 -260.049774
-152.218430 -78.611946 -312.647156
72.730705 -70.640724 -97.188614
28.947117 -51.416210 -264.193909
-84.677155 -18.471138 -77.031326
10.408421 -68.851280 -244.851654
-74.184341 -69.298279 -146.962677
-34.436665 -79.023186 -174.543793
-68.048416 -54.380547 -117.330154
7.954164 -76.272881 -226.458160
7.130054 -77.076401 -239.731674
-139.800232 -69.917969 -202.241821
-20.623360 -84.614868 -183.037048
-152.429916 -66.192856 -208.308853
-18.700548 -76.288658 -187.666855
-53.250893 -70.980873 -290.110626
-66.350174 -72.252167 -146.750381
32.136181 -59.046661 -126.378113
-23.465782 -76.701187 -195.013290
85.968193 -46.801933 -112.636299
68.877335 -52.867813 -73.496201
106.653969 -71.914246 -114.236420
-0.413402 -60.544247 -237.312927
21.556673 -72.665215 -23.751976
-10.961102 -76.786064 -287.899261
-58.458866 -24.572647 -68.938301
-144.790451 -67.315712 -214.821899
-61.158092 -77.671227 -247.210175
-52.817310 -68.533569 -129.774887
30.107952 -59.726665 -18.695597
-67.948135 -70.361008 -152.121078
11.991358 -72.177811 -198.223145
21.185806 -55.061707 -280.991333
-70.022377 -21.881626 -89.410553
-88.264641 -75.537529 -73.832672
-60.289524 -34.647781 -87.737473
-24.809980 -74.420486 -60.849644
30.426600 -61.739326 -35.896027
11.695932 -81.757416 -227.186844
-94.569824 -36.625927 -108.178528
48.303509 -68.792862 -97.960480
-69.610695 -57.530304 -108.053055
37.667469 -63.370209 -41.467911
40.680332 -70.021408 -257.784790
-64.630325 -73.162399 -286.701294
-135.430450 -70.105827 -293.782654
28.385290 -58.368309 -131.628220
-79.052032 -68.275734 -123.320824
0.023735 -72.488914 -234.265121
-48.841030 -77.221680 -192.632111
-78.920433 -21.176640 -93.103096
-53.099419 -45.533997 -50.071255
54.391125 -66.139702 -246.565643
39.996021 -73.609467 -106.502426
58.325272 -69.814766 -246.466278
12.602980 -67.218903 -152.072968
105.162643 -42.679058 -71.776505
-95.935287 -70.332230 -257.800751
-148.475067 -65.962677 -286.478058
-153.021179 -69.098465 -203.141083
-65.018539 -67.649986 -43.939510
19.461199 -78.655556 -268.182068
9.088887 -77.999947 -216.553284
49.489876 -70.991104 -22.704790
-10.548093 -71.911781 -278.257721
-71.625237 -69.830421 -100.497734
17.285612 -73.696632 -282.830292
104.872719 -65.198280 -92.790512
97.685806 -42.846531 -94.982964
-54.173264 -79.377998 -174.961533
-21.207663 -72.712097 -225.548630
89.657173 -42.862507 -103.961998
-91.931404 -66.497749 -120.282501
-95.316872 -55.826607 -120.143211
39.032326 -69.739281 -110.329628
-125.496040 -64.892960 -259.631317
-151.608749 -66.224487 -180.499771
43.859810 -57.071640 -17.330275
-37.894165 -71.095200 -155.114227
-9.088126 -55.827534 -284.497284
-17.787842 -63.475796 -51.825100
-14.329190 -54.940353 -276.013916
84.346481 -73.204086 -226.535461
41.796459 -77.532089 -113.000412
13.655146 -52.957615 -293.031708
-45.987362 -77.009926 -195.136353
64.603401 -46.182819 -62.612186
43.483532 -77.215439 -119.148766
-143.967972 -66.564713 -262.093445
6.064014 -49.471401 -268.126740
-141.907242 -75.247940 -260.945862
34.505630 -66.707405 -17.176029
-166.434296 -69.347511 -209.746155
-30.112633 -77.095619 -165.735870
-48.268688 -68.262665 -149.020584
-62.714977 -66.489334 -117.735405
17.620403 -70.517342 -181.533951
21.412844 -52.577339 -278.101013
-132.489151 -74.492134 -225.514053
29.111000 -71.238564 -15.042646
3.362809 -83.858757 -271.544647
-62.407013 -66.103714 -128.486237
-48.190617 -84.566063 -78.194511
39.312469 -73.591995 -139.594818
16.393824 -81.335030 -268.738373
-146.815811 -81.593765 -229.964630
-70.290520 -73.443428 -51.245106
-82.704224 -67.454826 -103.708107
-72.374954 -49.595043 -99.474075
12.154394 -72.127090 -189.772354
-7.659096 -76.397797 -224.123795
58.120422 -71.490074 -247.128540
58.211266 -67.817825 -94.563423
-61.430511 -81.027229 -170.927567
-66.719070 -70.487938 -150.360657
-11.751604 -75.146835 -219.032974
84.115875 -46.006798 -87.382683
114.113312 -70.132103 -152.153809
-155.881714 -70.412018 -288.744629
72.958260 -44.342392 -76.423096
-51.660709 -71.775734 -132.704224
-123.001030 -73.816322 -231.101791
-157.975998 -73.020607 -292.764923
64.456314 -62.063282 -78.236763
-148.151413 -67.006073 -266.071899
21.932178 -77.158699 -169.111969
104.781792 -45.309174 -95.182762
-97.772835 -36.046181 -89.392380
10.403840 -50.280434 -277.019989
108.061668 -74.994888 -182.989822
45.225948 -56.409103 -117.412468
110.302933 -72.868553 -126.234177
-63.508392 -26.772528 -92.273254
-66.222580 -59.861492 -123.887642
109.570938 -72.902832 -130.727921
-31.551434 -76.450371 -213.145828
-58.873985 -69.909653 -289.260712
-141.039230 -82.521233 -226.538559
-151.738373 -62.965427 -259.306122
-146.257721 -84.218674 -227.732162
-94.255966 -71.639565 -252.218018
-5.130744 -74.824242 -170.960815
89.862305 -54.963398 -89.113495
2.944335 -67.181374 -239.419083
64.192703 -47.437386 -89.516319
111.437462 -69.261467 -155.244553
47.193596 -67.488899 -252.272095
66.673477 -72.938698 -235.521774
94.052216 -42.497135 -68.469704
-134.287338 -70.992409 -224.848969
-147.103546 -78.344696 -300.022491
-78.728516 -64.569092 -111.423622
-19.667746 -78.872887 -176.681717
-47.903305 -60.186749 -43.811344
-156.553146 -70.494339 -193.459061
-72.692474 -60.876583 -112.372795
-77.899002 -70.783630 -249.995132
-80.864105 -17.222492 -75.292389
20.005484 -71.385132 -28.482306
-146.985794 -84.042542 -225.743622
-29.778357 -70.167862 -179.071198
-76.581276 -67.600380 -135.145157
-62.437836 -57.245716 -109.437958
64.575279 -58.415936 -78.568184
-149.031509 -85.998283 -265.792816
-9.653162 -55.179989 -238.679962
27.336611 -76.797958 -173.445984
52.844090 -61.460621 -92.801765
-87.614258 -35.376270 -111.069031
2.819077 -71.931808 -292.360077
-114.939110 -73.455238 -261.619598
20.119434 -57.138435 -276.179260
26.499517 -61.429333 -22.807350
-11.081326 -78.600418 -270.627258
-150.086639 -86.758980 -297.647430
-68.363281 -20.585859 -84.898918
104.217468 -46.691078 -95.775291
29.669233 -71.256363 -139.838120
-67.261482 -86.319847 -99.250801
-152.383987 -80.974998 -300.039642
-59.172092 -70.884308 -138.133423
-141.935379 -65.058205 -202.941055
26.133066 -75.930450 -137.954620
92.891350 -56.023403 -109.521461
-143.513260 -68.638008 -208.760468
21.877844 -74.520912 -152.121582
-148.503586 -62.605366 -229.004593
-32.473328 -79.361206 -180.172668
59.919853 -69.509933 -248.209518
51.934864 -78.858742 -105.136246
-48.309021 -77.607109 -85.342552
99.859070 -70.400902 -93.845810
-50.974617 -77.191444 -143.054184
-43.180656 -79.543098 -195.936646
11.600408 -82.220345 -243.032532
-108.035332 -66.783783 -261.749054
-29.547604 -56.798985 -64.325768
63.712864 -49.963116 -66.843887
4.491010 -51.692806 -290.662537
-36.365822 -53.002480 -49.435493
78.686150 -44.036522 -106.530052
-77.746498 -64.021133 -133.482773
-42.406380 -71.570572 -82.678665
-148.043732 -68.115845 -174.358963
77.287399 -68.996033 -225.717529
-147.928192 -79.160316 -310.876312
-39.531616 -73.164322 -285.058472
-144.898193 -84.377075 -262.254852
-67.463860 -61.194424 -94.682304
101.205833 -43.680843 -85.782349
104.797905 -48.003269 -83.705521
20.933735 -79.471947 -246.880875
14.970450 -49.245060 -245.613754
-10.438480 -52.653820 -261.306366
-25.099648 -77.287186 -174.867050
90.705551 -56.763428 -92.796532
-144.948288 -73.702896 -252.399826
-30.671204 -77.622688 -216.469467
-61.608143 -46.643478 -60.229568
101.365379 -67.914528 -100.027611
33.121777 -67.465630 -255.596512
-124.097221 -73.697266 -261.394226
28.710037 -53.207481 -257.381104
29.641182 -67.477722 -262.043457
17.470716 -75.123573 -180.479309
-151.216843 -71.054436 -312.717194
37.107281 -68.291908 -259.127655
-149.704224 -83.706970 -231.207016
-9.954775 -68.055046 -217.100296
29.620171 -63.654438 -41.064484
18.721493 -55.562229 -277.313690
-141.112091 -82.243538 -228.326233
-48.758492 -78.087875 -186.199341
65.553032 -46.965065 -77.726479
-76.147408 -74.186806 -209.827286
-59.637375 -33.019878 -80.111435
-73.266068 -87.583977 -96.343201
-62.190380 -56.454853 -127.250961
1.437901 -66.350204 -239.628845
100.388901 -43.108025 -96.327492
22.932348 -65.159645 -17.864006
63.326260 -64.049049 -91.991386
73.922035 -75.201454 -94.969910
100.896629 -52.290249 -81.011391
50.306229 -71.042549 -35.186920
-24.351019 -79.021393 -240.185745
-149.040329 -70.288109 -197.597488
33.283020 -79.362160 -148.932617
4.638772 -71.579643 -157.698776
-10.464501 -81.558067 -172.690826
-93.200714 -54.263725 -121.839920
-36.172489 -70.802704 -176.624557
-87.412766 -59.412868 -118.742264
43.373672 -66.394821 -30.973124
52.798252 -59.584858 -109.291801
-77.649010 -54.751724 -114.120338
-164.632629 -68.137299 -232.355240
14.289449 -84.378487 -258.604675
-105.378227 -69.658218 -228.061508
-74.283081 -70.304993 -140.531982
24.090120 -77.351768 -155.489914
91.292084 -46.486683 -59.675087
-123.411179 -68.950089 -234.685867
-107.107063 -68.621887 -192.776123
-98.896706 -50.743885 -110.896317
42.312244 -70.996490 -106.646446
-77.804779 -42.918732 -104.818787
73.978142 -44.235649 -86.892342
-146.263779 -78.652992 -270.399750
62.703648 -49.559589 -81.426033
-153.392548 -70.699829 -280.684113
-40.332516 -71.736145 -154.908524
-40.662113 -80.704529 -71.309479
-82.457275 -61.057220 -47.486626
72.816772 -56.653656 -100.986710
89.423584 -43.779633 -63.516930
1.144185 -76.656204 -224.476303
73.454124 -67.345764 -104.158363
12.890258 -74.221733 -195.604965
-38.692791 -74.425362 -286.590210
31.619417 -70.236320 -256.208008
-2.992952 -83.446907 -250.955994
53.938560 -67.159317 -86.415649
6.205053 -61.240208 -278.928772
23.122053 -51.622406 -29.919746
-134.365356 -70.667534 -225.286774
73.010727 -45.328037 -67.094620
44.147076 -50.945679 -29.449013
73.301636 -47.123493 -111.133774
18.981247 -69.821854 -195.856903
-5.259974 -81.042740 -253.343323
-9.268253 -73.755661 -248.213760
-115.611794 -64.851814 -232.948807
-20.220921 -75.467247 -240.894547
-150.054901 -76.952080 -203.754166
75.883553 -50.682396 -70.213142
47.796043 -69.929062 -35.152241
78.658775 -74.983032 -75.869980
-151.814545 -66.338028 -194.876877
-41.176693 -72.094994 -288.923096
-54.568329 -83.411819 -206.323151
-43.384380 -71.567810 -161.902252
107.767471 -67.550285 -128.489059
105.158409 -67.329163 -97.440292
-141.827805 -79.395233 -201.584564
-83.123596 -58.724346 -117.082993
18.343342 -76.624519 -200.590851
20.497686 -72.011154 -276.007019
-91.215561 -51.547840 -49.903603
-71.894051 -32.237682 -53.140694
25.886522 -68.729980 -161.484589
-76.300522 -67.655899 -128.419861
79.733917 -62.653782 -108.582367
-165.242126 -67.845421 -262.826965
22.448833 -57.538452 -15.288933
-149.978760 -72.625290 -228.240616
-4.794690 -53.920982 -241.895645
33.808155 -68.296196 -40.657784
-142.059006 -76.690079 -291.596039
-95.184166 -72.231354 -216.511917
20.625687 -60.567841 -250.189819
-148.141403 -75.770767 -215.892105
-11.503115 -76.827545 -256.889648
102.965569 -44.637886 -83.544189
-142.998245 -71.561615 -235.246185
-38.419285 -74.574677 -242.698425
-153.262833 -71.888794 -207.573120
-66.662857 -60.275902 -43.506145
-62.633755 -69.619591 -135.172226
-131.212524 -73.026901 -199.868134
6.478602 -73.076271 -212.559280
-12.293540 -50.290234 -53.386662
-122.161324 -71.978722 -198.559937
-164.082489 -66.004898 -214.791779
-73.052437 -17.998470 -72.903397
-45.129547 -70.918106 -140.284149
-88.025337 -63.576370 -116.532028
24.781467 -52.214966 -279.473114
-143.545822 -70.541992 -202.967148
-7.226155 -82.533844 -261.798279
17.086487 -76.241570 -205.556458
38.735531 -55.237511 -119.236435
0.820131 -73.054398 -226.270218
-145.502258 -63.564835 -263.942566
95.312721 -47.985992 -108.269524
-125.568817 -75.488045 -232.277924
-30.460253 -72.503052 -167.219040
79.330872 -52.246471 -74.223770
-19.185946 -83.807396 -179.067261
-135.767212 -75.133774 -201.404724
-107.261604 -63.654541 -173.772430
-81.665794 -76.047638 -66.814690
-79.672050 -68.902290 -138.098663
42.958122 -76.891197 -125.833427
-60.415531 -86.125259 -84.203209
-54.410545 -75.446167 -57.187672
-31.267870 -77.128853 -287.500641
21.284739 -51.398289 -270.484955
-19.569777 -70.299561 -207.993210
-146.833755 -61.906670 -226.707184
43.865818 -61.162849 -29.017109
-48.227768 -62.664425 -82.316971
26.786232 -79.278664 -167.525497
-91.715179 -72.678246 -75.048836
82.373917 -75.957321 -222.208908
-133.970612 -79.774048 -258.294098
38.427120 -66.131760 -34.608089
-110.006477 -71.186287 -261.516785
-40.086349 -46.748405 -75.447044
-10.799395 -77.178650 -273.580658
-13.237728 -66.823860 -239.399765
13.603463 -69.791321 -219.873886
-70.121399 -80.476189 -212.858780
-151.191742 -62.696995 -224.866486
-109.436279 -65.644424 -197.445847
-152.738571 -61.265236 -194.615479
-5.769758 -52.983158 -279.142273
91.646317 -43.881535 -94.151344
-11.107522 -58.181831 -275.412842
18.708006 -70.062263 -205.327606
88.679024 -75.213608 -212.314194
-68.704254 -88.219673 -95.454704
-78.897453 -63.613186 -107.877739
-145.198822 -82.836327 -201.382462
52.440491 -77.249298 -101.526978
-12.351376 -77.650101 -226.774765
-29.752472 -39.653416 -60.236412
70.070107 -57.776714 -101.925919
17.195683 -50.633480 -243.945526
-9.138716 -76.158501 -251.362289
-147.405518 -67.336349 -252.835251
-15.868921 -69.990631 -213.562119
-141.907715 -72.249527 -292.249084
108.157021 -72.925789 -162.641922
-21.835144 -75.818535 -198.427948
38.326626 -76.535751 -114.287910
-146.873657 -82.363403 -216.492432
33.472794 -79.545319 -130.793381
-150.689682 -74.944458 -240.408646
-149.110840 -62.042988 -210.191376
36.432281 -70.140068 -122.982254
18.921785 -56.471107 -25.857784
-92.475594 -51.751148 -120.965370
117.445808 -73.782745 -161.754456
-59.794964 -79.680183 -62.780170
29.037455 -54.318100 -263.718536
-148.144989 -65.339096 -262.411041
-123.025101 -69.009727 -203.590088
75.645218 -50.651661 -107.684341
-55.932667 -29.063576 -70.448868
-41.528217 -66.079903 -77.255424
-17.258326 -54.914204 -257.972412
7.021806 -68.206917 -224.439499
-2.190648 -50.814945 -271.280609
-93.810219 -57.377323 -54.895744
-102.293732 -66.577644 -168.770935
54.649250 -61.690052 -89.282883
11.610252 -53.424530 -290.728638
48.571541 -49.681805 -22.751225
2.479312 -77.672714 -241.316162
41.555702 -70.381516 -253.531311
107.265839 -66.108994 -110.224487
-147.465790 -75.481621 -286.478027
31.797543 -77.875587 -140.573746
-84.987183 -68.944618 -254.138443
18.270987 -54.179821 -241.897827
62.140106 -50.494099 -97.546684
8.946888 -76.503494 -211.742920
-59.343994 -30.285519 -83.149048
-60.478413 -57.263863 -126.279480
6.366028 -74.784431 -243.296448
93.391281 -59.353413 -60.462727
-51.809090 -79.413666 -244.626572
-92.678963 -52.004723 -121.002892
-100.989853 -57.393650 -96.209473
-57.011116 -77.735855 -179.253204
13.898193 -82.423531 -268.948883
-43.035358 -81.927223 -84.036682
25.916122 -73.438873 -175.848434
15.793578 -67.156265 -190.485626
-112.729706 -64.410591 -200.133011
-25.363401 -77.173424 -215.664673
-70.803261 -52.642685 -112.577965
-77.906288 -76.793427 -64.500206
-63.323200 -73.672264 -159.321945
-6.240754 -53.122219 -243.930771
26.304752 -54.626389 -266.853577
-19.215481 -72.591080 -208.642456
-89.746376 -33.698887 -55.627743
104.488609 -47.595764 -84.104065
-79.526810 -37.711143 -49.896503
-67.340103 -70.293793 -155.630280
1.444141 -58.111893 -245.123886
-72.382080 -86.280571 -92.753143
-16.607115 -56.969864 -260.231659
-15.380968 -72.781242 -231.390198
-97.488083 -33.943478 -66.766937
-80.740913 -59.749573 -122.371193
-147.200165 -73.986679 -235.034714
-51.885063 -79.391205 -60.103451
-140.842163 -68.792801 -181.971848
37.058033 -72.005753 -135.996185
-99.650856 -69.031799 -287.877808
-137.829285 -77.324478 -261.184814
42.178776 -62.536392 -20.527033
-143.518433 -63.652809 -290.819122
-54.151482 -59.295643 -122.212318
-150.240631 -61.429058 -196.318085
-120.365669 -66.256767 -290.408539
-166.412842 -69.491119 -249.422791
-73.906982 -52.524250 -107.657631
-61.767094 -80.842964 -167.544052
65.926353 -72.187576 -239.188919
-149.478027 -62.134163 -230.317078
-13.506673 -54.556480 -251.812561
102.950783 -51.268570 -77.675949
37.912827 -69.627327 -120.788307
23.786283 -71.838898 -159.700363
8.200523 -50.975105 -286.303284
32.219326 -50.081532 -39.588303
81.455345 -70.300537 -219.535172
-87.140800 -74.915062 -286.738800
-100.734314 -75.035492 -285.687012
-46.138901 -76.863365 -158.633408
16.606493 -75.123077 -291.763428
16.578197 -79.083733 -252.370071
34.350780 -72.607841 -124.157600
-9.402617 -50.877773 -246.174072
-92.345116 -69.484390 -66.973038
12.233122 -69.971123 -234.835495
-148.647736 -72.652679 -215.354736
42.716152 -78.878792 -115.225037
21.827181 -71.451355 -21.981066
-149.067444 -62.171993 -294.495880
94.589195 -41.891800 -59.754585
-151.118835 -67.289177 -188.339951
-142.856964 -62.438084 -205.075912
-10.949244 -72.584694 -237.477249
-122.577415 -67.377823 -197.330536
-33.160294 -74.725594 -213.137848
-147.921555 -83.523491 -296.199493
-44.679649 -81.740875 -193.451538
23.435911 -67.618958 -158.585388
36.239182 -71.369164 -16.571417
-90.915199 -73.458130 -291.831573
-61.203033 -41.775177 -91.311722
40.392017 -54.642979 -119.898376
-45.899708 -71.692650 -163.776382
-54.422207 -77.919197 -242.624039
11.907510 -78.360268 -282.378082
-47.522243 -56.491013 -78.899223
44.314022 -60.574337 -115.010063
26.294500 -63.077450 -23.932261
66.034798 -48.619469 -66.139343
-105.554634 -65.326141 -181.615982
22.644220 -68.828842 -169.833420
-30.174240 -73.265549 -189.976624
-68.590042 -18.944576 -69.235046
52.993435 -64.452789 -244.548615
50.647213 -75.351212 -104.202896
23.520689 -73.501343 -20.150543
-18.378454 -76.102097 -177.802383
-147.849274 -84.529854 -269.650848
-76.261642 -75.028320 -252.191727
-35.158783 -60.040844 -76.723045
112.411995 -69.273247 -134.898438
-100.470955 -64.795143 -154.099274
-73.550880 -72.924232 -101.755684
-27.739599 -71.321007 -289.245056
68.609543 -47.402016 -101.381897
61.335411 -55.871479 -82.849609
-151.363495 -81.388947 -255.340729
-32.411579 -68.294426 -174.816849
-23.267197 -71.666046 -221.765106
-49.601875 -72.242744 -85.140984
7.703032 -62.916553 -294.439941
-60.089706 -57.493443 -131.435043
-68.726974 -58.890774 -97.782921
-80.969070 -78.519279 -105.848114
-58.027206 -80.225761 -173.223557
-55.667606 -44.967632 -78.321075
-149.488251 -62.585411 -200.743835
-100.052666 -40.557602 -79.678268
-112.437737 -66.086800 -187.302719
20.716629 -78.137077 -187.352127
-25.143106 -72.805092 -240.260864
102.340744 -54.309475 -99.201019
-34.835209 -81.431732 -79.588501
83.294487 -63.659355 -106.762291
-2.067565 -53.193859 -288.045105
-12.549281 -71.315727 -290.505463
78.773438 -69.583939 -229.088257
94.980736 -54.062469 -60.531769
-4.276183 -73.180153 -286.910980
-45.972519 -36.885750 -62.950565
96.159828 -53.104210 -82.864220
8.453380 -77.877296 -222.740494
-152.274551 -79.761803 -253.492218
-54.933529 -62.608006 -139.341995
27.322977 -73.728867 -174.335571
-61.352028 -63.547638 -130.649384
-28.881451 -77.638107 -188.449036
82.363922 -71.776550 -100.828476
-27.067989 -41.097946 -58.816822
-72.558250 -54.704025 -103.315536
10.482475 -74.812912 -195.369888
-26.538780 -75.586021 -63.984669
68.046013 -69.086723 -76.889702
-156.763901 -63.060455 -232.521957
42.072460 -58.201366 -40.030643
-40.923328 -75.765472 -245.577148
24.473513 -65.581139 -141.053665
-152.877258 -72.146141 -233.665237
-36.969971 -71.400658 -173.087921
68.966103 -45.513973 -69.651566
10.609354 -59.519051 -288.853119
4.860546 -52.786373 -288.413116
-113.829964 -68.241234 -256.887024
96.790596 -73.023102 -78.076042
37.601650 -74.533440 -114.499123
-39.552567 -73.778862 -198.352524
-152.397064 -63.286858 -224.295120
63.692024 -56.769825 -88.871071
32.255287 -59.858932 -124.942635
-4.757625 -52.215733 -237.729660
-84.934708 -79.545753 -215.256088
-126.203423 -67.834053 -286.801270
-62.345085 -79.170334 -164.622787
-29.653637 -85.392563 -187.380280
98.573898 -42.694225 -106.915039
27.168510 -52.471344 -277.330353
-145.739990 -72.237839 -296.044830
-151.344727 -83.834045 -289.874939
-63.650490 -73.086830 -287.603790
-88.668533 -33.438988 -108.892731
24.675823 -71.349174 -155.362839
-57.707611 -36.076450 -60.188080
-150.676361 -80.988625 -198.227676
-19.207167 -74.438629 -205.993469
16.333017 -71.483192 -246.878189
67.398689 -45.452801 -62.117935
33.086754 -68.948593 -259.422424
-149.280365 -75.028900 -259.099762
99.774651 -71.578743 -193.370346
-15.391414 -52.987007 -244.619598
-133.082016 -65.239700 -197.366119
103.173935 -43.624420 -81.496811
-100.760902 -62.696438 -157.434906
-71.495399 -60.013416 -97.676758
21.771076 -61.212830 -135.027237
-14.992875 -68.197701 -208.042786
-81.810547 -40.078011 -106.298409
-73.879417 -73.292717 -139.132614
65.854805 -63.996487 -80.449112
-2.162759 -64.510246 -258.632965
26.335793 -56.267403 -264.288818
-132.932495 -72.160019 -253.750443
-69.051109 -75.761757 -288.613434
-149.372498 -68.495537 -258.100586
-134.424194 -74.806557 -231.282959
-94.068710 -69.657509 -216.709610
-150.187134 -78.154953 -210.271774
-76.388474 -76.374283 -209.243073
-142.416306 -62.477104 -202.409424
48.915035 -70.682800 -89.814445
89.784241 -73.922882 -70.188126
5.524954 -72.664482 -226.464935
4.229174 -87.122437 -266.023224
-5.034977 -66.981369 -269.254547
72.925270 -44.657661 -61.777435
-13.025710 -52.162296 -251.045670
-82.819176 -63.540817 -125.796013
-64.250526 -82.385635 -205.818069
-154.398376 -76.383797 -306.275787
24.433643 -53.139568 -26.785353
34.351669 -69.551804 -17.476213
-59.874306 -79.086510 -93.209404
75.837685 -73.325691 -74.638252
90.955856 -49.953571 -69.250710
-58.097122 -25.195517 -74.112778
16.155487 -74.476746 -189.017746
59.554817 -70.333153 -98.553513
-75.850822 -70.647324 -146.186844
-72.585533 -62.686970 -44.012745
92.536713 -55.066666 -88.633087
-86.454765 -72.267082 -65.067596
-54.040634 -70.220993 -291.146057
110.639519 -75.721268 -129.641602
-64.262077 -73.460022 -168.620102
-13.613111 -68.337898 -247.417694
-74.297157 -27.988462 -102.127289
83.410820 -43.071682 -66.753998
-124.264618 -72.630882 -224.480179
-146.200089 -76.782326 -259.653656
3.950195 -85.908165 -266.933929
-99.000473 -44.077324 -92.151367
23.627665 -50.525604 -279.466797
-153.518219 -64.638252 -290.114685
-116.982307 -66.719200 -262.073425
-133.807007 -63.711800 -201.752670
-149.768127 -86.292274 -262.736603
-81.819160 -67.225662 -131.452728
109.508873 -73.756355 -150.288437
-66.053993 -56.486755 -69.551430
43.964314 -58.065498 -119.905754
-68.694321 -74.782028 -147.191162
-111.486656 -65.054886 -196.258408
96.708221 -73.072800 -72.408508
-166.023666 -70.293053 -229.593109
89.594910 -77.493866 -84.813934
-37.142860 -65.546700 -46.605507
95.840157 -42.887810 -71.614868
24.972061 -51.744469 -21.987633
-145.323074 -80.057411 -247.974182
-108.393768 -65.651909 -185.800064
-76.036926 -84.335175 -94.036522
-148.323746 -76.774780 -198.279999
96.159561 -73.298660 -77.166748
-124.710709 -67.605698 -287.802002
40.165352 -77.749184 -131.408020
-74.086830 -54.508877 -109.479401
15.371235 -71.338280 -187.382736
13.544799 -67.070175 -243.044510
87.323013 -72.273842 -216.992554
-52.853291 -67.843765 -290.945587
-149.094635 -63.476601 -228.956299
-65.532799 -23.838240 -85.245491
71.410736 -73.113838 -92.046982
105.399048 -55.686977 -74.637032
-48.990116 -56.510181 -78.165947
-67.072495 -83.434799 -98.618118
-28.042168 -73.405128 -213.729111
-81.276154 -61.270138 -123.556625
-16.346560 -76.666969 -291.525665
-16.786785 -69.212257 -226.678207
-54.626957 -37.010094 -57.661442
-66.104126 -79.762383 -65.435829
68.297409 -68.530304 -93.358932
64.900330 -47.831779 -78.828476
-3.391354 -65.790627 -288.137604
-58.120255 -72.278229 -245.544968
65.321190 -64.672180 -93.180573
16.764690 -71.007652 -149.383133
17.493530 -76.458763 -239.248276
-68.103195 -74.204330 -289.725220
36.277046 -54.296867 -41.641552
-155.922592 -74.686394 -262.031311
27.203974 -50.872395 -39.255322
-130.832214 -72.786247 -264.516144
6.524430 -55.844135 -293.584625
-25.700356 -73.539597 -286.683594
10.785425 -49.457775 -241.984375
93.830467 -52.578671 -85.316475
77.544907 -55.760181 -84.580757
-123.342346 -72.985603 -292.966309
-144.619904 -81.855095 -194.430389
90.127693 -53.531727 -58.214043
34.995125 -79.029129 -118.234482
43.461494 -68.328011 -249.167145
105.755371 -55.635052 -81.692413
24.022524 -70.849236 -269.196594
88.830475 -46.333218 -108.407692
-46.342445 -60.513493 -43.517391
-153.255951 -62.152504 -286.086182
-141.310745 -68.823517 -176.251419
97.717918 -42.798798 -75.772430
-143.994644 -71.923622 -303.639343
-102.971268 -63.675129 -161.253845
27.418888 -71.722565 -167.317490
-84.754333 -65.754066 -53.055916
7.638432 -81.571640 -248.212616
70.628151 -64.559128 -66.265160
-64.818367 -42.993961 -47.831799
-81.759895 -19.101995 -66.344597
-138.381943 -80.925682 -291.705078
-1.485377 -73.492599 -289.913666
-9.947060 -51.026123 -51.655491
16.508224 -65.814995 -199.626938
-154.671280 -70.061867 -306.602570
95.392265 -67.745735 -66.198799
-154.061523 -62.780144 -197.044403
-158.678101 -71.846024 -236.038040
-56.412853 -71.680405 -133.420410
-168.858749 -69.734512 -235.387680
-145.745117 -71.866600 -206.544449
-151.400024 -62.752415 -253.801788
-46.472965 -73.286629 -139.635315
-10.262861 -67.507660 -245.360580
26.923002 -68.090073 -150.252441
-24.841240 -77.760284 -180.321243
97.761810 -66.409279 -102.940979
96.810104 -43.530281 -94.582230
112.713264 -76.192909 -176.559906
-60.518978 -66.178719 -138.121490
-132.966385 -63.637817 -197.074295
-166.430145 -75.026695 -263.786194
20.315002 -63.279350 -145.411331
-54.137794 -81.694778 -176.018799
-154.251511 -62.373714 -263.745941
-98.799759 -63.894115 -85.159813
-3.962838 -60.531940 -240.485825
-49.476295 -86.344162 -200.432510
-48.455521 -73.918861 -242.510590
65.098228 -53.916531 -75.737450
-66.680977 -55.815636 -120.064644
-124.848244 -72.650391 -235.403976
80.172478 -48.994480 -109.330620
52.977592 -69.311272 -247.890564
-12.015683 -66.442268 -64.938530
-84.571556 -20.880749 -69.745567
10.548725 -77.347191 -206.824203
-18.679016 -76.255081 -185.444748
-65.643326 -78.018425 -59.908302
68.548866 -52.377777 -61.424915
-124.449707 -72.906662 -201.284454
-145.830658 -63.159580 -200.430847
112.111725 -73.156662 -145.232788
10.157948 -78.128380 -235.419128
17.638956 -65.221642 -189.483139
-29.702471 -73.862457 -209.963211
15.532910 -50.961456 -265.193970
-82.376152 -71.872299 -255.283203
109.980919 -74.151596 -166.271454
-31.590057 -77.365379 -183.556000
102.058495 -78.143913 -200.213531
-138.530609 -84.557930 -290.182251
-125.283356 -74.508667 -196.519440
-51.343979 -61.480808 -133.039398
2.195922 -48.420868 -248.175522
20.414755 -76.585052 -157.511353
27.195395 -73.362381 -141.115753
-70.780411 -51.977291 -110.004242
-144.257889 -83.504753 -259.926392
-50.619125 -77.199478 -146.479721
-149.137619 -81.952530 -230.128906
-53.432804 -79.277565 -201.931458
9.387668 -72.200302 -209.106918
-126.712318 -65.183037 -290.241119
21.452343 -73.825737 -166.395828
-40.292534 -68.849190 -170.540833
-75.856613 -86.925072 -99.766190
53.696178 -70.158577 -250.891525
-27.050211 -75.519165 -194.233551
-13.520975 -77.939636 -206.577042
71.436676 -46.385483 -100.933784
16.294285 -51.667542 -242.865875
24.580936 -61.057838 -270.423401
42.839634 -69.871948 -117.201561
-71.106728 -26.976574 -56.474510
85.481285 -74.729820 -74.315315
-97.493347 -61.739658 -114.462051
78.355774 -77.516991 -93.213158
-60.725143 -53.726936 -64.524780
-55.936424 -70.703453 -90.093010
23.946358 -67.065773 -253.901184
-43.878941 -71.802170 -162.743652
8.124750 -60.395260 -272.103912
-55.395866 -79.718765 -248.238663
-75.308784 -70.068672 -127.570480
25.106831 -79.533997 -150.854385
-49.122044 -77.514908 -150.629135
-59.788399 -71.118240 -285.605682
-14.220949 -51.023842 -257.506805
-149.658020 -72.288544 -187.343262
63.412186 -48.819374 -97.668442
94.432877 -76.880424 -91.863785
-12.296541 -73.730698 -285.780762
103.360397 -68.092087 -90.517990
71.995285 -52.977173 -96.317551
-63.042728 -63.126949 -113.961548
85.522774 -77.326950 -95.834206
-46.143372 -41.595879 -77.468979
27.322607 -50.202549 -269.724640
26.232948 -66.265076 -265.515350
-92.358383 -28.679537 -61.637245
-70.945419 -81.496407 -76.068550
10.879514 -79.671097 -230.303085
20.950300 -70.077385 -19.853476
-132.780197 -73.748581 -227.603439
41.395664 -74.430695 -108.788445
-54.137611 -61.168903 -123.679718
-145.999146 -68.504387 -283.592010
-35.721802 -71.961777 -160.654770
21.299633 -53.856853 -285.470490
-93.697952 -65.716057 -121.823837
-83.824944 -61.197449 -118.907768
38.602455 -64.825333 -249.966736
104.271690 -44.375740 -89.474808
-83.841347 -50.299744 -46.260635
-52.666176 -66.951317 -140.046387
82.596924 -46.352226 -108.386703
109.368858 -74.474861 -157.981079
-41.566662 -83.972900 -192.461151
-85.204941 -69.270721 -108.097984
10.156056 -49.390968 -243.651215
113.089127 -72.707863 -163.739975
104.268143 -69.574799 -188.162186
-67.677269 -20.982162 -88.108963
-21.062515 -74.718201 -291.581482
-3.505852 -79.277390 -165.551407
-66.504868 -60.072166 -111.216942
24.842813 -72.099762 -16.690775
8.582369 -77.423889 -287.753754
27.194775 -51.229328 -255.006210
-113.373001 -73.614937 -290.990692
-6.207204 -65.650551 -252.381943
-57.759720 -34.801579 -84.076363
29.527426 -53.005020 -11.845606
66.126320 -68.674530 -242.497864
-42.440857 -73.938225 -172.696381
-10.417422 -46.758530 -58.191166
-99.523895 -53.296783 -68.337486
-12.849884 -80.971695 -209.243057
-79.099892 -69.010071 -120.559074
18.221186 -71.921646 -244.521820
19.500868 -54.479454 -285.838715
-54.851425 -71.026543 -132.590088
55.374756 -64.939423 -87.747368
-12.285574 -52.732296 -250.905899
100.398598 -54.859001 -102.744209
65.702065 -51.613716 -96.531326
27.139952 -56.651913 -32.595562
-134.697662 -68.796806 -256.323425
-159.800247 -69.081795 -252.440018
-94.982994 -55.088509 -57.464661
7.504485 -85.314796 -256.704865
-78.260406 -79.555893 -68.108055
-146.104477 -73.374489 -187.697281
-157.132507 -68.544472 -263.703552
103.410164 -42.106220 -98.670189
-53.009655 -66.966309 -142.353333
10.242384 -80.349823 -229.784592
67.032578 -70.364197 -234.887665
44.373772 -50.452049 -22.807396
17.806688 -69.306274 -191.641083
13.584493 -48.692081 -247.946899
-20.018740 -74.452599 -65.735481
-41.504570 -78.181534 -149.331360
-150.518570 -82.350639 -289.734711
10.209357 -78.958778 -207.111313
-26.107534 -67.953827 -74.588310
102.195587 -50.395161 -88.131714
94.769371 -45.084023 -105.790459
0.525056 -55.924454 -289.630066
-148.615356 -78.452873 -241.651245
8.986274 -68.335854 -198.490173
-149.458267 -62.579926 -186.890930
-64.865295 -86.297745 -94.471703
-148.785538 -79.209404 -216.172043
-39.030529 -76.523499 -61.003052
-53.312508 -82.768074 -91.020996
23.170155 -51.808525 -252.634079
-33.145123 -41.075310 -58.877003
-47.889595 -72.107094 -157.209244
-89.166710 -73.412384 -220.120834
-37.429752 -77.670502 -208.768723
70.793831 -71.676155 -234.526703
58.772324 -47.155655 -90.454552
-98.855766 -48.031845 -66.719994
-48.677135 -84.960358 -85.602287
-11.110634 -75.861160 -230.900253
89.711205 -65.905823 -62.937908
-100.973434 -37.943687 -75.834259
79.631729 -71.242149 -101.899292
