# This PCD file was generated using the MATLAB® pcwrite function
# from Computer Vision Toolbox®.
# .PCD v.7 - Point Cloud Data file format
VERSION .7
FIELDS x y z
SIZE 8 8 8
TYPE F F F
COUNT 1 1 1
WIDTH 786
HEIGHT 1
VIEWPOINT 0 0 0 1 0 0 0
POINTS 786
DATA ascii
-89.512912427712010 -66.021593870846360 -131.407658010665443
-90.273346059012908 -65.319662942843792 -136.249047684471520
-93.537018583671141 -64.161834451535626 -140.159190898104640
-56.739141407205601 -59.963694986548106 -142.717818125880598
-58.984652486694685 -62.143202202651914 -142.631473820666372
19.998503003464197 -66.751261775507061 -142.259952601386118
23.243397739255272 -64.345225319582156 -140.423888560380675
-90.175371862774469 -62.702474757448002 -141.528728624081225
21.757297038177498 -66.306346325957961 -147.415780789903323
-92.957443466930584 -63.977382048205413 -148.058456614226543
14.201373166256314 -62.795202181399461 -147.308973173057268
-99.450804707246746 -65.631552860756585 -147.209122531839057
18.571616889305737 -66.626720653182787 -152.372444643686862
21.994052816956582 -64.099218660091239 -153.703884792748141
-93.519330011314651 -65.517773166037998 -158.598260363297555
-99.323957385232859 -63.987867808234896 -157.443734486234149
-98.415472040633546 -60.777709510385712 -160.213332065735841
-101.416982579301830 -64.264844490054770 -166.330794054498369
-107.896571355720511 -62.354624766572329 -167.893074768272839
-106.123970556756277 -66.964984009411140 -175.872104469159126
-110.100239449271456 -62.073910030771529 -173.516343622755556
-144.117247029865268 -59.355553099840975 -177.075640199784772
-143.125125200890182 -64.851401581532073 -175.475688726777918
-106.886167462267125 -64.506021560465413 -179.347606161619012
-156.474880103176332 -63.225174755698980 -176.702422728408436
-108.241236003911752 -67.374535577406064 -185.858439738191890
-107.807063088550620 -61.074799965795279 -185.063134076808439
-107.912518035368166 -67.166240267621021 -185.446419404026273
-154.574780659178032 -66.229039663681533 -186.532961565062436
-144.305860137745441 -66.483557335208090 -190.679654171743437
-146.562996484252693 -64.393602604822689 -188.419127683168341
-109.367963017193460 -66.709122405948349 -190.394090391901130
-147.839031871137792 -65.296209835677985 -190.263308147034365
-112.487008832410964 -60.364726129623101 -189.235067057246937
-136.668610096766429 -61.059861370188003 -196.948671951126329
-128.019549612877171 -67.712671038789438 -200.678647242445322
-118.724042486460803 -61.612260944709170 -195.015931285319112
-134.397742595521322 -60.929147527594843 -199.455574217421656
-115.213092754036211 -63.703277458052469 -196.182147343679162
-109.255972015970784 -61.502727277127583 -197.487005533132020
-110.510739761103437 -60.160755475969964 -205.610301288302196
-138.765739292648959 -58.677291118372857 -201.848916513617809
-130.772737208244251 -60.020085624647258 -199.918865210437446
-120.428385138630119 -67.498500650303271 -196.677119199763666
-131.498422677384411 -65.646328630460559 -203.962671927167321
-126.084518838431805 -65.203742300721785 -201.287873332216776
-122.364864684532122 -69.288538348169610 -200.883551575958080
-151.643365047906428 -63.999563115903122 -225.315556317690294
-129.848706361914026 -63.320366435216229 -224.610685075062946
-122.804019456781361 -65.691400957239708 -228.040391956797919
-133.552847090513467 -64.147750696551398 -227.552372885442679
-126.069041393117828 -62.816382667580456 -228.249207406089369
-134.722189933211951 -69.234985712963095 -230.722478412432423
-127.359922677450257 -61.497630037043152 -227.988331857010564
-2.583698470550471 -61.354215750506448 -241.639704273597857
6.160004082731128 -63.917822955877384 -237.706595996167437
-4.735741100349315 -63.545579683474116 -244.177345818668243
17.084917301604044 -61.070451980144568 -238.030376371736963
2.424990712511113 -63.697594451850691 -243.144910510554780
-4.042661993812115 -64.483213520945938 -241.690786864566775
-153.388664247800790 -64.684452941676270 -250.715665843437364
43.327223693653202 -62.857238521725385 -248.177764626367406
45.416294131228334 -63.711393580937134 -251.997026953645928
0.710426760373400 -62.324390637018389 -253.474538169000454
-144.458147556927742 -64.285014043334101 -253.065800278609458
-158.721507745801773 -62.330298824665824 -257.213634202087803
31.850787321570539 -59.924667935666939 -252.526524395884593
-148.029401715883523 -67.262136130791916 -248.259258232333252
39.176166361868830 -63.557665217735966 -254.870884755149149
-146.314923565051089 -68.798717615608311 -257.423220303016990
-1.616136932420576 -61.775844143902752 -254.731421532196407
23.940249330295700 -65.003085423185524 -259.007434668388953
26.656930072445860 -62.935727970204660 -257.606586990429264
-149.428600462493279 -66.290331056936594 -259.384400753189823
-151.015438209587927 -64.031382082974105 -262.397073792242907
32.240940738418750 -62.005818393538249 -258.966144428562757
-142.467330806906602 -69.479529419208845 -258.904908331369086
-154.568595214767100 -63.007683270353702 -259.173014030287106
-155.653400698030225 -61.153376288768690 -259.651223798953993
-154.549187553675296 -62.200941480672064 -264.411854634113809
-147.879614559815508 -61.255957761375804 -262.600678269395701
-143.118491011946020 -64.222684810620990 -267.994198279741568
26.827534909838313 -61.493748083328128 -260.528074195223496
-141.423443147751613 -64.506014692366890 -261.695144800049547
-152.716965230492406 -64.881448245525647 -262.801811078601361
-147.556899228408923 -62.723147641886371 -269.140709128410776
7.176347901134875 -65.090262569487990 -269.689555470599657
9.028172944236715 -59.576782512320378 -271.625372419313408
22.396163567169662 -63.920985102125329 -279.326866467270918
-151.455921229361991 -63.620014208717855 -280.946332646753149
20.781295358622341 -61.561645503025836 -279.119649264727116
-151.645371015332614 -66.770501581285529 -281.146464317577568
-157.561919443658724 -61.281114530855611 -284.600917236440921
-145.620689460269119 -62.765754396548346 -282.651078019862439
-145.915051116581282 -64.447757044574246 -285.766033147820167
-139.516422173444255 -60.591387311340753 -289.930096943772355
-143.781604356269412 -66.601264346369419 -290.420554860084792
-154.260509839385094 -65.027308343505027 -289.193362555799013
-152.766373673100475 -67.234986530552860 -289.083816280674739
-146.259245205344342 -65.334924738662878 -288.832188533629960
-149.067088030058869 -66.882674591389474 -294.270230432391315
-139.810783853054289 -69.586910372321995 -288.989051284928848
-154.528729790715232 -65.977599385946007 -291.336239907016704
14.545729660530942 -65.442651624964881 -293.512661214678474
-153.025204918803581 -61.545804366081228 -291.409545859084346
-146.754474915741127 -61.773450954743652 -291.963866988439406
-152.132570265600009 -58.740831688056076 -294.258355435132103
-162.462933183835105 -64.799235309415238 -295.498775250176152
-148.980994645952279 -66.996279190982648 -292.798829703974491
-147.033120387584916 -62.568793007848491 -295.384997756336872
44.380145445477019 -63.792427777543303 -15.265647252383104
36.320977304996042 -62.718866393725989 -19.626708098033440
26.092405651991413 -60.609728969173432 -22.060682332519693
23.541453556176617 -63.244656571675073 -26.719402350141408
46.260814195728500 -66.198032558411484 -19.478747474030296
42.594153649276848 -62.324678946376622 -25.902430319541409
28.562370666768860 -67.389693491548769 -25.254382828456528
45.802652229981724 -59.854819341434620 -27.888124264025599
-57.806831880256517 -66.573422329632109 -45.174902074987450
-70.532340796351335 -62.593594307238604 -46.422957520304735
-83.766950090271109 -63.925858468197241 -45.252263778345352
-82.795114791146048 -63.375426934739814 -44.160988748855360
-25.387106289817599 -65.675331819175213 -48.505510162344656
-18.016836669552841 -64.692451458787104 -50.194155558503319
-83.725361105171217 -64.904131830608378 -53.269583639537615
-89.758019857460269 -64.203885177600213 -56.719456363206334
-89.581454834446902 -61.932575619720680 -57.332925913174897
77.603486509974388 -59.775187178257134 -63.696782346512734
-8.698360575489291 -60.772757904678365 -67.331559004386875
-14.267254891978746 -64.413169233855172 -64.281015598211596
-26.896107445783379 -62.850842510041488 -69.926802349879807
-23.046468660330753 -63.662470562682785 -75.375322817599113
-99.317202000975030 -66.083783339371664 -73.173406344829019
105.555418019574219 -65.319714454683393 -74.906908025259540
61.893451994753896 -69.295104220808014 -79.071002168938776
-43.402315730399572 -65.573313862905337 -80.288797595407701
-52.725738845850714 -66.270373487105260 -84.237287922790159
-51.732693866875266 -54.699142921379369 -85.972551363298606
66.915643698599538 -62.585621820165635 -87.507689609563727
-57.657725448536198 -62.442023795598899 -82.355511216340602
63.088589713020980 -64.110095164058094 -78.893327514125843
59.984165394221854 -61.876081210267522 -86.347147840237881
67.341566578283263 -64.541472292686024 -86.390785980968545
54.490646411762498 -64.315653988552754 -84.686647207036486
-95.653620125977184 -63.520075717058788 -86.773339658593116
-62.245301836856981 -65.417861192541025 -90.033743342309904
51.899402749870433 -63.115125479658943 -90.059560117580716
59.655522992315547 -62.385228809569661 -96.443156144771066
56.184972743546012 -65.570373055022444 -95.627423552813795
-68.286868979156722 -63.905072090489867 -95.912760321962409
55.884625774014552 -63.399073518391965 -99.455515642605931
61.484548120026126 -63.191726286332795 -95.095697048966144
-63.496625238010836 -63.806959728743209 -94.606701945286360
55.138635570958328 -62.025428683583677 -96.957553937454676
66.938517026931464 -63.851317665808971 -97.279878923912420
-100.975569283256007 -65.748952316888364 -94.179467111325678
59.519969722739475 -60.267786669373940 -97.019922128644751
98.274277342341435 -66.618088994971004 -99.755136721132502
-79.102480605699611 -67.690729504867093 -104.422968078504084
-73.262341982838578 -59.176504930857284 -106.258676132124236
-74.527678288396601 -61.421118236912157 -106.322069771698850
84.357980962681566 -59.915894515963089 -104.137899047283838
94.601430104089943 -65.507614424645595 -103.346836847353870
-75.752178030056228 -61.458685626007153 -109.377516230188505
80.921380895751184 -66.233190005075244 -109.885698053717888
76.945349834826487 -64.220357097573952 -110.418547655540564
-82.249679994266842 -64.405812754016523 -105.780682031299321
-79.391724457822534 -67.005413657451456 -107.829627589426636
-88.276685221419143 -64.168914074971255 -109.341562452912896
-68.935476343054944 -59.464242374431713 -109.421840664989688
-62.834768640868496 -61.521424127585362 -111.103087865570345
-68.277047418769129 -67.006798729728217 -116.744553401210652
-61.474243317917207 -63.238120787439819 -114.936813792219183
-67.303309893286681 -60.091719151415468 -114.861651231451347
-59.223897978092545 -65.825933240451619 -117.804266315855955
-84.439913395125430 -66.432419439210491 -116.832811261567656
-61.152075208950471 -61.508357221690503 -115.667983377380324
-77.048893924141950 -64.355859633361192 -121.805355104724057
-55.112772759205342 -59.002667698535546 -124.269317091468764
-84.776515404583520 -64.816871513321033 -118.769802587008925
-62.357658514854307 -63.238731864121071 -117.472428669552343
-94.440670515493352 -58.818468742577799 -119.499332656748251
-61.031786846231057 -64.179141253236381 -126.118606661684851
-53.902531260111694 -64.006067288966790 -121.260522733841384
-91.500276268023967 -59.246864284657548 -122.634345417530270
-74.807301366762815 -60.882074928686329 -122.108162881355469
-63.238356994777142 -58.784951751908515 -126.614113995761656
-55.910139391078019 -62.136590524760663 -125.587953996386034
-77.056499207548214 -63.670634354698876 -127.558183651393662
33.250371811317912 -62.198766962083745 -131.114189695734467
-79.712985752147532 -57.744455997022555 -128.196195048179987
28.477027786801493 -61.058830432667840 -131.681192269745850
-66.417710621478761 -62.725497933367400 -130.099903035848513
-65.229378134464568 -64.668196017439570 -129.285039064258001
30.887955887107221 -63.679368155447307 -129.481801853437389
-53.502657310769827 -65.896798982863842 -133.730263910633511
-92.485223549072373 -58.936005065457792 -135.480508072581216
-52.525829478068594 -65.215156048261775 -134.512297052401777
-52.640716267337694 -62.365565989408900 -143.839806265610491
22.954736659506366 -62.428907085488021 -140.262032938277031
-93.456036851254893 -67.060543931854170 -145.851152134976843
29.125084766601191 -64.376269481164698 -140.658619004274072
-94.483809456140875 -62.553913860736493 -143.304661892934746
-93.600611973097159 -62.764850440227249 -144.348956240967141
-100.322097567777647 -65.329114064427728 -145.272719838935899
-84.762633594897750 -63.001028851074572 -144.505010638045349
20.289861029457715 -68.635806738659724 -141.684320950880704
16.581366986791885 -65.384445670133289 -146.664033905297856
-97.232383844845529 -63.605134529698951 -149.647900371328035
-96.872662863894234 -66.262279285012994 -152.909120799507377
15.019944549304309 -68.564781314502326 -152.426249633499452
15.943957164673797 -65.875620987710349 -151.978168562683294
-91.571515136522848 -64.748393824824063 -148.316728233353416
-94.575870984354253 -62.220442274263817 -157.845088476903015
-102.567472435384303 -62.909290850995212 -153.071324712427838
-97.780545651221260 -57.272688178427707 -157.169850595307793
-104.863405351181967 -60.718744268896963 -162.932111147658816
-101.615666072272433 -65.783213673124223 -161.851089777572270
-102.612501267697979 -59.591907979144899 -170.267565057366198
-106.717644281554897 -62.359059395443758 -170.692775822265418
-96.581559655260875 -62.498750453258204 -167.461435795350667
-102.825908990676425 -64.512928149177526 -173.384256975123009
-105.890599593033883 -61.965922158351802 -174.226058258197497
-147.098582487426427 -67.780953987977767 -179.105324444618361
-102.966068901864617 -63.716491168475081 -177.979065505965309
-107.270744727627758 -60.786216209487314 -173.475668473293268
-141.622706759408771 -60.661412103370004 -179.815350348052021
-103.988099755630486 -60.219347437807464 -174.374652667798955
-153.188157099679160 -61.755271002138912 -182.166140444609596
-142.672204738297125 -67.283572707206289 -178.705543880249365
-145.439573017085536 -60.932310126100028 -186.437991557853053
-131.413789825874431 -61.997984723809644 -198.247865086556260
-144.938299090241884 -62.560128907152283 -196.894116853220169
-131.595116289234340 -61.787987766058400 -192.907433329887652
-132.684418263757550 -62.932905925666674 -201.849628397894804
-126.779458461547705 -61.900482269016130 -201.788510641787809
-152.909329240748065 -67.378105811740284 -230.409956565066352
-119.549457720757687 -64.573772657040038 -228.105079830642154
-157.422959276333046 -60.940704367293861 -227.042121127934593
-151.677970403823196 -60.468772328209759 -234.367638756196072
-160.276967983873902 -61.398319155577013 -231.419270271271841
-148.852708096280537 -64.254108638264839 -227.995816089898057
-143.423265011881739 -64.948027659881930 -232.473453222262663
-147.309406208282638 -60.136452733936437 -230.499377631510242
-146.030995718403233 -65.702175828759238 -231.961340967931449
-146.163822680408032 -63.328962748435863 -239.221168333290223
0.793375515978924 -64.997020185469950 -237.288592283897913
1.537369275133978 -69.623785701484948 -239.725595965759709
-147.701175118235085 -65.130903813247471 -239.402323443535408
-6.961430604147550 -64.256333219648738 -240.015213539510768
18.412274026853026 -65.579675674275762 -237.822973738859957
19.870411996005185 -65.580965681130095 -244.147153206876510
-7.400285874387385 -58.882233948641407 -244.326107281666083
-148.345626397778403 -63.916046724444982 -245.314826260606992
12.819031594896710 -63.984682085174626 -246.380162318728935
-5.647195124749908 -58.129179674759328 -253.203602509057987
-5.808086493322433 -62.396833795567261 -249.910149358640552
-153.912686407607225 -63.467627771881403 -248.712580081639857
-147.886205087735902 -59.226044940507983 -253.393588100884728
-146.438843994756411 -59.790635120619989 -253.253533381966719
-144.990010053583120 -64.306332614540153 -252.193664336546817
23.210447175222221 -61.095883957843320 -249.977086964202073
25.783330340319228 -64.365487852853477 -259.508800020639171
-149.336731034770281 -65.579471610103965 -259.247951440224824
-151.188189853538006 -65.293731088367736 -259.220691338068320
-139.880787078916171 -69.553868617505714 -254.702118035104860
-155.276658569032350 -60.495725230013775 -259.472368244093616
-151.231290007021869 -63.469903220623884 -260.726911038260369
-147.098457627385045 -61.111731074506345 -253.041622458329897
28.951243449044519 -63.361511895299614 -259.203572049861236
-147.558195450150293 -66.389386314882387 -257.175570931843140
-141.492509194205809 -64.900488977490511 -258.662629851643715
-145.947976016284258 -63.121940243992242 -260.541298753832564
-154.649171048552660 -61.399204293635499 -260.211965496062533
5.720003216119874 -68.336013092057684 -260.778801979732577
-143.263045043672633 -65.293741145390939 -265.187397672034763
-151.221237946146033 -61.679788637167206 -264.220641130133799
-140.786522350880745 -62.399851384339229 -261.368224608182231
-154.687225909017485 -60.502831589243179 -264.346753071372916
31.701167405854331 -62.040532032261552 -265.278178613506157
-141.751674117323518 -65.560553453674046 -266.440351035678646
6.220973992142282 -65.791194660635028 -258.942469642039612
-153.867570264322751 -63.157846407738724 -260.777018177415073
-151.062354262034631 -64.368737830857540 -262.008697944027119
-150.000728344552641 -60.679250312992266 -269.509310566297870
-150.974910818650187 -65.221720857525639 -262.452688812844087
-150.830710346766978 -63.595116217943570 -262.271451046977973
-151.048146318965394 -64.700420805360423 -266.484255990004897
-151.296614868998773 -62.473054362432208 -268.619448146794298
-145.954746522929042 -61.695425577337907 -271.605950150646379
-151.820179468619983 -62.645280244081576 -273.415401224022276
-145.236576368836865 -61.635417421494559 -275.761886634232269
-150.140776537851622 -63.769522633001429 -275.607352769745319
-2.000206058304776 -58.785226834682270 -278.310494710959119
-1.993162200414810 -58.827773654690667 -284.155320759438553
-146.033084034950150 -61.775693202100065 -284.803881264970300
-144.681515410390716 -59.582289419422310 -283.633373286342533
-151.930953107951609 -67.423630380390023 -288.551539820612902
-150.370136968823090 -67.273178847611959 -284.502576373139050
3.926812726847490 -60.685842185283256 -281.745537082162627
21.406221163197088 -63.513931376903166 -286.137353789075974
-150.188318152051920 -67.636425868863853 -284.825948164179749
-145.636016017207453 -64.047896804480402 -289.682554466550357
0.480690790895789 -62.675895521852766 -290.366231771268076
2.420807409777969 -64.292199079854413 -285.135368644776520
4.620063087248082 -65.530429681534784 -286.991063467688718
6.618760661186475 -60.304102758335596 -294.985379263141056
-149.634396619850008 -59.613924010486997 -298.606626832557765
35.368533759067148 -64.805414134501177 -9.731547806074300
43.664348263952924 -62.197392923354030 -14.229796025332455
21.464026320272868 -62.522588371068913 -21.579134171018449
29.149225482933929 -56.494948012958332 -15.577710267447477
34.547417434751026 -62.925706326499622 -22.106296409203974
21.956154871561179 -62.367166113223355 -18.140293769386005
44.858161859735738 -65.450042801617244 -27.580875160328972
28.196273062782932 -64.202736008540825 -22.271948252843270
27.446200164347051 -66.888476643940777 -31.154776935982120
45.278192760095898 -61.887757373908656 -37.375362683134362
38.314361607900018 -64.549952621940704 -40.447303321628894
40.781361195072847 -61.845209507777007 -38.419036242125280
-54.244667574260411 -67.252543243254479 -51.974027006422439
-42.180437039843738 -62.879938705081827 -46.647374172457674
-14.459075443412699 -64.820030858706531 -53.726478983849610
83.087979771669012 -60.665431900470523 -57.494284847730555
85.214181020522645 -61.344702897702966 -55.767101767895952
91.777435216431485 -62.714257897862346 -61.332326034760214
-96.534869467109218 -63.074022162953767 -61.265163665472691
94.250280851031761 -62.833283931282352 -64.519331531375784
66.929759054136539 -62.621527994194224 -71.712693411155058
-101.771901047641151 -58.347474438349273 -78.187970154569285
104.234980859274827 -64.026556299292494 -80.918710038795382
64.703088403561239 -63.434509168589166 -78.998542167040895
-37.557061592009887 -65.587872922578995 -75.956213556747286
-46.017355738103255 -65.803445752263286 -80.049511084135958
62.878685480849832 -61.657723749249435 -87.037285722341451
-96.491289582290975 -66.843854226775107 -81.818306004296417
-64.204595034063075 -67.119828239591996 -86.610206554499868
66.924695910230156 -61.307529710154327 -91.060624589550088
-66.192748815158097 -64.663326871469636 -89.956368681505779
66.826060388899634 -65.686885009683053 -88.825536041219308
56.175956250239302 -60.907141712743751 -95.355593658532683
66.308869888280782 -61.781490293875606 -95.192422823545925
-69.203374429734353 -61.378294662123842 -92.390969021507701
-71.311381925132110 -62.488790351439818 -92.344383504549626
106.119118268492727 -60.375337636996115 -103.304032726572999
-67.901352839365032 -66.035448756114306 -100.765941966913587
-72.087750351610893 -63.615452179876982 -106.094523508322212
-76.444583778718737 -62.852002241278086 -106.372517113118988
-97.394463339260966 -61.294643493504729 -101.901705139895881
95.331768275273163 -56.997871186623023 -108.499151626137547
73.395986410479651 -64.058733812017365 -107.756503280996952
-102.209437029046114 -61.680779278259322 -110.803814767993686
-84.781354804058708 -57.335940565010745 -106.750525008533600
73.482836507683302 -59.578293846323049 -110.903475854077499
88.600052459680924 -61.725437842368400 -108.581501645460122
-70.008988834478188 -62.996850713601503 -111.307195747286698
-88.604456797965881 -64.796013395007947 -111.631869558724262
-77.680731879051976 -62.073169581803946 -113.626511743867042
-76.686742799487988 -64.454042187707415 -109.656780532812760
-85.062790240492404 -58.954492343752378 -112.127602769726550
-80.358032396766902 -63.306880024476399 -117.469302523643520
-90.796039693155436 -58.882718517308206 -121.641647287402861
-79.018655424028708 -61.505165912042450 -119.091371184163265
-77.722395701288988 -61.498327411108988 -120.819789493835657
-72.575392538045790 -64.427995012550625 -121.129134613625723
-91.560028400141576 -58.091034856890204 -118.076639084229996
-75.493475672925271 -61.959520073688026 -120.454411780429297
-95.101146428966203 -64.864451776776207 -125.420505525443062
28.685031055178111 -61.199574367990465 -128.093802240355728
-79.812628984721940 -63.958340103288833 -124.017224651375855
-49.270445408203635 -62.252257443400353 -128.971889468874423
35.614159240070144 -63.770544071811138 -129.580328669308727
-53.759295781081889 -60.938385047869687 -131.640040686548275
24.563251721133895 -61.324823127620583 -139.496973048458415
-53.612556309040642 -59.438159294612468 -139.612567799595610
30.894244852176968 -60.759028721229278 -135.831879381684530
27.313006196460123 -61.115391486545938 -137.210830034044733
20.344424471869306 -63.451573804459123 -139.000383783626489
27.523623156695482 -62.394430462676624 -146.350102630712826
21.454466818345058 -57.497636524041255 -143.989162393879383
-151.873276076036575 -63.981453604364347 -169.208320766053390
-148.508807520015552 -60.554648775569909 -175.572881117624888
-146.969380041230181 -60.151467840772384 -177.311860661570137
-147.283354871041496 -63.541470377416786 -179.111099257653450
-150.712174393128322 -55.833786120518560 -183.266782947048625
-143.958940347550481 -60.415057713658612 -180.611963121512304
-149.411466449285086 -64.567723118108162 -184.471605226724023
-146.766670577140957 -63.239692018652477 -180.646536354590154
-147.628708678611588 -64.419231025777165 -187.470546023005596
-146.437434998915791 -61.961445232522109 -196.017512314032842
-151.866281694417154 -66.118770821245008 -197.729146232484084
-142.103759630938299 -59.398466512036308 -196.285919310397389
-123.778960765337899 -57.620863982399939 -197.351198525198782
-154.947080802999352 -59.530846434371774 -204.915944021965146
-128.212253376568185 -64.130699633360251 -199.315061802962845
-125.669248725818164 -59.540037294325124 -197.901744287933752
-150.237016860065182 -63.411436005304502 -203.069567273873758
-151.970295218418272 -62.598697141424147 -208.261533199937446
-146.437600829128172 -58.486735518121222 -206.759639058400182
-148.877342436689588 -59.310063160586381 -210.379266517295918
-146.210554072558665 -63.618819300384018 -217.787238724027844
-146.456562433925399 -60.035970146526921 -222.485628123146739
-149.855956053651369 -63.753705600289088 -223.685941973877789
-151.113845243215167 -65.127678957087767 -218.668374325177837
-148.018919184874051 -63.408413917343019 -224.486062532020668
-145.085116819286981 -62.057097430346531 -224.158810617390913
-146.439765936955553 -62.882160926776614 -227.160503497910270
-145.069451120977874 -61.636625118365693 -231.306163228799051
-146.368545291450062 -67.867378922621043 -228.118837947770004
-144.998058434521738 -62.204369655612659 -228.794126457320971
-153.064367043939285 -60.871708283478952 -228.318285169495084
-143.575563572210569 -64.148020919701125 -226.435154156825377
-144.526704123073955 -59.260302728079438 -227.084474041207443
-157.598170936521257 -63.499872330150858 -231.090724600390189
-147.157159653973451 -63.939437454284842 -228.284575544646458
-148.116393305615020 -60.995466052718065 -230.921483261884845
-143.802115374126686 -59.721987795184795 -230.892785596010611
-150.580485945572917 -57.930501071563448 -230.179183703786663
-150.641305131369734 -60.841976019089621 -228.941206385426540
-146.413734728734283 -62.796745381225080 -228.536041572089431
-156.358874310437585 -64.937208394962497 -235.965276945868027
-152.129786856353832 -67.220914084732968 -233.501350543830796
-147.876442571098067 -65.311251777687943 -232.949220955394907
-149.647809371406510 -61.822698406818020 -236.317842121378590
-141.416917732596687 -61.464106476595497 -235.838921974328656
-154.109290356672062 -65.654015162662930 -233.593753254422921
-150.772567958476174 -65.797500357552465 -237.677096938160361
-148.903396896797744 -64.553823799504798 -237.361567270969971
-7.083942742752666 -63.789648332452124 -236.454257726762620
3.294049044630910 -65.826157715294357 -239.836129278057996
14.744343947129762 -68.098727134062031 -241.101732533939753
-148.358813463947342 -59.659705492718480 -239.764699596566089
16.127152220390585 -64.757174338323892 -241.028152117624700
6.276999379830141 -62.819146428346961 -240.736149973666244
12.704005567727638 -62.412577507546423 -240.348157088863559
-0.424020627406724 -67.119796647255015 -242.341334840568578
11.181288611694521 -60.531519305807990 -242.229428955668709
9.937418461972085 -57.996781846277912 -240.109577510625201
-147.029978619084801 -57.596832767667742 -243.162814923637768
14.377879260650763 -65.241570867142343 -242.386958982416729
23.618461204510631 -60.333980490979670 -248.917169364372796
-148.898537462050854 -61.544940682646590 -245.287013194415437
24.134428229615160 -60.348922894989755 -242.985936069042026
0.654974486611157 -61.090742894033085 -248.572796166191750
20.606490904267297 -61.209794623264145 -248.953888382213165
-155.486253519440879 -63.474943380114667 -253.147953155540961
-153.380571072538146 -64.211978788181639 -251.512344447699803
20.530344108997284 -58.827556432314012 -256.140440224250938
-152.347718973735738 -61.701840487480553 -252.156254006873780
-154.353077963165561 -64.640476472296498 -256.674223246953488
-146.220680148407382 -64.296095897909396 -256.589694503041642
-144.675817641332912 -57.515172216637723 -253.176021783412523
-151.527893846714164 -65.933808655853468 -256.006820530786854
23.885018509222821 -59.366262387371940 -255.296452731986477
29.414903507984604 -63.188468903349424 -260.705465428677542
27.439269536056926 -60.258883367492274 -265.112524724308571
25.449666994858131 -66.178962108351016 -275.483667539288149
5.707979879174772 -59.546414208639206 -269.414565636462157
22.758953313383589 -59.014032460868940 -279.879698558261509
24.144368911483998 -62.953167814855263 -278.420913975311066
20.336223989357880 -64.124879189142860 -283.973783743527406
14.652723982646435 -64.152021065382129 -288.646109779461881
8.433396320272738 -62.095635436254874 -289.579092939656334
27.401627355471703 -64.317117182700088 -10.963935064253773
34.260815804391463 -61.889250711453364 -9.164909935054441
29.438022123270471 -63.444292799844426 -17.553535675837594
24.321840996201370 -65.349906578771623 -15.982133662291670
37.669815389601794 -58.561292472026480 -22.065536509627098
47.840750612155375 -58.182469713953431 -18.626445260386220
45.544131205936459 -64.143202111786948 -20.024739035216079
25.371304804365746 -62.833149473582559 -23.663960720276965
42.045343521662602 -64.331524383989120 -33.109029797460892
50.406336297225728 -61.694874333573061 -32.276380447875844
31.550567478491981 -59.323841623248320 -35.856149984556787
25.594769197227386 -63.736224141635098 -38.392243361660199
26.370491865104526 -60.421206948687363 -41.238239408321235
-59.756717312921879 -62.832270824735687 -39.794967373879274
-66.533512054267021 -55.682204763581893 -38.608667747606688
-67.009717086361022 -59.419416930361123 -38.250072054065420
-47.656236916623442 -64.277104735850500 -39.141272555523223
-42.730991114840386 -65.051527171362920 -50.763128354246717
-33.879574813879181 -62.316256951627871 -46.337142094591293
-22.162240005186828 -63.379145108648991 -48.608050528707658
-85.628250185603434 -59.139774828592870 -49.675152563440918
-23.769470001357330 -61.815798231096501 -49.871797651703567
-14.882635459130340 -57.277526833406753 -60.386835845233790
75.529005372771479 -61.663329644034796 -61.217027232265167
-8.045411716212847 -58.228456468222610 -61.459417165289075
75.670745539548264 -61.209311576606915 -62.354165550599724
67.970988759324442 -61.155427306094374 -59.998127405149184
-13.540091222528190 -60.460943694221200 -64.430156413966742
-23.058276961772719 -58.607340824323870 -65.858320021128023
101.987945770656594 -63.623171137403482 -66.998708060138100
-26.196732789763299 -58.125163945430451 -67.851535289482371
-100.828494119399039 -65.755852211367426 -69.020184144723061
-30.883636543423549 -61.303328314691690 -68.237797613931761
-31.064641384899591 -60.351471380581678 -75.401677826288960
-54.425999006115305 -58.382398481167037 -86.068651746415895
-60.557035946880248 -60.055635398873370 -80.632454563909008
105.675854350112559 -59.980840801352457 -84.466605985681099
105.857573154458223 -57.930056537692188 -83.435622097370697
58.130143554894580 -59.066774212293637 -84.777943178915621
-63.851731735218934 -55.620287349591422 -86.467926796804335
108.909347060255143 -60.440674701966557 -84.804992817031476
52.392241030376631 -64.070189079000016 -90.369070343854148
58.155906863552204 -61.527581303895509 -92.750587785573174
58.636116902465865 -58.214106505669221 -91.895176204534749
56.924824029643148 -59.789595915227245 -86.980801891104875
-63.889388967415627 -60.746182803051582 -90.683189565782072
103.982108597270511 -58.617917284974318 -90.938752354437241
61.519403060915550 -62.416662523801207 -89.725043779351978
108.234417609090428 -59.588896005421262 -97.885679872439795
-67.991059887115284 -63.888671481147583 -95.936406648701933
109.813186905529420 -65.390865438426289 -96.054100999784580
-67.957433614532960 -63.368242885643248 -101.136081272376870
96.677130745994219 -62.328459686775375 -102.797010027828662
-69.637927229129645 -60.573742322446940 -104.920107756878764
-59.599677042987821 -56.744549669471297 -107.153120511003706
95.623048865668892 -66.405138297763813 -103.570134728377226
86.071391085007036 -65.437991144245444 -112.826695490900249
-66.137409369752262 -63.385163451185889 -110.416544055083875
-85.604035611857924 -64.022341679401151 -108.941998456209291
-70.381688283045889 -60.254796040365001 -108.271954999636080
-85.725594695685629 -64.804384486949658 -110.400969706927384
-71.583755381743103 -60.381966940520805 -115.325941498535727
-84.109733256583723 -59.577751353660702 -114.321257463068051
-73.429504285507633 -59.378714788411536 -116.338182442946774
-80.401162025207555 -61.110434245557421 -116.717791788716596
-67.266248996916005 -62.060802986039320 -120.582428706815321
35.501952029715333 -60.898013732100004 -122.004511408996208
-56.547105955674226 -60.531215039200312 -123.187179750872502
-82.379530494825431 -59.817581835578267 -124.023355541263257
-82.156495079044191 -63.741053938419505 -119.923902726091939
-63.570820924197335 -56.724551925348912 -120.992441141276856
34.486392471386210 -60.855553344677752 -121.128554518671407
34.312040679628751 -63.713420966064724 -127.028801983254240
33.871650684565211 -61.082425292628869 -129.170744813132330
-80.076343911269717 -61.891019495085359 -119.867251732593871
-81.669749675895972 -62.652087414129774 -124.756909700951752
-70.001784121192927 -61.084305418579625 -128.713306315876594
-51.182050318523324 -62.427075684116701 -128.457361407256911
-66.153013680493856 -58.233048150554659 -128.739448784927788
-52.323124373085797 -60.350700586488543 -128.581723883473757
-61.258545289286474 -64.244943050987047 -134.247497223568047
-55.297744527524614 -56.876028044655271 -133.248698905825051
-62.179810662857371 -61.840554916693037 -134.499004875335828
34.398967644479427 -62.190271588513191 -133.037765382831964
-52.507305839789119 -60.180678633358504 -138.776161137429369
-60.296312933939966 -60.398543879604134 -133.010088685264407
16.652623329221509 -60.192897009881200 -136.282553879576341
28.791260524940128 -59.206742848707435 -142.732214932302753
-143.765034196531815 -61.323286152106036 -196.941504522003981
-143.709039263475944 -65.538787295265692 -193.124611793200700
-143.174620651698234 -66.068346544559986 -198.535866766741265
-153.595356218439434 -57.463243969260681 -199.574662698007501
-150.885226836200388 -61.248065947645173 -197.356245104681079
-143.841719449698900 -59.388960247701917 -199.620409714237269
-148.143169670343013 -66.868117417713577 -195.918554470136996
-144.433537929614545 -57.794531787154568 -202.755591696833619
-157.005247859334560 -60.763347014640800 -201.620886738147078
-143.422862859531676 -64.118293662001420 -198.506831741207435
-142.595558835020597 -63.248550340939609 -200.373219516027774
-141.939683031853548 -61.519662654803746 -198.585253118674160
-152.601688568847806 -59.887327026734937 -201.565060293453399
-147.673666343043777 -57.505966873356392 -197.600478977626153
-142.552396988009235 -62.372277886078585 -202.201210041519886
-142.704646613350064 -65.186779070663079 -203.128230698719875
-151.849070159880199 -62.701252964935733 -204.568697467660144
-160.587574086344546 -58.831231713109169 -205.765192044882014
-144.981820594314087 -59.766813693503678 -201.595439010949576
-150.739079298155332 -65.393686164024103 -208.518602788616846
-145.496573221497243 -58.739579988548101 -209.903054976216367
-146.872329773275510 -58.833282420939199 -208.564110456075525
-148.009248776135479 -58.674909822274053 -206.355034303948514
-144.262241409358694 -59.580955327086315 -216.854280996707018
-152.323934919528341 -63.251487141812383 -217.403744005229157
-149.506234402516640 -61.547203296467309 -221.891825722129738
-151.143247240090915 -61.822698710751062 -226.866903354032644
-146.743696694345005 -63.757139203721607 -222.916750927879036
-140.688468995441156 -61.416507291079697 -226.181659187973281
-145.199641066212138 -63.176683185781862 -224.358956869513150
-151.304526464893286 -59.936314942790986 -222.729519579790747
-146.314484807477839 -57.637841266377478 -226.310114480261348
-144.322492799852370 -57.050900164719970 -227.135937091039693
-145.177930973657112 -61.689931845030152 -223.667017105360827
-141.755766357900484 -58.013709904027081 -229.904452925062316
-151.173114742670663 -56.258782225567707 -236.953946765201835
0.266492381852284 -60.443820163227180 -239.615602641179123
-5.108573144072722 -58.445001946377488 -241.715464866313312
2.454892434528895 -59.416094060396198 -241.079066796202710
22.667072950977339 -62.032896001582202 -242.926698823851865
1.445090656983743 -64.083960925700254 -246.131718547877853
-3.832424669419668 -56.675288516857336 -244.261447268933267
4.239172734132689 -63.846343356840777 -250.059480836218000
1.583027485786123 -55.707940450410575 -251.528741151046745
24.194135911071356 -63.671325306289773 -252.807954016786312
5.525056798326332 -56.152197321874958 -260.352053343169075
5.635210664048155 -60.317276080103383 -262.607239297448757
9.812656556124232 -57.417663601475176 -266.024996971082828
25.446255267427475 -67.474110778196248 -274.294102957720213
5.189998785950980 -62.416967755480265 -272.959006249902927
15.076828840840435 -57.198287347801021 -281.433298593233758
16.042537908857177 -63.882713528594600 -281.599741812485036
4.425703891792333 -58.310652059691535 -290.454872999211034
23.958268953356814 -61.729552178041892 -19.353874695719448
45.876902343036001 -58.818390721529248 -18.025238765602424
31.756238168914216 -56.477686328140145 -24.888849836470364
45.380591844470722 -59.358007270727327 -22.470465844546943
46.256470786694749 -62.846643511256921 -39.361367045874722
20.934254793104625 -59.114308078558061 -35.631514841282204
47.104537607762971 -65.252728563771612 -32.209336783048734
28.632726188091411 -59.602536575203324 -42.157720418194998
-51.271949827810133 -61.101742527966266 -47.378991817596031
-44.048166598729715 -63.311045513382631 -42.888415902512115
-85.045070566293262 -61.794516737184892 -43.143813033116409
89.108588625070269 -61.234722757602661 -58.742375804124762
-6.338844299076515 -53.861484642296986 -62.605060029387857
-18.456466668366414 -60.455126555559673 -65.315014027449024
103.010897257752831 -58.595413547936985 -69.704954359841267
66.951966835258105 -61.437760121642413 -74.513944249048848
-34.261659530667238 -61.572421569541120 -74.539072564526847
-52.210237041760330 -59.137153581428706 -82.154826812302119
-37.293044818305660 -59.095427107175418 -76.917703459678023
-42.451491613159028 -60.715752136722138 -79.797126114615921
106.638989305388861 -63.185336855593867 -83.327888533105565
-47.737284984998169 -61.229807187194019 -79.626837316032194
-44.878712991318743 -58.936228125176463 -83.461399088612836
-63.956843050633779 -61.523532301538573 -81.694559100162294
68.117770152513671 -58.685218494696571 -80.715448143254932
65.931017502488217 -60.304066684008980 -81.142533457587533
63.908174048164739 -65.086418994641278 -83.301089844345739
62.659148727907350 -61.291439437982739 -77.737405055206466
60.526495729263424 -60.098930677395366 -83.305073364956655
-64.008787561718890 -58.539344714741723 -89.266684229288344
63.912898128970738 -57.168687440289531 -92.769171448809004
66.407102724454816 -60.208900476018627 -82.950303715618418
-96.651323380999770 -59.568499434993946 -89.225815673003083
60.692734891120864 -60.073792683558949 -92.842484684046198
59.202071025755522 -58.840110589588882 -87.484092520137921
54.194197904755647 -63.943716257754446 -89.893567133362509
63.782367724741839 -58.674765599818834 -101.975412786976960
-65.435264768661213 -57.586878310655287 -100.176124035347669
-102.043945291107264 -64.247526912426366 -101.980650123716316
-70.723770459033616 -61.009367854628771 -98.145937807702936
-75.034657488261786 -56.695543952552086 -98.364824035066079
-68.386848668444088 -58.488612359630899 -107.146174478758326
-97.036338084114220 -60.590565868316283 -102.033617758657329
71.302057160072735 -55.900917928613907 -100.560933340662899
70.231090258981141 -60.062551638206948 -102.036498161293309
-74.573334979955803 -52.526536288173169 -100.932139847823919
-66.870836084437613 -60.040620222882474 -102.516998032017298
72.518678297555226 -56.819904959845168 -105.598059040225721
84.505560189710650 -56.119470687353576 -107.937218343538547
97.277236495134716 -56.815337792800385 -111.298172942692261
-73.442173787702643 -58.313165259968642 -108.865660817126866
-61.880771758945215 -61.713834505710579 -108.013764450469850
-72.494464753404472 -57.393692719820564 -110.830391497878878
-83.673523045267800 -58.964800098464579 -114.020324311781991
-80.119094927707408 -65.074253115311066 -110.651966890893661
48.869689789882315 -56.386237118832398 -111.922679564150727
-99.948023490108810 -60.241956273334459 -117.765004770325746
-55.479318005237246 -62.058135661228938 -118.009730482876918
44.388608988693370 -59.939638361688566 -118.392252543762069
42.800744040450176 -60.174153845840799 -119.150424462255089
44.710099587811129 -59.936911618994557 -122.345292148170131
-80.226021665893427 -61.866012930369017 -112.391586956667325
35.428083215914270 -56.595691428323249 -121.433207875870451
-96.766268810995285 -68.127099382470746 -119.444680863936540
43.430584367848560 -57.700492840991352 -121.275754681242987
-80.607886297277517 -62.188757663505434 -119.724928380316655
-66.399748214965697 -65.336147074321644 -116.920292368846404
-57.992484147474563 -58.961913057153225 -123.966165599391218
30.159438801456130 -61.712134884283593 -123.408061668208958
38.326350718310337 -59.877878469040233 -132.403345640331537
-60.975899836497938 -62.018348015947630 -126.342046929279846
22.426289769165351 -60.245504296434042 -128.450930077597491
-54.595716579922396 -58.220260050115321 -129.711333020660305
-65.824748334705205 -59.564975262925770 -137.469705961708769
-56.608919251226531 -57.966041990981999 -133.626734616420748
29.450616426428834 -58.256757919945109 -132.572057952358904
29.980675099653613 -62.604545181808355 -136.251582152660689
-58.795374139886604 -62.698100066141400 -141.394208198604218
28.871939739787180 -57.452308479201676 -134.613903136353912
19.933705374920525 -58.176098190495559 -138.138008443963798
24.176354306634025 -56.991924575338302 -142.087296737820026
-150.543058710505136 -58.305288988278292 -194.663575858893694
-150.350947802675989 -60.984932719278554 -190.636398517909868
-141.535391193219482 -62.037762979205077 -192.811736022207697
-159.081542570262059 -56.732191739375700 -198.724785903613224
-148.488446735251102 -60.312337916270906 -193.993588797016599
-144.930943942405065 -57.215026302521842 -195.183218230970823
-151.563180840978987 -58.370991886402628 -196.509572988084074
-152.161270871878457 -57.318092897568341 -194.214869600839961
-142.448936274038459 -59.148533997688602 -195.098223355590363
-141.637313147503392 -57.225580051616276 -201.528031069359031
-153.397868615384823 -62.598870721319258 -197.469324893831782
-140.457620623075769 -62.691357543964394 -200.892277419851212
-150.140613326730545 -62.402437210859553 -201.496684984202858
-145.125399845015664 -60.703076504383752 -206.396250942294387
-151.684786106025683 -61.478976048450320 -206.246078261569068
-146.739887119970177 -63.455187698185746 -205.877899832569113
-148.663767436675727 -67.372336625279445 -211.396498934868418
-144.782643903783367 -60.651771059094209 -211.656598319109690
-150.045889388882017 -60.656165801899803 -210.771355495244393
-4.111842051814383 -59.774491107152869 -240.182373982183748
-8.038233712137810 -59.894616923462046 -235.269487181542303
11.506197450669784 -56.419113858081019 -245.944240508793001
0.905872200836748 -56.458598830749274 -244.023456114416376
10.881573802393483 -58.818243443643439 -251.000544133396005
-5.799693744533736 -58.851754941773706 -243.184163057632276
22.039008620253188 -59.556217796363185 -252.858513807165195
9.148777908827663 -57.735083833799614 -263.891159379444105
20.646210339195207 -56.638343625531675 -276.682908800315886
0.788682403644009 -61.163680250292757 -278.581750030652472
46.970808330525983 -60.922819714644866 -18.654485280839545
26.485830337340829 -55.868768895019343 -17.927621376117084
39.735584435476198 -60.021722097802730 -23.578275205206623
28.095151407331148 -57.045699430895141 -20.770414801240879
20.128049724958988 -57.045948372844578 -27.983153380925543
46.109405571569155 -60.923996330396548 -30.557719949328920
25.936787480883250 -58.382740911367769 -31.198320231692474
21.254311674028795 -58.884971104473109 -32.238665384444573
47.303638952097948 -56.352193637200479 -34.357482349988892
35.469894150943489 -59.012793608065039 -41.373507125350145
-58.538607409644889 -57.174488549606828 -42.496365902278512
-59.040571646858666 -57.944273213897773 -42.606166483441868
-38.678855356137738 -60.970339723216647 -42.586429749818869
-29.085618387438913 -59.919097001377551 -49.270477678701148
-84.098518252845224 -57.418188761476237 -50.410974875256365
-88.364421145216241 -58.218923389592781 -50.198269408408663
-16.148934154986922 -56.197759335093586 -58.428962545993450
-10.926804253288802 -62.055640783116779 -60.589606643948457
78.777175018291473 -54.722527173865195 -61.604233069586400
75.172521255031285 -59.597267696004018 -65.283977011871912
-100.920776924258263 -61.102096059488517 -59.932795767545706
97.033356432540302 -60.518127037450995 -55.343193288863233
95.748660001165817 -63.011909101267058 -63.706906268125586
67.009182408028693 -60.449657585223925 -65.640170876991121
99.506461597347595 -62.040420299183296 -68.900385294460762
64.508739768287526 -56.835098359100002 -67.685433874955152
-33.906796322351418 -60.611921478181202 -71.089264614930357
-98.055385440158943 -64.450688607775291 -73.495197185819023
108.498764232151231 -58.949763619326106 -76.476646772724862
-47.431263343599127 -60.298745929500704 -75.987168029958696
-34.960704296358642 -59.044634142509246 -76.253994858488653
-53.151687631114534 -58.174589141465596 -83.224300476580822
-45.897531848192472 -59.591976411527128 -79.247521234435197
-60.559866321670924 -60.268914578954075 -90.322970809794683
66.720904046003511 -62.061204744793351 -81.840829678073760
-62.437877713474428 -60.454560974341859 -80.074014555599305
104.283475739417653 -53.864426637344025 -86.031295461377624
-102.504283105970941 -60.140798780511297 -87.640453616106981
54.468852510517799 -61.642785013560442 -91.111972478948658
58.187416910569425 -53.251908112953984 -89.290136713907870
62.299137398813514 -58.457575738456313 -91.743227476642716
-65.593722481518725 -58.964042167293798 -95.808209287067754
-66.250321509048135 -54.229964674937918 -95.976502372432336
-72.476139370551124 -53.105204207246189 -96.969932929621038
-74.864638811879928 -60.009490816946403 -101.182148933110085
-76.218792803018417 -61.420697471700628 -103.946863231173324
62.291909483789468 -61.537792692283915 -103.341061315920271
-69.640093266801003 -53.013952871799347 -103.407084586218176
53.741545740948681 -59.497088426888261 -107.818848323605920
-66.896064374096554 -61.752096612198706 -108.346422298101331
77.138153927634932 -52.965159756610525 -98.364338126288871
74.469225879399801 -58.335599902135328 -103.509802693787734
-73.925429878068314 -58.658785175500142 -106.695792495441850
-94.749813360393858 -59.439823298150046 -109.291772607400816
54.337956353414675 -59.058971826358629 -111.237869374347312
-97.373560338361045 -58.803577126985267 -110.393299014199158
51.805426861508678 -60.547207339579430 -110.098705154824614
-57.637298446542196 -57.206193768752662 -112.449319837314718
-62.886917448491914 -58.096740020588882 -109.923489036285190
49.090528371162733 -61.446090107946716 -110.515375157823357
-77.520986433640175 -61.227487834568763 -110.991281599447447
-69.786675293076897 -58.670720647954582 -114.005641644054080
-75.407550485412898 -61.707174384550157 -116.447653407204072
43.855973340392424 -58.562018124661265 -115.617829305969465
-66.950122250057774 -63.442248311721016 -117.543300009692601
-74.795097723304721 -62.208580670634497 -116.729578586881985
-86.277766567795680 -56.365708512562115 -110.711649238013166
-64.897511941038715 -60.423051829971698 -115.367826310079266
-57.088054839173907 -55.129973369713554 -120.198698992734265
-86.548188646224446 -58.254937188633662 -120.244377192272907
-90.574744006746613 -60.504532995163999 -121.395969339289422
-60.807817942316689 -60.150482757694583 -127.247189412475478
