# This PCD file was generated using the MATLAB® pcwrite function
# from Computer Vision Toolbox®.
# .PCD v.7 - Point Cloud Data file format
VERSION .7
FIELDS x y z
SIZE 8 8 8
TYPE F F F
COUNT 1 1 1
WIDTH 784
HEIGHT 1
VIEWPOINT 0 0 0 1 0 0 0
POINTS 784
DATA ascii
-73.746659485696526 -66.777230066083547 -124.804788371902035
-81.615583678185558 -65.415114245956900 -128.136176021543633
-89.752858287222551 -68.449628919789518 -127.991841465743832
-78.482009208663399 -65.983710363680913 -129.281556768591258
-77.362860332533060 -66.669025088359163 -129.746553462128531
-77.341949293249399 -64.604295929311036 -130.851053994341044
-50.637212431048873 -66.097463885153999 -131.700770314388762
-49.224151944655411 -64.903016072207734 -133.905763382959009
-91.083286391406219 -66.074441384462958 -134.226399092232214
-73.608308818984796 -66.682599029697982 -135.463736777602946
-52.255941677880770 -64.312390924981429 -136.623998708601817
-58.747938945727796 -67.239990175116802 -137.833354627353884
25.379066923001837 -65.998826718413866 -137.569390401799012
-47.847428437307862 -65.728609513496906 -138.553879850010304
19.839591842797475 -65.230946299658484 -139.577054429472668
-48.602633217022884 -66.396527389459237 -140.209611068163554
28.143655120134898 -63.680553945339781 -141.155176348269464
-88.292769610384354 -67.156666173875010 -140.676948526325049
-49.946200261194278 -65.854540057456177 -143.534802675741219
21.072161809723649 -67.467830540338696 -146.829241821387598
-89.953149178296428 -65.854264559458713 -147.745970809613453
18.125501125169926 -65.150677273581863 -150.287556576062883
-100.075483308649439 -65.707352110841029 -151.619719574511237
17.571621057940266 -66.955769698972702 -153.453837175332751
-102.894729168132173 -66.543540026629401 -156.505072344101819
-95.262249902797436 -65.331060589691035 -158.810858200672783
-98.364354479962273 -65.822798990720315 -163.621438385322165
-102.440729349799184 -67.432407664441570 -174.409934491661375
-109.656891341113464 -65.767032650641596 -176.057692130436010
-151.457450579741248 -65.437314536240464 -178.557458999208819
-153.202476202646722 -65.807620699372350 -177.497343738461865
-111.785489802290286 -65.565873188942263 -180.104068665903725
-143.330402999865754 -65.170734488274164 -182.831284887775894
-106.158068042929557 -64.125657912959412 -181.545508456889394
-111.715074472875415 -65.365492046288892 -183.267729601070641
-141.433071589038605 -66.781748476907381 -187.765505926791377
-106.429129055588163 -67.446721595378591 -186.158376107654249
-141.561817016947941 -65.787909926904391 -187.504945647954571
-150.361559676801420 -67.464940881201258 -187.700957420497616
-109.046394144069936 -64.747972723903999 -190.103741235745019
-151.942638246550956 -66.186995829102230 -194.386543736880412
-142.514660009686423 -66.581659065496694 -195.149547356904407
-122.907300082086138 -66.723994837931059 -194.498627959713019
-107.194318817636741 -65.516552500489396 -195.519071103908118
-135.401654310911795 -66.331863838532897 -196.862185923492291
-120.634253090268928 -66.208175087731945 -197.421153868519497
-113.041894889112541 -65.726557073968465 -196.768151708647736
-145.555533225143733 -64.459996485933900 -197.931395002292305
-145.406407039324478 -67.022825459915296 -199.911528227605459
-140.992502652484831 -64.286067896722628 -202.634108137131648
-132.947896117613965 -67.118499640402035 -202.822244168573178
-113.589950736744683 -66.220512046979138 -202.030166009192698
-142.370629017613567 -65.153951407331959 -204.860746716322438
-131.212101095276211 -66.381097344098549 -205.402066070564416
-117.007036618917169 -65.711204189357773 -203.464822354449382
-151.414861160528773 -65.688927605681684 -220.207690673677433
-145.790943849145492 -65.271783061140482 -220.639132681725300
-109.458070074322166 -67.077948564144933 -227.726319951062123
-105.781889892440475 -66.628464349943528 -226.410365821089528
-141.916146001302451 -64.771228729591954 -226.151550949964133
-135.136605808953789 -66.308005838493386 -227.671830342243055
-123.079157308606256 -65.563640574666067 -227.171452645759729
-124.755274704434143 -65.871275214207415 -227.497752526225156
-111.758135455338106 -66.297810737310328 -229.598423625970099
-108.853062080334027 -66.159999424572803 -227.726582139178021
-111.504765373800680 -64.885402686582410 -231.940795803948873
-135.367542783128130 -63.072596811214240 -229.613998873757112
-122.034877609189479 -65.785268059118025 -231.579613042204443
-141.663634258628264 -65.905648104878196 -231.287706678923087
-136.007626324772531 -65.293853143366277 -231.748331516651831
-116.432731856836128 -66.767564604134975 -231.820579891972812
2.844433129617596 -66.637860097434626 -232.199213840804191
-114.682456102586073 -66.065100750375322 -232.428035339516839
-115.454265225801478 -66.042408690201015 -232.595143751012273
-123.425538449299154 -64.985175976957706 -234.341412007101923
5.063467753473299 -66.710786356361638 -233.525069936420579
-123.462821046448838 -65.101880172421900 -236.470354917661552
-118.542327385561137 -65.631456401233365 -237.423642100795831
-126.352395421958335 -66.205674091913522 -235.529292171829553
-150.889489763615359 -66.582093646481965 -237.788354018748151
-144.927599024444277 -67.558961319927548 -236.793934585649197
-5.754444184536283 -67.266235806090961 -236.800129578577099
-3.626037071073658 -66.539101139830535 -237.638456511836921
4.039520912882626 -67.447544742817328 -239.077994833008660
9.225767013822022 -65.158670353189208 -239.263295888077749
-8.637557841285290 -64.490215275122225 -239.009848998389486
-0.983104762270954 -67.265762121464277 -240.053577810115854
8.484090908912735 -65.707275853760947 -239.523588803090433
-145.456232615895914 -65.729813509548435 -240.339868179998746
8.617671010562855 -63.807212753665503 -242.964324435569978
17.505162039331520 -67.094945354895032 -242.720366230661057
-6.912654822464864 -65.319103862002180 -244.137396022938361
58.588890969525274 -65.291313563769592 -243.938817410538348
-9.036895675484379 -66.884738456253984 -242.664581216670143
53.707622448957288 -66.610290819827199 -243.120360925264350
-149.819773581503483 -67.121214509679575 -244.294622697754818
19.949055375535821 -66.932166036868679 -246.794869226769237
44.570382208247139 -64.633176586612620 -246.080882704594757
56.216532644894585 -65.148326946961049 -247.669796200146038
-150.295130727751740 -64.875479028822937 -249.902234108665652
52.098211404721070 -65.862396532762702 -250.585229417470202
34.307228776002532 -66.165079402362807 -252.514359828019735
44.707682936803430 -66.648138268210715 -257.140132627952369
-126.377042547661532 -66.074077922798750 -256.404325883491481
33.982373741725368 -65.164706440189988 -254.356011295277568
-132.709377011218891 -67.346553816286672 -254.551629122862295
-124.008292650129519 -67.162187983051552 -256.114715256201976
35.574610070455428 -64.876253224405360 -256.067107642503913
26.096395340614112 -65.965863250348477 -257.709435321889259
29.619359080742260 -66.175073719007088 -258.251083960559868
-4.827797769143038 -65.086575542101244 -257.993827677103695
32.556791972109941 -65.384618724357452 -259.331266002104542
39.530885957846102 -65.956412386366111 -258.241579909383859
-142.570942008731635 -65.503840469250036 -259.513308331518772
-135.817945308883424 -66.907767720489019 -260.625624278809937
25.417622876463248 -65.195271278830106 -260.165759000224625
-126.982764815530174 -64.071734495334098 -263.260132953260893
29.789637169824850 -67.190855889120130 -263.010875727677785
-129.511950316764199 -65.541730882103693 -262.531402352696603
-125.964026687432536 -65.328387053789740 -262.190367037802559
-124.037939026091422 -65.243788564377198 -263.355922613116149
-117.190276138817040 -65.619586031295114 -262.662226756536199
-2.338421324174326 -66.790633977858889 -269.437068455381279
25.746512487547275 -65.397351224680293 -270.804067982072866
-2.373184487975815 -64.843072132219390 -275.106857614697844
-3.725913887238149 -66.489386613008165 -274.510175568758939
21.279152720816924 -66.327386032642707 -276.190056766102657
-154.361168802575662 -66.371980869635621 -287.377990372799104
-126.937910736451997 -66.644480825601349 -287.235699971619908
-1.925501983178999 -65.796937541695712 -287.670258969560450
15.636510911584168 -66.197740710369402 -288.717212361210102
-133.259076120490420 -65.925702290563208 -289.648882661849200
-128.184801892659948 -67.186083739336283 -288.983762826431189
-123.867425375285720 -64.093081165221250 -288.886094305458414
-117.128167063298292 -64.797805685520089 -289.200969912493804
-152.447238781241595 -66.757482984821635 -289.977019439947981
-124.915262562274293 -66.180492318529588 -289.225758515196787
-125.834614025767038 -63.793284477094552 -290.945020424928202
-4.142368625302588 -65.975497960379514 -292.164391188459831
-155.958241641567298 -65.014496995081203 -291.290831441618764
-128.521928772010767 -65.913927764698030 -292.404183746280580
8.101102086365433 -67.566621929305583 -291.806242079589026
-144.616953219851951 -65.551351596699774 -293.643007941226585
-154.900278081382083 -64.775575371649168 -294.014753252104640
40.648685317503642 -65.028133047821257 -34.780147115122013
40.732370566961805 -65.329305994547795 -33.715233643953518
35.198931011310492 -65.725122318123667 -36.618262255208201
24.914267768892387 -65.084044760125678 -38.225689681192925
43.233617172004600 -64.380723941938683 -38.316636067187609
-67.745960365105063 -65.680629041591914 -44.127008581561334
-50.373434077810685 -64.736560177736763 -42.834597747388294
-38.242021996174749 -65.074966524345129 -45.944173620752466
-19.699121380975328 -64.625037662775327 -51.774983604171062
89.768388812414699 -65.776204699631791 -62.908796637770436
83.452230671152734 -65.681788919311160 -61.508662733568855
-95.891445898547275 -64.108297749964038 -66.431765747901409
-21.775675453392726 -64.441305149014113 -67.037764220041169
-96.667252481800887 -65.201591481669226 -71.484977703427418
-29.672502392198545 -65.251070687357810 -72.628524700744634
-31.684611022422640 -66.317748289000093 -75.026798697627129
63.790562286914898 -66.660884564723773 -75.769717694327454
103.359846574746257 -65.905196621139254 -78.977439624955252
-97.910958865059214 -65.432639485081381 -79.731147540049903
65.953209773725831 -65.391699481338875 -77.680773555424565
-47.067142704555927 -65.086784999841427 -81.794405834224946
60.020970400447375 -64.968909743794228 -82.811783175235846
-51.888123494940125 -63.868817129942698 -83.462403051070865
103.800279776156046 -64.964002515651373 -84.882132640540121
104.526642199578717 -64.894810946747796 -86.639138379790410
53.756658772001366 -66.510065907742288 -86.674808574037002
55.003959702920675 -65.856381512955693 -89.161434034172629
65.072905461807608 -64.615247974522688 -87.584483305373197
-62.411045968408921 -64.276787499741147 -90.592013062158756
65.216906311491741 -66.627409067470936 -91.567537383125725
64.039946797384957 -64.154847485875990 -91.482965282950019
49.200091580793767 -64.748204914472296 -95.333543399535969
-63.237242061318923 -64.488987799638664 -95.395838051137034
65.690113662584366 -64.002606070543607 -95.411720988485982
-66.679858930255563 -65.135706397621021 -96.758979913499161
56.346745116528162 -64.962248037571783 -97.986984449276420
102.390580702060120 -64.592100727852127 -97.442440604733875
47.989734899952019 -63.299046144650582 -99.873543427526712
50.117278435518713 -64.831454558295590 -100.693714524986376
49.858984319921156 -65.803248930373272 -100.263043495192633
-69.658205203868931 -65.233517952535621 -103.008184811831384
-98.092331872993228 -65.342637994749680 -103.620585924013284
-77.025506504832535 -65.248783554336384 -105.847567815037692
71.190813187470468 -65.555251808060177 -103.584655385704494
-80.953018313401913 -64.629624305089408 -106.329821844938138
-70.162492124021213 -65.169526660275793 -106.591223224090470
83.375047784251819 -64.591702115247983 -105.342442395409407
-72.642341219344445 -64.623050430565087 -105.370348519469488
85.782561091702163 -65.627205492533164 -108.102725438141917
91.372553224894673 -63.574316985415024 -107.874330681590862
-79.314828038588530 -66.014205705223517 -112.008976572012230
-86.575323481330656 -65.965320364146592 -113.179164903065384
-81.451582811318502 -67.842053670218135 -112.379755589378064
-83.313373773864043 -65.131321374087207 -117.094501667921634
-64.413211298728285 -64.979596103542463 -116.579456697247721
-77.732789679439747 -66.021626471684741 -117.520030421463318
-88.355216182205041 -64.181789016064130 -119.465711054651294
-64.993895610415763 -64.087624185243612 -120.440937788685432
-84.436570761710357 -66.800413044290352 -120.043720066240539
-63.386599189330163 -64.908683166095344 -121.534426079965428
-75.623447711157866 -65.429531647204186 -121.728625039728144
-77.626290486879356 -64.114858500109563 -123.819748000280427
-86.605380670534032 -63.435603033330267 -123.896685375369515
-78.868258391517486 -64.477246690049270 -124.945865190389597
-57.143699981160232 -64.747282966725265 -124.664166725680289
-82.846019172915206 -65.542280702827114 -124.850862912577810
-55.626775795979945 -66.810693177143705 -127.053514585930898
-83.566235142153047 -66.529378181303841 -127.109856599402875
-53.928311350426419 -63.475235692793269 -125.754311307641188
-63.035065537998292 -65.249280865764788 -129.131364751741273
-86.969014090243519 -64.436537123470700 -127.274581368887155
-85.194695499000872 -64.471755260887306 -128.966062367886167
-87.391143069138408 -65.258038334251850 -130.156475337977810
-83.688759156299696 -64.714090597667820 -131.515584802568782
-91.185067196944900 -65.819715736078294 -132.196350014341647
-84.974713230966941 -65.034339642542875 -133.114926748659371
-74.374713368913632 -63.578501086463056 -134.191638027590614
-79.036613720811943 -66.373323444974872 -134.478559981120497
-63.077758697248989 -64.238696536432968 -133.479202192909582
-75.648386917751026 -65.331971328913824 -135.425269469726658
25.461139014458336 -65.313345066470788 -135.647463900382036
-61.527300778977342 -62.769033707923043 -136.332027925835490
-55.548092226566787 -66.669475522964603 -138.553087046942551
-54.114952797317073 -65.757725588204607 -137.997803227873561
26.934494983731607 -64.153604620740637 -137.514416275048831
-92.591224853516991 -65.365334219120967 -138.895158356464094
-58.970940506159323 -65.406461297275129 -139.813844849337301
-51.368049440765766 -64.851591181678955 -141.414336863113931
-95.374926201684048 -62.857985805471920 -140.864765320464926
15.454602964118282 -64.737376958706150 -143.479584623925291
-90.483710997546666 -66.832560451866556 -145.496613047494861
20.130058360361801 -66.085316869762352 -150.633004137151573
12.648226993932910 -65.179673809806317 -150.110514448210637
14.757921353373773 -66.099953461449005 -151.162094058410787
-99.910169023672225 -66.078983985575363 -150.133502244198553
-93.349259746215751 -65.184839474480682 -152.495915013357063
-102.315734372532887 -65.543407736095389 -157.634498959977748
-102.802705587190630 -64.036115136677623 -157.751966164427301
-106.866639399721151 -65.033893460251420 -164.324721935886913
-98.993487799486573 -65.341070522759466 -166.624205041957225
-106.659900484490763 -64.071385059462969 -169.680537944364545
-100.858183013501431 -63.200519420742111 -169.763794670441797
-109.235677070384881 -65.934147851585806 -173.162523199210625
-150.062724062442214 -65.534986109042265 -176.006577005052179
-141.760681425219218 -64.158835121295297 -177.890768103313519
-104.953597439886849 -63.005846189468713 -177.920496937492999
-110.597979059399762 -64.842381079394528 -181.187664028718075
-106.169692073870138 -65.241032031349491 -184.883395524130407
-112.369575066073509 -64.126658699738002 -185.755164690836295
-151.128212362652448 -63.544071750515783 -188.889769723412769
-144.578823875356449 -63.910851680135927 -188.236158062802161
-113.090230104525034 -64.505817782314253 -190.268273577998087
-144.779180168506144 -65.776276782590699 -192.656886074939507
-112.818847999261251 -63.956777260944719 -192.446903385196862
-151.237166529014758 -63.283977755306402 -192.121929421668312
-144.752298423153945 -65.090485442893169 -193.734601742917846
-109.907138646901629 -65.077426613675058 -195.470614367055589
-152.591693707788124 -65.168157679099636 -194.399312847336120
-123.793568627042077 -65.359432130000684 -196.630380160201497
-114.894624805093130 -63.139283347100132 -196.332121370067199
-139.700073293071398 -66.110452644194567 -198.719912313365228
-133.136147931389530 -64.910412057169779 -196.285427229521588
-115.046012607437078 -65.419107570847018 -197.809647783718844
-110.478348291402114 -64.963235334972779 -196.978929421179629
-121.286283380348593 -66.345766396979613 -197.784305068285420
-141.283467122365465 -62.978668148970840 -197.492268041234183
-122.865387181295176 -64.337899191562414 -199.050281875809901
-110.121056836133207 -66.262714396086977 -199.555808237915699
-113.558280791704277 -65.587087908587847 -201.535798025933758
-135.491850590184583 -63.810680554900351 -202.423020626632564
-123.641343528932794 -65.440943148720265 -202.504228431631020
-117.167273892171750 -63.977982766045542 -201.626195278663147
-113.892599267405117 -64.374588346907018 -204.107288432215483
-126.659303496483716 -64.461850989300956 -205.630067789470644
-126.684722900432945 -64.291071676411946 -205.838734384345656
-123.335008913148314 -64.678608413236972 -204.264965658725600
-116.389584558404991 -65.410215019754617 -205.207672583175793
-149.423442209012023 -65.684926065339098 -206.460085101208847
-145.376284200413096 -65.762192573947331 -208.592905998021479
-148.760023773261821 -64.526347353462498 -207.596348290977971
-146.495488552700522 -64.020939265020161 -212.765544700837523
-150.558439134483876 -64.432090633053676 -221.909435231588702
-126.794565291290368 -66.061370977927893 -225.958630583926038
-132.439994239719908 -64.556519830651581 -225.602237517078208
-129.590792045868000 -63.487623700236590 -226.137127476225714
-141.362822588978332 -65.923481350181945 -229.422858117312785
-116.060181558054865 -64.405353762310924 -228.620288605366937
-123.934404635620282 -64.962403430110584 -228.685088107066179
-116.730638502877127 -64.263976562530345 -230.057064006322918
-140.368479163641638 -66.141636915162991 -232.990340662427769
-133.567509472527917 -63.819431091204763 -231.518589186100769
-131.864185254292522 -64.958205390822513 -234.143525375861088
-125.425332707030364 -64.783097323529958 -233.145789495827046
-118.607437881910172 -66.535346372116919 -233.051434781875230
4.609247617172057 -64.860007437903221 -236.363317379678705
8.909432637196812 -64.407707141651969 -236.315473882105920
15.225158101651891 -64.622291143624210 -241.538855244815551
-8.676367657237606 -64.639963165113244 -244.470766750210174
9.547685139839516 -65.424856869426051 -243.432798690128095
18.412520433220028 -65.234781689280709 -243.152980366366819
-10.043336278017790 -63.377725468292091 -246.522739154037936
53.253932384857940 -65.089142198301033 -247.942154535341501
47.916416297397070 -64.930470313030114 -248.506384223551407
39.521903958404557 -66.000878487964869 -250.626833277381678
49.688479699542263 -65.309456860346131 -252.132663096770955
38.170586851808096 -64.857085142856775 -253.205171157267131
-3.516279509248327 -65.697038928578522 -255.733730106863447
26.161664580536666 -64.902409289608556 -257.751623810618355
-126.752798378886439 -66.550470366267675 -258.690707661013676
-134.250371624625217 -66.171193521085712 -256.721106253470225
39.370123729440827 -64.782369971714047 -259.167066713901136
-124.144158645592654 -63.051263681003384 -259.274476653678164
-155.374531200480135 -65.600618412803783 -258.489594426282906
-148.485137072126093 -65.966483912117653 -260.663800098129627
-134.026800005883047 -65.040473994976253 -261.488672919928263
-126.492980437630820 -63.922052860563461 -261.354277861947253
27.680203567525488 -66.106465760574238 -259.891432231208569
-1.295821548224644 -65.933463502781905 -261.124582714187795
26.877305881845640 -65.879297309615851 -262.107258028481851
32.495879988827369 -66.517605067438453 -262.943094891287160
-0.008381798107097 -65.893793138095972 -264.682987937111989
28.435365993589752 -66.233840558058901 -262.812111396890202
27.067866652720152 -63.391025336470150 -266.441526235614504
0.060721265806407 -65.226099992067390 -267.915532044556926
-151.302038651683830 -66.047995491717799 -272.980748206380213
0.402934393687740 -65.271919393554697 -273.710470329949487
-147.227030954786926 -65.710995515401166 -278.964497828330991
21.289908509654506 -64.258034780476564 -279.751193492400773
-148.019508010568074 -66.404829161880201 -281.152145426471463
-3.148934095146490 -66.051258790574224 -282.109803963564332
-145.273215426063160 -64.684841865428666 -283.279583526094257
-154.606855743493696 -64.804980595930431 -284.978864217113653
16.762820767299068 -65.395987922855085 -283.761836089136409
-151.709924754882906 -64.183736655414179 -284.078735255554363
-143.115699587697748 -64.174680460066654 -284.266235555005153
-142.879493312486630 -63.158701756818395 -286.230729859789335
-149.609658577207796 -64.265944368155317 -288.523433599769476
-148.209672168503033 -65.776914078500937 -287.734326273089891
-141.669391147970202 -66.096647915187262 -289.875690844479834
-156.737790712862846 -65.432246715118850 -289.609938800584473
-121.336736301101027 -64.092573715301057 -289.977418347343985
-149.114184118717276 -67.097883746735533 -289.962115450162401
-148.641652970917789 -64.130337108573428 -289.918671275350732
-145.651978418668705 -65.549480945513892 -291.356089980880654
-0.372070371690296 -65.311494263121517 -292.613270174972286
3.302668167682792 -66.985788451581143 -294.763963199957459
-152.410341472988677 -64.733976995361033 -293.801835264649014
-147.396551737237388 -62.843801398400750 -292.623531848470464
-152.598078350110370 -67.262306940724443 -296.052009449422144
-148.410358276203368 -64.819382564778863 -294.314727359830613
30.218858443385670 -63.493454040269057 -12.536303590871665
41.784577699443233 -65.155613266446423 -13.102749482453278
38.628247840763571 -65.026540492318631 -18.407967785472636
48.168876848887436 -65.858399128110179 -17.408773161157185
41.410220749894876 -64.359362725628827 -19.223458579123115
50.099455832040157 -64.978274619186209 -25.876657631541551
20.398390820267313 -63.861967022992133 -32.843806880900530
22.070483062719386 -64.708596840230257 -33.551350495788597
39.315445646266220 -65.641261984302972 -35.611969001689708
24.228135508306377 -64.318455968964841 -37.446673948685216
34.047047903845439 -62.606900126539223 -37.772644208694487
35.420586954468924 -64.366966170792395 -40.278549871866851
-46.516119362117657 -63.541742281135974 -45.203103026197851
-41.681119585273500 -63.541698083389292 -44.993008397724019
-30.249669893800291 -63.779432161117370 -47.528461451775279
-11.931996053814869 -63.721330968072365 -58.369121553854256
80.367482683776061 -65.131283066443231 -60.362979250293108
76.039668925083305 -63.958434851595428 -62.581721940978241
-9.945437636044574 -63.545507589766828 -60.446249196092367
85.293494172706346 -63.382294156958814 -61.455584317326611
93.703109438520301 -64.387382024387151 -63.457947216090098
95.319516099235173 -64.166004277970060 -64.130835596774389
69.555456380494917 -65.380618821737770 -65.911216891665433
67.738027418363231 -63.102272045458392 -66.907056858695597
66.456458780043903 -63.221965795134416 -74.169374942802278
-41.326418685306649 -65.414268642002426 -78.841331011680850
104.586363340751063 -65.906747499553703 -81.016346330435653
-46.159280755909712 -64.041821118336173 -81.910775992261463
63.686290482693586 -63.889396230031579 -81.308937770980435
-51.335407052022816 -63.683496340894713 -82.703768026122901
104.832722914450358 -64.530854769672615 -81.720185959724020
64.454736638944709 -64.276566496993226 -84.201237206830655
-49.684493649072245 -63.732576103086757 -84.199502843276477
-54.108264503687927 -64.452819068984255 -84.532900503227765
-59.485275165631585 -63.537825369764349 -86.616875033633036
52.055640826750597 -65.025923182399964 -88.391566022117431
104.361168409900287 -64.928257425677401 -89.465615365576241
104.660729754249573 -65.555711427874442 -94.317526543096008
53.567639298020353 -62.569746160890965 -92.401391392037695
55.887648369952970 -63.991636530143488 -94.700181601083784
56.392951921555273 -64.371252638134138 -93.784735126216674
59.435193773045803 -64.601005379983818 -95.299606756840134
-76.742031086056883 -64.057521001801447 -102.699451945645734
70.467802734303888 -64.190931495219075 -102.549725172073408
-82.215497077536824 -63.359256739455013 -102.710800996734221
-72.681733742047925 -63.850768303185440 -106.445810213742988
-77.186680210275526 -63.782159300999837 -110.833490753374733
-74.433278666249905 -65.118476482008930 -109.271955098903121
-99.256902725945324 -63.858496266958596 -111.110038477581512
-79.817912981035548 -64.942594485792043 -111.348896007406964
-79.172060030952110 -63.319073028086926 -112.767743530301800
-77.988033419039667 -63.668101541835547 -114.649797320550746
-97.157497278044914 -63.671338815492483 -115.651519171609010
-76.714207899835955 -65.453275236279367 -118.668077053176233
-79.120363676930069 -62.961884433040467 -116.849825905686615
-62.561285633017285 -63.941875712045558 -119.016530907547974
-81.202470992349163 -63.546733176521933 -119.531899915298752
-58.306262445676332 -64.752958933923651 -121.127019027484181
-95.505385181475745 -64.143952173389778 -122.274175191746295
-83.250543247025917 -64.969359628289126 -122.348142014696307
-56.243489063556069 -61.052297715769150 -124.286979221313615
-63.936000171626631 -63.861935910887532 -125.588213823825086
-78.364230497590142 -63.802469086099435 -126.504576786545002
-80.208691084325650 -63.413073588349320 -127.669953310266067
-85.112702097470532 -63.693255279084156 -128.231196331033175
-63.059725426518909 -63.656098872651199 -129.295664521301632
-61.737098394886040 -63.772932790445900 -130.999904216878690
-75.935740032326763 -64.168173263296282 -130.627824951407632
-53.476435996044607 -64.677165179096164 -131.813140067501905
30.406140788067820 -64.142681791813118 -133.166235118226069
-89.220063027334334 -63.899421860685067 -132.570504079581440
-88.853430558744535 -62.297377671781987 -131.814672754497536
26.337346026628726 -64.610985740847795 -131.999632607675778
-49.681161045278522 -64.641203875965374 -135.852468223022527
-91.317426762487941 -63.446935233726116 -137.756060275813638
-88.266487370809514 -63.364436741887729 -137.647374592000688
-88.862407516231343 -64.115191991064592 -138.011120111997940
-93.820618089604238 -64.855513805263541 -137.864843537022836
-56.821054889605229 -64.198128652377576 -138.914698174939332
-54.723624859899545 -65.779474922953170 -141.667645662381886
18.069624061681292 -64.267604959301593 -141.528989409642492
24.669101423208961 -66.487664811124517 -142.796349187055625
-89.469582149787058 -64.166761878746030 -143.617871866817666
22.302360834222977 -63.849473581327850 -148.379691865782320
-92.536894257338886 -65.357370999185690 -148.293480564391018
19.231000240719197 -64.462446391639247 -149.440470140494028
-98.719988362670975 -64.411382855688814 -149.287867750537288
18.835351249435778 -63.748593358067595 -151.841953286700829
19.015495780470349 -63.907418221028308 -153.162549943960840
-95.710462220887280 -64.425317404083501 -156.806603867813010
-97.050047947751793 -63.994213587701140 -159.919899378997428
-104.011506413188428 -63.316508182852630 -163.191941921962382
-104.460010864692791 -63.907735784151861 -167.421048101060535
-107.199478840046325 -63.878034656791002 -169.822720584763744
-103.323164235238664 -63.099946375603579 -172.920915199620026
-107.382358610731629 -63.826773959345928 -173.602783822624446
-145.170100630352863 -64.331876306037572 -174.791736660112917
-143.411133318418536 -64.596816533027109 -174.398314135231601
-109.902142060222118 -64.645592040490655 -177.645305275023247
-152.247450974773301 -63.323209440316781 -182.900985473881065
-106.690428192802855 -63.611729726238352 -183.839512955901313
-110.092856286978616 -63.809629290732737 -183.954232009024025
-106.696103442980061 -64.077583882638663 -185.320677682439111
-151.184136220137162 -63.625864025473327 -186.595374960926790
-144.007372867868384 -64.110903901802260 -187.120430337157273
-146.702242424025741 -63.682649325059074 -190.034400459864457
-110.219371510619837 -64.406008758689026 -191.218144572983590
-147.430145841179780 -64.073575266125957 -194.607955106116691
-110.206373649143003 -62.493620006493103 -193.385570581463469
-132.666858436027354 -63.546057706208174 -195.772320273897947
-124.269300508616183 -62.604928946589141 -196.017692396436615
-123.592739804403578 -63.999505556770011 -195.716464729043508
-134.281297954573176 -63.809227063583087 -197.746361474410435
-118.069707817753326 -65.458283529399793 -199.488716579442780
-112.200895022085717 -64.061611139380673 -198.892162215282383
-112.858470408705870 -64.672077465127302 -200.983255080151423
-140.300583430997847 -63.709341105968967 -200.715938838273956
-134.697468432200338 -63.267799752329054 -200.550940831927136
-123.171257240710872 -63.740054056966024 -202.325372098769776
-131.865328318569226 -64.536130488678836 -202.695700280088403
-128.787418169092632 -63.852747154412796 -204.180352814109341
-123.856012247982790 -64.901273263006061 -205.333344785402005
-150.361462780011095 -63.535460853020346 -222.908773887619901
-130.588656298143007 -65.100777041498191 -227.912429092240188
-124.727747562350515 -63.969806719866654 -227.291681990603450
-135.414708873472080 -62.716455746627496 -228.421874676636662
-122.813011944364362 -64.172569897250966 -228.883938849939909
-133.412689733696112 -64.810386862382657 -231.795885430058689
-127.471376307703906 -64.643260505427932 -231.909578419792894
-5.035537426239173 -62.993169540652332 -239.358054787245749
8.568951713344125 -64.997185437045488 -241.185573540692303
-6.167515563296794 -64.057001850289296 -240.484060660048414
14.440194017042696 -63.402754059602557 -242.475012097373451
-2.713675515436814 -63.183839651792269 -241.617755424008294
-6.770340335317150 -64.605746450474115 -245.198204571767349
-149.550948025172062 -65.026926268066106 -248.783589525774119
44.163767417624278 -64.239572744037645 -251.911670722666855
43.701559591318912 -63.022624712422108 -252.253401159084405
-4.816397607347714 -63.063011909051092 -253.102691553894232
-146.856648877046126 -62.935984086970812 -252.740932200100730
-155.676819030316068 -62.206942396372298 -254.425786279261018
34.329944909570187 -63.295782018804502 -254.543447894396166
-150.137740665065678 -64.394316545698658 -255.072133421955897
36.585120351423292 -63.685754640471110 -255.918440464749807
-150.325114056190074 -64.594097420446417 -256.780846121074603
0.816765997027095 -64.105041459884745 -257.570569044359445
27.945117156669387 -63.492450445175727 -255.360382091702007
24.640260247284576 -64.992445854228237 -257.978158810517641
-151.224321903632784 -64.990566305381620 -260.030569010420265
-148.702509451095551 -64.322233955934706 -261.424519404470630
32.261898902711202 -62.909845117604370 -261.590280589666691
-142.115444260473652 -65.249255985032732 -262.424282261784299
-152.115698556604912 -64.298620076745422 -262.521189353639045
-155.723003842812091 -64.252247252263814 -261.885891997804777
-150.753604080668765 -63.239926625022015 -264.394197819106751
-148.061465627804836 -63.003572683450237 -265.124213977091017
-144.708166253179513 -65.401487734832870 -263.764858811062368
26.123090508382266 -62.894460940651307 -263.189875504989175
-146.953709429794770 -64.774198483626762 -265.936186703672263
-151.845970392023077 -64.197711493864759 -266.722397681503992
-148.080202118821404 -64.337352166513170 -266.785897975188050
4.546888452102681 -62.739872802785172 -267.332002374782860
3.566627702651209 -63.250904318983650 -271.995863560837279
23.355472143010935 -64.995896674284239 -277.208066384635629
-151.094959696601563 -63.764808420963959 -279.780552521056734
19.627051011445293 -64.214091080388982 -282.146486121749092
-149.979769354760037 -64.074782551795650 -281.593227884116118
-154.210774441464196 -64.133811223119679 -284.468358577733284
-146.320043965969774 -62.974768395985897 -283.196405173887342
-149.841056851630469 -64.522507780345251 -283.607796809739568
-145.415371801488476 -64.124269406034287 -286.785397500557224
-144.334540320833725 -63.686655277035214 -288.350471153988110
-155.649250325885163 -63.684068926565899 -288.141526848704700
-152.959326366331993 -64.736436989536728 -286.927245686337017
-153.138404427072999 -63.229250030944236 -289.502168705930728
-145.879404448781997 -63.953975888792762 -290.377201428157662
-144.070257649540480 -63.929472571232310 -290.288359607118366
-156.665996778399006 -64.591046886698678 -291.060680831586581
11.082955629359827 -64.279209954743706 -291.613992033311433
-153.955846263627649 -63.847261398216894 -292.009280890815887
-147.717249656018708 -63.085911063622554 -290.727724328625811
-154.770369558223877 -64.899482499395532 -292.794991044587221
-154.609791837061834 -64.453550983640341 -294.678263368223497
-146.188190388285733 -64.369688533968244 -294.065527535612091
-150.100502155513993 -63.099604340760507 -293.653409973194698
44.666244648035722 -63.466071462219837 -15.111749216818556
36.379498459690062 -63.164109092042011 -17.303633761487163
19.259892851802185 -61.525632076702550 -20.152640618020452
27.644917976035938 -63.771962416428629 -19.114140891098362
46.934620438083428 -64.320804289185915 -20.702553495877744
42.051063550600958 -62.961237729393858 -23.979740845417560
26.125709450949611 -63.062690959451587 -29.634022945943794
50.066455832651265 -62.674487264162103 -29.410835569443162
-56.857153696929657 -64.046195436297992 -44.147060285355735
-70.677175953431288 -63.454463213798618 -43.981035749429289
-77.371776776240395 -63.367507327479458 -45.350300313776117
-79.421215308220368 -63.802286827836362 -47.074300890064514
-25.550860815803759 -60.845519138101189 -48.638815770611778
-20.360054874455280 -63.179300048132177 -50.706012327763311
-86.696159082003831 -64.609590013962517 -52.171424536413618
-90.142853166009715 -64.267412051692020 -55.215785590159982
-92.569143564354519 -62.885132406072373 -58.678660445840983
71.251051551243293 -62.734222944744694 -61.046119431697804
-9.698336502206470 -62.819709799552307 -64.700612686644121
-11.399706289213482 -62.978783001231363 -65.984739460709122
-26.773135786639660 -62.315455554320550 -70.041134032488372
-30.649649309856283 -64.453358176525740 -70.921256037102296
-97.815229678371239 -64.338175897405591 -71.818744486037843
102.260838762815112 -64.136894927512060 -73.830937802484343
64.882339048728667 -62.940613506914865 -76.083963358833870
-43.408576329668172 -64.747007344063988 -80.882938155221282
-53.969919553300755 -61.631194526281426 -79.127300424967814
-52.693064190350604 -62.322936479661209 -81.666714636199856
63.852449601700727 -64.411423386880415 -81.391828130018354
-59.959334619685499 -63.375768906652013 -82.193186032154216
64.530952984114919 -63.609078761231238 -82.942576027542870
61.253652086811314 -62.227983990804795 -84.972630250714630
62.976346588560489 -62.301493757260509 -86.758402343419704
58.298415864212600 -63.197410442420129 -85.298340591869803
-99.139806925781429 -61.921089791209475 -86.217958380527605
-62.017547503352340 -63.732118715100903 -86.311628371675397
51.041553360936497 -63.485079520698932 -91.516839737909706
62.168858312937722 -65.035936136547434 -91.250883018566029
52.754652785111674 -62.136477745371394 -95.386303730295083
-65.878694745222319 -65.034635646387471 -94.234002530878925
51.569256830531529 -60.597910747310571 -95.207182993363162
58.614586393770182 -62.130424811961689 -95.816517781433859
-65.496990334878490 -63.768148635183032 -96.709571711121612
56.622404070953479 -61.735226711766316 -94.684423012933237
67.338564046241544 -63.879191673372169 -95.949907915874235
-98.447470069472061 -62.717678291451236 -100.210536578675629
68.470830263726981 -63.214494533001790 -101.860409104141127
100.155691530489065 -64.426728278797455 -103.423995125015779
-74.301310833834236 -63.306349363919175 -102.333188212349810
-73.664691356000176 -61.979396080327547 -106.581000633018988
-70.644738378915875 -61.445237333625123 -107.547158291009453
83.975218226805907 -63.356354555992894 -106.502470503218376
93.827391723147556 -62.950476659413511 -106.958558320890958
-71.812330637618828 -62.431085468696075 -107.890129918736079
75.667275475976595 -63.665517484392609 -106.789457757240783
79.456337282921041 -61.346543554206669 -109.166461707506571
-83.308896425247283 -64.813404989517693 -107.511723081237577
-83.167824587751497 -63.802052190418770 -111.556620713593361
-83.360817903491750 -63.479070901194191 -110.828032308601522
-66.629827058840931 -62.638622690548928 -111.906481767870957
-65.196180340283689 -62.772593484070121 -112.316854680287932
-66.908441227147449 -60.951579301565744 -113.686341006132153
-60.536011680709208 -62.681923780211264 -114.037586274389199
-67.175952501995084 -64.648439037914414 -116.701523135609904
-58.347817221190596 -62.937566298507427 -117.229596987542649
-83.275256500702326 -64.605990833426773 -115.636565683071908
-60.754916928064873 -62.179712136058697 -116.163796320675530
-78.538528079478155 -63.813676345261690 -118.589689072089570
-56.382228593083269 -63.008866427092300 -117.760878700684970
-84.057634594860488 -63.929169842008776 -119.021717857086486
-64.771217111643480 -63.265495041125611 -120.506273953325902
-96.188209156298825 -63.256683621854769 -120.458657688568735
-58.356635186519810 -64.197421149670618 -119.775109845769322
-57.271238592936605 -63.868161868173523 -123.199001021501147
-92.812888479484144 -64.610388333247116 -121.578249987794777
-75.153170225188077 -62.931505303503016 -122.898681476684587
-64.013474175251332 -63.903448119416716 -123.826266674228265
-53.995219884483838 -64.573085548805437 -124.412768285389618
-73.767826679893929 -62.898564673399768 -126.344842847487172
33.181333688134274 -61.644724676456754 -126.005677689826356
-79.426485016452048 -63.560291890256700 -127.972873603601343
32.107941637126324 -63.234244593814957 -128.686948369294328
-62.691278288932224 -63.320039572864005 -130.927009301257215
-60.913062125529699 -64.391823208467031 -132.424463814522994
34.177313960669380 -61.989502109513666 -132.063582582971037
-54.389784164523874 -63.766028237179640 -135.259381640766208
-90.939101599960111 -64.191394695219742 -138.669480911101772
-51.949465450959380 -63.203014783893458 -137.615179805015089
-55.810993609663157 -61.997428348330246 -139.197155173618512
21.579970934538011 -63.939605285383564 -139.017253433399105
-92.834292919566153 -62.841960150955749 -140.362925053798847
26.288513541892641 -63.465059046853263 -141.093636726483794
-94.307113822624146 -63.373775996570458 -142.639580336869756
-92.103635362850255 -62.912953417243870 -145.087557070896082
-94.276166003586582 -61.567098791072297 -145.295443934472985
-92.008605145287788 -64.495368209259851 -145.197276314381639
17.240144198808370 -60.781472087987694 -144.737365549855241
20.135929367063788 -62.910743144874530 -146.568615402995079
-96.354789095003284 -61.959684912864873 -148.420763364623355
-97.985782422279598 -62.913358024675745 -149.647411385467507
20.940717732966849 -63.031592831552686 -152.015816439831468
18.102943233104053 -64.593718569500709 -151.570666276051895
-96.489239829706364 -63.174060430931746 -153.204640370923528
-99.049977047454476 -62.495664028471786 -156.165430781836818
-100.234213955282712 -62.615943251337470 -157.146357520615737
-96.833338136395298 -63.810617437704131 -158.425098176797889
-101.247796832627387 -62.908687654843085 -160.443678289283781
-100.282779432854866 -62.695525058095114 -162.465007655424301
-103.709567665347009 -62.839011977255588 -167.422808322093573
-105.381002025170815 -65.345194462322013 -168.292453733474474
-103.716488509986718 -63.314979383941001 -169.206846463631223
-106.280288197063314 -61.723245815614945 -170.589712175768057
-104.723572956281302 -63.314373029514286 -172.791897964247511
-144.672213271556274 -62.322707408317306 -177.398139637885265
-108.610630925335940 -63.309363398344900 -177.597941381072360
-107.097517171476028 -62.564608086469732 -174.375193215131588
-142.249111759302110 -61.823958314206692 -177.785680765781024
-108.685724004811775 -63.272101955951349 -178.448937425429364
-151.514389339831837 -63.156530334626915 -178.813420258201916
-143.900223136722587 -63.614322280092232 -181.411142695401935
-144.831386131358641 -62.469118101479502 -186.554028567328061
-131.404691217506070 -62.563075861675756 -195.817201278509742
-140.809998711136330 -62.028583429300966 -198.333513799641082
-134.450648565789891 -61.993982994631736 -196.678320222289159
-132.941137770295825 -62.795778681984551 -201.229807708864286
-125.308246314515756 -64.356442867321007 -203.165677626040605
-155.439606647736383 -63.312408742714410 -226.770204611083329
-126.219117033533180 -62.036600524806161 -227.938243201340583
-155.405103280655311 -62.810387663750149 -230.761378517310533
-149.112221214869180 -62.103456480378462 -228.177892401898788
-155.452722917891577 -62.403719335619677 -231.027915860785271
-151.838929811498843 -62.682652456793491 -232.533157817819159
-142.504270492509249 -63.048436905607886 -231.901316690947652
-148.029389796931270 -63.975973500198307 -234.774937836664094
-144.558776846703779 -64.202784778083810 -234.243675585330749
-145.533580146381126 -63.482868329920429 -237.292795593590114
1.486820869909387 -63.886275861384007 -238.290108853081392
3.757881429187844 -65.185538767373416 -239.869021980954329
-150.249498086067064 -62.010240303220279 -241.555808924432426
-6.068564025019830 -63.732442680866633 -240.920375421433732
16.848806345761865 -62.027093161753676 -243.783584232931986
21.082007900471215 -62.937688311960216 -242.281745051806013
-2.417725794704105 -64.350045958228890 -243.633461417087716
-147.960632623801445 -61.585290819774848 -243.519748711325093
9.783312474986220 -63.632543918090803 -245.625963325311460
-6.979713386676376 -63.664866016020561 -246.059365978335194
-6.217744577499610 -63.085118206472394 -247.908330433364284
-150.153328503532833 -63.453201491350363 -252.763848757537431
-146.942635395087962 -63.311479179039999 -251.582064003576619
-147.731810429202454 -63.140053123479404 -251.250403642987379
-145.654305905247952 -63.176296967365708 -253.640254621710596
24.861674195753636 -62.062238433139640 -254.380330682301832
25.300773489911265 -62.584374755885527 -255.803006788534333
-147.228433761338323 -62.541699975293859 -255.157641398124923
-156.055925377728272 -62.916762254709916 -257.724852921675335
-142.536422404405073 -62.326485258867763 -256.572753705990976
-154.377861050337998 -63.125948148082429 -258.012780195205835
-152.200738003331537 -63.114905627436180 -256.812836741233070
-146.191801423517688 -61.810165354052664 -256.921603235195732
33.887406831246267 -63.736509656766721 -259.268976898497897
-151.995138434170002 -63.200849341151475 -257.667528781478268
-146.685160343905011 -62.787787136522610 -260.169133993005573
-142.015829549237168 -63.804127522492685 -259.967744057746927
-154.608084903116122 -63.493861420067013 -259.799708526663494
1.358921807364825 -64.915311295476769 -259.821247476125905
-147.130721165561113 -64.561163090423364 -260.071286063989533
-149.181301126069201 -62.367501241798770 -261.764590311542975
-143.704140513579858 -64.142188609908061 -260.864177872386051
-147.866922127915615 -62.982891419824448 -262.268515397664999
28.203522778887393 -63.294146577086678 -261.377494970286762
-146.690780231448798 -63.243883101383965 -262.868209075834613
3.579058047956175 -63.654048531227325 -263.170743661738982
-154.185492234596495 -63.934933960318318 -263.108146521113099
-151.919175691804242 -63.949450747335355 -263.278288797447829
-149.217287746074874 -62.452310156685037 -263.483810433605640
-146.705936301945826 -64.725349568896306 -266.801682093923944
-148.792711572451481 -63.709406834521495 -265.840150825675607
-150.700015201124188 -62.761063727922391 -265.687418638169618
-149.009955113091593 -59.964056026631624 -264.522995265597160
-146.309739791556837 -62.826640124559852 -266.629935684679936
-150.558624289708035 -62.222552228706995 -275.064688671538988
-149.297611729037214 -63.767428300719601 -275.129036195798903
-148.919168573930335 -62.057304659192063 -276.382481806475653
3.180482519956131 -64.082296181230575 -278.842558038655113
-0.389367328881971 -63.970708305038684 -281.561125254337242
-149.961909640976671 -62.278374959628934 -281.783033399988483
-148.835419890028305 -62.050856019531210 -282.615707720535966
-149.392730058541360 -63.415302395349492 -282.556634535470266
-148.529530171052187 -63.857914352514115 -283.423237000047152
-0.511690773378377 -63.790076754199916 -284.062435148041288
17.345087713459101 -61.207623299197785 -284.633059984240049
-151.188956196056097 -62.463419280701849 -286.070195036374173
-147.422818613224450 -62.947846192222258 -287.104449589812702
-1.453077972190900 -63.288110728488391 -289.379985889460329
-0.229096232593666 -62.831978363887558 -291.581901316508890
2.496263569916380 -64.464449745915928 -291.852915931016582
7.890453856979363 -63.448000268384554 -292.188129882087594
-151.023964069096110 -63.630201952833538 -294.794664688476814
36.991061663480920 -61.991476845478289 -13.501708468339839
41.782161979717699 -62.364282681975460 -14.417301493497394
22.105923803956365 -62.540925118520448 -17.847474730458945
31.459426909356186 -63.263263458894642 -18.520650022492340
30.230718337580321 -61.772652583962177 -19.237068191361157
21.641252211893260 -61.608084519303119 -20.391056610155129
43.660660201957818 -62.865086929556419 -22.203910615785798
25.853406776107644 -62.532812138775434 -23.499323788214006
26.537228513974981 -61.632848474940275 -33.098399702811363
45.630028516711945 -61.351117056898026 -37.027448193895715
33.559529517635568 -62.775184948489482 -37.908807813141941
38.896905832809786 -62.006906852208573 -40.738388832884219
-53.059554761343662 -64.083929754185206 -43.392698319531377
-36.795582089415568 -61.932460132547739 -45.035156065211154
-13.931961295034952 -62.621754682899955 -53.767878727332977
82.746236520760590 -62.951860390507534 -60.907690973851871
88.402984063036357 -61.611798535574849 -60.429212808990876
90.062278919128346 -62.204378752599908 -61.493162790770882
-96.150520751022000 -63.452741006313303 -62.877255493046512
97.350297167794963 -62.912418011155005 -64.028880397879547
64.416609827366642 -61.766026143650883 -70.909992565324458
-98.031385385826397 -61.490807019748033 -75.798083032440047
103.300787105347766 -63.361126618112287 -74.552870604699663
62.616162495769750 -62.823252797442649 -79.985714658482067
-38.949385413951198 -63.735116290810254 -78.647256843257935
-48.950085810720211 -62.483782740703518 -80.965550956310366
60.460826576355913 -62.910535010467171 -81.747550197235483
-98.768017145028452 -63.141868512201924 -83.630794485360951
-61.802378842271068 -60.736704212621582 -87.263994327818068
64.342748563040971 -62.141353476896590 -90.086447069982569
-65.502608179807183 -63.096039582392471 -90.647611224483740
66.282790152982642 -64.120616025374659 -93.415769273514314
59.722822699915369 -64.149949210941628 -92.867861452653102
65.342734811398344 -62.719929880288198 -91.672463314593799
-69.611916047528538 -60.295074688940559 -95.042528721050346
-69.452560796165031 -61.509957366926962 -93.408563328910347
101.674633470464443 -64.140366427784983 -103.141321805256084
-69.074441105211832 -63.129774963493695 -101.114137761786822
-68.924882942996618 -63.162929757081216 -102.727929901373827
-76.688957888694944 -62.759391374285343 -104.241727081778834
-97.966612588049941 -62.473910961794111 -105.006591119594461
97.800671380602125 -62.095411809429322 -105.853634169385913
75.317971137122143 -62.444243666645214 -106.803522911960016
-96.709138108222191 -60.703021214838550 -106.195583310118849
-81.016105867700858 -61.701287481940668 -106.161841680753739
76.747672856386117 -61.710636271527719 -107.588398317751555
86.556986156087191 -63.723033366920490 -108.962652190886999
