# This PCD file was generated using the MATLAB® pcwrite function
# from Computer Vision Toolbox®.
# .PCD v.7 - Point Cloud Data file format
VERSION .7
FIELDS x y z
SIZE 8 8 8
TYPE F F F
COUNT 1 1 1
WIDTH 787
HEIGHT 1
VIEWPOINT 0 0 0 1 0 0 0
POINTS 787
DATA ascii
-17.913478103396482 -76.045850912267454 -188.310018720322006
-51.155084444285130 -76.695868718623629 -191.168632341550847
13.079830542856833 -76.376163927531692 -191.063223715044899
21.494961039715704 -75.025654819096019 -192.185182123359624
-41.982383264921914 -77.343934906357447 -193.245439174334649
-25.589206359025223 -76.690415047780704 -193.509094884370370
-149.397210575021262 -77.530845572405212 -192.263571723750289
21.601335676841021 -76.645174717084316 -192.131721604193785
-152.424237430229851 -76.686122383648055 -192.664598134986875
-49.868448126050808 -78.255610723432866 -193.764084278345990
-26.727861714146432 -75.321879207753867 -195.794778143231184
-17.896642710202141 -75.758601565979788 -193.749234017782356
-38.776242087469996 -78.663480929172806 -193.674879618297098
-140.995698446703955 -76.550847187345852 -197.388787353714804
-37.039366510217867 -74.991226692460444 -196.951894176791285
-154.850625072035882 -75.441999300673984 -198.322657476035658
-134.258588730950322 -75.442707059157868 -199.280662266872014
-155.408396909682210 -76.864158733146297 -200.269802496309381
-45.155507422200721 -77.242610135252107 -199.799695392798697
18.965018974023192 -75.555508030467905 -200.104203924984489
-133.509588175040705 -75.237330038231335 -201.333482571165490
-140.766819208561685 -76.980481309810983 -201.749328737237647
-36.751152922160465 -76.494882958028072 -203.886951146799333
-14.261507399818559 -76.862787932726235 -203.148469301513330
-32.679119003320139 -76.261034972063712 -201.990103150430883
-36.295186041784717 -75.101453352325322 -203.191331642673134
-150.815315938508206 -77.241242354671314 -205.994322718287407
-36.413116807734838 -77.440392721333438 -205.926198568771355
-18.349200622958552 -76.166006254787831 -204.881107388484509
17.455308081919842 -76.839348687917649 -205.372471217675070
-39.856069703131801 -77.237423615243443 -205.349562941815947
-33.382823616258541 -77.430851193362372 -204.934519765852286
-10.101955828370942 -76.678071484796860 -206.691269397677530
-33.253093634285797 -76.060681483790617 -208.380671194118605
17.918753616146681 -76.475208672982944 -208.830924997336979
-35.591054159997270 -76.818400543610451 -208.617786800790043
98.000623176142568 -76.004614914377058 -207.990726554984150
-73.623752616536109 -77.473577088084426 -209.477015006696575
-75.009292516731534 -74.458968591941613 -208.028126756952446
-147.384980415500479 -76.719820340691484 -210.805637072247578
-84.919631569684370 -75.861990474339407 -213.850669158173162
-28.239393536710956 -76.628929487617995 -211.317047212634634
-147.346039447186513 -76.117211226713522 -211.854901022760004
-34.881225087972489 -76.886562974294989 -211.332876370219594
16.431219440357765 -76.326845887318640 -211.679022846603459
18.469106122198784 -76.082122869415301 -212.212113629873556
-73.737151772360235 -77.094732064268158 -212.051497406185177
88.036714021000876 -76.023674923408763 -212.929405749966662
9.516812294840641 -76.800038346434519 -213.295720793570013
-76.731793565080480 -74.866741967414001 -214.077523198036573
94.307264128352045 -75.651143834873238 -213.919543109270109
-16.847401583106322 -75.778125588715881 -214.327117294402171
-14.122824384189091 -76.166712404643278 -215.408272205250512
-147.366194776986788 -76.134259657554409 -216.125841633734154
-26.881710808179871 -76.419267986848467 -216.393268053422020
-19.731869856610917 -76.983132226411485 -215.051016918062089
-93.629577314884799 -75.343053035447568 -217.403518863895414
-28.753674253073374 -75.809400468796625 -216.597738614193617
-6.377081903204781 -76.664758912184894 -216.017128743919045
5.566493780403072 -77.476484140478007 -217.575017184063512
84.824468146628220 -77.042622502386479 -216.736028726564598
-87.157325147453236 -76.398613873863653 -217.156713044708681
-24.113898238189801 -76.097333129632617 -215.532305143797174
90.197007917424799 -77.162553196200363 -218.599305763953282
-92.744849476329662 -77.482079266304865 -219.129381943465006
-30.116006704907697 -76.855975418514021 -216.205852009424063
16.020188313700288 -76.998935463428950 -219.136960724116591
82.738161552697576 -75.495548164830581 -221.483124881263251
-13.074027974379455 -77.285934426892311 -219.723723005417554
86.334368160198366 -76.120648072472321 -221.143989963337276
18.249330119680888 -76.094486679382456 -221.467351377950479
-18.803261389982676 -75.701606658855624 -221.737358859945431
85.052644769447056 -74.676158796012615 -221.411699533108020
-145.820728006671686 -76.435018057941917 -224.359852147892752
0.836312692337976 -77.335857568949478 -224.571458076343873
82.743793085198192 -77.080268670818057 -225.520404817859060
5.091592608557026 -76.397111029761547 -225.810613086127148
-17.362905098782324 -76.058398250732168 -227.128620143582083
-4.243333704613042 -76.191716035000084 -226.419825892409420
-141.144069029201717 -76.300772024156259 -225.179850828731560
80.125187284442177 -74.862371006158057 -225.663075195237468
-11.452892605027193 -75.639214369318069 -226.560889745825506
1.622824388064390 -74.897868863112521 -227.130264652248627
-135.562172349998804 -75.813526849028563 -227.575317110232191
-8.481778857424850 -77.125274228892266 -228.407380662726922
15.922858197382883 -77.541566253311231 -228.237185269310913
-154.508566088809346 -76.725061952629446 -229.052658226687328
-14.152084299828466 -77.383688372840552 -228.040238392887261
19.763513528937931 -75.997054883482363 -230.116381229130070
-137.118652197214402 -76.649459522307112 -230.012158912650534
9.136021927430710 -75.834414334561842 -231.269963902162971
5.403161218586484 -77.472573740940490 -232.430310800272593
-4.794579141687483 -78.229416231355032 -230.702351741205746
2.883451573083339 -77.084089889778980 -234.631220136743707
8.300058512411111 -77.220883337116845 -234.175615842697255
-150.655403766167439 -78.846835801806819 -236.569897082645525
-145.654093187307893 -76.269017906398361 -237.353664442706929
18.439876588326758 -77.375811489237904 -236.994740427636714
22.059883920085301 -75.715004757924504 -237.573559745398200
-29.173569525031414 -75.545841831928811 -238.382359687953851
-35.377571525738844 -78.364481437450721 -239.026510981755877
3.925845065384821 -74.804776979586592 -238.585275043772697
8.687492262828069 -75.668484240866391 -239.043484592306811
-149.360091136462842 -77.448020544434172 -239.997433692117681
-16.269069275835246 -75.337876856475788 -241.983556452406731
-146.135709723555976 -76.151912359774201 -243.781682704401589
19.002136270616901 -76.251450735280386 -242.946232806652375
-53.847942608567799 -77.580463682220142 -243.147230382223057
8.305139084206045 -76.703939642139957 -242.456504147740588
-31.252895212223617 -76.979358101231654 -244.267010267060243
5.389265714930017 -75.187636459535511 -244.292613103073080
-34.809532427812009 -75.198484815660251 -243.680957030230047
21.680496750904396 -76.503303887254447 -244.348517405899088
-64.005347839627589 -75.691007024243120 -245.525468003876171
-4.163705410179941 -77.118839043723099 -244.214937528519670
-4.268829105132851 -76.988186006643048 -247.212362192796377
-68.588125070486541 -74.100463582861920 -248.313498227037542
-51.201592573791089 -77.517009684600069 -248.398898382874705
-71.680600478840333 -77.169569630360172 -248.170982135165730
-72.496247296025146 -76.529890511081703 -250.011741601110913
-63.333762223012059 -76.350432370767351 -250.699202541095985
-76.902449521937726 -77.086897257189563 -251.191594037561742
-69.153993606335874 -76.202907787659200 -250.774323950442863
-150.386340338918700 -76.759117471786155 -252.532091157879222
-147.680332974585411 -76.134346545342353 -250.978275438616492
-142.588053027025495 -76.065510795741460 -259.447598787330037
-127.277110286472805 -76.725675552032428 -258.265144688294072
-133.646494318092010 -74.338776755207036 -258.716733013940143
-132.576816370856136 -75.997758333257977 -261.029241417374521
-126.483045943779970 -76.522988348054852 -261.514841314818852
-143.603543848058962 -76.765556601896037 -261.416428934553323
-14.542131522082251 -75.120101198131451 -261.179080653080860
-144.132450411501196 -78.602582330087557 -266.700427841471821
-151.642581636242340 -76.221905980715192 -267.023118445097111
20.563771556845449 -76.980893509604400 -266.286990294803161
-10.646268944306343 -78.033200144884333 -273.699404547376105
-149.544756742264440 -77.649423317203116 -276.019115492099843
-146.824417445784036 -75.753387373840084 -277.139241692444671
-5.433831703791855 -78.589973708766948 -279.775121769707141
-143.629101961125542 -76.543163912682829 -284.533411419571337
-2.430063323116933 -76.935352286551321 -282.926184908279822
-133.487053782535156 -77.660270392596999 -286.084407587946316
-124.616857514910862 -76.973482276180519 -284.867101536673601
5.083166648743401 -76.499253135352745 -286.566619582719113
7.727873644604585 -77.453972688452183 -286.612750754583715
-53.357529441008786 -77.672106311038561 -286.566581970343009
-43.419376325470068 -76.298067784315094 -286.450453015518065
-10.066787421677761 -75.135399705531754 -286.951555982733396
-65.659612002649340 -77.424577286907748 -288.753578368527599
-2.330304051789095 -76.517507945395650 -287.425687666122428
-136.965536539279384 -74.439807680498546 -287.797263366224627
-57.396663415175041 -78.340709230575911 -288.805291556944098
7.252134261210939 -77.196249228615130 -289.219846691225371
-116.793371497856882 -77.057135083605786 -289.446716767209352
-73.372216940638808 -76.079388819245153 -288.911714829235734
-78.414330057740884 -74.459966382112924 -288.978778268823078
-58.010288792148323 -77.255420297412329 -287.826311591065519
-117.107953043046265 -76.395003082355672 -289.932244413439776
-67.782342461858391 -75.397797494155725 -290.284394010347739
-154.833119624248639 -73.498229343977187 -289.356615795009759
-141.270219299737050 -77.238352325676274 -290.143412149145433
-123.542191649381849 -76.138042408524640 -288.949784275172192
-53.858566577011395 -74.854617998649374 -290.211910585699286
-12.025639883813376 -77.261666781155242 -292.846641053565520
-125.352346707202358 -74.444857567410736 -292.446354238215292
4.867539373540307 -76.508600472434622 -291.791460107980924
15.627311014439591 -76.920208408186326 -292.724834047958325
-149.652801287137891 -76.766581983954410 -295.715044966897040
-146.573718347625743 -76.096961296895898 -295.912217968168761
-150.825648545906517 -76.724570013077752 -296.613823878812070
-151.014026526899414 -76.859205877204900 -298.861980506226701
-146.296314629509681 -75.268475564892356 -299.986789517775662
-52.095969075273615 -74.783891953539325 -55.008283318780350
-58.610876025276212 -74.209888799977477 -56.111378707439336
-45.951859342626157 -75.381576625150828 -54.632924672684524
-51.887860263073335 -75.701269657876423 -55.036674915900534
-68.900355890695735 -75.880365376463402 -55.789267285889252
-44.486183047755937 -75.666217951423633 -56.000654756288789
-40.482453356460624 -76.043649233523539 -55.734220295819945
-74.587104251859031 -75.575431667168559 -58.777737240964193
-34.498470640148867 -75.109337461954780 -57.154572845104255
-31.638303409416217 -75.425142918041402 -59.867200040441887
-31.046603958888731 -75.930102905099488 -61.459897310316244
-23.925477951684556 -74.203106733923264 -62.972518375073221
-24.009946177003865 -77.081326173862479 -64.653716093114625
-21.635863078411568 -73.944033272333471 -70.611434893052703
81.723461675099458 -75.035773730873089 -72.899839858126953
80.336278692000732 -76.883514933644079 -74.145969620307440
81.917788780723512 -75.720509777038103 -76.318547521336612
90.008872737187602 -75.083183692532160 -76.179771155729057
86.912563929516722 -75.468166095559980 -77.016465108326116
76.940280848876498 -73.862314684696130 -76.315215306319033
90.804844341813407 -75.016521142963043 -78.435950663956149
-31.629177370474203 -75.410040790847873 -79.195736344082491
-29.410622700649153 -76.061887366564605 -78.692322546992173
73.162564941425188 -73.459003186157062 -80.611525298040945
-40.714515711967508 -75.810014255160169 -82.138649097665251
94.454918685931275 -75.282875635952337 -86.280902754932853
72.860000165815308 -75.936423892875794 -87.903162729726063
72.048141411684739 -74.772710404796371 -87.331304374022977
-54.481813944638446 -74.392349369244840 -88.810762636268620
-89.472462989918611 -75.487228559031948 -90.131940431624429
52.469430564239588 -74.886087261240675 -93.876959699739345
53.850257990300911 -75.412833045682973 -92.532133369312419
84.919883806010589 -76.191433379326568 -96.293488547895379
56.288562583747968 -73.423606508789263 -95.016864759804875
84.607333264622156 -72.912141381539087 -96.405333220157516
92.587801544291196 -75.275642110614044 -95.782014140725366
77.662855245023792 -75.806345536918371 -96.800775681253299
84.216823965915907 -75.449828954509798 -98.618979014194238
89.428727222548019 -75.103835357810269 -97.727839466375229
53.164948089265835 -74.932065939052450 -98.735467162296914
87.797481906354705 -74.807036284914119 -97.438610980117460
48.774775636814077 -75.344429921486935 -98.225910012471175
87.008903459386772 -73.158047020545297 -99.490693866076541
52.610227176087008 -75.089088969631874 -99.995831928655861
-78.954233268477410 -75.923721017251637 -101.417732949889853
-76.746433453900224 -75.604119582357171 -102.265488201925137
46.017955738111155 -74.821176650285011 -102.415752092453900
55.579355218529685 -75.569578565634828 -103.351922739352929
51.354870484077082 -75.401174892651724 -101.218654822548743
-84.848512349940293 -76.126808503236774 -110.145686178893257
41.402504231989262 -75.655964726851266 -108.763085070645275
-85.357562903507528 -75.065177932995013 -110.715347013363584
48.965488790671898 -74.512308953739321 -111.422687727828574
108.243546535157535 -75.160430824787824 -113.513256902493424
-86.664591623619970 -76.277696185499963 -112.514920136609391
-91.116163992084211 -74.553534948059408 -115.003516957557096
35.384363464273100 -75.258236025036723 -116.457268841217711
47.205326522654275 -77.066321135130480 -117.408762169123833
45.005608515920045 -76.009947777318317 -118.669074695799807
109.356131090708729 -74.778208527404615 -118.874751977017667
31.624112881156801 -75.557623252340761 -121.577267857154766
113.548451632387810 -74.113792395629190 -121.882061304165845
44.650970896538048 -75.752538761276469 -121.319550360725742
112.822018411726887 -77.084019067323808 -120.336977402259308
110.153216626202820 -75.452038807838605 -125.191398758436421
41.764813919511916 -74.633844005520913 -126.823058102522140
113.124145392763594 -76.069130968004032 -128.315102835017740
32.459745976288495 -74.581473571304087 -128.336692915878729
114.364623973083241 -77.342030511659388 -129.417514539411428
39.641021691902509 -75.321197025955598 -131.358477119547928
37.735795869078281 -75.798527962403341 -135.408664571523133
-56.632406655205379 -76.459068263915867 -136.583141800918838
115.237920888652909 -74.719809609318972 -136.697379998984019
27.057984097255389 -76.756863795840488 -138.611417419195163
-48.627495629307070 -74.867044312294595 -140.336830388095109
-53.592219398560474 -75.271910883323756 -139.811722330749745
24.191922157180404 -76.415091518937345 -143.006350428562428
35.286359838583202 -75.898066762727808 -140.625267196057024
-71.058598516361911 -75.188414214457069 -145.730196253585802
-72.496441180901343 -75.394175696233560 -143.980392283084285
-54.999379403051755 -76.039128166316033 -146.969850748477597
-68.392531063216921 -74.912530034206114 -148.753216788494797
-53.026467852748468 -74.969806714043813 -148.885452943459768
-38.851931634132491 -76.428986981004172 -151.023010224409063
-41.795657780577230 -76.016756394875785 -150.728238572150559
116.102950631859699 -76.015163311066402 -152.054059848303950
34.224540577389135 -75.362727410482151 -152.968117359236601
-65.575614929032483 -75.964962001193243 -152.648901435519690
-67.895076415293317 -74.737213879491932 -152.978728804805570
-40.750251303233782 -76.353862346412413 -155.089299527690997
-67.644105368765509 -72.563570688934220 -153.861737371011060
21.848781388984388 -76.431266964301443 -154.333049048718692
31.253308179926709 -74.213845245706622 -153.598567828063750
22.378047377923114 -74.256036032495771 -155.149379081145582
-35.653537969166379 -77.357614824784875 -156.063433074888735
8.909558578362956 -75.727217223913968 -158.586208293656654
110.645824230123793 -74.800986663596106 -157.192007102751802
30.349503106977110 -75.337188556590149 -158.841279352742674
-69.744676783505028 -76.567235752810873 -160.093043862117213
9.048422352964746 -74.710808640590258 -161.136726981049577
-65.604338340379272 -76.187150069499452 -162.476638323083620
0.678268568161591 -74.760896233513876 -161.694552663240472
-63.927419977797449 -75.571797335801094 -161.713422948196524
33.232625574020190 -77.064145851821934 -162.989850435229442
-43.883274675517953 -77.100368604974904 -162.688432649739184
-30.646865128842482 -75.962845239052029 -163.109345416281457
5.697831581912456 -77.523613073319552 -164.602326425296127
28.344832856382798 -76.523776721495352 -165.002820915243035
108.457454162257733 -77.909446611145952 -166.118927301107590
-65.006595922215581 -73.332953572175484 -166.042552162609752
-33.879351847883306 -75.853267880324069 -166.415639112665986
113.821747165195589 -74.577033891804433 -166.693308693358830
-63.964933358959911 -75.940165651445227 -169.030595025068777
-56.341810592015868 -76.855593509551596 -166.498129219768771
-29.553243781628851 -76.330915559049828 -166.845195942040334
-61.209094448643704 -74.945742394698769 -169.075567199871074
-60.500462720655669 -75.336887076763006 -169.443034465605905
-7.081953331004337 -75.634496279704507 -168.167873358373299
-65.428351549479231 -77.008016273685783 -170.220581496211423
109.024133975804460 -74.952641416837892 -170.432280193286630
-42.249962615856326 -75.409833577532268 -170.156370427321235
-29.070654729767689 -74.581092820708918 -170.378588699054887
-2.372417937489054 -75.738741740985574 -172.282199178162813
-5.127760484074479 -75.052035020988612 -171.497730099113312
-58.966570843255724 -75.422314669361981 -173.294516901571313
20.003345262383444 -74.527085851972657 -172.258965808870727
-59.053565164773346 -75.052262132899898 -174.348755776147243
19.622370196685392 -75.869671875907954 -174.151779530164845
105.277851191863959 -74.486768485704587 -176.489169964770269
26.560692716582921 -75.272755708092305 -175.197688034285221
109.884526012349099 -75.473396791470790 -176.623557052004088
-60.695288880137333 -74.089403857995777 -179.164192552032858
-23.340457159791111 -76.135763153651084 -178.092521354341443
108.482178698990509 -74.581288482156765 -176.979922399087968
-51.752088446009239 -74.941289740759700 -177.873953110012707
23.924760885155120 -75.987947550376177 -179.044241650751417
110.955132577146372 -77.381652280617246 -178.948885782063343
106.665303353738693 -75.033448581978149 -180.977752389105319
-57.243215433677278 -76.761672123480196 -180.794143612006764
-33.059477454969389 -75.965096822048480 -183.414301420443820
-20.573503899606564 -75.501812367986830 -183.294183743567856
-49.133287105210862 -76.493745481002776 -184.661451693826194
106.332996505018585 -75.425408527213378 -185.580788484553750
-53.285300014590675 -75.192966784364785 -186.157183514707043
14.667694243774882 -75.068015988554379 -185.011355904894344
-146.224863383825493 -74.742880651480007 -186.822093930743904
-18.355665712861004 -74.650145317585839 -185.683363815226954
-147.852733693857715 -74.757007257351532 -186.283865910356013
-148.580614987365237 -75.510521040002871 -186.345766960479494
102.701516347905766 -75.761080235642325 -186.730329750967684
108.834662280520433 -75.845922817549507 -187.579171143462844
-29.475533807645441 -75.034220477932863 -185.443641032391071
-145.547925038623049 -75.055566884738255 -188.553853427211095
-46.014365728790914 -75.752379343516509 -187.939937502060729
23.976892261349924 -75.725231891100165 -190.347417149560130
102.284920262102148 -75.318173937367433 -187.973213919418242
12.083237511855094 -74.347404378313783 -191.414292498527573
-30.868820716928528 -74.677134551671486 -191.325773299292422
-18.615750744987825 -76.648512547900239 -191.484268179467563
-16.192640503427420 -75.929265476315777 -190.269437006142823
-147.842107018082316 -74.368749738345926 -191.591857629345100
-149.203233140327711 -75.557328194404562 -192.444325512532771
-44.146865782586538 -75.931846323143418 -192.517829173140058
105.452460202498330 -74.740749363776089 -193.128228461305014
105.731551374588292 -76.369502598895465 -192.971097493430563
-144.567421015007426 -76.285391338563315 -194.732497383628584
-48.619665977219576 -75.852761493079214 -193.161871547447532
99.421125921033209 -75.501513612833676 -195.533630120770994
23.123531951863740 -76.105333300574443 -195.407006924697356
-23.065435926873270 -75.798134096687903 -196.113209514476580
-12.884577672545301 -77.034361660547404 -197.012953030598851
101.007186260451149 -73.840403916348635 -196.429602241751070
19.345811254733697 -77.775692072247253 -198.888412766954531
-136.071591103728963 -74.789012074531968 -196.725430085078955
98.450344695362716 -75.381688884081612 -199.100486717969261
10.558667265379814 -76.250624252340359 -198.476391439118032
101.853073934530684 -75.822811138913622 -197.946183187294054
12.165405533261156 -75.678159339959450 -198.903462513908835
-148.902996973816130 -77.068211172702206 -200.180094399493726
-44.648542342470364 -75.868688515919260 -200.851473665618812
-24.160132022297766 -75.159900401095953 -199.778365647223950
98.186592659496014 -75.376962008650068 -199.302464459143181
-21.921046138512509 -75.429812954174366 -201.486903692037174
-134.575685806510961 -74.498282224002082 -199.876540495161379
-35.104088677093465 -75.235604527862080 -201.902736047806144
-43.013701798208260 -75.107346040996333 -203.026419377665292
-10.613569865803919 -75.048803327096010 -203.439573417582352
98.870291503502742 -76.951069900065548 -203.386410109463185
93.748846527013484 -75.100659210203460 -204.354984438630026
8.027544157204757 -76.228912811976258 -204.798800049870835
-148.600543138682497 -77.333913258665589 -205.026403836738695
-21.863850913461818 -74.766111881662781 -206.788641280744287
-144.545076146421735 -75.320475061774005 -206.020450312755742
-31.552376133913036 -76.628825360886097 -206.476778670990001
97.325707278296690 -75.144335898771089 -207.608049109271292
-10.825716739168566 -75.171131373116637 -206.880938689639493
93.417711700253008 -74.659196184585980 -209.322260412310641
6.794843796720639 -76.474642241954655 -209.531143685164011
7.571482413060803 -76.061910026515307 -208.738927668414391
-36.509054602053389 -76.033380943092254 -208.844103462050583
-77.472230267868412 -74.096579500719102 -210.376324887876990
-73.715860297010678 -75.439886178141677 -210.198229414949623
-27.820888249132526 -76.246003311165012 -209.769344282113877
-32.165599265421058 -75.116208512706379 -210.873234226758939
-145.398971150254567 -76.144866352863176 -211.382315766784103
-82.294723568972884 -74.160627693889538 -209.507014009372057
-73.925553064195398 -76.173948670389507 -210.834912979457698
-149.491072552271049 -76.850251521880637 -212.424587321848009
95.376490518289003 -75.183689874409623 -212.481853499185235
92.777991927892771 -74.278800299248957 -212.393717291758009
-22.837464736102987 -76.132347375189340 -214.008243029375450
-28.831908520366941 -75.368200924041787 -212.951379901789380
-29.668761976581806 -76.674262233955787 -212.907124061073745
-25.223593519555784 -74.911120468118327 -215.539555142507680
-31.553832533026036 -76.147413318044187 -215.075117772506815
-25.073854057159252 -75.690120965065418 -214.247514966950462
-4.077399058045923 -75.883237146599214 -215.879234495454739
-94.882661983245214 -75.069132405130844 -215.703553791988668
-14.151206605803575 -77.084736286327271 -216.168143683180375
-80.956444293565767 -75.892683700501507 -215.218543551218858
-148.789329500658511 -74.952253869843759 -216.975395259246937
-97.878186453998580 -74.232719595005591 -217.711054991389062
8.115255516483133 -75.298143881707801 -217.663830650380731
18.105493596702061 -74.954177281610626 -219.765927979373686
-91.452309751938969 -74.453809252565605 -218.765483299985021
-24.061190254193988 -75.647331753189491 -220.412287136680277
-21.613791739431814 -75.173377359590845 -221.624787595805827
-16.306753736961369 -75.450128771882191 -218.869828101097255
81.582514468664385 -75.605764687003770 -220.491380066646627
-147.057376282082629 -75.594197730691633 -220.925615694064675
-149.001290979745846 -75.931980349234877 -222.036639153479030
-20.380310920241747 -75.010468245172618 -222.975109873131714
-7.604669414345973 -75.146167568879264 -223.258915667931291
2.816259374024650 -76.449345178549464 -223.181525816621416
-22.137933213120210 -76.117108487805524 -224.147177841093992
75.725242657038507 -73.546611166013832 -227.534443324523068
82.209825563227099 -74.617697462565602 -227.625071522191661
-148.195253957858171 -74.554744093215916 -226.972243316740474
-16.649862504806084 -73.546338959152450 -230.171151718676214
75.000419388247792 -75.300781782842620 -228.830038511302263
-128.823419398424306 -74.969475784594223 -230.212468413856072
5.098626759901864 -75.582167247964250 -229.985715675984039
77.526313514108779 -75.078578923984807 -231.015421718830339
-11.089050752660027 -74.803693120511085 -232.050725895001335
-10.788154590940374 -75.335462124251393 -231.590824922677285
-3.879546658022769 -75.572772518804015 -231.092902392181514
75.903808074878043 -76.274135948634509 -231.498047958738283
18.690383780982096 -76.485488218742759 -234.641941934387091
72.120901805802504 -75.194102798457621 -231.746843947322020
1.496184059530064 -77.188740924508949 -234.967115476960061
4.442715419553560 -75.609861027911236 -236.417435731448620
17.881343638724417 -75.760024795846505 -234.739431992118313
-14.358184353537940 -74.291104004436633 -238.814556566626294
-32.487991460221913 -74.946963360386320 -238.525492896134438
-0.972009038512850 -76.922962823871146 -237.962701510764447
-13.640879733002723 -75.801268636286068 -237.148403594924588
-37.813808188940165 -74.986074539019683 -239.386318545512466
-39.927867168630797 -76.821053842548665 -240.881895388171955
-13.408501488325195 -74.462524796662905 -240.993453996157058
-150.961374855960543 -76.168249614847028 -242.159288760829668
-47.670997132061899 -76.441710306331430 -240.866244315590251
-21.410294959660479 -76.160035883092334 -243.837696803989445
3.339375106868935 -75.022696081125076 -243.791087211827204
-27.209703540253209 -76.012675574715630 -244.094386398444357
7.236623004512696 -74.312070960379984 -243.288671430425410
-58.474440191689233 -74.760946210026944 -243.038556132698858
-34.906479628343384 -74.774765583775277 -244.818380450242358
5.508934244743463 -75.996297538413174 -242.956401066126091
-40.688116493715881 -75.059486923076676 -244.709831700489076
10.357405830919454 -75.589052093448444 -244.334237681805519
3.039827720185872 -75.269735170815522 -242.737190805720473
-43.715690272912262 -73.544324262852570 -245.297347317736012
-43.711236672721022 -76.403434386049568 -245.185713950963105
-150.828144042799863 -74.573966445992824 -245.859200406226449
-146.090946829512973 -74.165921745249889 -246.782449551950378
-47.071301766667382 -75.251485265998426 -245.429652726330886
21.369393096577014 -77.727713720691426 -245.700843729419148
22.082344425913000 -76.317001620177891 -248.716206184961408
15.903175525105869 -74.729155516649882 -247.489865971875588
-75.768084416393052 -74.666081986478986 -248.572690397174625
-56.890817102287869 -76.935955072218491 -250.585007944623811
19.074053012195620 -76.581583912679122 -250.701597386618971
-77.712364654867329 -75.423248613044848 -249.922487370680159
-82.380553341228662 -75.564465971884246 -249.886724765177064
-64.322251875410046 -74.844327999009607 -251.885588467114047
-78.087236777533079 -77.487953112079794 -251.375595020675235
-10.998796444104489 -75.062065934394170 -251.550019649313271
-74.287341478432495 -75.160875769193751 -253.291985546460609
-83.802477896406259 -77.022501939137271 -252.909777642014348
-80.325523337923613 -75.063303370425288 -253.862038569542136
-123.940626285813167 -74.085836180558886 -255.628004299389517
22.579186148445768 -76.387874437936972 -256.421366417255570
-13.555889538808698 -73.783274322881553 -257.557523536466420
-133.856325180345380 -74.765200075345106 -256.436809788010351
-141.669079288733627 -72.832851277087542 -257.194154843638159
-141.936484345725745 -75.632671473938871 -258.908793685939315
-156.579230727226530 -76.139233566446748 -260.497987496592827
-125.687769359402182 -76.030967505878166 -262.230785141839249
22.181903823963442 -74.676281031526287 -263.592339812269472
20.565603202530092 -76.043119929189260 -267.923410787743251
-12.732047109858216 -73.843451854068135 -269.681161025966503
15.619784929149436 -74.945756728162891 -280.834321098395776
-164.861763673554179 -75.111171951284732 -280.300361877578723
-5.016847807768324 -74.236245260851362 -281.288353083021150
-152.025934840201074 -77.051230677153157 -282.423601384303765
-144.819023016852924 -74.316644291021561 -281.981022536500404
11.795980328250343 -75.370193321465436 -283.766215322410574
-154.163065044553207 -76.583103578714159 -283.357096772293687
-165.865564489239205 -75.186311084456506 -283.503754693431972
-125.966298011143948 -75.554860182316730 -287.321345787886287
-37.288955055683971 -74.193257309979501 -285.057226609487316
-33.944810593727389 -76.247158266401001 -285.504424304684449
-148.445992089232107 -76.572172706062275 -287.613164388976600
-68.860005698967470 -76.016059260476013 -287.062124817192739
-26.564460188352971 -75.232935808517396 -287.285031673245612
-156.249577879746937 -73.353861478716169 -285.722538642267239
-147.782374500909640 -75.449525259126219 -288.437109066474250
-69.362131195453586 -77.248284075172805 -287.510115674009796
-166.447386059006448 -75.568759873100902 -287.667643818263173
-141.109503064689591 -76.644515231959687 -288.050972200622596
-135.622567907935831 -75.714163300427728 -286.049088644874587
-78.075266937682812 -75.635222527851923 -286.534540575615893
-148.118581262891809 -77.724740260533920 -287.238328675497428
3.884235310066348 -76.268290775570847 -286.928592783551380
-86.497641115794920 -76.283178409380724 -288.834417146059934
-147.402130572150526 -74.244740957228061 -287.927962371164540
-115.673749584038063 -75.496229152119241 -288.726652700610089
14.408593847868849 -76.176110085554257 -288.016605472633216
-135.586145770264466 -75.028550357380752 -289.555707834900602
-95.631062119936743 -75.529728280468703 -288.156972976331758
-88.194325839483852 -74.452218888467385 -289.488724694961547
-73.251402700616978 -74.956165872424677 -289.180539526229950
-160.580007097984748 -74.253601680262619 -291.203369278856258
-148.315251869329700 -75.545535480388239 -290.329659982909448
-149.649364966141576 -75.304185900888612 -289.036250702821917
-136.699165005266309 -75.775452722772258 -291.174466951806494
-82.812804522494247 -75.060732506238153 -290.516383594540002
-60.644300368215873 -74.813168900983868 -290.705896495748732
-42.337259790427765 -74.625228400067670 -291.821819199736694
-142.260420726449070 -75.487423689893248 -291.188018696838697
16.086012760530817 -74.361808799895641 -291.716930357269632
-24.445963419709457 -74.814755173239220 -291.741804462531661
-20.331402666626307 -77.072970495433466 -292.475078686209372
-4.420931789756277 -76.198107016334774 -294.197229934950883
-153.616142962719294 -75.613047389900558 -292.608728467666424
2.209465074682820 -75.901364858811775 -292.543034801689657
-135.443977076601499 -75.776826787982813 -294.416193361739374
-126.596424054812104 -73.873912803564266 -295.051476685201180
13.369988095184718 -75.780627542505940 -293.773037808348477
-154.349854624463887 -76.234512771001150 -303.823538337020580
-154.757260933734585 -76.167399461410383 -307.361748138046721
-156.013601637654034 -76.769554879966108 -310.970731426347470
-154.339501352268343 -76.656758362025741 -312.380552055441115
-58.811776051686294 -76.346740616838204 -53.763774922269754
-48.412967179385618 -74.372734177594012 -54.516194686667703
-43.166694316507169 -76.895185813505307 -53.833174126434756
-73.832051114197611 -74.405637373586316 -55.274851571292821
-81.476022598047905 -74.447371120796745 -61.893946895385014
-25.754509534536208 -74.262857747450354 -62.267395277484887
-18.735346332951806 -74.180450534845690 -66.397383551914345
-17.761434790273078 -75.940623126454966 -69.222289246031366
81.767553996565994 -74.029883473161462 -72.874150870458536
88.026527650587127 -74.552752815922489 -71.213242597238633
-89.786988622548961 -75.313905234313324 -73.489325648583460
85.498690858629232 -74.763884290036799 -72.908433715131082
92.108561964155882 -73.485813504431576 -75.354537181213658
-24.079395776585741 -74.027989489193629 -76.067774053782756
74.299709641383899 -74.362599161010181 -76.122870870574246
84.033186536624385 -75.173578320723848 -75.392223429770866
74.298003078753879 -74.889211677977912 -80.575241032972784
-45.504861640984814 -73.728493567703495 -84.560448913345823
72.461120479948008 -75.666714051382584 -83.917225583368250
97.067351785161335 -73.707267721143097 -88.008632777999551
96.470705269372161 -73.902855751495068 -91.472778423901744
74.026225023058757 -74.876514333017369 -91.961915811822578
96.799657091675542 -74.974196259098719 -92.117308294896432
50.588198278601958 -74.017624553749954 -94.895430531030726
-94.706176239081117 -75.045492750973096 -94.031346335832367
72.331373554785316 -75.075991095556930 -95.684232502900571
-62.334079411568673 -73.322257163471477 -93.435090867848800
51.824690434476054 -73.187617334881679 -95.342287592008276
93.043413705214988 -75.542454904275544 -98.749780049719078
-68.029949097255923 -74.121223558699427 -97.722702185456370
85.679023591707804 -74.668048630848347 -99.209338738383437
91.712845208373722 -74.114611908595634 -99.209859852422582
-81.274556253979114 -74.011513079967386 -100.423478370797099
104.045056046018956 -71.621629524990809 -102.425738040630876
107.696574773114421 -73.557847138499653 -105.958075695981719
53.443425734267905 -74.633507249425747 -107.427334210957653
50.099755897978838 -74.248403168473700 -109.724902143148640
107.371572947824163 -76.253787727493517 -109.348762461122860
37.150606507831185 -76.259716771844793 -111.582692553127345
47.949759199728248 -75.399026834145602 -110.687931547443213
105.322929761298695 -73.920919587394906 -111.846769660569052
37.865808507969113 -75.910329642561308 -112.751195562198689
-93.116010202221219 -75.196069750872610 -113.900876736754427
111.378622892055915 -74.438682141151730 -113.621911869735001
-89.326418668730469 -75.892230532061518 -114.632484798840039
43.804850661307910 -74.465649264373482 -118.394708392469951
36.061741957368078 -74.440129681853108 -119.106394731874147
107.595702813847879 -75.271070914905124 -118.780829570690770
41.443066915061230 -74.405272542269941 -122.855922832010648
43.538564487593924 -74.404153978751950 -125.462799303848428
110.017545215470193 -75.707602116338762 -129.599385948100007
39.064435504578334 -75.132994462593587 -129.471595124992433
27.936612661335509 -73.253464814555514 -133.558706555423981
-53.253820835806593 -73.848013804256524 -133.260416296896892
-56.167527153885793 -75.375075144176435 -138.423586745339833
-47.031365005809292 -74.183260857192622 -140.496511442662324
109.181413286358449 -74.277538000448232 -139.137338776961627
37.052309848711758 -74.436143524714879 -139.900895150986742
-73.563162043112527 -74.582121197789931 -141.829817268341230
-45.162507469413711 -74.909208949368107 -141.559353960046735
113.647369333685120 -74.091016510439346 -142.338309238004001
-48.214806810169442 -76.584646246255716 -142.236622825544401
-55.002055856648909 -76.155667735506739 -142.396485103499600
-74.191087537815093 -74.096639908456879 -142.710771147355956
26.393472676871724 -74.441639734467358 -144.407196619234526
116.798406502891595 -74.322253048926726 -143.809703200571306
-68.083814748734426 -73.017402665669664 -147.003124907385427
109.174143050450454 -75.773304454524578 -145.764190338274489
34.329779949798727 -74.277824849874989 -147.875110217751171
-54.990386399085565 -75.297908980683275 -148.769944489591779
21.331552904509593 -74.358586784097582 -150.165313847713435
112.881745964695895 -74.099645414927252 -150.188389308565917
109.362428698244415 -76.128284738410798 -151.835608684567660
-51.507677110344645 -75.289371194524506 -151.848844135347036
-63.496941923659655 -75.132752803892160 -154.832279638288583
113.465994054435384 -75.348187409463208 -154.410582994478375
-71.164654958275591 -75.726921293513044 -155.100851360886253
-66.188804913654707 -75.591052455035296 -155.465897069875666
3.998138553434128 -74.944600040715670 -156.285532001692076
-49.501623308335276 -74.863811052244827 -157.677603653572390
-48.129405163472263 -75.971452766453126 -158.041475005278159
111.395652931279557 -73.568448427988685 -157.545724170644831
113.009250847363347 -74.568276047147990 -158.328226356983464
111.869982364854565 -73.508226431347651 -159.350767850373330
-37.358947791316190 -75.928676636734266 -159.427663929135633
-60.247287566773245 -74.259022408936161 -160.119298245245290
22.845034991473096 -75.417572234804311 -161.045537699383090
108.065176567179392 -75.013020091058848 -158.653532067611479
-65.740160807917817 -74.167957072485819 -159.527926183926326
112.931193987071850 -75.426306218416414 -161.331484613990085
115.388804618254994 -75.449038042219129 -161.971399908565047
-69.691492415820548 -75.842528614884216 -162.294141442135270
-63.644462307031581 -75.503904399548816 -163.088988144508846
112.915188222868622 -74.273177608296166 -162.270852349374991
-62.149982269093080 -74.788724624224287 -164.796190270238753
-58.490750174955068 -74.956480551110673 -166.157340835632652
112.396496413689775 -73.069391306718600 -164.542528145138789
-68.347138800798419 -74.995094225068485 -166.736641181944151
-45.381581695314559 -73.993411213879611 -164.479918109249326
30.023704024149072 -75.790798054121495 -165.961454504965928
-2.922192735159494 -73.936035019373918 -167.140799993789130
0.762347502194234 -76.155905373835921 -167.842734607594139
18.342074478031680 -74.445744983649661 -166.493250978661052
-43.208847755446534 -75.918953223049670 -169.383145003867469
-0.405805616370813 -73.310065893317656 -169.273810069847627
-40.950493868497446 -74.865760619643638 -168.728235193457778
106.212095978682541 -72.333461985523996 -168.814309241692172
113.335545381015393 -74.727074221760105 -168.779693883847102
29.653387740721879 -73.630324659303099 -171.389171640272821
20.675980674414408 -74.853541231400285 -169.790990097748335
-55.619037213688927 -75.998202073702302 -170.853070059764065
-62.618757802035269 -75.129837961908919 -173.634693899804660
-38.285709461467825 -75.054052194476100 -172.941643020640043
-39.099815975678851 -73.258353000541604 -175.241257487756968
112.921802677594997 -75.120728338227835 -175.642236814897444
16.356538442001877 -74.862857268678781 -176.056116050083375
25.171283314760199 -74.709694370860518 -175.541324491604882
-58.965215626040511 -75.115283232327542 -177.579617930109436
-52.324950040101719 -75.070901965478427 -179.404924823462608
-24.439054928815239 -76.819890254018446 -179.241227018648004
15.408650828759951 -74.376500185878655 -181.484700394046314
-56.240031579668795 -73.653807649850336 -181.984713393908720
-53.959527627172029 -74.621268105710172 -181.632407014573232
-148.511296237447283 -74.525001104348391 -182.293105236430506
16.331047136094249 -73.050894979099155 -181.169158137701714
101.452315573286882 -74.417828967928727 -182.173106982693639
-50.244302888131728 -74.705594850551662 -183.182620200056874
-23.999376563550122 -75.694036915327800 -183.732509611772656
-32.322698167505514 -73.756501914601401 -184.836534973818203
22.888356605507283 -74.075037083474982 -184.290687428431312
26.967197866648892 -76.259820241459252 -185.281440405634669
13.248967248730770 -72.440380476691146 -183.954502686709418
-51.712538001708637 -74.006877188705204 -184.356750746595111
-144.480747830059016 -74.088814436697277 -184.832315728146028
-146.559078388593605 -74.912710744354243 -186.558944917728752
-49.557448589059817 -72.340410727595795 -188.048559541250171
-31.385181910865292 -74.635026496860547 -187.830874486127072
-50.790845529046031 -74.372006137877264 -188.763544749261143
108.517303691495542 -75.389829587251072 -190.430104987687940
-44.857639134882902 -73.872655085887928 -193.078322404455918
-148.372815889591720 -74.770018672505188 -192.610259546606983
-48.604684423143567 -73.592851695646758 -193.700240862899619
22.637287011399295 -74.563229085803925 -195.137915819538790
20.162846683210802 -73.367140401040984 -196.397400576426435
-44.264254329239954 -74.680211287124308 -196.891651683063003
-40.568274749471627 -73.569617193362518 -196.891118492043688
11.152225072187688 -74.990014228398607 -198.762294951878999
-140.561086744260763 -75.478699189417895 -198.168829861658480
-11.927498666354891 -74.521826985258812 -200.931487450475402
95.185499880965679 -73.937623502263818 -200.486314530034093
-43.120654597610077 -76.365554311206992 -201.264009358745142
21.891712775651158 -74.556223187480583 -200.789572165083371
-141.822282644920961 -73.695771230710150 -202.130713949525614
-35.243640019941395 -74.894146785301459 -205.550697943372029
101.659539499498564 -75.630627888448657 -203.441757735025504
19.486393438013287 -73.240067726000774 -206.137882486839828
-37.388832209713236 -75.013548911303246 -205.238704137376629
-20.622491354755816 -76.942192082124109 -205.266504420100432
9.353159807874977 -74.432226787781886 -204.815868225997036
-31.149835319437699 -73.706655074763717 -207.323955540725535
20.170049489486740 -74.796478963462846 -207.398079079647175
-7.548136810838317 -74.616966206907193 -209.247000767882952
-36.598997805471704 -75.231301088852746 -208.854274803073679
-78.095635573962184 -74.065647002486514 -210.735769789514279
-78.510870106563644 -73.344974544651080 -210.624018068865553
-15.748783598018003 -75.072242788523582 -209.692920040820098
-77.370767106412970 -74.791698103753944 -212.647092863828988
-149.654852222842408 -74.466393884600919 -211.267450323846958
-83.583589547026165 -75.461061597780471 -211.977598428299501
-78.294324071816604 -73.977584124071967 -210.749114068072117
-6.651858671753436 -74.277128964453425 -212.526534096417151
90.555893768580916 -74.233463646883266 -212.057252825978850
-86.192808482416339 -74.651606633386933 -212.806102138955424
92.177035658656294 -75.230207200582257 -211.636237202386184
5.594352898049197 -76.450267767254175 -211.508261700715849
16.432963685246861 -75.404820658800958 -213.170428054358837
9.171679234199978 -74.849686306087136 -211.714018774624691
86.865107630605095 -75.855483889837430 -212.587903511306507
-89.980254764470033 -73.043243890600820 -213.140188400342851
-30.746857694379532 -75.086561942383796 -213.152863257035676
-81.236926467925073 -73.395596999179446 -214.747180781507382
89.294138677543685 -74.158484771018394 -215.491957832377665
-145.440268719757256 -75.185852744098966 -216.544426352686429
89.935481523233761 -75.797413640269752 -217.269851544204386
-21.858870518095156 -74.094973080852569 -218.148974142411447
-15.579344113794519 -74.865266636401614 -218.041876319325041
-2.404718369248807 -74.119657788340461 -217.318194585630209
-17.584601039204554 -75.351050156467991 -218.419896613473696
15.188356801799854 -74.878956238157372 -218.899899392589049
86.574146912108247 -75.610355764640261 -217.742819999606780
-22.313019935872870 -74.271147772531492 -220.195266084709857
-101.208778164759323 -74.410217806733698 -218.045800588183653
-95.007546236052605 -76.252672403205480 -218.797167132025294
-92.212435671428082 -74.632819712630024 -221.226527363295190
-3.842299186102236 -73.880702113444286 -220.461866156933553
6.493795781803176 -75.645962663920656 -219.187260312598994
-28.631319362328167 -74.721349975559519 -221.957503409458496
-17.886883946934290 -74.977612845422797 -221.210829883285953
-98.099436601598029 -74.298792455425328 -222.409484554601960
88.836172282927421 -75.392237582989949 -221.787102091643305
15.088191451846523 -73.926651726227831 -223.784043459319690
-143.559810168309667 -75.488763707523219 -223.920569279260150
-15.387410531837036 -75.785868786162311 -224.104958358204300
18.975783531522186 -74.711917749403923 -224.991943871232422
83.989469810204582 -73.484695480456338 -224.509032309779229
-141.188420585032219 -75.765011084114008 -225.273451013550101
0.800639202318735 -75.396938899860714 -225.495677305487760
81.891455886118251 -75.596785406423265 -226.345529327473457
-15.260472189981208 -75.765757854565692 -226.077832978551385
-10.910795200399335 -74.611607125589799 -225.706954433177799
7.100005162145901 -75.363177546781458 -226.677047396689289
-133.538569214851179 -74.521718327825425 -226.646480797644614
-126.885357156755830 -75.409954623136898 -227.719981730798509
16.397898534485112 -75.548767041430153 -227.813256823204910
-12.194455383923778 -73.676474697714312 -228.183118357314953
5.562167344581901 -75.229060919687655 -227.751329161228057
-139.876942239971839 -75.733710995663941 -228.097966676164930
-8.259492710456465 -76.434220817201535 -228.860211500171431
-4.494925117533759 -74.788266570138788 -229.969239130976973
-133.263501171401657 -74.865193572567364 -231.007133784803187
-124.814670340665643 -75.305193851785063 -230.796825838812083
-6.701616085840715 -74.695587898660960 -232.093286562945138
5.132552648512942 -73.284702819442657 -231.235459989860288
18.905893956409290 -73.594993887009380 -231.221565376482175
-129.326993782398176 -74.852017496336956 -231.018898171893198
8.371291754928320 -74.262386556906790 -231.470887137338735
-8.719456328078373 -75.817665324992419 -232.969665182061789
-4.964354794037171 -74.245578061946802 -233.763233975659887
-2.705004549030473 -75.070329855449970 -234.125727970432621
74.169231020398314 -73.802865318000002 -235.093723849004107
68.483483371306917 -73.386918163945865 -234.705746870511490
-19.409386254503008 -75.779725158152829 -237.214188457737293
72.892563496516999 -72.800244873755361 -236.768395851182589
-21.265320394094985 -74.606803911375096 -239.750592465550824
-23.504323185381157 -74.000946997992742 -235.724272968612439
-161.007024111587242 -73.839043089907008 -238.236278340829642
65.279675230790403 -74.911416242603266 -238.877981647819695
9.896031645465722 -75.497138095327770 -239.333996478328061
6.977494613134337 -73.023077103944246 -239.273821381803515
2.045625262096855 -75.064664820310327 -240.452363783303923
65.360970714962392 -74.253340699111860 -239.822773165025296
-38.190454331891274 -74.749509878915816 -241.613358244488467
-35.016808904538038 -72.775698393342708 -240.885901277678556
-25.344944304147909 -73.974825401736709 -240.345018689096065
-23.028174333520809 -73.498032011260847 -243.289712071035609
-48.417558801133907 -73.556149820141258 -242.962657501918414
-46.024987384541539 -73.992524518340701 -242.440647987338650
-34.085542190632239 -74.533154962298696 -243.155028957575468
-55.568373175968574 -75.018826644227673 -244.202952425860701
-39.481821892311814 -73.845997747321974 -242.954755929969849
9.174267212525054 -73.995945965844655 -244.017951602075954
20.811031516633751 -74.322069358129824 -244.204710364895192
12.011970535446876 -74.923495842520282 -246.488495011168254
21.306564485512467 -73.309273677319339 -246.660019556693157
20.584790896931192 -73.048295128810196 -245.667294401717697
19.343172936074794 -74.896286193680766 -248.498886892536802
-149.627615471138739 -72.710594438957472 -245.948101341371881
-50.411585421446084 -75.099482525475040 -246.500159308694919
-52.718844108009549 -76.000489200766864 -248.426793570166978
-8.746389426937810 -73.619920377212495 -248.823942842162779
-78.398754024762951 -73.493010972596821 -250.499063998571557
-9.431809839006224 -74.159262081179619 -249.526626186015847
