# This PCD file was generated using the MATLAB® pcwrite function
# from Computer Vision Toolbox®.
# .PCD v.7 - Point Cloud Data file format
VERSION .7
FIELDS x y z
SIZE 8 8 8
TYPE F F F
COUNT 1 1 1
WIDTH 788
HEIGHT 1
VIEWPOINT 0 0 0 1 0 0 0
POINTS 788
DATA ascii
-59.881020434844380 -70.788094997068612 -291.860700584348365
-69.681269841800685 -78.444127077122914 -292.638365579005267
-7.708107257473513 -69.897959100228604 -290.688489218269751
-3.251073805951688 -73.078994947069617 -294.007640288009611
-73.521159480882233 -76.668671678803364 -293.674334805488343
-73.900164694763632 -72.286512507448890 -292.545778962635382
-16.480645763460871 -71.989812558135611 -289.136778371569960
5.073919098359900 -71.793665466114760 -289.413605989170151
-90.542440279906145 -70.901968234062508 -295.479537645835762
-89.941660898589205 -73.423363877398955 -291.580672451127555
-102.312331865686275 -72.445894378353429 -291.978142396819464
-95.600739768871279 -72.174050454156969 -291.762907259131680
-137.743899039171282 -72.131759808740426 -288.179771519028179
-119.675164584434228 -73.135497983094922 -293.476055783875040
-145.446465038863892 -75.090681864884189 -292.032269248081263
-116.215319056689950 -72.513378104983587 -291.168575808642345
-133.194053280534774 -74.636443200656032 -296.319976392124715
-125.694364832587652 -73.524509672913652 -293.863176593703713
-126.189107756073327 -71.386690755711911 -296.927578804435484
-142.318730943707152 -73.469951285769866 -299.993207526061667
-146.826769568485332 -74.395816678657468 -308.806364850725913
-149.024234532891796 -68.242025244409064 -310.572783635497103
39.937781826823233 -69.286767432282673 -15.982612210314564
32.778743632548441 -72.652169958011257 -7.000195318980161
25.869851228715365 -73.623204589413106 -16.085113969069191
22.361573931025539 -69.113314689778434 -13.507994772100590
32.981798520500149 -70.456075949398610 -15.493178622738593
33.087905224926217 -70.104335794050343 -17.207209738249929
22.287721345854145 -71.039612005838791 -15.800102545899421
43.220082936073112 -71.439377128358046 -20.615130885902687
29.286425371688704 -70.601048198759784 -16.729014052315836
19.058901801260472 -66.522877257247856 -17.457864990683497
20.981554188374783 -69.881609835487438 -20.660999505541245
24.057000087514911 -69.498585562156634 -21.052044108402988
25.561234117276317 -68.887065097523944 -19.745165947241194
27.786836263980529 -68.623412023339412 -23.613408921653104
48.436093358086438 -72.482028497822498 -26.000126283417689
20.275457697170818 -71.328327961150421 -20.069515286429379
27.298521201154152 -73.031542415819573 -23.463914534374794
41.674333340280356 -69.968828513114175 -25.017381110326919
20.406472580554510 -69.859353048537216 -30.563440633083196
25.108811559853546 -72.144737286177431 -26.997577849070158
47.315468943447598 -73.483220805639732 -29.130957465101240
21.172582621269658 -73.682509600947682 -27.853696783664642
29.601560318125088 -70.944814909854713 -36.991051519799768
26.459216791105320 -68.403566913800759 -31.949559504910130
47.493459453446931 -72.532335749535733 -32.495516903031771
22.440108713578596 -73.815931133805734 -33.985043128574226
29.389676363646387 -75.217495444112259 -35.940247516251148
27.388759192250575 -71.979350594130622 -33.307048061234113
25.145320841359897 -73.085182048838632 -41.503532515942879
26.718298252428781 -72.913174859782444 -36.142917744934458
29.942519113003630 -66.946217436172702 -34.205232696872265
35.935953273602479 -75.705437448606503 -40.350545721505384
30.828237920837399 -69.160056710663937 -39.221171035851071
30.021575735821095 -70.721367915633749 -45.475215639380728
28.676943910780246 -69.945949814379361 -38.342457205492416
36.249738824509357 -70.262752966213583 -43.572804545541054
-48.612998221213743 -72.939753323910637 -49.565877417733340
-34.303478668250989 -70.200126745903930 -49.655749185902543
-27.270586955512929 -67.478670763741661 -54.953812954244178
-85.824416040846074 -64.474089183679666 -52.997844500472389
-80.518306027230324 -70.762734486570039 -51.842419005204860
-19.505070283648138 -65.696030600883859 -55.726483377182959
-85.682696049983250 -74.426070329449402 -63.433431177617855
-17.055958380041400 -72.050298749969059 -57.165161075993176
-11.430193860769945 -70.926806464477124 -62.964523546600709
81.156647585409132 -70.444742267054281 -62.973269813720414
-90.190538322312605 -69.938659441828733 -69.157452677260011
72.281652505057593 -70.497002935513208 -68.078372293186675
73.641677510550906 -71.120883716436495 -64.054411593939520
94.467720376660225 -72.816239755317525 -71.622489896048791
-17.261767431636937 -72.228429205766759 -72.629101830892836
71.296643136191435 -67.524288687076947 -73.347130919065989
97.419739308313325 -68.602532214462016 -73.906271578488074
-19.916039699174910 -68.807080406166136 -72.232960133351213
96.654048275904955 -67.658018172944168 -76.393531787024159
-42.664186995162915 -76.676293169895203 -74.557456037080684
-39.393009840783876 -73.222641105118512 -74.510329299770774
96.085154560354113 -68.461359448217209 -76.745384797215991
70.801223640636366 -65.849595667880848 -80.301232680181187
99.525830776502644 -69.293863042440691 -81.699925168493564
-96.206903186995035 -67.869715816642810 -86.652716775286223
-46.805466163946612 -62.727280291148752 -87.972222342747628
66.294060092435970 -70.807023802141416 -91.816936313322657
47.739856343006338 -75.283971662599498 -92.053536191274659
-55.860190815000877 -76.020401029811779 -89.901105455508073
60.596518124113750 -70.801260377978011 -92.476759310327708
54.158953006045920 -75.791261172373424 -88.935628082746987
98.617479911833001 -72.247950147495601 -91.497101501312812
56.286323369604659 -70.624281759744619 -96.934314188368987
66.857110310965325 -72.637041800891609 -98.829649124147650
62.288475243175967 -71.491739987150766 -96.545814056410663
94.441119920262153 -75.232715678420433 -91.930390842540348
103.486134398243763 -73.184934134635142 -98.753598213053124
71.016666499402959 -69.666531560752489 -98.851140023605055
107.148582296139622 -67.115834142504667 -97.281101817460836
-64.570790480927442 -71.150431792001527 -104.069989171786929
40.521039293313414 -72.807001280506853 -103.618396791515210
56.931843339521251 -69.571270762840626 -96.558843084954006
41.208437319975317 -76.347605122812922 -101.159124503010347
85.044889808561337 -70.248581708791264 -101.861916164493749
53.318297507148266 -69.788891783890989 -100.332255160794574
90.460744340803089 -72.485912025963728 -109.519519477730725
108.132114620952720 -71.215829806354577 -103.834588214310585
-94.942944292749857 -68.392085789934271 -102.170528615970625
115.269093012906012 -72.383792312440676 -109.504428579151764
106.414401534357040 -72.283132607490614 -108.478254910031936
107.115780953507610 -68.107318749857114 -110.874960315397132
106.954379668538863 -70.110768356699396 -107.559679982043519
49.693183539866695 -72.732117136528103 -107.994311691066258
34.932129635024388 -68.713836077750614 -110.877543748439933
108.505973625722461 -69.461285466122135 -109.910449498087686
47.508191543458302 -71.982031361346614 -117.569433210261650
-75.705812113825104 -70.604005917675593 -115.462577118024981
42.117077056980008 -67.465085535158551 -114.088593124134135
41.602384686363578 -73.306634892045309 -114.400975811259684
-85.801398509156670 -73.472863616635692 -114.741937844158400
-78.962187859249752 -74.097621114407843 -112.866765621894785
106.759938044784576 -67.682233134019953 -110.151011203761286
37.054054536540278 -68.143902385925088 -116.010086645220596
108.842151399554922 -65.642693720767937 -113.437679412171320
36.715518825206075 -71.265008990432079 -116.837333665632215
107.810991764801230 -68.792091046605151 -112.579628965959103
-94.896250036868878 -70.201855269769013 -120.860739039067198
-94.101649908711707 -68.731201912047453 -121.554537695496919
-82.070420875059341 -70.086536538838331 -119.189032637137728
-82.765472506260991 -72.656544825716708 -116.794626321578377
-95.044887555760994 -70.789610243358624 -118.161515580471701
111.861028084347637 -74.779654540572395 -115.560843138863390
-78.916317294008536 -69.971405128447572 -117.118083870112486
30.446084694974136 -71.676193553130901 -119.723415723259521
36.881806711163435 -72.052918018395189 -119.102910854357503
-85.231954482277047 -71.958724885000919 -119.082982244479396
111.389608259740456 -76.757529305473597 -122.199121245658191
105.648625393904979 -69.650650392953494 -126.502621339257516
114.771884983228304 -70.371251306371420 -122.021628562976275
-82.684130964921067 -74.522658459963878 -123.193261230704991
32.667920450084388 -70.164201937963043 -124.834857372484535
-89.987190452458165 -71.931720988382892 -123.963753560114995
-77.324621855835630 -70.090986553222521 -125.833081876725245
-57.009500836337317 -72.814875313860227 -134.462016278605631
30.377777697286923 -70.491213148932729 -127.091295045285065
36.811342679738644 -66.199022694944730 -129.374208986989800
-86.800599291081340 -66.643658759121138 -132.336233175734151
29.715526816826561 -73.139122289225668 -129.962445688818235
31.993406021772195 -71.755440111673323 -132.433026369217941
108.696811556465107 -69.778176337021620 -128.118974493900311
116.285035681997243 -67.754730432031991 -130.349869586109463
-63.422175035571165 -72.918171570020334 -131.552401025753340
-76.049117953978936 -69.302279780863287 -133.167027117566874
-49.139011271441639 -74.680127146189491 -138.053915344968829
35.871120020673835 -70.302373099151623 -135.708639328952586
-59.497197261571003 -69.189582296098095 -135.879616542590867
117.453882816916590 -71.129110223406300 -136.329618141037656
27.413196943756219 -66.963635399075315 -140.374405145699171
31.706001221303357 -74.151055014870352 -139.319194349203372
34.693503425433754 -64.960963224459448 -141.461138660234752
-70.724348823414317 -72.852141176751488 -142.296227678062110
-55.635770820009952 -74.990889996209148 -144.567979397672957
33.330116323853787 -70.461772075601587 -143.448715835711255
24.983886166662252 -68.734698488790158 -139.587564923522621
-78.054399311814379 -67.341559136509986 -145.941909532510493
-57.537238924445035 -76.800355723462957 -143.656892156679561
112.910401929889119 -77.735352832203390 -145.409683109697397
-78.683776944841469 -66.321246725039998 -144.129923870683882
28.669116548698764 -73.697090679200372 -143.052598729370914
37.272012488454386 -68.944364036427800 -147.679195451227486
27.804440934302765 -70.902636145416821 -143.602058829789343
115.417312196775910 -72.623942193680463 -147.273195759021320
-41.554809283000466 -70.726364834990122 -148.458004221531468
24.425213401591066 -74.194981384284404 -147.307667406578872
34.427039290229608 -70.536828791605913 -147.589769333280998
27.933696298539811 -69.240571968139022 -146.241723461995377
29.333591883496201 -73.894413346706116 -148.610903970827934
31.867887308220684 -71.151106415153805 -144.442661562882535
-66.335853526613661 -67.892633011478466 -156.387049662647371
-46.030397151459589 -70.498342589211532 -153.297117968693811
111.088302411583641 -70.844225313000564 -152.716875973681169
21.634421578697793 -75.255229584352264 -153.465001070689624
-42.555647377845041 -69.370297491607502 -154.011102724454616
-45.933316054430762 -71.379574163525504 -150.226832690542039
-69.848205461256924 -71.803116750398146 -154.746699182309897
-70.442386757735832 -70.586067157792826 -155.980927269829039
-64.901878234901105 -70.932550679193724 -159.512621586882403
-44.829990415228060 -67.661724198400734 -154.480701404768269
-68.663983910589209 -69.903885519400362 -163.978191606670833
11.887615871955182 -70.041608099694912 -159.677157100897688
12.749553233920494 -70.314758163102894 -159.207191148868844
110.130070292116372 -77.077368715932110 -158.310959178752853
-45.895253837391472 -71.633447266431730 -152.032477627960958
22.070335375791512 -72.964281495118883 -159.995413445989414
-40.108159844021749 -72.600597967425998 -163.047583126455578
3.958950400220923 -67.006698272893914 -161.220710656659321
-32.912239883040030 -72.043885797085295 -156.386210891456216
28.405052780279906 -66.946747304106211 -161.433962065071853
109.830551038847275 -77.720786158243101 -163.622803777681270
110.750496725030203 -69.681799812134514 -160.275948016910093
27.369019641394988 -72.212266176062869 -165.404884891840396
-38.738264247806399 -74.437068344296819 -167.092294155691462
-32.102759224743806 -68.840313713021843 -164.423004848126965
-38.988708894483437 -72.099579907671526 -161.843900316751217
28.636656033015473 -71.464556748737593 -169.063333251250981
-36.035706633929451 -70.979618870907842 -168.682950182785930
18.637805663187510 -67.888264885736177 -167.448862989598496
-44.313512557881147 -70.991305512011508 -167.836596073438329
-35.793872457677530 -68.751253044152946 -166.856480470928744
30.118477127214998 -69.631736797483015 -165.875008750982289
107.773219960213254 -68.888579214160373 -170.294787889670204
-32.269881952766291 -71.332111282569301 -172.018124549522611
115.329139091463631 -67.025016734170777 -171.457711479793829
-31.976052470105529 -67.358491297878246 -172.359138535846654
25.305766071837560 -69.359043213687144 -178.540109975912117
29.601198806119129 -72.831237370554007 -174.460140787382500
107.079246768565653 -72.012095459538131 -177.235274739898330
-25.235540947242960 -70.506829833172958 -176.112042753214212
-32.909899576912451 -69.914588617871360 -175.002136374967222
-30.546560671367278 -68.202216423117576 -177.330036853875782
105.885105246684461 -69.809367410316753 -176.077714535778881
-22.812400742933409 -67.672036225296551 -176.472593597618214
25.431440002601185 -72.855018828461539 -174.098299839910254
108.272461062367853 -74.032479381284304 -176.217741757503717
17.087905713727118 -70.311596694239114 -179.280172225592679
-28.347969458863613 -71.077777406166263 -179.783689538654215
107.743414330072810 -65.746485433856520 -183.272832334861931
-35.666441414335161 -72.924599232544750 -181.168009443683218
109.293893416327535 -73.681019484085624 -180.222415886860290
107.391300606275010 -67.939297987041172 -186.418938327902765
-153.482989570178944 -70.897482828095917 -185.098081550864720
-20.745199064853427 -73.248140450522627 -181.544774679452416
-22.634673354792866 -72.047410464377023 -183.829240536150024
23.237463175378821 -67.249549094003953 -182.632847721706952
17.945041544068228 -66.618008878331452 -180.726273458253104
9.627138786518872 -70.904085801444367 -185.495778316780189
106.138128152193474 -71.486356896637716 -187.643563681853919
-146.987930814361249 -71.554285574303435 -185.339626858172295
-23.386282276570341 -68.592348301947567 -183.089762334136907
-17.595620002356203 -71.564916088573327 -184.632064340812633
107.325171617033149 -72.092810859502762 -189.915293628917055
-149.497085104389356 -72.842118268799993 -185.204766190053078
-141.903777042005686 -70.632131232517310 -187.152636638858496
-30.670656886904091 -72.879953569552498 -186.795352103622122
102.321970719591590 -69.338044034698228 -191.092807528278769
-26.820097312029020 -68.295574143040767 -192.270663492856585
-15.904619533552552 -68.541611062336159 -194.746535154413976
-148.898024566623604 -76.150047311572337 -192.656537645469683
-148.263648084313274 -71.441035648773038 -189.514728583809330
-151.176119092503399 -70.576113847209882 -194.692087380115481
-145.299358327759592 -74.080493366400191 -200.385014486701351
-159.690998098718893 -68.244170950834871 -189.785719186459573
99.907057507212585 -68.784476116452964 -196.376218839454737
-18.489211326972445 -71.934443306482322 -196.155615685856304
100.956444572363310 -70.829250782661006 -198.509115097186282
-111.873577235655887 -71.930212847876746 -194.580466315450934
11.242478745956278 -68.988593109030191 -192.162806522130353
-161.547145806149302 -70.663682406841332 -197.554992160430629
-106.552680175010806 -70.026409596325607 -195.544414723743074
-115.553287499343000 -74.322052530551588 -200.537920254721001
-109.297325946425104 -68.954426614221688 -197.371675262334975
-112.701778314886596 -69.151577258578143 -195.440555342259586
-10.753489474389447 -75.554174793466814 -195.559633201558086
-21.855894563389612 -68.840882832241618 -203.099179608990625
99.408221756065728 -69.659081280548349 -194.786102408813520
15.411276577584106 -69.112912484238024 -201.805110591667955
10.470867308371338 -75.388571560823536 -200.969575945560621
-123.122866493298091 -67.890180593178869 -201.440692889188966
-138.153915664045087 -71.610163162531506 -202.873604977314841
-162.807442235537764 -73.914491633809618 -200.839039060973590
-23.370447013982847 -69.332784312064305 -207.568935247528970
100.152287772231219 -74.211682741117514 -196.980924675646889
-138.752228557338867 -74.283954723937129 -205.058181120104308
94.382902027585203 -70.977596873675608 -206.416797642763015
-11.776344334266286 -73.272594372999336 -204.360113024320526
13.068938560153381 -69.253259722333070 -208.724318604317858
7.732381223556233 -72.188551545456249 -208.910523510558932
-142.882907451699595 -72.906280917166697 -204.625076774471296
95.417762188371228 -72.468788419581600 -214.390911178767055
-21.287907344791016 -74.869939678508274 -205.613553724332320
18.623711676363850 -71.378664407969623 -209.468968728738645
98.330824411365413 -70.835519557650457 -205.887299062097213
-6.920645179513368 -69.622699774592618 -212.110522482029808
96.039672427272393 -74.199657762613043 -207.285831742203186
-10.562689072703749 -74.120599914591580 -209.586764358416502
21.999247062600947 -67.884981147231912 -212.018649558187093
-143.828682202911125 -71.129646910748960 -212.476555203067591
-8.030139736029069 -72.795446281791726 -211.385156326641379
81.904536451449147 -70.409011547000375 -209.063773610081512
6.791440141740392 -70.888844220794127 -217.319451486220345
93.121844222485123 -72.717859283011023 -211.069563872014072
13.447291269636377 -70.460884806071888 -216.430777215702506
16.403861580182852 -65.872688237262679 -220.318806498280139
14.131518520045534 -68.254677481469216 -210.754573405602372
-93.550982617293940 -70.529814547639333 -219.777638770177077
-90.070296047256093 -74.646648848242805 -219.030117661659347
-5.736995692418159 -70.009635288298554 -218.146319885804701
-98.024532072913289 -68.197067901747801 -218.206033673797890
-16.999924065569818 -71.982824769447390 -219.609350198486595
-86.861334924213168 -64.202287636091100 -216.880904773002783
-91.329242544151896 -69.949105822696822 -217.351982290880926
-1.165916127957852 -69.293916834529114 -217.439285634893423
-169.396872441359903 -70.233807765785031 -217.420344991104457
-11.595192442903764 -70.371913779265427 -220.452613104247490
-106.258999000639051 -73.483215434801778 -221.617270157272571
77.227776394022698 -71.327948669416216 -221.347804547521406
-143.717495373013520 -70.252380850902014 -218.536459214676455
-92.220144171956889 -72.629104773116055 -219.390140796419502
9.565552549931876 -68.961194034429710 -219.619929068785865
10.770883385096218 -73.206290740333714 -216.131031802141081
92.020902002217184 -69.195188095681999 -224.336077207305181
-7.206911910281410 -67.303814755213452 -222.954711167913160
17.106981138294092 -70.253552821975333 -220.367197388337502
13.290351339511254 -68.287901879752852 -225.568305835097703
-104.274662436138101 -75.715613154761812 -221.686518019901428
75.131247055588275 -69.456993965529890 -223.673807649783441
-123.818767232662807 -66.664885627959151 -221.680077950292116
-119.517708412607419 -73.576316752447283 -224.431147074036886
-16.227361966341753 -70.318801964411193 -225.458715926229644
83.567015666143035 -69.429085031473619 -225.521514926330241
10.104688544019650 -68.562266966538928 -227.517123925584400
-113.783510615129899 -68.811787334935417 -226.033046036853307
-14.931351703480640 -70.614425065342317 -224.780357086239349
-9.582451423904480 -69.406449859752684 -224.553809744145781
-128.745006823441486 -69.001094181701049 -224.167041501040529
-9.403855797573179 -64.869282514961114 -226.414584167311915
16.700566286873201 -70.199016488413434 -223.125712073364355
-116.187388817466271 -75.449450680829102 -227.712328938036563
-167.036096907101125 -70.882851643992893 -224.479614889389921
-18.157418697194995 -71.424193669322150 -223.809491322272606
-7.729395771481038 -72.763553435987276 -229.296862522119312
75.671115030919296 -67.880942198774449 -228.354111764017432
78.185785390841772 -67.498526785555967 -227.175324756738831
81.630521998327197 -70.159867444720689 -231.430665528656704
-15.097473407113149 -69.102948470948661 -228.678863947585882
-10.080814069622665 -72.560061481821265 -232.343015229284589
-115.121383048533630 -70.440860112673121 -233.586007260972337
-5.704981677494825 -73.743763727948775 -231.610499467152437
12.972612893212220 -71.161258505916905 -232.831479804887209
78.290146531666224 -72.851337069826158 -231.470067718209918
6.962208829710271 -71.867349735011970 -227.059144875828196
72.509827450857017 -70.266905754853028 -234.829736815830643
66.920735241283538 -71.465996711239754 -238.421265645211491
-2.485079632448507 -70.596233130788008 -231.789920102642924
11.896504913709109 -68.911814443862895 -235.326708117340843
-149.336174619357337 -73.755198028613123 -236.988775662733048
-7.838797081455890 -73.344055590423125 -228.807118430599644
-16.158776424288067 -68.839817090699341 -240.928571490137841
-0.390782426008541 -74.002718150723453 -234.718473826882786
65.753138680544794 -69.942221504140306 -237.305977095821191
70.194597374061829 -69.679417930633505 -237.852312858149389
8.823289998451672 -67.195446893252964 -239.925878055320680
72.336791503085479 -68.311844477222905 -239.672588871691318
-4.711491617145717 -68.686691214260790 -240.103973216922924
1.959976078006131 -77.367842900693503 -242.590215174004641
11.901895738453934 -67.704217037218697 -237.399712464708387
8.414328903261135 -68.451369530053981 -234.345737588432371
10.939275975361660 -71.717817568948945 -236.669777481292442
54.278215973052205 -71.039109444995077 -245.128812595984158
64.331315506953842 -73.929786851211105 -242.982975539415406
15.846775470306504 -66.298567376193304 -242.001597453358357
-11.022481056036955 -65.297057789631964 -243.640974759014199
57.122327912521669 -71.578129429739747 -240.442530636246545
-5.744193367174549 -67.114374015561864 -242.818610350674561
63.282489962386691 -72.531629224292431 -244.524749518086367
56.805018518814130 -72.836689388857891 -246.877549916327297
21.316968644883140 -66.312877668210319 -244.286760345114914
-170.514782529925839 -70.956249328422842 -249.046762413514841
15.421134479722877 -68.405768367029836 -243.151895123722340
54.847104436191813 -70.783886640080624 -247.467944333443114
56.833102627058736 -69.326391786421908 -245.717494776179734
52.912990464155790 -71.076807945852991 -250.357865238788435
-74.174194612993659 -68.714524683047571 -253.557492955196750
-68.137297510957524 -66.636683419876846 -245.808336617019961
-75.383405395052549 -68.792645815292573 -246.984320029539788
-79.046614665036060 -69.360088939741743 -252.708518073077585
44.976514187630606 -75.788755874839211 -248.596481677165855
-68.126083335068373 -70.770059767829522 -249.253775809499871
-144.558872561832914 -66.065930906411481 -248.366046025822470
-14.086807899650935 -72.400820662565309 -251.298630905394248
-167.553171949933841 -72.346060517968027 -253.997017717542775
35.704730245530023 -66.596492363438514 -254.863093542066423
48.127161577710297 -75.615490156859110 -250.235427226464395
-142.003940842555835 -69.596492044653687 -258.307767040320073
-125.458440960903729 -71.711359053571840 -261.763381733022470
-78.554892775241640 -68.403293594176574 -254.681866689344787
-135.495756640070198 -68.035358100702382 -255.859379690996576
-12.864630060399200 -72.166031924602692 -253.890425818105911
37.960732303700077 -69.702081469260634 -254.679638644499562
-137.720482914053633 -69.827921557818044 -253.313170383966110
-120.770422052458301 -72.193876014020091 -255.031454714576398
-86.084495272571004 -72.885793866738155 -256.422492289441493
40.027961789728273 -71.067604986429274 -257.995742901279584
-106.335962715146195 -70.979746102940638 -250.986094968484991
35.358094836146506 -69.381065929129633 -263.619968726630304
36.052693286426006 -71.734766760165158 -262.136939388308747
-158.139989144368059 -72.381322682768882 -263.386494002498978
-107.021962565618622 -70.066881006395604 -261.939184800808505
-19.588738237377214 -76.311651730552327 -261.346558136266310
-111.927327536100336 -70.190195945252356 -256.672547467425261
-142.628260732312128 -70.018587069458889 -261.833943076632522
-141.094913018437524 -74.995906633966982 -267.168615821881133
-118.611557101539091 -69.100580526023535 -261.146038806856893
-154.875099999277438 -70.977459505425031 -263.450083571176833
-127.071328043170396 -70.160297012553812 -266.238785874630594
-157.036606786227622 -69.733154827486686 -265.914233612924022
-143.141745249243485 -71.801851187709985 -267.373518639690701
-152.185081139537630 -71.672930225597554 -268.898475543590109
-156.930758761914319 -67.826440858328468 -275.322656850819953
19.090134128876102 -70.707390072780669 -272.742504828221399
-9.694691390405957 -69.077884111037662 -275.328449908195296
-154.571809791280117 -67.816042462871323 -274.064927748443097
25.135103190951661 -68.671131974596420 -275.144627734079620
-170.797115767075923 -66.461274653667161 -273.039627217294196
-159.255614360815883 -69.594765094251301 -278.714767437440855
-157.379421420254744 -71.169213046160507 -273.371264479381807
-145.515671727880033 -69.495706467218511 -277.544673198419957
-159.315413259159186 -67.637292513756265 -277.300138427270610
-10.471493123728145 -70.040378287399335 -272.139821236568025
-155.688946531256249 -70.603265671803825 -276.535501739077347
-155.097492058780404 -64.970615435575567 -280.276508590063600
-144.259736252403542 -70.897993989751214 -280.693707609657395
-164.532115949795269 -75.126453714660002 -284.695406680110921
-133.899951349152474 -73.789223432221064 -282.910030241012009
-155.844203709473305 -79.023377512995580 -285.926862362478460
-142.897932640708206 -70.485152535038480 -283.896436822900682
-133.612995094498956 -69.351172933864490 -282.351075555300895
-120.493475505750197 -72.522540025046297 -283.544725452530031
-157.982137805775835 -71.619138815295869 -288.104378406808280
-106.698713782756386 -67.110069646998454 -285.668697731222267
-88.606616982975595 -67.302372879053024 -286.370223092144954
13.666728242508535 -70.548834565950344 -289.476156076562575
-161.740242925505981 -69.686088627562967 -290.057345379817832
-81.240961953145373 -72.195476662361770 -286.270588869053029
-58.397703095061274 -72.939306271375557 -284.117842299388428
-74.387925784470539 -74.067134201039238 -287.755610386312867
-65.624315399732993 -73.057998033324694 -286.056842607576300
-1.588211137608482 -71.861746547804245 -287.455021678140156
-154.952924467385458 -72.851291575639166 -287.694360947307246
-53.430297208629426 -69.892678191588004 -287.924270117379251
-49.284806264914423 -70.512246989638626 -290.589141135492298
14.982644578223450 -74.942378494095621 -284.639909147142646
-164.136412899049105 -74.125874732062101 -293.148003306130477
-49.196701071876788 -70.575818619400010 -291.736749902703195
15.274238594320394 -68.090082625521390 -292.613106347061716
-69.539287351002997 -72.573762404567915 -290.640065774580421
-63.534249361228468 -68.547385419989780 -291.386629444420237
2.462092333877115 -72.819314674858205 -292.562767231903763
-160.340040199920338 -70.319896795577094 -291.256843146326275
-98.898256563979146 -71.244900086077237 -295.893376468765666
-2.445541136112382 -66.367314577133186 -291.450223067682543
4.787135700012864 -68.208908158515868 -292.581230819084567
-91.267861909460052 -70.729665689971753 -297.936363128018741
-114.074588339994079 -71.062511523782376 -292.701507119023404
-139.380852764604583 -72.956946691656213 -294.993873582545802
-120.434869105665612 -72.184144571026934 -294.882613702558331
-160.741844986195332 -72.037995465180273 -294.975836049185602
-154.647960169536674 -70.793871205025468 -297.115014130528209
-151.550030209207108 -69.644097251792843 -298.499258502597456
-156.250792842452938 -69.788851724420269 -293.752148663934520
-152.695311620152978 -74.640725758365789 -298.741706822068693
-145.858243184198045 -70.945753063708011 -311.175773205192911
-151.628571508801087 -71.003977036091229 -313.261693070765034
32.909484719166684 -68.242944190599786 -14.837531572316321
29.263472170845656 -71.276272897934604 -18.442144425520191
41.688721603239202 -66.866774894810860 -15.861866414774411
20.842769297824944 -71.208887691790807 -22.398383002317274
45.656701870455663 -69.409368402290625 -19.008708623057448
38.361598031411290 -70.500209791053067 -21.897421368608907
47.214700463269907 -70.230097420604025 -25.045066720596452
29.790940573932033 -69.074707342408715 -16.099734543154440
28.145409424845724 -71.324319010290367 -20.636538201840992
51.966382528413469 -71.184931241517958 -25.499491508498998
43.153154764497671 -71.535745255089694 -27.092763843282416
52.956920752995153 -64.629017177528468 -28.089599857344201
47.399644359296673 -72.694490225109874 -27.896214366132341
49.938778500631301 -71.194436518501064 -32.584561775326115
52.256745703031307 -71.440274037198208 -32.811366027189749
43.578186372407195 -68.864734371940983 -34.233082690098286
51.192912908777252 -66.130541978195168 -32.896616317506854
41.450756986751962 -71.715813716223721 -36.703337955373328
40.673552392017136 -66.532313245213473 -36.324579455654785
33.907579177081004 -69.231005438793204 -38.521785161804978
47.525525105943522 -69.398465736860118 -36.013067196654816
34.679135220473050 -70.518921328861154 -40.178862120875586
43.522868853782974 -71.035253746932952 -41.715474883128287
40.525307369124299 -68.812124755378193 -38.045832493955047
45.059808201172032 -69.754882763505449 -40.317721579629236
33.331269492096375 -69.491535668994928 -40.277747887336758
31.529215435932166 -67.216592142358593 -42.978659191262977
29.878174775138540 -75.763635011534888 -38.288943187287934
31.638715047293857 -72.746739774472445 -36.636818890627069
35.469966902082817 -71.741809314522811 -38.399236996088497
38.663366951691501 -67.284050527926340 -42.027579364708700
-61.938074025904683 -68.315633645934881 -47.887318722952337
-54.714157262155695 -71.634949197583310 -37.603774879387011
-43.459998352312766 -66.023846028572706 -51.908856446852731
-71.287745695854667 -71.564552541302177 -49.741843212629369
-39.592397681753042 -70.371965008135305 -47.404424360539153
-39.310352881518625 -70.973056650889760 -52.645355473640919
-23.345978697143032 -73.620628273457228 -57.064385555741687
-88.611997901698615 -70.627930525282338 -59.156668034585856
72.263840728747823 -67.087458795264240 -65.886476691593799
76.662616012138727 -72.058282738761719 -62.934830649831660
87.806687629246284 -62.294066933408679 -66.194398846339098
74.399537027499377 -69.389562201093938 -69.293795146564065
-90.138263685348932 -67.851138998994742 -69.293028012161699
-16.118684620837197 -68.788564366334356 -71.283269252159201
68.658135045462330 -70.188244344169902 -67.406178527617811
-22.684243279772360 -75.771132151720522 -73.018893031211135
68.522739795787899 -69.553942306907885 -77.757654164094433
-97.207797119920457 -70.019169492956408 -78.449473278135741
67.241158793828774 -68.401961714258206 -81.091255359816458
63.254909877108531 -73.652412958153462 -81.504599634604318
68.230414886362567 -68.614380325565747 -88.619739676337602
52.693478657156007 -63.465845007142349 -79.325815128243903
64.743461876754864 -69.213940153004572 -85.805461650233255
103.892843992872415 -72.675402525690785 -92.074070022226437
59.656019778743961 -71.950139389853987 -90.766279770748540
62.717134069107715 -70.307619139334008 -92.947324132259183
-66.586929786547728 -70.130938983376993 -88.260952548632318
69.280041370335525 -71.944726177648377 -89.469656129277070
101.954059432941335 -70.852825315890911 -89.868081599537149
42.796839943688923 -68.033384863111451 -95.082569755574070
61.795600212597840 -73.815818064608166 -96.188542424191468
71.308825739251176 -68.806037942325858 -96.461705295957742
109.653240716680230 -73.986828582483369 -100.189876070440590
-95.979544719945835 -71.460626128017495 -103.448684782614578
103.940022191780869 -68.071348396080879 -95.416824593998967
103.161648702777455 -67.179156176840493 -98.447280639043299
-77.675760636507022 -70.178330974674623 -97.469063075687984
-77.083162041474424 -71.360616091525756 -102.134897322875389
53.878061091198632 -73.304141815309009 -101.910112145535692
72.732149353847859 -76.718680802707510 -102.510357985538562
-75.068391164856308 -72.612339900292696 -103.545127148774412
91.544616282245556 -71.876193578525502 -102.698226148979288
102.889935146691727 -68.371474994777813 -99.977503966150806
-83.589662369337844 -70.178656853237229 -106.677594763898313
106.344811975404113 -65.873167430526451 -105.476771155699268
105.608060492603784 -69.467626610132754 -107.236832763941933
80.265081072809636 -68.654087769682775 -102.063663064354117
102.996462217497736 -70.857607318984279 -104.741627111799588
44.476446830426944 -73.430369378161501 -101.532808719963356
41.331744948870735 -74.321434437192508 -103.987113894319023
97.092302882326891 -68.170208819895478 -107.196528248596522
101.739749565156401 -71.133890446849236 -105.747386549266963
52.412904636633883 -67.766304935669268 -107.300842488054840
74.967514167584696 -69.293695383108073 -104.960020606549477
90.490326636948168 -71.673432123748924 -106.027301105923129
-85.538497215739781 -69.043230057132391 -109.923785701037772
42.626450816128028 -69.781210298780366 -108.205724460266921
40.757851264346897 -68.037044873178147 -105.085532732223143
45.311934607500724 -68.030947456829693 -106.517397620592504
-77.438439959475929 -69.436461289939686 -114.456241121190288
106.015047817452299 -65.459945848956508 -111.669181717374855
-92.685237368025255 -66.983818039650060 -113.603645286392663
-77.762470677272461 -73.336979544480258 -113.114557799232315
111.985284515677492 -68.671634575673650 -112.342403202591115
-82.325865364259982 -69.630716130834600 -112.173804004036583
-75.679974062830425 -68.073992688830373 -112.671431027252538
109.084541313508197 -69.976420621293300 -114.203110955563744
46.069388976425401 -68.193307166685642 -113.316669208606953
-92.408768379064341 -71.250076245801424 -113.859051797788979
37.751719201666980 -68.723236647820642 -120.231415721905876
44.165197044470908 -68.331704884375597 -121.047711997510334
33.898363564220375 -69.411823604639238 -122.119961680858395
115.792960454439068 -70.568134753466182 -120.708019154633362
-75.584328873818436 -71.575711832455141 -128.984469223773374
-58.860906697385033 -70.265250596692582 -123.850557426254738
107.208648301173668 -71.586330666416174 -127.875346434406282
41.053373852605269 -71.949924577766964 -128.762797755326829
31.780597532731129 -68.289130667004954 -127.572886992664820
-53.854383702323311 -71.151629090305335 -131.469016863490907
107.917372502009570 -65.413963049599104 -125.011534852759567
114.645264724545342 -71.692632958655338 -127.230974487320438
-73.920918882957196 -70.285398348178589 -129.054569601559393
-49.629259815947911 -70.015564327585849 -129.346398881020548
32.308190046222578 -71.476239592914780 -131.234971398369510
-81.688120464222649 -61.220677170798936 -132.057036464886977
-88.621211470363775 -69.110355669068127 -129.736910175517693
116.332284310349436 -66.857167675649194 -134.355084077726929
-79.007073185903536 -70.643676891132571 -135.674833663435550
-76.061249431662333 -69.817769509388640 -137.681355523842171
-45.221880609168949 -67.333098849671259 -137.372503393438535
37.956458555060458 -70.374087473020523 -137.571275565167724
-78.131838860011570 -66.346017733599709 -136.790610159210416
-68.185875726245328 -70.198073494713753 -138.563374606932967
111.804959705399312 -66.173000458666650 -134.262305930883457
-71.871397984358495 -66.753707897895453 -141.239370164935110
-84.132713952317729 -69.260409432400991 -138.343876510815505
-59.560024373015182 -69.567744868025372 -135.536663849809514
-43.593627257791034 -70.002614119013245 -137.304784755356906
26.402290972225231 -68.494789715016438 -140.284402255904666
-69.921503818570059 -73.293547103637223 -143.045489229523014
-70.204830517373452 -69.343694360328655 -142.321272835719839
-77.695312667739259 -65.195842645078130 -138.777178082755398
33.899399809641295 -73.335132991663272 -143.511619197335051
-58.252012570789688 -70.310965161363711 -145.347835135133295
119.958113519084662 -73.765613644972618 -145.525859602032426
-68.787808843535757 -68.837548282296126 -140.700788032167537
-76.578481037025043 -70.135712911500505 -140.996031170477920
17.233839192924307 -66.216078589492994 -149.008732858021858
111.572818900177012 -68.562351565659952 -152.019557942427156
-71.108895769071850 -67.677805569928438 -146.101008064864033
24.335229660524913 -70.550053573206000 -146.887773657920150
34.901733595585512 -68.819763548434253 -140.571274541035535
16.505448858838200 -70.274690184356402 -151.084598389063842
112.670016366923946 -62.776203783871381 -148.673585498338326
-41.751899956307390 -69.125666381761448 -148.129548259767120
114.113687999828699 -67.343306279722384 -148.408290247622006
-75.985221142406374 -67.222458050937846 -149.440296066718048
-53.732604933070540 -68.872019717165770 -148.641625738995941
-42.541606997136434 -67.132349736882759 -150.126728695612172
-48.744411392098442 -65.585275585256142 -151.968028855415014
10.607375979957983 -74.041744389246489 -147.499475208535102
-75.417609093220804 -72.903673614993096 -150.688077702220085
-52.918645896151077 -69.444703857427257 -151.466646404934181
19.003101596455348 -73.815283251252865 -149.762657804205617
110.134460553001077 -67.395751994874516 -153.870330562832748
112.305230533367734 -68.573880776459660 -153.876193707706477
-37.843327337417875 -69.821466143366848 -153.063604700178701
27.031892626322257 -70.484643063399531 -154.965000853580790
-45.907954694985250 -67.703253266247799 -155.646741651876226
13.889316308093672 -71.415579484666495 -151.067837973626297
24.126576831732560 -70.187999473140138 -153.696583902174410
14.746348667687441 -72.567343337079748 -153.168282219972980
-48.578571413975304 -70.625129266535041 -150.186381392997959
8.439379805717888 -70.121758738159784 -156.963188740766583
29.115236385994994 -68.077305032327232 -160.377871384206884
14.001653957107838 -68.705796897702712 -158.645572076761056
14.250962623512514 -70.912966945122363 -158.884525795086660
16.965077535303589 -68.245823954046429 -160.106875634531349
21.154179127792002 -65.681510748810226 -158.004473210428813
112.765960907889394 -67.926502345367027 -163.251935607120885
23.338657204813224 -73.596320858849182 -160.369892027241804
26.006817557147265 -74.197851249781579 -156.670478343269480
-46.915500874466552 -71.458075261633155 -160.981656533121736
30.507470179927299 -69.660862223260636 -155.177169658635592
110.922538166485865 -70.646342850117790 -159.980970679887804
111.498921599094587 -70.214974334785126 -160.002286540383437
-43.270312256470874 -67.728790415369247 -163.736780283220924
22.384480338427171 -69.243026472577938 -161.947658581722436
-36.886341585841713 -68.873141186833550 -161.997154401876571
109.116045130261185 -68.072727574413108 -164.103260749007035
23.680812959984948 -70.432564356511577 -168.028164882132330
111.293391469423227 -72.310894560800435 -167.966157120112996
-41.911739824866579 -65.888987341479790 -166.776428366410158
24.958711597885848 -67.831875181645700 -164.638096691571434
23.596350280145028 -69.098851306528928 -169.454528112308196
-33.295064846348261 -68.374810675080269 -167.128526806827267
19.479780820553444 -65.581173582370198 -171.437345022101255
108.029159585650959 -72.736502128551606 -172.418299724567476
108.408337961179029 -70.162542455440587 -173.745440960876863
18.326854646108146 -73.231680939032302 -176.133527271680833
-37.443768635939087 -66.729759182605790 -173.510551714005544
-150.358890501703598 -68.359356768422870 -175.791775548010378
24.208194862415674 -68.609462818651323 -174.616019954857762
105.891609645163584 -70.610219827620284 -179.685896720975961
-143.810391236692595 -67.953487604791476 -176.969301497858481
17.516055101248863 -70.508293272696037 -177.460549524199081
-27.894062667975632 -68.471898915340731 -174.240327499406334
16.668018427185942 -69.454410385892899 -180.354889101692351
24.409623589843843 -70.462561684438469 -180.961536704334520
-142.014909206714776 -69.915397070216727 -181.558422759633089
-33.723124974000015 -70.490522886159894 -182.472481662813152
108.679896848602652 -69.182272860201124 -180.059085033987117
-110.326223899659340 -69.860408291792552 -185.487963746478954
22.187199086668915 -69.177175390121008 -186.367336345129530
-21.461564080922862 -71.596824430512839 -181.148635643857830
106.257901403153070 -68.385990139136609 -181.854743450950878
-112.285214543007584 -73.693990995591165 -184.875672760754981
-110.310196528652824 -70.658359954511710 -189.827033233921156
-28.314040838868060 -67.333781370211440 -187.276295601159603
-144.667756443789415 -67.801112186528940 -186.175564301715838
-143.118796699568577 -67.199534765289556 -186.296151064701462
21.713471618852733 -73.831402716421081 -191.225652086239307
26.555218972844123 -69.534019277670652 -190.089600912975925
-17.790542711314295 -72.623104056217386 -187.211968993763463
103.486136758676963 -71.204736943898723 -189.574957969910457
9.046553372883812 -67.125262393515769 -192.430462410520022
-109.126712417693341 -73.359246517986293 -186.396737472538632
-17.620865084383837 -74.378364227381809 -193.086778901092288
-27.450638471781833 -69.725293507985057 -189.586726713345371
-13.927958076048652 -70.486120221088413 -196.544967750092042
16.735657955179665 -67.359876530681632 -194.017038219970345
-143.341067314613781 -65.486503907016527 -193.607299365172878
-131.948356855087212 -70.561605720166398 -194.282233648100316
-126.196605707240835 -69.632863211918973 -197.024694317483949
24.996409597273679 -64.628202917506968 -194.203477877407181
-121.035106391667711 -65.793374495566908 -194.288714333024956
-17.160973097581326 -68.112755162958962 -192.941934822700915
-138.413582937421012 -69.241189796176968 -196.266155766546603
-133.749201011488424 -70.453488481278896 -197.407074074400242
-22.679369351933801 -69.513374599591629 -197.253832384423333
-112.248267527666243 -65.340077998869958 -196.692692119264763
18.896201694196101 -70.783953539211183 -203.645228850905283
-160.430584239523341 -71.109345178104803 -196.743369644629780
96.655224079182261 -68.427393541736564 -201.607044308123221
-107.218417604113810 -69.348420840027458 -203.742770457709241
8.277794231451047 -70.870046565473089 -197.713620650973070
22.705943903735918 -67.302644425132215 -198.725096553418041
-16.459035704704544 -72.239107910965799 -201.267014796167615
-106.950197131172104 -76.449441775098308 -200.255932917292455
-17.038266788078744 -72.591973113259257 -200.569254837419550
19.674262787928861 -71.993807514172261 -200.530839525285643
-171.316052722454089 -69.529157200853533 -199.922292378816707
15.945817961596012 -67.686987089692067 -199.900090363349136
-139.501623852095150 -74.808214689401282 -202.452769733685471
-118.963383651662866 -69.534224358992645 -199.934051183747584
101.748418021598127 -68.653043026593409 -208.411961943044020
-129.993333392340730 -62.474390423152144 -202.862889175799296
-14.791349733386836 -70.925657904870945 -203.251491089150619
-129.502109972471942 -71.710107558592256 -205.982238905409162
96.509430738325108 -65.768428601606885 -206.476418849080119
-131.344050654325912 -70.119057908722198 -209.884877057364292
-125.290377402855441 -69.104199063234674 -207.207059800692463
20.432396569354260 -68.035262849503866 -201.433009655035477
-18.598239528136990 -72.806195045828360 -207.015503786265356
-11.680899691542102 -68.019626593499410 -207.810084900221682
95.179998025281961 -72.413567634994394 -210.705434194263233
11.916224672856929 -68.358080176767530 -208.078934170151427
15.070257570000187 -69.606439257474122 -205.595059449435325
-20.581430484831333 -70.463653638734115 -212.506212844811074
-168.970337363931861 -68.927499757814829 -208.692500587578621
-8.814597412070487 -65.544195269862001 -210.442680392830340
88.377650304611933 -68.895340467731515 -210.703141778631078
10.469664393096417 -69.289153116892891 -209.972913655565122
13.589257990690957 -67.046490821416754 -215.230143829611336
-14.041349700151827 -68.249142163429369 -210.426789980181070
-13.885911660075415 -66.292176804933391 -213.590738496410040
94.672736163415919 -71.601015334596710 -213.725697341987683
-8.149195085145152 -71.999011136892420 -215.826300709337772
83.969771375216851 -67.212383458705119 -217.147467707732517
88.164021929805926 -68.343808792563024 -217.070140679497683
-146.452998282623014 -71.406034448962714 -217.618738685449415
88.875414709546519 -67.001092561241208 -221.843936093554873
-93.275657296714954 -70.035386846614372 -219.990445050279249
-11.667492042739877 -68.709390063461072 -222.093116747913115
-2.747010965716508 -68.142021366529164 -223.115924065785322
12.957309463278865 -69.793278718518167 -219.777751646270531
-112.391466742093172 -72.738709762515043 -218.659916069513855
-141.631734786522799 -73.828435446253366 -225.036848433865600
0.936731753605504 -70.333617630624190 -223.998702075046509
84.224084488923737 -71.413599283409980 -221.046947815777600
81.389020897227951 -70.406297255442652 -224.010989020324701
-132.711089437276996 -71.083450632065592 -225.728334949827996
-98.501191373313588 -69.390815846732536 -224.083983554276500
11.899707821784007 -70.356395341345191 -218.616709770888889
-7.893825434117717 -68.072256403168893 -228.952981580003353
-143.778311343035625 -69.077559781586231 -228.912248856683789
-130.830867189501390 -71.222438845291720 -229.890979624402490
-133.446704600022031 -67.031258265301972 -226.927855795518695
-121.612235420598637 -65.262542927879053 -229.615887936197680
-114.622991837768907 -66.338534922143225 -225.405819597803401
-106.854539512576025 -65.684525176576898 -224.915526694369703
10.791957485143477 -70.283365632464012 -226.164124030803180
0.849770779590587 -67.393921759212361 -225.972910515993334
-12.554480744388973 -64.238627919383816 -222.834039351816728
-12.383465813815144 -66.032280949694950 -228.619069685519008
16.688711642405906 -70.354477768349312 -226.655608526176167
-4.422963538223661 -73.197838384355634 -226.464161010693431
79.887470463406316 -70.760440556848778 -226.942361174020817
-104.571698658325445 -68.865718317864221 -231.647214672203347
-0.093737781130374 -69.471105294706305 -227.676333911002558
9.564779917724390 -69.973524620567616 -229.935374618593670
-12.734531775424781 -65.394329445391477 -228.617550161192668
-5.342980505186892 -72.850772922792785 -232.407419287412722
-157.960335788426192 -66.351206045069716 -230.763970479549926
79.089397003856689 -71.125660256485190 -232.642469622992650
-108.972253147999709 -67.247024243918943 -230.499195470205763
-6.178784378195800 -75.544591739678552 -229.826420310642106
7.657811475491534 -70.920672379913867 -231.240591862274414
12.602240461286167 -69.850310038943036 -237.132321240895379
66.855189186144003 -72.412877156589900 -228.035550675287027
-8.869747578776220 -72.456820707267752 -230.195690324415636
6.097919690633096 -65.173627236741410 -229.637199193218095
-116.148464660412756 -66.741720269299350 -234.295059859410543
-130.747878550253688 -71.758588007988578 -232.399200694258752
-163.919831047221379 -68.581412798123850 -234.018554695956851
-1.053019894811798 -69.433485840245751 -231.449793698835975
-132.622579069299405 -71.251760808284303 -235.033993608921406
-153.617703208517582 -70.536836904857182 -234.939184394613363
-157.863175584594160 -72.389064694169804 -236.703796576517078
-126.659665517193076 -70.903671537706714 -233.859443895562663
66.962985867742631 -70.263502601902687 -231.535532974761821
74.135648751609097 -68.648289473031340 -231.730575895629215
-144.365987687737118 -65.832240921151453 -234.843849130759907
-3.635074016962233 -73.744094452458484 -232.744641013399530
-2.369007345789535 -67.942053283088001 -230.101899063475713
67.359415837793009 -72.094299030902590 -236.651437881154180
