# This PCD file was generated using the MATLAB® pcwrite function
# from Computer Vision Toolbox®.
# .PCD v.7 - Point Cloud Data file format
VERSION .7
FIELDS x y z
SIZE 8 8 8
TYPE F F F
COUNT 1 1 1
WIDTH 785
HEIGHT 1
VIEWPOINT 0 0 0 1 0 0 0
POINTS 785
DATA ascii
86.876305371933014 -73.356136151794090 -70.105557411846888
-89.080601199574659 -75.756317271757538 -76.788199445293586
88.136349482701263 -74.197290618124597 -71.202119472480888
92.744365786197676 -73.403715628736748 -73.451909815188102
-24.025462006566659 -74.676687126595780 -77.054205617502120
75.340694359207689 -76.023071831878056 -74.755480091911366
85.817509145228897 -77.654208018661336 -75.271258983650995
74.464385332566096 -73.433688146977872 -79.576839376589376
-44.093622154472811 -74.888244835641032 -87.205748897289567
71.164137408765058 -73.091050331018280 -81.575984881040853
98.146346981390792 -74.999817010721941 -88.896920818821968
98.693653575096803 -73.257658063797393 -87.620100703014728
74.597813448177348 -73.104157710417311 -89.538195869431604
93.379191643475238 -75.612771132403282 -89.499002560837198
53.091331913151599 -70.816566574123300 -95.139569428641067
-92.038770058958619 -75.415568009471485 -94.543179870053393
73.392410482756219 -74.866545609425245 -95.594795699838173
-64.551101263037239 -74.240211692829959 -94.783065293402089
56.717873497987050 -73.877806333721367 -96.937990021506266
93.257946830623993 -74.154554634544581 -99.498983337768792
-65.815421938342993 -75.918127224166355 -97.587346096984078
83.941278562280559 -73.089231555055704 -100.797336909656494
88.877890769129877 -73.624378177573632 -102.106651052205123
-78.698584231714165 -74.425889112306066 -100.956789431542248
106.505863140200148 -75.828548721666294 -100.520505563351861
108.301648764202710 -73.725461872449486 -103.429035393628766
55.740617367525012 -75.234886651918316 -105.627076623650041
49.611105504184103 -73.435309633072393 -108.603883075642671
106.991916825444093 -73.290449622712174 -109.280736577491268
35.016443013057426 -77.394279574633032 -109.870603432915601
48.729287088138612 -76.662513455274762 -108.955477833760483
105.860235716634179 -73.899726613033195 -112.219997027010805
38.311205129555056 -75.296248459538035 -111.891097091997125
-92.219524630909490 -73.547557330111275 -113.754828013242388
108.326482061093159 -74.355670773445198 -112.607105924167115
-88.294500051606477 -76.472952830367419 -116.278677736955331
46.841963951294773 -72.899837915170593 -119.724242314422426
33.607647858717407 -71.742782533666428 -119.243812011903074
109.107228030907081 -78.875127661026255 -116.753500046612245
43.000427205980003 -74.606926323431267 -120.219990736356110
44.744799169164281 -74.263897396531178 -125.725351400856113
110.634771310195660 -74.048971739834670 -130.358962767606357
39.382522035964897 -75.681035452022741 -129.719044920686258
32.588834814598762 -74.161123711393387 -131.633600535974637
-53.870208482461344 -76.615598056861472 -134.711415159662835
-60.757398451058457 -74.902662826713112 -142.307350350701967
-47.273356222299952 -74.480655963457238 -142.488522187924218
110.354725075518985 -74.630231869187242 -138.485636288332643
37.010945203122908 -75.165832023072326 -140.572705633273756
-74.388773830295804 -74.615499694356302 -142.237903599076020
-46.196675803398094 -70.865788402401293 -140.316945371801410
112.812172587199541 -74.781979593885097 -140.698282525319200
-48.303321402703411 -74.201404101018412 -139.729195324631746
-56.459482005779222 -77.459760471564906 -145.335123532516292
-77.060737986681346 -76.883126837562713 -138.902440151495085
25.509573755261734 -76.040480967509140 -146.040435999538118
117.054138859812525 -76.952607114407186 -146.393107408874471
-71.113855046795052 -75.158510512177941 -145.283309488357077
112.294710970840896 -74.756776075891196 -148.368663881780293
34.742372148922549 -73.464721781412067 -148.486436923989174
-51.691333908789005 -73.554471716162283 -145.868931959817246
22.890081280125919 -75.284964666414709 -150.687449459245727
112.982699542484539 -77.668375294200786 -153.430749565102957
109.293846843617757 -75.155285384045769 -153.540916351956724
-53.284934966896436 -72.286284422682044 -151.713044980945824
-64.177768110529087 -75.159503693135022 -152.723827272320790
107.240153888172500 -77.270430069716852 -156.640452704638960
-72.798958593078780 -76.981536129751731 -154.064170386037659
-64.951726864921199 -73.153451227321028 -156.490865517407798
6.459041850430823 -74.923869508982307 -158.249108977263376
-50.002429256402067 -71.827741035134082 -157.513859323518545
-45.940102133787278 -74.546409564117326 -157.991002075894016
110.055335460175613 -75.318091844063730 -157.885295471413201
113.208925626761200 -75.884530625923801 -158.970902593951990
113.643875517385283 -74.076653437433222 -159.779442494532844
-38.047997077428178 -78.914264391643272 -158.691104815488416
-61.338139673192146 -76.638142302897620 -162.269015472155672
21.007786234889625 -73.914028071835816 -159.292109696438331
107.403916051501525 -74.640989842742755 -160.917143547585482
-63.706789052543485 -76.330006682558732 -160.474370557250609
110.232655036582997 -71.670197438467824 -163.930192620249670
112.136496878638113 -76.629426792929863 -161.758844173294932
-68.866798686979863 -74.578297804424935 -161.755977491317367
-63.554364692815220 -74.994226675973081 -163.864607585973658
113.279440317785301 -70.685271905898290 -164.801188125240458
-61.466207646978496 -73.743163939276457 -163.107168522639313
-61.857588574909762 -74.947808847762474 -164.463219776687765
108.502453856861109 -73.931906483033487 -167.891965378275245
-66.047651227225131 -71.255235558956457 -165.310954756251732
-44.488466188379007 -72.698567230834058 -166.791178958857273
31.791185839360772 -71.522551376720614 -165.845452660365169
-7.244736258042979 -73.065191747625448 -164.862809851425283
-1.606493431710226 -76.267556785679730 -167.366438916663640
17.993077781788248 -74.113497832167795 -166.455482808872802
-42.678211027500765 -76.641265759391288 -168.246469779799810
-2.048889309423378 -75.597835966503595 -169.377295119781678
-43.824758672655946 -73.809271669540792 -170.505202530718378
107.989601173167543 -76.572378586297887 -168.962302319060456
111.164541136447113 -76.145653914840082 -171.862027651623947
27.411698622090928 -72.417593557902478 -168.976703841091989
17.606957257173200 -74.030045605376785 -170.276217138423362
-58.879402280158104 -74.767056370993430 -172.588597680990290
-65.608599047752278 -76.588071614194604 -171.519465989416517
-36.962904986746594 -74.756220962156945 -173.985544925780346
-42.081316012545507 -72.209314456682009 -174.360334251415281
114.272686701007927 -77.013087608508386 -176.284008883603121
15.098305499063567 -75.847261463743720 -173.479451410842330
28.348950858987113 -75.780921246094650 -174.618780267619059
-58.068044731368900 -73.752255543385814 -176.163317985380047
-50.998997738613809 -74.625370951180017 -177.649059809973494
-20.381616296432465 -74.039565164571499 -178.713366871640915
18.720176054128501 -77.484851914240622 -179.807963470540159
-56.143444429653890 -74.324646704667785 -182.638289227999081
-51.322711285545608 -71.666221597828809 -181.189864261317865
-148.033063982372852 -77.311800587475659 -182.370037165585813
18.772757532630813 -71.034582342763514 -183.578821705782616
104.952189493633071 -74.679212521166946 -180.945737285746134
-51.588075385443695 -71.295361613749037 -180.609719636105922
-23.052577952204196 -73.758422761914602 -183.146777866903534
-33.145719978314013 -72.955217595203266 -182.313654979235821
25.140399099627444 -74.725170173269362 -186.214520795544900
26.890649722184033 -78.568629831693528 -182.136981950926838
14.399408805248353 -76.711641331630574 -186.373400163803950
-52.962997350363835 -71.418987144018701 -187.925219212804734
-143.619151932422398 -72.817931961602639 -184.114737634265197
-147.577786449627837 -74.929981843299302 -185.089055116141509
-51.403696791089416 -76.657346043072863 -187.794664339159482
-33.456646519639499 -77.077311054299841 -190.097635129325880
-49.838775752326484 -77.306110597092200 -190.832275331192704
108.575000011888235 -72.949032682629621 -190.192326951944864
-47.802679027743466 -73.719537217271238 -189.038622815509257
-149.108260234963723 -77.662415544675284 -190.375139182477568
-47.031283133666150 -72.007026099360431 -191.628385129812500
22.437517585179059 -74.731060560887101 -191.762161235096926
15.280133731727759 -77.751586740651391 -195.579309996914304
-47.848733238072285 -74.730094775384060 -195.682477999088007
-38.326957613980078 -74.468964127634948 -198.256194708667266
10.843670917970694 -75.812888828428441 -194.162356538974535
-141.893856588649271 -75.248330961488563 -196.054018166869923
-10.870664100860498 -74.388383329785100 -199.175809306300437
92.760062519356609 -73.605530957498829 -199.354847729622549
-43.044986696031756 -72.476703503846252 -201.857255384485143
21.707054545867187 -74.624055545801014 -200.754964923025170
-141.111304776704714 -77.016283255442730 -201.131458449375231
-34.593019293210332 -73.145812691036056 -208.163179335179109
98.625639708769526 -75.638011233282327 -202.516688876451667
17.153511906827219 -78.104728451184528 -205.664216517744762
-40.801980273207377 -73.969133503698401 -203.113589207446779
-20.125115700379524 -77.425519548125749 -205.204981351235659
9.552539958435187 -74.792547116414497 -208.083968187925052
-31.388860022450238 -74.699871692595650 -208.357212139431311
20.265826976682604 -73.100374249084624 -208.096323715001915
-5.275538516173063 -74.296500767402534 -207.586589032201857
-33.019493626476624 -73.524974700928340 -209.547519200796842
-77.748250061114703 -73.857716767702470 -211.952643457355663
-77.227695243909139 -77.384289773625881 -211.705809394476745
-14.736148372822667 -75.612074297490480 -206.923173604491410
-77.042288361211206 -73.954393061218710 -212.212699583453286
-151.291275428811332 -73.652178106600914 -212.883031311780172
-81.746882025113166 -77.328011673202454 -213.638291720777602
-81.179160703081209 -74.085555829695792 -210.557678852436737
-6.772985087504254 -72.518017440244449 -211.965306751302137
93.724532100573484 -71.965295936766580 -210.300385160370325
-88.688369400742317 -77.315559608410126 -212.306780136430120
94.100338411304080 -75.206037998476901 -208.427379531121858
3.875821918597108 -76.254227623235224 -211.360484229917887
14.608671099573606 -74.454222852519479 -213.696862746978752
7.872505707263019 -76.269628995319380 -209.269414046806332
84.969531407655396 -75.336118821509842 -213.251905288883592
-89.446990046877374 -75.712768669802557 -214.724937888460317
-31.788113941859866 -73.739940167616851 -212.967857056245293
-82.890535011804246 -72.606748035654675 -216.247902778435673
89.071484913996429 -76.575239010750622 -215.656396628938325
-144.486991811789437 -73.857671255625974 -213.939292232161876
88.490983452476257 -73.592098743458820 -215.614852073595813
-21.651887574908788 -75.722032276705960 -219.100542513077272
-13.934044230645444 -75.854702852483612 -217.991945563627837
-1.257445589774303 -78.630270408148007 -219.061563790419456
-17.056889442962479 -77.335861107487020 -216.421324288604609
15.040521492164590 -73.478432279975877 -220.554537240531630
84.962138675311564 -74.698450263616181 -219.940540614409031
-23.869674938184509 -74.240985660410942 -218.313210485649535
-99.695772964444444 -74.455715321919399 -221.521282273772300
-97.174432019555056 -80.001435310636154 -219.073882371241808
-93.603611405444738 -75.396982766864596 -223.728530746720338
-2.595969911270000 -74.569798063723496 -220.740508382664217
6.671597173871539 -71.808739617450030 -220.432320301592227
-27.679766823517603 -75.573111404093453 -220.872111316944142
-15.101240166036327 -75.935252688152914 -219.643540989302608
-100.128083804636120 -74.182337235625340 -222.029576778898615
87.726507276562756 -74.454831010997481 -221.914767029883564
16.373008056757055 -75.020221577141612 -224.187872014390450
-143.843974008787711 -74.360540792325068 -219.748511211111946
-18.038350269654607 -75.236624555852273 -223.750062459007438
20.898776332125930 -74.121628457823661 -227.322934151083189
83.088611555045972 -70.199646739637288 -225.270107938779404
-142.746191252419493 -74.323485433833753 -222.603011500865279
0.215277936822532 -75.821785576226816 -226.715353808231413
81.467791953208149 -72.491116893628273 -225.642994987331519
-16.591981216738528 -74.071900641387387 -226.938602168323683
-10.430995203316945 -73.190367073889348 -223.877145132028801
9.009618143433439 -74.157419012977357 -225.989964326853368
-133.611621511202543 -75.619616533082024 -225.616697965791047
-125.367199364801166 -73.652285502602311 -223.213996003254266
12.280709056619383 -73.464244653319412 -228.951712538961289
-13.177270726215557 -72.828282884902492 -226.356201457004204
8.937665733321612 -74.348590299376880 -227.334942330413043
-139.519457658719944 -76.426345021309373 -226.043047541756408
-5.739842109612447 -75.722201429498341 -227.941112887114912
-6.022508486805889 -75.182274798142856 -227.445502174502735
-133.448553810564391 -72.384677604134168 -229.523426621910119
-124.228683435490808 -75.569206339690709 -227.769778749162924
-5.895355598873601 -74.867903529726306 -231.132206264807223
5.613928094229085 -72.515144006227274 -231.098369421816500
15.904404520226421 -74.848927823317496 -233.475698181495659
-127.538233767836658 -74.623845656595535 -230.957338173343885
9.253472707423601 -75.488046932722369 -230.708593452840489
-9.434463634065679 -72.681816125418109 -231.754311232825870
-3.696529957989273 -76.872145332988978 -232.738984433612927
-1.672825498985067 -76.617658635515724 -236.663230546631439
74.372948148327012 -71.172489037605146 -236.721199859875640
68.046484805201843 -74.632671746179980 -234.740238677604481
-20.068879008219845 -76.718384507552543 -235.644453170099837
70.720976441272455 -75.627855529708995 -235.896213153452379
-23.230226629452073 -73.541144419591788 -238.877126481278196
-25.528800282605577 -74.953859387739683 -238.506725993654499
-161.551723068082708 -73.619918559675739 -235.064229947695452
64.765630507947606 -73.598839785844490 -236.527443708932225
11.663985405637181 -73.669452277106217 -240.923320063400581
8.327667230876076 -75.259255560738083 -240.937894256952347
2.896762550758555 -73.367951173669866 -240.916666746690908
64.249479703485846 -75.453778854672464 -242.316661826461171
-43.409322248929136 -75.962069950210704 -240.815830286364388
-35.512095435336427 -75.138005463716951 -242.485378728959745
-26.531907210871356 -73.770936290204475 -239.107296781245054
-22.900861293937194 -76.556527725298167 -241.829014095204570
-47.183404846420721 -74.610647855981668 -242.131257989647963
-47.033871219303741 -75.492148444510349 -241.852730428305932
-32.792363602684055 -74.672290671092796 -238.067987315669512
-56.975497838823777 -73.878763852398961 -241.192227793136055
-38.078915780658306 -71.346907283681148 -241.537289608623951
11.011298865275734 -74.370894705914793 -243.845252503411558
20.821165889496033 -75.998331277571779 -243.889215420885591
10.770488189125576 -72.155801349176230 -244.848083555926507
21.852664922501869 -74.666050020284445 -246.391561345753558
22.022616097944343 -72.927926676010088 -246.529036229829643
20.953818956978669 -75.906096798682540 -246.827582617030060
-150.396128761354305 -73.550586310117069 -248.393820021837882
-48.759471233799943 -71.993349621838647 -247.390873795941644
-51.198726282478198 -73.515081524025476 -248.174873537513207
-5.553298973797657 -73.365229795900035 -249.825982238341169
-79.044431087205126 -75.536764115406015 -249.951308593920999
-6.181165639544904 -75.173395029030459 -249.376249957361580
-162.467377343327939 -74.325490212997835 -251.558324245790573
-146.868093590236612 -75.644299763144190 -251.956976522974259
-84.347867118917591 -73.154363790489526 -252.374376021562796
-89.437404932667107 -78.345131675431134 -249.347842163035551
-70.849976040307823 -75.701121400271802 -250.777223081737560
-146.236527396224005 -75.194561905436146 -250.776579436401875
-89.934367956157033 -74.283838678703603 -254.420308898336913
-77.883271607463314 -72.001243613367222 -257.693487934414520
-164.939395178884666 -75.833612354303128 -250.849942211139251
-92.874346783240327 -73.864284024786784 -254.861036223239012
-91.277139436051073 -73.202527248833448 -253.853248995981772
-82.588297030179902 -73.122838157926992 -253.893652856619610
-94.696064172918852 -73.349125529193273 -254.004931100921766
-116.816665622760453 -75.656345101712432 -257.252689343595023
-146.427997119994501 -75.550850368095041 -256.378913893859362
-148.427233253042431 -70.643103002917499 -256.558411385508521
-140.935528112342581 -77.931638302529777 -256.623223206539137
-135.988843309590948 -72.354842518428157 -257.774673597015692
-156.648889123806583 -72.439576559866765 -257.012693919703224
-148.600075161546016 -74.235963831737351 -258.164327370823059
-162.012905219101270 -74.453711076601778 -260.846554719461210
-126.403379231465095 -76.463625226492454 -259.529781671850969
23.762976101179564 -71.825461909168226 -257.862957407124554
-161.068988336291568 -74.552424014590414 -258.428055396768002
-147.005833406937001 -71.329517099512870 -258.647393730533111
-149.991557584248739 -72.404037750412357 -261.847365940725410
-137.998237880492127 -72.769635879072709 -260.722594386250705
-163.859445026684341 -74.725845674094117 -257.900522362878178
-159.772460211616192 -76.754800858744616 -259.266068444999121
-16.996900339483936 -76.030475980014018 -265.108915205487392
-150.277072686612883 -74.187723329105609 -264.765776900717981
-130.723680212145211 -72.546902882859825 -262.784834354401823
-167.161207838649574 -76.223562409779845 -266.071527844442642
-152.603953643058418 -75.715485221821240 -263.348359038388594
-125.411594090796910 -72.647768250555814 -262.410926857182289
-154.759254200702230 -72.132372661515305 -263.808819099473055
-145.623203644149356 -74.742586856471490 -263.909825985831901
-158.437279511711949 -75.858641813709554 -265.696745825114476
-163.114343909447541 -71.583695311386236 -266.558234688958919
-152.781785011359204 -73.711939965875473 -268.704669853908172
-157.694962538478165 -72.206851530759664 -267.312100358449811
-14.722719020379609 -72.411448333275047 -270.477721876644637
-146.633214198384792 -76.671459223835399 -270.239374391932927
-164.252881150843649 -74.881553235208031 -276.326566331380377
20.465473133867654 -72.695386898124511 -271.288341722473547
-162.053785832966554 -76.177215374483580 -278.228927300605619
-152.566525737002934 -72.798503964377019 -276.130414981497097
-152.075502865014329 -75.023887157954832 -276.902225077032824
-149.820568046953952 -73.888849325353789 -277.584464910120118
-154.011807282717513 -74.683256878761028 -282.977165124986755
-168.278442226064243 -72.601669037235411 -283.275862091333863
-126.359980728618879 -73.329246757442945 -285.029227203833557
-5.709030012291366 -75.377647252027998 -285.341006446483107
-161.550693956578300 -73.586643958180574 -286.048590085055650
-32.093795529115020 -75.766991522976184 -286.296605277131107
-143.695686408901679 -75.777127843109810 -288.028464763563420
-137.264914840470652 -72.381803318259628 -285.157985062828459
-58.955824596533837 -71.958648195180160 -287.100626986914165
-53.723600147524763 -73.295945768765222 -285.850535630230581
-44.454896535959833 -75.174579496239815 -285.989272554922650
-4.643503864938676 -73.802537299703530 -285.511915384010933
-157.063109732796562 -75.417499177306595 -286.580260475675288
13.370990773834885 -72.497368577684824 -285.463943394523710
-25.538444207772663 -74.602064560808927 -286.131299920658932
-11.808100085216539 -74.736181247648460 -286.515748513084645
-89.031371488622753 -76.424575650620014 -285.900184250391192
-8.203958528404392 -73.551430133236863 -284.324705542688321
-99.513892892271102 -74.724989765967820 -288.908900914943217
-152.282142655529100 -77.870611435477130 -288.705707307152522
-125.127516520030838 -74.655675382229560 -288.815309979849928
-114.087313679957191 -70.524295814741379 -291.746519924308700
-113.012825470621706 -73.764351369997669 -286.098945036118891
-99.137830740449047 -74.798264808707671 -287.635523835365007
-108.448398225105848 -75.693359563802204 -290.217268766093753
-99.517036498622048 -75.008002667381518 -287.450947408147499
-151.648665551401422 -74.543706513119517 -288.237058919041829
-148.628479314154475 -75.320959066025992 -290.496963294674401
-94.686857170160323 -74.893648944236560 -291.102473398873201
13.469042103634383 -76.855779581707139 -288.673062396969954
-118.521343596967867 -77.109191695116195 -290.282846914362608
-115.269491145897916 -76.059172006061289 -291.997148543246169
-113.237838222623367 -75.544145572717312 -291.341118109058755
-72.067405927222140 -74.392857744315108 -291.780079314054035
-60.353895418368126 -75.760277186061160 -289.356654046393032
-102.601647523510721 -75.374827365834079 -294.271204387691398
-87.936426914988942 -74.863179879686726 -289.897468882180021
-156.514096238348344 -75.847096068691911 -292.253690187865857
-23.854559186463820 -75.585614352662702 -290.470302140577132
-15.798853185870959 -75.120298832355303 -291.511757931746274
-142.495721898241726 -75.869888793255242 -291.374287339431305
-137.266499535962481 -75.694329506829988 -293.014074544547611
-123.116936437202810 -75.041098412246711 -296.220755652916694
-159.128009520757615 -75.083740336789390 -294.292245597101839
-143.631547940683987 -74.860505718507241 -295.224195724877291
-151.640298042632622 -72.790264515304983 -295.958744167357281
-154.048126917048108 -74.424425469630947 -292.524876827980677
-148.135655583704249 -73.686776648975268 -294.716972870401776
-152.200289689633053 -73.281707476720925 -297.413773748281073
-146.467742803550152 -77.968786968049301 -297.202291550446262
-144.325405084185775 -75.785351823121488 -301.001905595296307
-146.056613661109850 -76.536463129047021 -305.252717271134543
-145.489855616958693 -74.086287051412910 -310.503963233759805
-146.988400637766858 -76.010536701765872 -311.905826915918055
-58.159836805039248 -70.899855504323085 -52.650236580702945
-51.714964502612659 -73.463298909347770 -49.504598692774287
-69.745566112034567 -73.732307367476494 -52.657276288281480
-70.246831208392479 -74.229574773034074 -55.610854170985739
-37.461466198977661 -71.547550357160986 -55.657281956166294
-32.013737527764384 -74.661557553585880 -58.332080120897551
-83.841529149904403 -72.468340247043159 -65.241412570192210
-19.263528953828892 -72.229373052979298 -64.086020254215171
91.537629085214661 -72.379325000096358 -67.462285057460562
72.462647098243536 -71.074656146264061 -70.026678676410484
79.200386302299918 -74.067311756397700 -72.622134309449081
-20.556941821663763 -75.616768318087836 -75.254652930030559
74.536693235932461 -73.837253415697603 -76.714534929922465
97.188202422874312 -74.934139411771511 -75.301557960458567
70.671937477310848 -73.907352043978975 -76.433161047731957
-37.422390438977203 -74.024050640501443 -76.100393401165917
99.263809952449492 -73.554424169919884 -76.671067094016266
-38.238546349395349 -72.850721829965480 -77.256737435830701
94.640400861302069 -75.843911463663503 -79.105335168773408
99.526443562053799 -72.422869758438310 -78.822556230495778
70.193109163485104 -71.144015666048958 -81.147767752032351
100.072645363342943 -73.809845165739134 -83.648121249509600
-94.217658434008555 -73.968278357066168 -85.189246118415795
57.952881780624075 -72.593199427985638 -90.020942392094213
56.953905316966129 -72.384365331312651 -90.150557196210059
69.706575792459446 -72.189855057907437 -91.516773305944056
57.868752700673745 -72.667335562065915 -92.718072759575762
-59.527269118545391 -73.622244735843282 -92.122004060938210
54.234623105004886 -70.466248621908122 -94.192631023210566
-62.205197243605042 -71.921443014506522 -93.642227888505332
47.004972737788187 -75.788468278099074 -94.307823859334775
58.083531736705837 -71.258853638303506 -95.289846768781885
97.927718131414437 -75.376833814504209 -97.113278363047883
73.221227509284745 -74.487660661011276 -97.757243130650679
76.454241246940612 -72.442506782522372 -99.790856455108496
104.220622539646328 -76.678574092485903 -100.542454223489685
81.779717527005431 -72.335178340978572 -99.373150195956597
45.456839492975107 -73.904507474170245 -97.544181935323749
75.559621167055468 -72.710019118386313 -97.877125974616163
75.372286106387591 -71.680702613599877 -98.146352472371063
43.683992508901227 -74.458196972137443 -98.941791672798431
53.702813322567884 -71.074276809360200 -100.200591918218038
88.329113380965310 -71.916529805086384 -100.971718077314250
107.917475437868831 -69.367153195701277 -100.323405074696083
88.969976127684603 -71.830629712861537 -103.492016072214497
106.068870940104517 -74.636211989266343 -104.553442451986840
-94.135572277840907 -75.289121888101079 -103.050181687119036
-80.715927167673655 -73.364261111534276 -103.812441857224329
40.525905678052943 -72.745652826038992 -109.105735558040735
111.086734469342687 -71.943842296139266 -108.990801028899725
52.190203945654169 -75.708745226287249 -109.883723458397185
-87.734297944123313 -72.447511776906751 -112.470688285677113
37.965818999194461 -72.950659648998979 -115.683443244701635
33.572031160716236 -74.069034383910648 -117.572426962977602
44.595553061773792 -74.012215251362150 -119.392174793051424
111.355687819783896 -71.491702281623660 -121.598494073746224
107.697581128517285 -72.565145343583978 -124.473091613857818
116.232987457571056 -75.918917201609773 -124.945833589749967
29.427686290828646 -74.199326583767757 -125.704801426036155
34.797029372473858 -73.619587443043343 -125.215555498247610
111.737836437507823 -74.514818098271761 -126.800045853814652
114.019114042089058 -74.907757606801638 -126.947206892211682
43.971018848984393 -72.228174182178464 -129.797985165457135
110.599012968443773 -71.802273540889431 -130.619968702513120
37.829881267628167 -77.022923073308334 -132.213370066316145
29.391730688677722 -73.096159780926868 -134.610049885969090
-56.013403749238371 -73.744404737545821 -131.923489860917726
27.886542207261886 -76.772312088994710 -135.317620410557879
113.916507778531056 -70.964946905663666 -132.986592072483177
-52.393745413669727 -74.058256604498482 -135.664853511995176
115.415801941390129 -73.351193569810775 -134.627788367215317
-49.720817991317389 -72.703823894035210 -135.866418537920367
-71.480371772398698 -74.226471716542363 -135.954538543192854
-75.149832355059246 -72.012133336198076 -138.607144663814779
36.726069651308762 -74.030840548728889 -136.472674035087351
26.383704083359831 -76.520392182690841 -139.300763188046091
-71.963173257856710 -71.570237609583799 -139.486573791597664
-48.774327722432716 -74.545731407444606 -139.687259540528856
115.916200807003108 -73.984927076676399 -139.438045126131442
35.113537654590125 -70.544439244853493 -137.890273636069367
110.417127042520733 -71.629275534691288 -142.419048115157551
-53.404146772888851 -74.145607407269594 -140.398777828187519
-45.415558142854110 -73.669072735163880 -143.646337177534889
-53.494856815800283 -70.715687997587366 -143.888305048882444
25.398582033770957 -70.273862679532868 -145.037735749179376
112.421384660087696 -71.297255154628630 -145.170299683159755
-74.345218439767052 -72.486168887537332 -148.044844609746121
35.965952557317607 -73.249050057244318 -147.155858747560700
-72.758530112104538 -73.290610480064800 -151.720597065716106
26.491687927367877 -72.462202765861733 -148.254694888415628
114.825350006396590 -72.690991114004731 -147.894496403582480
-70.612421453492630 -71.310758366874097 -150.249823683802788
-70.485218981538893 -78.637501779263658 -149.255384639486721
-73.452836040363792 -74.185188914944803 -151.243573924144187
-50.664538568385865 -73.955614100627841 -148.967944244688852
-64.552564470889379 -76.712959220870474 -151.154604863892871
-39.896650093935435 -71.710634450838398 -152.534584597573144
-38.756087448778935 -76.844900832615011 -149.844392359314440
13.577093361232826 -77.093192037517809 -151.676289972460182
10.425112707559608 -74.989512211299825 -154.915814550419412
108.720488719801153 -72.119398253728349 -152.062289258127436
115.365284015501260 -74.382701034832849 -152.239150206044087
107.120524733510521 -75.369786180505685 -154.562332186394116
-42.796545736768429 -74.547766873922839 -153.753043370369113
21.351637254672358 -75.996891841467985 -153.561095428715959
9.871260836382257 -71.900891509711244 -153.491452578520835
9.689976471832301 -73.833215025303005 -154.218201426537803
29.838415503261150 -72.350461201582547 -155.379092860775131
-66.417022901060733 -71.573979707715239 -157.055879021820203
3.202474099791438 -75.003119542180997 -159.645065090490817
34.161034216176752 -75.183435021848311 -156.224311364276133
-69.826985482206481 -75.119866758913403 -158.251901144990939
-32.938816551877572 -70.520944567634587 -158.275556285115158
-0.744674510900409 -70.569290048086685 -161.195568603012049
5.475227606724916 -74.665915946933353 -160.142723952685230
21.013101473846056 -72.824194965814783 -162.996224959571691
31.673072942193393 -69.816849155824357 -164.760833371665285
30.153215973552960 -71.893008863362766 -160.878817956615535
-46.358274594621953 -73.544343182785454 -162.008735733445434
1.488398159148717 -74.962180481416240 -162.969764487905138
1.639947761154759 -73.596396364827044 -164.607742470828271
111.112699147643596 -73.063055939833021 -167.706752030200221
-56.464747980931470 -74.745072241904765 -167.926276668245833
-2.151795057785154 -76.285073794472197 -168.795554783854669
113.904780046867998 -75.988951642702972 -166.232099243442036
-1.304001871190807 -74.037617742910996 -169.805527896257814
-65.683851289221224 -74.002837540589070 -167.512002083201679
-33.889299573269298 -74.796662183397231 -168.965050161619871
18.512695322132068 -73.958128494782443 -171.030942261345331
114.147034758616826 -72.524954238967240 -170.411840368167901
-61.192080913659410 -70.609424018605338 -171.449133880581115
16.066926453328566 -72.639171153848650 -168.625882413890338
-32.197057158093358 -72.738388250848757 -173.826680597077285
-56.312380246138730 -72.947128365863790 -175.085370369276148
104.505003524110904 -76.620366197002284 -171.029629408265521
-39.402661189700368 -75.476926588831134 -174.951746851634482
25.094562131049422 -72.753870032084393 -174.377916193753833
109.464326096224596 -70.381599497837072 -174.971845328584891
-147.059287834980580 -76.340645677268768 -178.860381976017067
-21.566373529433818 -75.242713792848377 -175.388657009425231
25.268280230592278 -73.326830607177953 -177.663587498939819
-144.430578875844816 -74.411102129743199 -175.471766957068496
-34.500992381155491 -71.248035593935583 -176.077836422975935
-37.161354816707046 -73.178944637761418 -179.179673691539449
-148.339202107801668 -76.096340757771003 -179.536181861164579
-54.706476353448743 -75.750623953085920 -176.230768068988766
102.331006145651159 -73.376998424710720 -180.862698615634258
108.094726751134672 -73.144900459665351 -180.673251980923311
108.671033428984117 -71.285144147078398 -180.458939397927509
-152.478930664132122 -76.106272165539508 -180.835611957723046
-144.558153156610274 -73.506845369274814 -177.969679659357666
103.438133372785586 -73.411545370845843 -181.914576442011025
-19.621544193136248 -77.312540324736204 -181.485669122190501
107.525807735846811 -74.151266373151628 -184.244693746015088
112.216450068766832 -76.042298576870635 -184.213610327714036
-20.824949029280756 -71.576379257084128 -187.758264577170451
-150.260137649959148 -70.244722097087759 -185.423133900224968
11.523717945169519 -73.790806264357343 -184.599599895118985
103.723455634341377 -75.267230635950284 -184.387870569946728
-32.444196635425008 -77.392732671043817 -187.333099354707514
104.026716906880210 -74.732531808929835 -190.264246157825937
14.732873640395564 -75.201545984611073 -191.416873217303191
95.985975386245386 -71.982792067365878 -189.253846816171460
102.045624353480392 -73.382073973924932 -189.552934364170113
-20.539394836833406 -73.210293838895979 -193.875591425223973
-28.113890541399712 -73.771666633245843 -192.552509625995128
13.830701501495872 -71.862504178650056 -192.035528946170018
96.321474304865774 -73.292855459411797 -192.500542479876685
-24.932810445386615 -72.682159453064799 -195.112822680667364
-14.433863467431378 -75.965052166335809 -196.421892770346460
-24.097407727908259 -72.800895854367553 -196.415650864896691
-131.451769064211589 -73.161627377241260 -196.254793600059429
95.009698587731961 -75.467759687692990 -198.268616861759682
-124.421038254770608 -73.635913699865526 -198.680649525066173
-14.464203298488666 -74.518195116707219 -199.517471461351960
7.950469285774573 -72.777203016301868 -199.479364643060080
101.353990916143573 -72.790906392149566 -196.577705778184907
101.100975707374616 -73.308086163752193 -201.850982947245313
-131.350635717265419 -73.336161462981082 -202.426832801969510
-124.838171102569063 -74.148693489288192 -200.211143194799234
18.734633644128859 -74.897367461514492 -202.089587338203671
100.296489639569430 -74.583572928893318 -198.053503688116905
-125.452592356289571 -71.614096991956274 -199.086167728524941
-12.715596430197378 -72.816791645337304 -201.903088185687182
10.193192892669529 -74.379085123664936 -202.282454438904779
-20.158750246675581 -73.603597843222161 -204.050398638065104
-37.533152939348383 -72.426826297278822 -204.593882557816926
91.188368085294030 -74.859955892221521 -202.210042484318933
-8.513905681994347 -74.483893062752415 -207.189977338291328
93.750656528138677 -73.321745814775255 -205.803663667197071
-32.733795916041998 -75.122357175089860 -209.831641819837188
6.272377310788968 -76.406242102318160 -207.966168134326495
94.311693245369753 -75.515337164377215 -209.122876317362199
-77.780477118949975 -73.547646319444596 -207.527874487282276
17.909578249975741 -70.775842518867421 -206.790571430855181
90.847978275364497 -71.203154848842260 -212.308672174997355
-31.523132226075578 -74.598872352562836 -208.425004157328317
90.661478385607111 -77.296900404757224 -210.283287940650155
-22.258238538253245 -72.556330913347693 -211.976521831535877
-79.607035467485900 -74.600596035918144 -214.115402373057435
-79.024051426592948 -72.748306071932021 -212.523020149835702
17.636170068437799 -74.776991765297907 -212.997845753806899
-33.695929674465233 -71.440363046044723 -212.447536802980608
8.144230086301842 -73.303281500643337 -213.711981270920717
-17.824561736316845 -73.108242923154748 -214.288856200821215
-23.122370154958286 -72.316456154795418 -212.396628987940289
5.635804196672195 -71.935308697313872 -214.760341297057408
91.724438275075912 -76.611280058994822 -213.967230738407807
-4.949340119080996 -72.130481280744675 -215.951318014339847
-80.527414144115241 -72.015416902928209 -216.292283498145139
-18.518641081156144 -76.144086536782737 -216.512318153464605
-147.671178214205725 -73.645448987852333 -215.432155915357754
-5.890789861222139 -72.786508080321738 -216.657091642314612
-12.571963277033014 -75.618916425281952 -214.885581775276052
-146.450518799704668 -71.730206195964527 -219.458206704482365
-89.921766792306386 -74.600701706001232 -219.806242773763955
-15.264299105851336 -73.943727087680486 -218.223593775163920
92.408200058766894 -76.415390579385047 -218.789621354482591
-102.311503562703010 -74.586036393329422 -219.698245582854440
8.800716478845558 -73.121209291783217 -221.021303815142971
82.420148940245411 -74.990571470855315 -219.133853287290350
-24.549152029457112 -74.782773598698739 -218.607185835182918
-21.302916078647304 -72.616643853408959 -220.601233383112685
-22.222613365133554 -74.570804956905178 -220.157719577077444
-143.158590665855314 -72.259560639096421 -222.531423196692344
-10.616908421046976 -71.560356820676105 -221.513029450490933
17.204531566481904 -73.153564717334689 -226.461167406978262
83.307343145998558 -75.883431338941108 -222.213924134743024
2.155595062625196 -76.417748913230398 -224.208921557687432
-102.030508432811644 -72.216142299469510 -224.678646982597911
-164.030507209167752 -70.229132186142536 -223.593681850572437
75.508606867728659 -74.563825114243272 -224.121302033791011
-131.219335685157318 -72.167572552592887 -224.404222427124893
-128.957240961542254 -72.309939373976803 -225.318405259004436
-20.905138520423968 -73.960670469084050 -227.027764638901942
-12.709568167309437 -75.403021648455010 -223.463971046066121
-9.957719868595284 -73.447360013170240 -227.569171025550133
-158.424275162114498 -74.319050913758616 -227.658387361443573
-121.471723257458734 -72.343557097732628 -228.377843605027351
6.500751129054398 -76.862757951937155 -224.962449092238245
-134.253796469959781 -72.932357198184064 -227.439714518908829
-124.414767907983645 -75.927431939629784 -227.136273426290103
-151.058391430141768 -70.059162917868790 -227.510327910617008
-139.217216322320240 -76.182905429420018 -229.753935652156486
72.823145898878892 -70.945053170106462 -231.214343440635815
-141.030811645937661 -73.824362788082482 -230.801840021833868
-133.928959352549384 -73.052775583057411 -229.695420058223903
-162.120116051130395 -71.176930213643018 -231.227993438411602
75.460958842080913 -74.029075011098328 -229.484475657651785
81.322834265922367 -73.145996595397250 -228.407618212394851
-153.531892202072925 -75.290372351320656 -234.411717450083273
76.513704542998255 -73.877864440703107 -231.560566225795071
-133.870619407294413 -73.352020573137750 -233.412004773752756
-126.057210726023214 -74.853958937189489 -232.852597799476996
8.866993633733408 -70.461850012202163 -235.638915958826715
-13.135762684210659 -73.316644075660690 -236.191507468468075
-161.698451585198342 -72.504983843210155 -234.628254481044650
-149.732332639273977 -72.801376479469639 -232.460074979958421
4.874195130086818 -75.345296823206667 -236.845913966760804
-145.974062668968656 -74.456276003635736 -233.611700942315508
-158.550246839208739 -73.079756494665730 -236.074657009967780
-149.106828909035357 -70.088074901772572 -233.283653943796565
14.292676478840283 -80.300023580231056 -236.383565928461195
-164.136351952702540 -70.936927105947589 -234.784637630080510
-4.759986822909938 -75.540404173355853 -236.632529908533542
-3.500426055065094 -76.141717284509255 -237.361839795256145
-14.760180665306656 -77.297416945470147 -238.678688320350176
-157.758163447351023 -73.775917592279285 -239.662069324154970
-4.762775978699610 -73.654797662921752 -238.044302092092749
-145.471934496795797 -76.040134319955669 -234.807576362027163
-21.088339289880981 -73.479629865021536 -237.903368166238209
63.344612063566359 -74.979249725231185 -241.934865186462787
70.338434135321336 -73.306901352119951 -240.303004313042550
-166.302756958304258 -72.235872516852723 -240.115460577649628
-25.448964902950483 -72.937691142745592 -242.664744890854337
14.945568860695133 -72.956364627198624 -238.684192042755313
16.591074215722706 -73.658945032382533 -241.488338476193775
65.876661313135017 -74.036631812772811 -240.550392444864315
-151.219120561000324 -71.496334807409539 -238.536639327570811
-159.588424034656015 -73.815201131849136 -243.144499205205108
-3.059460911480300 -71.474006656072575 -240.210105292370258
-161.345235684244443 -72.294044073558396 -239.205532545999574
-147.758479775115092 -73.236021853756938 -239.868778104469015
14.960707540655797 -71.897662037581398 -242.674708435642430
-6.751987684114480 -72.277679914611284 -244.187028096323587
22.979357442829965 -73.601214471952574 -241.188170450695708
-19.538127197409644 -74.814549448788938 -241.188734799698693
58.600246367049998 -74.755998418178592 -241.639135133948628
-58.936909699043973 -71.246956265543375 -244.724509212212695
-57.786447265066151 -73.228468798032239 -243.213168301046665
-49.727017347988856 -74.655852777913140 -243.598298564018137
-2.326954192728857 -73.458447627358396 -247.879510953920771
8.866685362640633 -72.051012185796537 -244.845993090568271
62.418755239093201 -74.113963212454294 -241.699709048374103
-162.518877881964613 -75.270637374233630 -242.150841953947321
-56.589550796151499 -72.948214023587639 -245.366342218162259
-48.853309504730198 -75.703505941691418 -245.228671965664859
-1.139970121783385 -73.916582704464574 -245.229048000995789
-151.827550816645157 -75.748037445712171 -246.211645587370583
-65.090084977388699 -73.892946769071912 -244.833207672469229
16.650742668932658 -72.667734956144173 -244.894121910342392
-148.783024559885575 -72.978881413511218 -246.911677284266574
-164.047911747927486 -72.278093420968943 -244.852900912990719
-54.961352689513554 -70.222783900018825 -244.661863247537639
15.826034625720867 -70.724160950995099 -247.616535882350121
-3.839028340296264 -75.502272784091886 -244.009510788464667
-76.932958114398232 -74.982248116249920 -245.992877411202358
-160.205732579679079 -74.963367971819935 -247.094316896484003
-58.760170923643130 -75.542121712851809 -248.657004145353852
-166.545825037936538 -72.665124568072358 -251.750236380433847
-83.715195913785877 -70.932172220900327 -250.877347688775842
-63.893404734925014 -73.968168975803891 -244.706126023680014
-160.189587049364093 -73.856769331528469 -252.287423785330759
-150.595699281954268 -74.351292793077292 -250.919251633758563
-65.056733830708168 -70.056307515197858 -251.686201476241649
-145.023266989814402 -73.733053627366132 -252.309084742574925
-167.455876123508148 -75.166305302960851 -252.443996397716234
-148.908132188434649 -73.564092672331853 -252.584155282308757
-90.160541268770629 -71.304822014777841 -251.389707663159669
-72.438729877752408 -74.772416771775809 -252.657769283901558
-161.902819388402690 -72.012290832916946 -252.559011929675961
-92.685405032924407 -72.640071597774863 -251.781470897847868
-154.024763640007137 -75.035282352325694 -253.827859040830987
-153.498954702980001 -74.316681560187561 -251.935519532352771
-126.743630325004872 -74.871601124350008 -254.861262190743275
-133.633001646063377 -73.757017058888493 -256.613502428582137
-11.959654059727914 -74.259435914763088 -256.027991256357836
-157.411996018067100 -71.048960463769347 -257.900694828589394
-86.867847923105899 -74.340151254499744 -255.555030961666574
-115.167505491395247 -73.808537220120982 -255.283036218380914
-98.940656284512784 -74.158865072835994 -256.169267749237747
-93.183261000893808 -73.312437620946810 -257.764229747473451
-135.947134269902563 -73.234098133216506 -255.941727715614974
-166.193550713476128 -70.224868532301798 -256.990636526926892
-123.956514211422302 -73.556235457439712 -256.154965278438851
-105.875023580925244 -74.269506104931551 -258.305905401244900
-96.951915399272650 -71.354581187825133 -258.774465163838897
-91.531722555193895 -72.330008532566509 -256.162850602900789
-148.880532285177367 -73.240569162191989 -257.739115266982481
-113.409408483677012 -73.834991815687388 -257.781437459750236
-146.620129184468198 -75.028948212029533 -259.891515252147428
-100.287321861987579 -76.373840243744553 -259.606278362265812
-108.873139602125789 -72.515919488166901 -259.747209529877068
-157.808165793968527 -73.897510678468180 -257.609229032949713
-112.391529241647888 -73.790637516869609 -261.416287089046932
-111.804578797727416 -76.517540910108039 -259.375020522963325
-151.164882790538798 -73.199841580137232 -256.556538719401487
-166.580227905025311 -72.924872382311349 -258.237577046098750
-156.846392728857467 -74.595436657551929 -258.944954993935482
-148.317088187348077 -71.546167743611235 -261.120252985510490
-148.336580001020735 -72.415125108064345 -260.667473883937475
-112.531232943077001 -75.353668042363509 -261.690985669774193
-15.094263664234841 -74.635160977910587 -261.774949884398893
-122.065678802675023 -72.982789860527930 -263.185981113125308
-153.222198844562598 -73.983330859869213 -260.248558235339317
-141.789633895444013 -72.720879144982774 -263.075781619590089
-131.425630386233024 -72.529240957567552 -263.175356913075859
-18.539548186638296 -73.843716612885586 -265.672902420581067
-152.011115856148905 -75.859139193493050 -266.723485667849388
-144.851545438414433 -73.785280079968985 -265.813934204073917
-167.403926187843268 -73.889683718277539 -267.669844426442410
-9.729241301275659 -74.665678698121525 -273.348810911779481
-165.728250946740985 -75.993068860785144 -279.417804511442057
-8.301753204153703 -74.134123275384880 -276.676092215123049
-144.208409711134806 -74.944930246388026 -278.811906816677208
-170.582943091550675 -74.225832153252242 -279.764890897937562
-146.220314852641167 -75.561121784641145 -284.002267600026698
-144.801189744046582 -71.849296422148313 -283.465522017994999
-143.567839882606563 -72.758082856955397 -287.364593355019622
-134.829973858047879 -77.267560884859392 -284.207387166899423
-65.044677748545226 -73.174636536628228 -289.181039403138016
-126.503199729859304 -72.221700730212774 -286.229236298538808
-73.645081764038991 -73.915713328533897 -287.761893461047066
-40.018939216712489 -74.726358034847109 -288.171318017532712
-32.200408996211522 -73.787673516692976 -287.224010836567061
-24.490314670613827 -72.859708052643285 -285.679777633606534
-124.021297569271979 -74.193582954753694 -289.201775962889428
-86.859227451201519 -72.289286613747194 -285.542007127443242
-32.065793242676300 -74.058620297586515 -288.442511418409140
-10.297445714828399 -71.946335579106844 -285.318374530660833
-113.950911033043027 -74.215989729881002 -287.898920370867074
-1.934841436409808 -72.729914793507561 -288.046418803839288
7.312835069692024 -72.228303426137913 -289.498106977346652
6.323841275009015 -76.298535651284624 -287.219983562750656
12.178755545966673 -70.640825664376806 -288.322301846651897
-167.413835575285702 -75.416824515675330 -289.607057515841632
-46.312187412760117 -75.140368556420285 -291.111555740629456
-105.443654172456988 -76.424488922247278 -288.733652396155435
-81.616305314448269 -73.671799142097782 -292.672163331825345
-74.327727275145577 -72.295057336735624 -292.771664001446254
-66.662865862671239 -74.171103145408551 -291.379723044974355
-99.010944701565492 -74.969127933039957 -290.554741646579714
-32.000861123596266 -73.256346098538856 -290.842356101496534
-112.546912463055165 -75.127825253203866 -290.381432419481655
-115.023278085531203 -73.874396582606110 -294.037981755453245
-106.258401803572127 -72.948856358820350 -292.942430343195781
-19.128866491235897 -69.914313551906389 -289.807244441869955
-16.161989954938047 -72.284694080918399 -290.848456259085253
-13.225985990067553 -72.779938191813642 -290.961228620701036
-7.320091945257709 -74.550499236898858 -290.980206468757331
-120.056652968226757 -74.853396932113199 -292.191227164785232
4.706774588497348 -72.909250462470240 -294.826553253481507
4.711046137213010 -74.575720777758804 -294.767334162439738
15.349768567492001 -75.393268486304294 -295.941696373024513
10.965909703733994 -72.670835907903765 -291.458714343944905
13.477445064604289 -73.100179623494626 -291.922317921836793
-157.773218508815944 -75.356306893180530 -295.205923096750610
-146.242819685044708 -73.018814082782370 -309.162957630940014
26.005038184011752 -73.741844413871078 -16.979689122835541
31.331397095910361 -73.762376746831521 -16.307079060579440
25.526212044690901 -73.721501191805643 -19.645593951299382
24.538672334684996 -73.200987175001231 -21.286314427828334
25.853985947689932 -71.749207773336934 -26.315959710952956
21.353144939974314 -72.657643140399500 -24.532979123276995
25.850512167595696 -76.460967596242170 -29.238717285424432
20.448148340718934 -74.572212824591318 -29.628082378321785
21.224275628085895 -73.019575488196551 -29.753272126304093
28.692182310547054 -71.323472374586416 -30.693965238575657
27.419799363197477 -72.949412063062937 -37.148976086319195
38.663180976770839 -73.507379948142955 -35.550471465014574
26.150504965059891 -71.087394428439850 -37.933773929422550
32.421299824694550 -71.334585094986210 -40.783141985140688
37.251606975460476 -71.727490818912329 -38.250650310646442
30.051427110158894 -72.487872213462921 -40.107483745769741
40.547694584135897 -72.583191571699999 -41.790543222321141
33.019311771447747 -73.324039402067797 -39.110553794294660
35.229552500964907 -74.667307010007718 -42.913108634395691
-56.968452933172046 -75.217609121658924 -50.502589402591873
-43.024959997003307 -72.718198984586408 -52.220154315599558
