# This PCD file was generated using the MATLAB® pcwrite function
# from Computer Vision Toolbox®.
# .PCD v.7 - Point Cloud Data file format
VERSION .7
FIELDS x y z
SIZE 4 4 4
TYPE F F F
COUNT 1 1 1
WIDTH 1424
HEIGHT 1
VIEWPOINT 0 0 0 1 0 0 0
POINTS 1424
DATA ascii
-145.697876 -77.821877 -246.600037
-61.353943 -79.339394 -244.474579
-54.714649 -80.684402 -246.623672
-45.585846 -77.035912 -247.085846
3.127451 -77.736053 -245.834152
7.369699 -78.203751 -246.492691
11.517631 -79.537537 -248.375565
10.257452 -78.799179 -247.213425
9.484425 -79.229034 -247.978394
20.262085 -75.966843 -246.002991
21.897032 -80.359421 -246.054138
-61.635094 -77.230141 -246.694321
-54.465363 -78.873116 -246.287735
-49.964439 -79.843155 -244.989746
-47.589256 -78.576302 -246.918427
-46.597736 -79.809036 -249.117508
-0.529987 -78.791008 -246.094513
-145.010818 -79.655937 -248.632294
-63.339260 -78.530586 -246.865753
-60.479301 -74.806870 -245.106613
-59.802532 -78.679565 -246.661743
-59.000359 -80.088364 -247.970886
-53.050827 -78.881599 -247.094818
-53.274227 -80.033798 -247.447800
-51.634125 -78.145515 -247.561356
-49.839310 -78.778503 -247.405991
-47.624233 -78.829681 -246.514420
-0.236280 -79.398468 -247.723999
-59.196449 -77.533066 -247.647247
-57.337242 -78.001740 -246.816101
-54.236530 -77.251648 -246.451935
-51.087341 -78.681343 -248.007767
-1.549364 -79.204765 -247.601318
10.202229 -78.500351 -246.964676
21.266340 -78.310135 -245.078140
23.700172 -78.757942 -248.472290
-150.609970 -78.691391 -246.026993
-63.740776 -77.299492 -247.338608
-58.313770 -80.769112 -247.356064
-57.797123 -78.661324 -247.701797
-56.636692 -77.821037 -248.223999
-55.111282 -76.457191 -246.678375
-3.436141 -78.529320 -246.779648
-2.703735 -77.342651 -247.041245
11.634466 -78.345222 -248.029236
12.591762 -77.096466 -246.557648
21.532698 -79.337860 -246.464096
23.277210 -79.225235 -247.033356
-151.915833 -78.544502 -249.064240
-146.240189 -79.413284 -249.615417
-59.815388 -77.429092 -248.330902
-1.879530 -78.887489 -248.484665
-3.266482 -79.853920 -248.774063
22.676817 -78.512505 -246.905685
-3.537782 -79.748573 -247.473694
-147.705643 -81.552536 -249.135742
13.593983 -79.801811 -250.516907
12.796352 -78.389145 -249.724426
-150.845642 -78.555595 -249.017960
12.283690 -77.726990 -247.849319
-144.497482 -76.826500 -248.777252
-7.223060 -79.150429 -249.501495
16.300917 -78.559471 -250.253632
-146.010040 -77.703247 -251.171188
-9.342971 -78.102806 -249.219513
13.983619 -79.129715 -250.100266
-151.170990 -78.509422 -249.835556
14.991689 -77.868858 -249.778824
-7.841695 -79.860802 -251.657150
15.478851 -79.303345 -252.830795
-149.330307 -78.914955 -253.717789
-145.547226 -77.877892 -250.951904
-7.252003 -77.484573 -253.703552
-151.396896 -78.010132 -253.363770
14.915247 -78.189667 -250.918747
-152.382507 -79.361465 -254.296387
-153.430435 -78.598167 -252.312546
-144.713638 -78.887459 -252.847610
17.982784 -79.157272 -252.385803
-10.411973 -77.813492 -253.857483
-145.617828 -80.229462 -254.225876
18.869785 -78.264954 -254.567078
-153.405746 -78.739944 -253.316803
-11.225100 -78.746811 -255.941147
-152.919067 -78.590828 -254.883682
17.227032 -79.724815 -256.021484
-11.362032 -78.718727 -253.660599
-144.001740 -77.595390 -256.281616
19.669996 -78.052116 -255.089066
-10.088516 -77.895523 -255.482941
-142.099899 -78.851166 -255.523972
-142.691986 -78.838333 -256.714996
-140.148361 -78.097336 -258.310272
-136.322708 -78.421829 -257.888702
-10.099720 -78.512932 -255.840302
-137.184677 -77.193100 -254.484711
-136.171234 -79.978439 -255.054214
18.195309 -78.391441 -256.687378
-146.543320 -79.929977 -257.268585
-138.612549 -78.171471 -257.038483
-138.050552 -77.507263 -257.425232
21.444769 -76.436516 -255.549805
-155.685272 -77.568245 -255.346970
-136.128464 -79.225258 -257.300659
-12.023134 -78.423683 -258.341400
-135.822708 -80.426064 -256.614746
-12.340189 -77.509300 -257.869415
18.377897 -77.943298 -257.582458
21.091206 -79.738503 -258.078461
-154.651779 -79.286377 -256.482513
-147.123932 -79.586830 -256.928284
-11.455853 -78.944122 -257.489624
-134.314423 -78.963974 -258.832184
18.951412 -79.137367 -258.871429
-147.925049 -78.071289 -257.228302
-135.757416 -79.860222 -258.359528
-136.161469 -79.386238 -258.931458
-11.640790 -78.521530 -259.555084
-153.203201 -78.809830 -259.569977
-151.009613 -82.939926 -260.254059
-145.803589 -80.036766 -259.367737
18.821465 -79.735588 -259.263062
-12.271807 -80.422516 -259.937317
-136.038300 -79.337128 -261.105347
-136.216110 -76.775909 -260.847534
20.921019 -78.407051 -259.096191
-149.477997 -76.919838 -260.484131
-136.180771 -77.501297 -258.537842
-137.153061 -77.833168 -260.193970
20.239296 -79.192207 -259.955811
-144.033661 -78.507416 -261.783234
-139.914429 -79.290466 -259.787689
-139.539597 -79.257568 -262.741608
-138.802277 -79.081718 -261.077637
-137.044189 -79.518448 -260.708374
20.586626 -78.264938 -261.250000
-10.673347 -77.081795 -260.614777
-141.949020 -78.186646 -261.348846
-10.312052 -79.171761 -264.169708
-154.750168 -78.161858 -263.495026
-11.946806 -78.249611 -263.692932
20.713608 -77.666122 -262.116547
-152.149094 -79.887962 -263.008301
-144.219604 -79.117210 -265.472717
-151.423233 -80.482529 -263.196320
-11.311809 -80.093590 -264.288330
-143.645920 -79.372971 -265.005707
20.476665 -77.695656 -264.200104
-152.021469 -77.341324 -265.740753
-10.672870 -78.775307 -264.690247
18.389320 -77.697495 -263.947540
-150.159164 -78.321609 -265.946411
-11.828156 -78.344521 -265.352600
-150.408493 -79.147621 -264.798737
-145.994263 -80.746262 -266.464142
18.812449 -77.972786 -265.804382
-151.910690 -78.054153 -266.574188
-146.426743 -80.027031 -265.371155
-11.526264 -78.031364 -266.282166
-147.685089 -78.452545 -267.692474
-146.163208 -78.967720 -266.843811
18.295910 -78.624130 -268.318848
-151.105499 -78.688934 -268.298401
-145.966354 -78.586525 -268.460876
-151.316223 -79.973610 -268.872833
-146.898880 -79.767296 -269.730743
-11.521374 -78.200516 -270.604614
-148.550171 -79.030510 -270.477539
-149.664917 -77.185226 -270.157074
20.753481 -80.500435 -269.368225
-145.938934 -78.429764 -270.092407
-9.089222 -77.973846 -270.290771
-150.978012 -77.695137 -271.485138
-144.940002 -76.874603 -270.996338
-151.832993 -78.947784 -271.524261
-11.388328 -77.954262 -273.141754
-150.049515 -80.606827 -272.223511
-147.822052 -78.665627 -272.537079
-146.385132 -79.930260 -272.225159
-8.271422 -78.698387 -273.316833
18.593845 -79.789230 -271.556274
-149.464462 -78.666183 -272.639160
-8.554863 -79.386116 -274.707153
-146.345627 -77.220749 -273.016235
-9.090746 -77.336006 -273.837219
18.430643 -78.809784 -274.130371
-149.901138 -79.254311 -273.949615
-6.923755 -77.425896 -274.233032
19.111694 -78.097672 -273.397675
-151.746826 -79.515137 -272.927399
-148.958221 -77.516365 -272.037079
-7.150949 -78.130814 -275.443756
-149.377075 -78.878075 -275.870819
16.500126 -77.192291 -275.888580
-149.907700 -79.931587 -274.439178
-147.918549 -79.317749 -276.067383
-5.417791 -78.371063 -274.836517
-147.361420 -78.368591 -274.827393
13.444289 -77.745865 -275.183319
17.766737 -79.686172 -277.380798
-151.172363 -79.350815 -277.166687
-146.284744 -76.363358 -277.369537
-6.673475 -79.600677 -276.273682
13.717854 -76.228554 -277.039215
15.798468 -80.359062 -278.199066
-147.403687 -77.797203 -276.522858
-146.073425 -78.688721 -277.801880
-6.271380 -78.005455 -279.295502
14.242313 -77.597084 -276.601868
-4.154050 -79.330475 -277.657959
13.199998 -79.549576 -278.732300
-151.611176 -78.932678 -278.779266
-2.797410 -77.305786 -276.322845
13.757460 -78.715439 -277.331421
-151.886261 -76.925659 -280.929413
-4.514216 -78.874825 -278.516846
12.111271 -79.725029 -277.906158
13.289329 -78.790314 -278.315613
-148.558319 -79.799896 -280.567627
-0.755859 -78.618942 -279.061646
11.259812 -76.039810 -278.785034
10.555715 -78.919846 -280.162994
-151.846252 -77.948242 -281.194427
0.522474 -77.364670 -281.188873
-1.101412 -79.332413 -282.332489
10.846241 -77.755653 -281.685974
8.005840 -78.996315 -282.758423
9.799238 -77.328354 -280.374969
-0.172034 -77.790199 -281.191315
7.969525 -79.888092 -283.268127
2.650468 -77.448326 -283.503265
-0.301636 -77.203140 -282.395966
10.119335 -77.848503 -279.554688
-151.666031 -79.373672 -281.778259
-147.041580 -78.568634 -283.497498
2.955778 -79.418434 -284.661255
2.005045 -78.286316 -281.868225
9.137563 -77.826942 -283.865173
-143.299225 -78.770317 -283.720001
2.490602 -75.735268 -282.092224
4.848145 -78.863747 -284.181366
6.972990 -75.842262 -284.329285
-154.179321 -80.045486 -283.555115
4.068140 -77.132370 -283.222382
3.923352 -78.200989 -283.798157
-142.511795 -78.119949 -285.628754
-141.662674 -79.254883 -285.654419
-155.168640 -78.899704 -286.967743
-141.840790 -79.066414 -288.661743
-151.350861 -79.497673 -290.136536
-151.846436 -81.418724 -287.090179
-140.530594 -78.058876 -288.196777
-155.474808 -78.590591 -289.667877
-138.837082 -75.722458 -288.096283
-137.443909 -79.512680 -290.434601
-137.225143 -79.441246 -290.286377
-31.590773 -78.207985 -286.783936
-142.436356 -78.780884 -288.081818
-138.072098 -77.351540 -289.523346
-34.525009 -77.571098 -288.544678
-30.252264 -76.609642 -287.558441
-27.699808 -78.472588 -289.208771
-22.677938 -78.409683 -288.107147
-20.118944 -77.648155 -287.164185
-17.680540 -77.300430 -288.405945
-142.214432 -79.181580 -288.036743
-141.389816 -75.928993 -288.791901
-139.550583 -79.539925 -288.316315
-136.121613 -79.524422 -290.591431
-40.688801 -77.470528 -290.302979
-32.518581 -76.995438 -288.894592
-157.461502 -78.608223 -289.439331
-140.168915 -78.677284 -290.050354
-38.872379 -77.989433 -288.224487
-35.322750 -78.658669 -289.531616
-31.065405 -77.288277 -287.286926
-27.719606 -78.278503 -289.673676
-28.255032 -77.165291 -290.186188
-25.145329 -77.780159 -288.478821
-21.635326 -80.161133 -287.413391
-17.409811 -77.613335 -288.786163
-16.758841 -77.871422 -289.116608
-143.861908 -79.230423 -288.697357
-138.773834 -78.378929 -288.863068
-139.133209 -79.194382 -291.860657
-34.618076 -78.420273 -290.531586
-32.061768 -76.857597 -290.500305
-28.649014 -78.033302 -288.869843
-19.211512 -77.919144 -290.194672
-15.517515 -79.632721 -289.810486
-14.816797 -78.457764 -288.387390
-150.475388 -77.116234 -289.142334
-147.918823 -79.188919 -288.998871
-142.008041 -77.549500 -290.461792
-141.196243 -79.071129 -290.539459
-138.333893 -77.153244 -291.518158
-31.341866 -76.809181 -291.155548
-29.604021 -79.082382 -290.153168
-24.466913 -78.909714 -287.272888
-21.577589 -77.806740 -289.769897
-20.991081 -78.461174 -291.862122
14.603795 -77.509857 -291.103119
-143.071487 -77.581642 -291.449036
8.733808 -76.104576 -290.494781
11.571690 -76.741722 -290.231781
11.967628 -79.548584 -290.706604
10.352639 -77.406235 -288.534332
12.230906 -79.347183 -290.990784
14.824993 -76.869507 -291.615387
-142.889420 -78.703308 -290.825256
12.619404 -76.609985 -290.182770
17.607611 -78.334915 -291.917786
13.128898 -79.731461 -292.076385
-143.031174 -79.791969 -292.566833
13.884864 -79.452705 -293.133759
-144.079651 -78.787796 -292.799713
13.341859 -78.068062 -294.272614
-155.188828 -79.219566 -293.844116
-153.444931 -79.948250 -292.155060
-145.609756 -77.961166 -294.300201
-152.852951 -79.467918 -293.971558
-152.798615 -77.495705 -294.641998
-146.146729 -77.146400 -294.897400
-150.852615 -78.436264 -294.475861
-146.558868 -78.776291 -296.417572
-146.877777 -78.274849 -296.536896
-152.897858 -77.594147 -300.808258
-150.670105 -78.107887 -299.024017
-152.111481 -77.159470 -301.061340
-148.568665 -79.415672 -299.765594
-148.580215 -78.758911 -300.277771
-148.683289 -79.581276 -302.171326
-148.386169 -75.990479 -300.469971
-148.501053 -78.444672 -301.978027
-149.271255 -79.092354 -303.809357
-151.119049 -79.438858 -305.088135
-150.000977 -79.101273 -304.203949
-150.294067 -77.932022 -304.426544
-150.945251 -78.662292 -303.376709
-149.115005 -77.637718 -307.136047
-148.337860 -76.697083 -306.095093
-152.795807 -78.629196 -307.265564
-149.522095 -79.080559 -307.184235
-152.637772 -76.511742 -305.071747
-151.983795 -78.329910 -307.333344
-146.497757 -77.583702 -305.940277
-152.050232 -78.702782 -307.723511
-145.568832 -78.222435 -306.098572
-152.371109 -79.029251 -307.583557
-149.044098 -77.733955 -304.629242
-154.370071 -77.933128 -307.721191
-152.368942 -78.203743 -305.954163
-146.857101 -79.521667 -307.894806
-151.414276 -79.034515 -309.394196
-151.789917 -80.108421 -309.311371
-154.777374 -77.292839 -309.761597
-151.322998 -78.383102 -309.866638
-149.111038 -79.133240 -309.319702
-148.748398 -79.042877 -310.071472
-146.918274 -78.303749 -309.769226
-152.421799 -79.310524 -306.793671
-147.453827 -77.940269 -311.315704
-150.879440 -78.630081 -310.856598
-153.056427 -78.154167 -310.461975
-149.747009 -78.085983 -310.745850
-148.460129 -77.995781 -311.549194
-145.816589 -78.262596 -310.909393
-150.044632 -77.233986 -310.999725
-149.363663 -78.615257 -311.596436
-59.229137 -77.672112 -60.492634
-56.588856 -76.828430 -57.792198
-55.503197 -75.736755 -56.296490
-61.638351 -78.705597 -58.188850
-59.281776 -78.306885 -57.126457
-54.634979 -77.150406 -58.484779
-53.003849 -76.639305 -57.468895
-49.603207 -75.957611 -56.864861
-63.310059 -77.254410 -59.237667
-56.326714 -74.195694 -56.757339
-53.339771 -77.008682 -59.745510
-52.813385 -77.539597 -58.217865
-47.861668 -76.090683 -58.066387
-47.281937 -75.588303 -58.792194
-66.647430 -77.363548 -58.366882
-64.905319 -78.072304 -59.233345
-60.365860 -78.591949 -57.213905
-58.769398 -76.602005 -57.514915
-50.819317 -77.485291 -56.655598
-48.263660 -78.568710 -59.092957
-45.095093 -77.562897 -58.991302
-43.995434 -77.330414 -57.101181
-64.503235 -77.282722 -58.458206
-59.257896 -78.583427 -57.879890
-56.571671 -76.913658 -59.608570
-52.930870 -76.274902 -57.999641
-44.940010 -77.020950 -61.793697
-44.917538 -76.753738 -60.477722
-66.568718 -77.214333 -58.438049
-63.377815 -78.003914 -60.382343
-58.738346 -78.426819 -59.512280
-55.671780 -77.060272 -59.726528
-53.673462 -76.769211 -59.561359
-49.973850 -78.191475 -59.198853
-70.127617 -76.405556 -58.257710
-68.031654 -79.912819 -59.537842
-62.604572 -77.931328 -58.569038
-48.057587 -76.911156 -59.218426
-47.223717 -75.713661 -59.409939
-43.498333 -76.911186 -59.576855
-69.727440 -76.647308 -61.415257
-68.721794 -77.369202 -60.090759
-65.467964 -76.825363 -60.833134
-41.848225 -78.060410 -58.901623
-38.608475 -76.954323 -58.559406
-73.911629 -75.982323 -60.925846
-44.949657 -77.281456 -61.126480
-39.716660 -77.719025 -60.021065
-37.974060 -76.359474 -60.656303
-72.667305 -78.310242 -60.023628
-69.192734 -77.862770 -60.791561
-73.925163 -76.390816 -61.363037
-70.227913 -78.134109 -61.391857
-43.567371 -77.426270 -61.409550
-41.235157 -77.097633 -61.936710
-38.650852 -78.726166 -58.557198
-74.193558 -77.546844 -61.779774
-72.717079 -76.732948 -62.230297
-71.821289 -77.340752 -61.004372
-41.776199 -77.643356 -60.726551
-37.374096 -77.208839 -62.049820
-35.909119 -77.486893 -62.852757
-72.469704 -76.911072 -62.038872
-39.733036 -76.186653 -62.983273
-72.619759 -80.096619 -62.705879
-38.134884 -76.636497 -63.165466
-35.414383 -78.736542 -61.333977
-75.233536 -76.934143 -62.334000
-75.454346 -77.154968 -63.656372
-73.878998 -79.193176 -63.026962
-38.549492 -76.456650 -62.892273
-38.114658 -76.260979 -63.844913
-76.011551 -76.799423 -62.111214
-76.685669 -78.345009 -62.670250
-76.946266 -75.736267 -62.942879
-78.648552 -76.273193 -63.898548
-34.506081 -78.083092 -63.632797
-79.528481 -79.240311 -64.364807
-35.001919 -77.251915 -64.291382
-33.677380 -76.299339 -65.518990
-77.577988 -77.294968 -64.982498
-31.630243 -77.028847 -65.261757
-80.426811 -76.188499 -66.427551
-79.924500 -76.093529 -66.066147
-31.229910 -78.256584 -66.573799
-28.765888 -76.162872 -67.597527
-29.017780 -78.111610 -67.902565
-79.430206 -77.290977 -68.954720
-81.668747 -76.951950 -68.708366
-32.688168 -78.467674 -65.484268
-82.251076 -78.376221 -69.871407
-33.363926 -77.426270 -67.217133
-27.379875 -77.767570 -68.270447
-33.120918 -76.882545 -68.690887
-25.070427 -74.866234 -68.255356
-26.631016 -77.786453 -68.567924
-27.929520 -76.649170 -68.863922
-83.830551 -77.756516 -69.855537
-79.727798 -77.182083 -68.434273
-26.506950 -78.481857 -70.126663
-24.930927 -78.356514 -70.286476
-24.341875 -77.038986 -69.641708
-83.060478 -77.571548 -70.392220
-29.391685 -77.635834 -69.642090
-26.556873 -79.441689 -72.690315
-82.754951 -78.027611 -68.601410
-84.646355 -77.570770 -71.569870
-26.500275 -78.547981 -70.416138
-25.069389 -77.589630 -72.475998
-83.519791 -77.457268 -70.368362
-82.074142 -77.979004 -70.500053
-22.862169 -77.460403 -68.628517
-83.260254 -77.452728 -71.547966
-83.844269 -77.710899 -70.998444
-82.735329 -77.775101 -70.576683
-25.569868 -79.354240 -70.428398
-23.554708 -77.864784 -73.393440
-81.126915 -77.141357 -73.095505
-22.786993 -77.536263 -73.844528
-83.996643 -78.065033 -73.680542
-83.328529 -78.854027 -73.321190
-22.647047 -78.343582 -72.783730
-84.167496 -77.390869 -74.580544
-24.039589 -78.193489 -74.279236
-84.948418 -77.052002 -75.472740
-84.211014 -76.756866 -74.312317
-24.839800 -79.480652 -74.599655
-86.939491 -76.745644 -73.538879
-86.606247 -76.836342 -75.416084
-83.351654 -78.823975 -75.711052
-27.292601 -78.195625 -75.159981
-85.414101 -79.122887 -76.837730
-83.953773 -77.702881 -76.139549
-86.492096 -76.390587 -76.262558
-27.860847 -77.419647 -77.126442
-29.124996 -76.429420 -79.938843
-28.160809 -78.038567 -75.902527
-86.519241 -78.538422 -76.712234
-28.940613 -78.115158 -78.576408
-30.642225 -77.673935 -78.848160
80.730156 -79.219337 -80.125786
-31.836254 -76.304817 -81.296104
-29.951155 -76.845085 -78.896439
82.891785 -77.848885 -80.034569
-88.282150 -77.359901 -80.247421
-86.990974 -77.505119 -80.397987
-33.215424 -77.449417 -80.285225
81.774261 -76.669540 -81.343018
80.688599 -77.652107 -80.070976
81.592308 -77.789452 -81.108437
-35.107235 -76.065315 -81.036850
-35.800270 -77.979149 -79.889587
83.294998 -76.402756 -81.094551
85.084496 -75.547867 -79.286018
-89.269196 -77.599815 -83.226700
-37.169773 -78.542801 -81.629677
79.765816 -77.129784 -82.584457
85.616310 -76.876160 -82.527344
-35.138748 -81.843987 -82.297951
-37.353489 -78.150978 -83.756927
76.626793 -77.312805 -81.000130
81.037392 -76.055382 -82.383598
82.719704 -76.709885 -81.606270
82.992821 -78.520897 -80.338524
88.395798 -76.148468 -81.164146
78.871178 -77.674416 -84.135658
88.341682 -76.251015 -81.600105
-38.560802 -77.338112 -81.611404
78.138268 -79.511391 -83.054970
84.359795 -78.379120 -80.987801
84.510017 -76.692810 -84.187607
87.665283 -77.563255 -82.259583
-39.333950 -78.906059 -82.373833
80.979256 -76.970139 -81.987076
81.471489 -77.707870 -83.132217
82.613953 -78.661751 -84.123627
-87.064575 -77.523056 -85.271004
81.880363 -75.975792 -83.591774
82.294388 -76.215355 -84.537300
84.127800 -76.419670 -82.188850
85.410957 -78.058853 -82.042038
91.180618 -78.196495 -83.700775
-40.617447 -76.282860 -84.532883
79.944153 -77.009178 -82.705330
88.556725 -78.655487 -82.503593
-45.543686 -79.682869 -83.175415
-42.794254 -77.698349 -83.562691
77.259186 -76.200211 -83.476517
92.607605 -76.213867 -87.338783
-46.478989 -76.987053 -85.582245
82.306046 -77.160057 -83.250435
86.001183 -76.933235 -84.565460
87.848488 -76.657082 -85.091934
-89.026497 -78.935196 -87.168709
78.543457 -76.533890 -85.541061
86.492966 -76.602280 -84.176834
86.453415 -75.565567 -86.753326
91.948303 -75.675362 -83.623589
-47.203865 -79.974518 -84.926765
77.545921 -76.930763 -86.754364
84.567513 -76.388741 -85.306252
86.944397 -77.601662 -85.898712
89.750412 -77.192406 -86.826752
92.006050 -75.357208 -86.325447
77.640533 -77.507179 -86.419296
79.679001 -78.395561 -85.909782
85.708763 -78.633095 -85.766304
88.884544 -77.301758 -85.816864
89.806213 -75.599014 -86.426071
-50.348614 -79.187653 -86.917984
76.431793 -76.321030 -88.072601
82.647224 -78.267494 -86.780586
84.519615 -76.964218 -89.715134
86.443481 -78.146324 -88.776970
91.414085 -78.000656 -87.318207
-87.624344 -76.961517 -88.534760
-88.522102 -75.770378 -90.159218
78.712959 -78.003036 -87.463524
83.528870 -77.349525 -86.649666
83.598610 -78.823166 -85.703262
92.027214 -78.369957 -90.441963
-88.229813 -78.019867 -89.937225
76.852730 -76.809784 -88.939568
82.663971 -76.059006 -88.372368
80.243530 -76.677849 -87.488953
84.835258 -77.408447 -89.587303
86.055290 -77.362503 -89.392563
86.186546 -76.366035 -89.103752
87.764778 -77.739281 -86.123962
76.839622 -77.184898 -87.931221
78.270157 -76.654007 -87.548355
82.933380 -78.683441 -87.402565
90.096977 -77.342369 -87.303368
89.792213 -77.419373 -89.010521
-49.062382 -76.848045 -88.390213
77.795441 -77.079231 -89.856071
84.283981 -78.608597 -88.358253
86.422485 -78.704765 -89.693230
86.600906 -78.532639 -90.856117
91.155357 -76.907303 -89.154991
-49.750420 -77.740211 -88.884827
80.773499 -78.778816 -88.588669
83.744278 -77.218216 -89.058304
83.264381 -76.265526 -89.663010
91.633018 -75.845421 -90.441078
77.493111 -77.711693 -89.791672
78.863907 -77.663200 -91.228920
82.324547 -79.438766 -90.211334
88.408302 -78.150841 -91.066193
82.243889 -77.882874 -91.038307
-89.153717 -77.639038 -89.766159
83.085571 -77.656769 -89.923409
85.388153 -79.777275 -92.004601
86.135010 -75.635750 -91.737167
78.192825 -78.220360 -92.392754
80.548241 -76.671776 -91.478828
83.903114 -79.364822 -88.967957
84.459152 -77.880608 -90.284950
89.683075 -77.152657 -92.530357
78.982040 -78.697044 -91.383293
86.263535 -76.978310 -93.210182
86.644302 -79.051514 -92.744881
90.968849 -77.142189 -91.103706
81.764557 -75.552353 -91.874222
83.191818 -78.442619 -92.940025
90.451225 -77.694435 -93.985268
-59.244724 -76.869789 -94.227615
85.510513 -77.619362 -91.773376
89.831284 -76.744125 -94.292877
88.964569 -77.950302 -91.505600
-88.922951 -77.436684 -96.813995
-65.854927 -78.945694 -94.814224
-60.563805 -74.773018 -93.939667
88.299957 -75.742699 -95.644272
-89.932518 -77.794304 -95.872452
-64.253021 -78.204384 -94.481728
-63.439342 -79.610741 -95.998383
-64.961739 -76.629517 -97.176102
-66.349731 -76.634468 -97.185028
53.214085 -75.850143 -98.447304
51.493031 -77.527763 -97.839272
-65.698601 -79.348915 -99.954468
51.188782 -77.805229 -97.146950
50.739948 -77.734039 -97.940521
50.573246 -76.668732 -99.196075
-64.554588 -76.450974 -99.513718
52.870277 -78.700096 -98.858192
45.666588 -76.133064 -101.133453
47.045540 -77.202179 -98.894760
48.231136 -76.050018 -101.043610
50.622662 -77.325073 -100.411064
48.475479 -78.801254 -99.855804
47.846020 -80.384361 -100.701660
51.626190 -77.229378 -102.419960
-90.684113 -75.955887 -98.954132
-75.903320 -76.880295 -102.679474
52.388836 -74.023361 -101.915314
-78.038589 -79.526192 -102.758766
44.083870 -77.367516 -102.045662
-92.492950 -77.474838 -100.894516
-78.266464 -76.673187 -104.158058
-91.181870 -76.503670 -103.044022
42.996117 -75.672806 -101.996170
54.020229 -78.347374 -103.011833
-80.089394 -75.559341 -102.250488
-91.701622 -75.354973 -103.558189
44.520035 -78.669594 -101.501953
52.478611 -75.888618 -104.162582
50.942177 -76.685127 -103.369698
-80.374756 -78.055672 -103.877769
42.200512 -75.850906 -103.983322
51.000038 -79.414940 -103.954895
46.635456 -76.030067 -103.654945
-80.989227 -78.466393 -105.558487
47.891834 -78.003609 -104.498787
51.939159 -77.370132 -108.637436
46.089027 -76.652519 -105.450104
46.573730 -76.785645 -104.145752
-90.977249 -74.672348 -108.253960
48.459621 -78.039841 -105.994141
49.371960 -77.237892 -106.349541
51.913197 -79.706734 -107.901886
-80.479546 -77.533463 -106.866043
39.983730 -77.982498 -106.229965
-82.280350 -75.123756 -103.602898
39.828835 -75.827255 -107.649643
43.799908 -77.031593 -106.413879
46.132034 -77.340630 -105.704132
45.683464 -75.977028 -107.825874
-89.767975 -80.018051 -108.394203
40.517311 -78.998901 -109.220253
38.586105 -76.997528 -108.775444
48.389828 -78.267708 -108.633736
-91.911125 -75.972000 -107.973396
-82.342628 -78.308182 -108.590324
41.634460 -77.387939 -110.140640
44.557499 -75.488136 -109.962212
43.812771 -78.700020 -108.188583
45.944771 -78.241158 -107.767281
48.212791 -76.879311 -107.969574
-92.194862 -78.557915 -110.395882
-80.827614 -77.708099 -108.172409
39.447231 -78.353966 -109.033745
43.884285 -77.110283 -107.611198
45.576656 -79.058136 -107.441772
49.578262 -79.188461 -108.681442
-84.093681 -76.866737 -108.934464
48.285988 -78.518044 -110.168648
-89.241577 -78.013748 -110.765968
-83.298401 -78.775269 -110.066597
43.304779 -76.719917 -112.138756
45.865536 -78.275436 -110.465424
50.716434 -78.512085 -109.804214
-84.709694 -77.848236 -109.609940
38.061733 -75.389374 -110.416771
48.412495 -77.865570 -112.323997
39.745403 -76.713814 -111.826614
-85.667931 -79.025581 -110.402023
-88.658035 -77.546730 -111.190758
-90.636436 -77.658157 -112.363548
40.777977 -74.865204 -110.559814
-87.484291 -78.907349 -113.220856
-86.983589 -77.705833 -112.631126
-85.510811 -74.894913 -112.268883
37.600269 -78.479637 -113.045158
40.379463 -77.611107 -111.251892
-87.631676 -76.623154 -114.388039
41.009628 -77.799744 -113.370941
40.504131 -77.498123 -113.445778
45.058289 -78.128510 -111.391411
49.400303 -78.151657 -113.955368
-89.654770 -79.259171 -112.711510
-86.275177 -76.206848 -113.221458
35.636021 -78.491386 -113.655533
-88.259293 -77.311348 -111.761673
39.076401 -78.111191 -114.232384
45.917793 -75.776093 -111.450432
35.799953 -77.470352 -114.729057
43.593014 -76.227936 -113.474281
48.577202 -76.876114 -115.527046
37.569996 -79.485023 -117.490402
48.597641 -76.623192 -116.215195
45.846424 -77.934952 -117.064217
34.927650 -77.994232 -117.549500
34.903561 -77.228767 -116.071320
36.657501 -79.384262 -117.082054
43.904999 -78.808914 -115.517479
35.577763 -78.135048 -116.388229
32.921394 -77.713722 -116.187920
45.014290 -76.127991 -118.523338
37.318394 -76.964043 -117.201553
36.606773 -77.273979 -117.804672
34.256142 -77.982231 -119.918442
35.557270 -78.024139 -119.496216
42.256649 -76.671692 -117.991516
46.966278 -78.654091 -119.120537
45.446915 -76.327873 -118.364471
44.000416 -77.992722 -119.203659
42.402218 -76.601608 -120.822945
33.199585 -77.477379 -121.173904
43.189762 -77.263329 -119.372818
43.815876 -79.383804 -118.786758
30.547995 -78.763367 -123.243248
35.763691 -78.395317 -123.197441
44.944401 -77.228027 -119.726463
33.924789 -77.421082 -121.341110
42.827461 -76.111755 -121.987587
40.899113 -76.774651 -123.379700
30.596966 -77.737717 -123.798859
44.329857 -76.546585 -124.702118
35.458633 -77.223068 -124.379646
33.029076 -77.288109 -123.310539
31.404341 -77.564255 -122.891327
42.254543 -77.680038 -124.182983
41.211498 -77.460022 -124.427635
33.020729 -78.079605 -125.415436
42.957687 -76.018921 -124.417389
34.220776 -78.831116 -125.045525
40.917187 -75.452148 -124.946266
40.615116 -76.106529 -125.190842
30.827978 -77.502846 -125.813477
32.634930 -77.399712 -125.676704
42.659622 -78.567352 -122.749207
32.826267 -77.185349 -126.504982
29.657116 -77.248039 -125.900597
41.536003 -79.990753 -125.706032
42.012791 -76.677116 -126.808601
29.812189 -76.762039 -126.887878
42.466446 -76.729263 -127.220177
30.725231 -78.943008 -128.570892
42.291840 -77.605827 -126.564827
30.284859 -77.359795 -128.584091
32.676514 -78.151291 -129.674133
38.715023 -77.702278 -130.052673
30.711721 -76.316833 -127.984009
30.406147 -77.325447 -131.863052
37.754398 -79.165230 -130.750320
30.871233 -78.109261 -128.960754
41.428280 -77.223976 -128.298645
30.139023 -76.269608 -131.492920
41.348289 -77.937523 -129.719131
31.306353 -78.109360 -132.324066
26.885172 -76.864861 -132.147049
27.970522 -78.379410 -131.937927
37.545582 -78.863747 -132.375412
31.377474 -76.378082 -133.418991
36.621078 -77.547363 -132.226898
40.349018 -76.956284 -133.477753
28.664303 -77.532570 -134.148499
29.649878 -79.036118 -131.311356
27.997509 -77.540962 -132.870865
37.394566 -76.720390 -135.017242
37.218441 -77.704758 -133.127899
36.982758 -78.581070 -136.122864
30.245869 -78.607216 -135.826401
27.965786 -78.346336 -133.467606
31.057234 -77.856873 -135.018417
36.816616 -77.563873 -134.607834
26.679682 -75.774101 -135.684036
39.414082 -77.161842 -135.153656
34.741711 -77.665237 -137.722305
28.501053 -77.444412 -136.180084
25.721018 -78.244385 -137.958496
27.641275 -77.624870 -140.278961
36.877892 -79.061188 -138.840240
26.830416 -76.040947 -138.020630
24.782051 -76.200623 -141.263489
29.096014 -77.182030 -141.749054
25.036699 -75.453407 -140.005524
34.738789 -79.661713 -141.697891
-53.202225 -74.799042 -141.114182
-51.957737 -76.433517 -141.070816
-51.775002 -76.363632 -140.819748
-49.225349 -76.849274 -140.738770
34.766983 -77.671455 -141.156540
34.929562 -79.635963 -139.205688
-49.993126 -76.831879 -142.802582
-45.889351 -76.391998 -141.758926
-54.051136 -76.249786 -142.433578
-50.222103 -78.069695 -143.198700
-48.635555 -78.074692 -143.113602
27.684641 -76.718620 -142.418747
-50.155560 -75.929726 -141.513184
-47.632164 -77.156006 -143.050507
-46.321854 -77.098717 -143.945694
23.871599 -78.114799 -140.658005
-51.983810 -79.649620 -142.185410
-47.003040 -79.359200 -142.504990
29.431601 -77.337463 -143.210999
-50.432648 -76.466507 -142.799850
-46.003101 -76.597618 -142.555328
25.721922 -76.477570 -143.416458
24.365604 -75.294731 -142.301025
27.632942 -76.371849 -145.533524
32.610867 -77.399078 -143.374481
-51.552250 -76.994240 -144.979828
34.523415 -77.378738 -146.167282
-43.548271 -78.176620 -145.485062
-43.984428 -78.134674 -146.105667
-51.725410 -79.106285 -145.634491
24.587894 -79.385002 -146.993332
28.342316 -77.512558 -147.092316
34.240047 -77.566864 -143.369965
-45.481461 -76.891197 -145.713516
-46.813480 -78.930534 -145.878082
-47.035282 -76.291092 -146.248352
26.148180 -77.574623 -146.600235
24.819021 -76.788567 -146.866333
33.681473 -79.837456 -145.964554
-51.857368 -77.783348 -146.435577
32.394394 -76.891418 -146.867783
-51.590202 -77.967339 -147.891754
-46.655964 -76.368408 -146.764694
-44.888588 -77.117981 -148.192322
-43.120491 -76.714462 -149.150192
27.052914 -79.227554 -147.771423
-46.042168 -78.048477 -149.956635
23.575006 -77.695633 -147.894257
23.419945 -77.735390 -147.648819
29.955551 -78.668304 -147.772278
-48.658077 -78.353630 -149.281311
25.697744 -79.088005 -150.547119
28.982059 -79.312950 -149.137955
34.167000 -78.596680 -150.117584
115.082008 -75.539787 -150.497482
-48.934906 -77.336365 -148.212006
-46.893970 -77.213394 -147.843872
-46.310684 -76.976402 -148.893707
-45.072880 -77.410751 -148.952026
32.865490 -77.326576 -150.491608
-46.566673 -79.977722 -150.822098
26.438181 -78.425827 -150.327866
-48.537224 -79.697281 -150.147324
-44.096218 -78.236572 -149.669098
-43.549866 -76.224617 -149.240982
29.958654 -76.176758 -150.002655
111.491623 -76.982018 -151.217926
-50.317402 -76.661064 -150.650269
-44.887642 -78.266891 -149.542007
-46.038223 -76.991814 -150.569702
-51.452526 -76.724823 -151.344894
-46.083817 -78.468117 -149.947906
-40.984589 -79.131859 -150.242828
24.195551 -75.863419 -151.103043
25.100803 -77.118935 -151.179062
111.006523 -76.340019 -150.871658
112.153793 -77.141563 -149.679596
-41.881546 -77.819305 -150.483566
22.739180 -77.534805 -152.948273
-68.367195 -77.422569 -152.746521
-46.415825 -78.559570 -151.795135
-39.557930 -77.146698 -153.006210
26.465380 -78.196068 -152.625534
-70.012817 -76.255905 -152.182571
-69.060181 -77.074028 -150.767014
-50.573544 -78.485832 -150.428665
19.592543 -76.532654 -151.365097
34.113941 -77.475624 -152.576736
-68.746330 -77.727394 -151.401489
-47.479530 -77.239594 -153.621017
-43.418686 -77.063942 -151.703903
-38.879276 -79.326668 -153.764786
24.267424 -78.860222 -152.400772
-40.078598 -77.506485 -153.587173
23.182087 -78.490189 -155.246490
-68.258827 -78.157768 -153.052490
-49.365707 -77.839890 -153.427780
-46.231953 -77.846069 -153.248520
-41.336227 -78.074333 -153.103088
-41.923489 -76.473839 -152.798004
31.556065 -77.288895 -154.505661
112.172974 -77.741325 -155.074234
-69.104675 -77.807846 -154.042801
-47.388718 -77.839020 -151.939209
-39.422073 -77.700363 -153.712906
23.277332 -76.682129 -153.792267
112.655533 -76.358177 -154.289276
-49.976353 -78.106171 -154.767807
-39.324684 -76.670952 -153.203171
-40.063759 -78.261551 -154.585327
24.609150 -78.204262 -154.494095
25.504246 -76.886459 -152.860886
24.960255 -78.904213 -152.524048
32.101719 -77.410896 -154.988831
-70.083038 -77.678879 -154.080353
-68.369911 -77.736389 -155.534958
-65.926872 -79.355530 -153.138046
-45.282276 -80.181992 -153.725769
-36.320618 -78.361839 -155.975693
-67.931046 -78.679604 -154.998825
-66.130363 -76.385910 -154.591431
-42.026951 -79.327629 -153.346146
-40.995472 -77.413643 -154.556412
22.418089 -79.205727 -155.902466
30.026516 -76.444038 -154.469009
-68.093117 -78.011047 -155.490768
-65.358063 -78.833427 -155.234070
-41.900349 -80.185623 -157.749100
-67.978989 -77.688416 -156.191391
-50.647171 -78.437614 -156.147293
-37.981205 -78.392715 -156.977417
-36.035873 -78.635681 -157.320221
25.679371 -77.706604 -156.395828
30.402802 -78.854683 -156.679550
-65.727104 -78.184891 -155.550812
-44.419983 -78.759247 -156.975662
-41.427738 -79.296509 -156.211594
20.911160 -76.892540 -155.945892
-47.905254 -78.310341 -158.629807
30.853924 -77.677315 -156.356705
32.132660 -77.833817 -154.830536
113.339058 -75.594627 -155.954407
-39.461411 -76.612686 -158.982880
112.381050 -78.114365 -156.106964
-36.171200 -77.750557 -156.996521
21.362951 -76.969376 -156.742752
-64.732201 -76.580063 -157.294495
-44.260075 -77.180489 -160.724213
25.909380 -77.054428 -158.873779
113.641830 -78.364464 -158.792465
-68.793076 -79.351028 -159.234787
30.859747 -78.301720 -157.907623
33.075230 -77.551285 -159.301422
112.814163 -76.034729 -160.411453
-67.507225 -76.745010 -158.559113
20.949497 -77.507904 -159.630859
-43.381138 -79.273224 -158.214401
-34.774998 -76.112846 -159.804840
25.185310 -76.356468 -159.347946
-67.017487 -77.899628 -160.622162
-69.742424 -76.756859 -160.538330
-63.912067 -77.233398 -159.523346
31.104090 -77.151199 -159.985397
-38.119995 -79.205498 -159.303070
-48.299591 -76.491074 -159.576157
3.737765 -77.738808 -160.795715
111.488609 -78.363441 -158.053391
-62.926331 -76.787888 -160.962585
-35.489178 -79.505531 -159.657913
-34.165638 -78.207138 -161.902649
1.427564 -78.679993 -160.928101
3.431529 -77.875870 -158.878098
3.710345 -75.465096 -162.034302
29.179745 -76.508957 -160.103745
30.576157 -77.583221 -158.660385
-45.709160 -78.012253 -162.047913
-42.003487 -78.008972 -160.466492
111.293640 -76.517365 -161.197693
-34.773308 -78.655891 -160.026001
1.207306 -76.496040 -163.894699
1.620450 -77.825554 -161.644608
1.949074 -76.695816 -159.903275
24.683737 -78.009186 -162.885147
24.591541 -77.196686 -161.916733
-65.717773 -76.185829 -163.984375
-59.698147 -77.662704 -161.695740
-44.624382 -76.477966 -162.459290
-42.949265 -77.294754 -162.004715
-36.748501 -78.192444 -162.113129
-33.664814 -76.367767 -162.922592
1.869996 -77.045647 -160.762512
109.400063 -77.661659 -164.129318
-45.375568 -77.612000 -161.978104
-35.043549 -77.444496 -163.934647
2.175035 -78.018097 -161.150894
0.082237 -79.311234 -161.047195
3.054833 -79.442162 -162.848801
113.209251 -75.893295 -160.749969
-67.282555 -76.792976 -164.085495
-59.537018 -76.582489 -164.096237
-44.463390 -79.089806 -162.413986
-42.047436 -76.442757 -162.341644
-41.801849 -76.475677 -164.348923
-32.975025 -76.571785 -162.316833
0.735560 -77.071251 -162.662567
3.082079 -79.771996 -161.039551
21.567747 -77.749710 -164.010101
29.616821 -78.735451 -164.555115
110.682587 -79.422554 -162.068756
-61.101871 -77.914093 -164.345642
-35.431252 -78.068092 -165.520752
-32.372471 -78.263977 -164.364990
3.250785 -76.787109 -162.031433
110.899239 -76.049492 -166.218781
112.395935 -77.689804 -163.971222
-63.755699 -77.568130 -163.597153
-63.506634 -76.966805 -163.109360
-60.603050 -79.041885 -164.934082
-35.494892 -78.511497 -163.775513
-1.826323 -77.766388 -164.727158
-68.088417 -75.845787 -163.412491
-62.736740 -77.184189 -164.373184
-44.683365 -76.926514 -164.135239
2.538894 -76.689362 -162.125031
25.354645 -78.158150 -163.966187
31.638815 -77.211456 -161.068146
-63.824951 -75.351822 -164.653442
-41.901051 -79.436333 -164.140030
-32.121952 -76.671135 -163.476913
-4.288738 -77.645920 -164.764954
3.368367 -77.754616 -165.550812
-59.582565 -76.817947 -166.103683
-44.745495 -77.595985 -166.599350
-34.538475 -78.883354 -166.367004
24.871859 -76.395851 -164.507553
23.262251 -76.796326 -165.375717
112.314728 -79.587807 -163.500458
-44.367294 -77.242645 -165.422623
-30.785793 -77.075340 -167.454712
20.539848 -77.431763 -164.542587
24.312443 -80.043770 -165.915283
110.302582 -79.352585 -164.823792
-67.196838 -79.202423 -165.184677
-66.406166 -75.884972 -165.288620
-61.865177 -77.502693 -166.678177
-44.912346 -77.993698 -164.679688
-3.784721 -77.519150 -164.774673
28.601570 -76.783714 -163.038177
28.944715 -76.946068 -165.148163
110.401558 -75.913727 -164.291412
-66.340744 -77.410362 -164.840958
-62.246994 -77.455254 -165.631195
-38.669491 -78.151131 -165.291946
20.103447 -77.757317 -164.082535
20.320786 -75.247650 -166.508942
32.616207 -77.385376 -167.382507
109.402397 -75.490685 -165.123581
-63.238056 -75.898445 -165.551544
-57.832111 -77.410995 -166.682587
-32.055714 -77.102890 -168.135010
-6.763497 -79.471336 -166.509384
23.403175 -78.450974 -168.117203
29.250885 -76.576233 -168.048920
-61.270889 -76.886452 -166.129684
-58.354244 -78.383629 -165.941162
-32.009644 -76.560158 -166.444519
-31.682808 -77.930779 -166.568054
-5.390724 -78.207039 -167.433945
1.272677 -79.460777 -166.244659
19.551821 -78.366234 -167.399277
26.282631 -78.405571 -166.736328
-64.792053 -75.409416 -167.013626
-32.581799 -76.849373 -165.571762
111.884193 -78.173782 -166.352280
-66.780876 -77.216675 -167.642899
-62.167118 -77.075859 -167.431244
-60.782211 -75.870155 -166.871643
-58.207321 -78.102287 -165.479233
-43.441280 -79.345604 -166.253235
-38.127838 -77.473160 -168.631546
-6.159748 -77.340172 -166.751892
109.609047 -77.296860 -167.272980
-60.948021 -77.170540 -168.593658
-29.998499 -78.040382 -170.117554
-7.334914 -76.877060 -168.810638
26.927610 -77.162498 -169.964996
110.212738 -78.499016 -168.100327
-62.406193 -76.602875 -169.507553
-61.430210 -76.554573 -168.276688
-56.205067 -78.806854 -167.922531
1.107567 -77.768959 -168.723816
21.688719 -77.840630 -168.143082
107.999046 -77.013649 -168.701141
114.051773 -77.503357 -169.370880
-58.561138 -76.231773 -169.558380
-55.709888 -77.881477 -169.223801
-41.824673 -78.469856 -170.139267
-33.811325 -79.200432 -168.264526
-8.593278 -78.270699 -169.116196
-0.645465 -76.017609 -168.289536
29.060282 -76.043343 -167.962463
-64.911636 -77.773453 -169.404053
-62.405125 -80.818878 -168.027512
-30.311565 -79.728088 -168.488342
-29.722721 -78.889267 -169.374771
-9.489567 -78.892403 -170.789413
-1.267040 -77.722015 -168.795624
26.410547 -78.056870 -169.274429
-61.141525 -78.357506 -169.678391
-58.498623 -77.569847 -169.529282
-57.898457 -77.631638 -168.701263
-56.801544 -76.163765 -169.622955
-37.915859 -76.975883 -169.496658
110.496643 -78.887497 -170.893784
112.621071 -76.811119 -169.689041
-65.944092 -77.834198 -169.551193
-58.185261 -76.747726 -170.755188
-3.097926 -76.728752 -170.762604
-65.839401 -76.872330 -170.987869
-35.929878 -77.573067 -170.191452
-37.700844 -77.205795 -167.132950
-31.766882 -76.681015 -169.123123
-9.684232 -77.894356 -170.911865
24.429838 -78.175423 -170.030396
24.686632 -76.053696 -169.579865
27.539602 -77.636292 -171.510727
27.037806 -77.861610 -169.339127
108.897629 -76.624344 -171.976654
110.657944 -79.489952 -168.880051
-59.451256 -77.541306 -171.867767
-61.624638 -77.482742 -171.073181
-55.602360 -76.932434 -171.379745
-27.067699 -76.932137 -169.099472
-10.690135 -78.248749 -171.684433
-1.058575 -76.488670 -171.517853
25.308226 -75.773575 -170.234009
-57.407383 -77.094414 -172.231598
-40.405880 -77.359283 -171.987152
-35.825504 -78.040688 -170.660339
-29.676016 -79.143013 -169.545319
19.679726 -75.861862 -172.141098
21.811306 -78.540245 -170.858444
108.414459 -78.941879 -170.819717
111.524895 -74.620079 -171.873566
-11.740585 -77.494347 -173.910248
-2.110938 -77.095558 -171.879639
20.311476 -77.005966 -171.620239
-39.470871 -78.100517 -173.494904
-28.002842 -77.390617 -169.924103
-11.529116 -75.842628 -170.570419
-3.752420 -75.977356 -172.949783
109.040680 -76.061882 -170.818253
-63.949394 -78.239845 -170.445175
-61.063152 -76.964279 -171.351563
-37.928143 -77.969460 -173.034943
22.558706 -77.310799 -173.611526
29.552605 -79.971153 -172.338455
106.543655 -75.355354 -173.046555
110.655075 -76.924408 -173.450195
-63.388851 -79.441292 -173.086258
-60.271885 -76.096077 -171.895477
-54.949406 -78.268608 -172.231415
-37.689327 -76.644356 -173.394455
-35.947140 -75.729950 -172.737701
-29.285358 -80.160240 -173.465363
-27.513115 -77.624298 -172.324417
-26.634604 -76.783424 -171.797165
-15.034675 -76.672157 -172.474136
-3.738262 -77.234978 -170.140335
19.437670 -77.345879 -172.948242
23.715828 -76.630539 -172.922241
26.735950 -77.536400 -171.963989
108.475395 -76.948395 -171.317856
-60.355625 -76.880470 -172.934845
-29.419966 -77.274818 -173.634857
-27.379433 -78.216133 -174.366013
20.673676 -77.000977 -173.179337
22.292963 -77.322617 -174.911758
26.471012 -77.937737 -173.401764
27.413452 -77.275887 -173.533875
108.986351 -76.438019 -173.338638
-62.679993 -80.047218 -174.138168
-27.300165 -78.926994 -172.618881
-13.002978 -78.039955 -173.414261
-6.308421 -76.327812 -173.550095
25.245241 -77.663116 -173.793381
-55.248371 -76.507248 -172.498718
-31.157412 -77.168831 -171.909134
17.721312 -76.915604 -173.756195
105.146225 -77.760468 -172.050491
-59.647781 -77.468422 -173.740295
-33.597389 -77.928864 -175.179962
-25.382488 -78.750877 -174.637085
-6.576910 -76.606094 -174.238953
-6.753957 -77.817261 -175.530426
15.213411 -76.294624 -172.880630
21.617149 -77.489609 -173.939926
-61.657192 -75.905556 -174.810318
-56.042988 -77.770866 -174.961777
-54.505348 -77.655632 -175.072342
-37.482201 -77.863235 -172.885864
-26.615232 -77.467201 -174.953964
-15.998025 -76.210899 -174.884232
-15.027641 -77.184029 -174.566376
24.167751 -76.793159 -173.471069
106.520149 -78.431839 -174.781799
108.113892 -76.084091 -176.109451
-62.365696 -78.219810 -175.884338
-54.499378 -77.938049 -177.239639
-14.027065 -77.988602 -174.980728
22.115185 -78.454994 -174.844833
27.728455 -78.159004 -173.512009
-52.335850 -78.314476 -176.129654
-27.526129 -76.333382 -176.172485
-16.037210 -77.316406 -176.317917
-7.740043 -78.514046 -174.874069
18.457994 -76.963905 -175.600861
108.325562 -76.741524 -173.915283
-59.287022 -77.262268 -176.967651
-55.585625 -76.481041 -174.607803
-35.535431 -77.612373 -175.293137
-24.984438 -78.067268 -176.430862
19.499352 -79.243294 -176.650421
21.850142 -79.590355 -175.434235
24.067076 -75.375992 -175.355026
26.016542 -77.148911 -175.165482
27.579876 -77.218246 -177.492752
105.355583 -76.834030 -175.990265
111.135109 -77.733200 -174.839523
-55.927612 -79.159332 -176.816284
-55.646458 -79.749039 -175.533081
-34.076225 -77.962303 -175.022034
-17.971596 -75.989799 -176.032150
-15.438280 -77.083832 -176.917130
-8.374786 -77.925453 -177.806061
108.459885 -75.940689 -175.232239
-56.943710 -77.882027 -176.477737
-38.661140 -75.879868 -178.897278
-35.752785 -78.373199 -176.938751
-28.794102 -77.513565 -176.123016
-15.851998 -77.148560 -176.164474
-16.476055 -76.980324 -179.164917
-12.451040 -76.935745 -176.443878
18.966602 -77.613503 -178.105484
-59.551491 -79.697105 -178.588776
-57.576130 -78.494064 -176.712280
-51.765434 -76.465706 -175.550522
-12.638271 -78.172928 -176.562668
-11.861951 -77.232887 -178.443466
22.891653 -78.107071 -177.773590
24.733116 -77.478645 -176.511444
106.571434 -77.597115 -177.391830
107.227379 -78.740402 -177.731567
-59.429482 -77.599190 -177.951828
-23.561821 -77.346664 -178.480530
-15.462076 -76.760658 -178.299057
-14.301826 -77.742165 -177.066055
-13.540260 -77.637482 -176.455627
18.846960 -76.566010 -176.941345
16.303522 -76.904701 -177.762589
20.217083 -77.387901 -176.137558
22.764423 -76.746552 -176.525040
107.118896 -77.819382 -178.607651
-53.193745 -78.934410 -178.683792
-50.606663 -80.114510 -178.084442
-36.211914 -77.874062 -176.864502
-26.831367 -79.888939 -177.503159
-17.107801 -77.655983 -177.917206
105.229774 -78.245827 -176.432526
108.845901 -78.499802 -176.932770
-55.131222 -75.126404 -177.780304
-31.971165 -77.056755 -178.829941
-16.307779 -76.973236 -177.531296
-13.879349 -79.680367 -178.801224
-12.134352 -75.541222 -177.677292
-60.605049 -77.385063 -179.708817
-56.766705 -76.809067 -178.667938
-50.885563 -77.455902 -178.312149
-26.971312 -76.614258 -178.908875
-22.780037 -77.063011 -180.240768
-14.394273 -78.923134 -178.657410
24.158819 -77.340569 -178.163406
22.686409 -77.779984 -179.746872
-51.937759 -77.749985 -180.708771
-35.742386 -76.742615 -180.588440
-33.678928 -78.453079 -181.295212
-16.889820 -76.514015 -180.768372
-17.593580 -77.626495 -180.507538
-14.673818 -78.273720 -178.250992
-16.849232 -77.019096 -178.684738
-14.459458 -77.259727 -178.413925
19.221571 -77.722450 -178.389542
21.902220 -76.618416 -180.512054
26.321354 -78.242584 -178.724396
106.874779 -74.164619 -180.466507
-55.281731 -77.930000 -177.158875
-26.251884 -76.518860 -179.958435
-22.154446 -76.082420 -179.824265
108.884331 -76.850632 -180.763824
108.869370 -79.205559 -178.935349
106.289017 -78.173721 -179.388443
-59.160332 -76.317299 -181.706360
-54.556850 -76.878571 -180.758148
-50.586407 -78.204666 -179.347839
-36.348480 -76.371582 -181.763367
19.480970 -75.814003 -179.972183
25.498039 -76.557915 -180.208405
107.598335 -77.967911 -181.654251
109.174530 -76.089050 -179.952118
-32.158768 -77.137024 -182.150146
106.848633 -76.982056 -179.499802
-55.647564 -76.614723 -180.533615
-51.946350 -77.240219 -181.281342
-31.911146 -76.288429 -179.877853
-26.659086 -76.218651 -181.534988
21.635471 -77.656517 -179.558929
22.165087 -77.876236 -179.646378
-60.197346 -76.875206 -182.310776
-54.351681 -76.983360 -181.052643
-52.414402 -76.679047 -182.232346
-22.951344 -77.317566 -182.139191
20.371086 -77.024467 -179.842651
22.519287 -78.174675 -181.180695
25.168087 -75.571472 -179.777191
106.228989 -77.219650 -180.611450
-58.618195 -77.953857 -181.291489
-51.380802 -79.392288 -181.357788
-50.485149 -78.589836 -181.468216
-33.045181 -79.143402 -180.439941
-26.505112 -79.450500 -179.615814
-23.860853 -76.291206 -182.495621
16.640697 -80.145668 -182.068359
24.871431 -77.545578 -180.145828
27.434271 -76.809273 -181.832565
103.186417 -78.960808 -181.973831
106.732658 -78.528336 -182.045853
107.116386 -76.977524 -181.657730
109.757034 -76.358757 -182.837692
-57.925148 -77.994141 -183.957047
-53.116386 -77.326942 -181.244476
-48.188187 -79.290710 -182.126984
-27.327534 -78.617012 -183.074493
-20.970308 -78.758034 -183.579819
105.884148 -76.823280 -182.673096
-50.166946 -77.635529 -182.241302
-32.810120 -78.101959 -184.108719
-46.670437 -76.104126 -182.650528
-22.444008 -78.384666 -182.488602
21.343781 -75.918793 -182.510757
21.401680 -74.604111 -183.288284
107.800728 -74.454079 -181.984863
-55.602814 -79.855507 -182.974854
-52.344368 -76.276520 -182.762772
-51.369717 -77.010109 -183.489990
-46.729118 -78.821579 -183.472519
-23.872774 -75.451317 -184.694977
-21.739792 -77.212929 -183.748642
25.580715 -77.705597 -183.066513
103.707642 -75.734894 -183.011566
103.864082 -77.307777 -183.270630
109.826653 -76.097130 -183.399399
-52.225433 -76.520432 -185.160202
-31.194324 -77.471199 -183.226074
-18.717226 -78.524055 -183.391785
106.213081 -79.179634 -183.672821
-54.605927 -78.573959 -185.152893
-46.887592 -77.123024 -184.884293
-32.936356 -76.497063 -182.886978
17.840012 -76.546753 -184.865173
21.287561 -76.690132 -183.986954
19.881666 -78.137047 -183.859970
103.673088 -78.035980 -183.913055
106.197319 -78.776344 -184.083359
-52.842606 -75.602859 -184.537567
-50.579700 -77.457771 -184.926102
-45.480774 -76.793427 -184.311462
-29.410006 -78.775742 -184.014832
-18.550079 -76.891251 -186.795639
14.781139 -77.608170 -186.125397
17.943705 -75.721077 -184.004547
104.438919 -78.110062 -183.637634
-55.190235 -77.621689 -188.738892
-52.625011 -77.595070 -185.928513
-49.884693 -79.912842 -183.424866
-30.407640 -75.654602 -183.872284
