# This PCD file was generated using the MATLAB® pcwrite function
# from Computer Vision Toolbox®.
# .PCD v.7 - Point Cloud Data file format
VERSION .7
FIELDS x y z
SIZE 4 4 4
TYPE F F F
COUNT 1 1 1
WIDTH 1415
HEIGHT 1
VIEWPOINT 0 0 0 1 0 0 0
POINTS 1415
DATA ascii
46.091091 -74.432793 -113.559624
-87.295746 -75.604172 -113.735161
38.275093 -76.844673 -113.903625
48.530727 -75.739174 -113.414261
47.344727 -75.815475 -114.215698
-90.592514 -75.503418 -116.246597
-92.728432 -75.287849 -114.256607
-88.076408 -75.919083 -115.269798
35.839409 -76.118324 -114.465591
-87.458099 -75.568024 -114.666405
-88.937843 -75.180763 -114.472969
37.133228 -75.212151 -115.791527
47.125038 -75.918053 -113.863869
110.510582 -75.601662 -114.049789
-91.175636 -75.973900 -115.275650
-89.637672 -75.749886 -116.052727
-88.911774 -76.136314 -115.665337
48.690403 -74.157661 -113.819122
107.712822 -75.167084 -115.100044
-89.688934 -76.256935 -115.897820
36.865135 -75.803696 -114.455109
45.228100 -76.195580 -116.051125
-89.517357 -75.767899 -116.901733
109.275246 -75.385582 -115.402916
44.810837 -75.982353 -117.112968
36.564407 -76.181183 -117.110809
110.933388 -74.503403 -116.787643
111.165680 -75.371269 -116.749741
34.060452 -75.576889 -117.694473
45.857288 -75.213432 -118.424454
109.152473 -74.629326 -118.692207
34.060211 -75.477333 -118.654388
35.485847 -75.215012 -118.593300
34.199879 -75.285454 -119.489693
45.101208 -76.319908 -117.644341
32.024578 -73.986076 -120.408615
110.643929 -75.170181 -118.978088
43.903183 -76.389351 -119.412415
112.209816 -75.703133 -118.310280
43.138660 -76.291718 -120.157295
109.577232 -74.081139 -118.793533
35.331905 -75.661026 -120.134773
109.052559 -76.700371 -119.858871
109.771400 -75.862152 -118.542053
31.778873 -75.635445 -120.398933
110.165924 -76.177597 -121.436600
110.564560 -74.789444 -120.317856
32.842911 -75.906860 -121.378181
43.254383 -76.268181 -121.162186
112.200996 -74.687302 -120.021431
30.587099 -75.511246 -121.430687
110.922554 -75.521278 -122.643173
43.916306 -76.569168 -122.793571
109.895721 -75.438538 -123.280807
32.654461 -75.687614 -121.692429
45.106743 -75.975044 -119.854515
108.931412 -75.838524 -122.062462
30.639570 -76.240173 -122.442245
41.963100 -75.799416 -122.769821
42.735500 -77.514336 -123.540718
109.845825 -76.107491 -123.734734
33.180664 -76.253593 -124.218140
43.073578 -76.386993 -124.639793
110.166466 -75.807037 -123.098038
31.362617 -76.876671 -124.267654
43.212025 -75.379753 -124.068619
109.690277 -75.163765 -124.838371
30.193354 -75.543488 -126.484772
32.159515 -75.443634 -125.432953
111.868721 -76.672668 -124.137917
113.830986 -75.453636 -123.402946
43.063622 -75.642792 -126.900543
111.180382 -76.302856 -124.606697
32.475826 -75.367844 -126.170769
41.572903 -74.741241 -126.528839
111.831970 -75.268539 -124.419907
110.191368 -75.017166 -127.687675
114.473587 -74.726669 -125.438591
31.947536 -77.957581 -127.870956
40.096458 -74.520729 -126.674889
112.856247 -75.386017 -126.000793
114.267967 -75.176056 -127.981407
31.337433 -76.026253 -129.228577
42.996944 -78.114990 -126.893921
111.148674 -74.066673 -126.781494
40.640770 -75.568275 -128.671524
109.050644 -74.498070 -129.858810
111.969864 -75.458313 -128.171371
30.207939 -75.974113 -128.833237
112.762215 -76.010574 -129.111069
113.973488 -74.590576 -127.967972
28.472059 -76.353706 -128.873535
40.305599 -75.668137 -129.145737
42.250580 -74.996384 -128.985184
112.197365 -75.086395 -128.547165
28.700912 -75.868042 -129.562729
109.861389 -75.336601 -130.459427
108.681122 -75.144096 -128.668259
30.499411 -75.763710 -130.895615
42.239368 -75.229500 -130.098724
110.312492 -75.014511 -130.388855
114.065018 -74.469063 -130.018112
39.986511 -75.116135 -130.127930
40.334053 -76.553719 -130.815125
30.826271 -75.721519 -130.872543
39.142029 -75.679291 -133.300919
28.286499 -75.588058 -129.148819
110.957916 -75.378860 -131.368591
28.655697 -77.030540 -131.743500
29.393461 -74.171371 -131.394501
38.867409 -75.347130 -132.967621
115.481232 -74.787796 -132.862091
26.286085 -75.674789 -133.490372
110.834732 -74.823570 -132.192825
114.476738 -75.727928 -134.387756
25.786062 -75.155800 -133.822403
29.791885 -75.160271 -134.358719
116.372009 -75.237442 -133.716995
29.633646 -76.191765 -134.871552
38.358295 -75.729126 -135.960464
40.175842 -75.840416 -134.501297
112.242134 -76.193108 -134.499512
27.978601 -76.668213 -137.035065
114.910492 -76.797226 -135.367950
114.717339 -75.352303 -136.212326
25.893499 -74.630180 -134.978561
110.722893 -76.575073 -135.192947
-55.075779 -75.433739 -136.470947
-54.105824 -74.934479 -135.138000
-50.284714 -75.063194 -136.301941
25.590797 -75.127159 -137.324219
37.015533 -75.691795 -135.624756
-53.023842 -73.388657 -138.091949
-52.082455 -75.452934 -136.102417
113.791855 -76.299110 -136.630844
-55.240612 -75.839050 -136.195145
38.523899 -75.775826 -137.266739
-55.110737 -75.532768 -138.585678
-50.063152 -75.306145 -137.349609
-48.116882 -73.910721 -137.861221
25.850243 -75.690392 -138.196014
28.709869 -74.793106 -137.186371
35.661865 -75.554352 -138.037216
112.314072 -76.482628 -138.370590
116.430023 -76.418465 -138.586655
-54.725296 -76.537727 -137.420181
-49.528149 -75.820412 -138.129196
-53.867130 -75.912903 -137.528183
-47.705166 -75.375496 -139.556488
-49.215580 -74.814987 -138.592972
27.625719 -74.051712 -137.692841
38.018112 -75.927032 -137.500015
111.384979 -76.263229 -137.844391
25.143471 -75.994873 -138.603195
-47.777401 -76.558990 -140.150620
-47.113144 -75.855820 -139.151306
26.456268 -75.378807 -138.482773
37.401554 -76.619659 -139.818344
-55.206463 -76.270454 -140.810303
-46.740547 -74.875511 -139.895294
24.081778 -75.162788 -139.699966
36.379185 -76.898544 -139.758560
115.247696 -76.124886 -140.887222
-46.345779 -75.171989 -141.065231
36.235882 -74.772285 -140.586182
111.406334 -75.098656 -140.956100
-51.133999 -75.400650 -139.931229
28.247324 -74.741837 -141.259323
-51.881618 -74.712517 -141.153442
-49.922661 -75.422668 -141.915421
-45.523396 -75.849312 -140.720215
24.363983 -75.748619 -140.693848
-44.139587 -75.047829 -143.135681
37.003319 -75.811043 -143.512604
-54.759571 -75.322777 -143.370728
-52.839615 -74.382935 -141.812286
-51.445671 -74.930283 -142.761444
-47.515137 -75.490356 -142.291840
24.089188 -76.446648 -141.818451
27.276712 -76.040337 -142.715546
-52.391541 -74.572159 -143.331802
-51.896404 -76.251160 -142.802628
-47.605309 -76.070183 -142.931183
34.257980 -76.085556 -142.924026
110.376724 -75.364693 -142.502380
-55.955418 -75.299118 -142.395020
-43.923798 -76.215645 -144.473434
26.141924 -76.370399 -142.621887
34.748966 -77.256012 -141.917236
110.746643 -75.182236 -144.597458
-53.762196 -75.013344 -144.530365
-54.356403 -76.063911 -144.649673
-51.505436 -75.768204 -143.592850
-48.138500 -75.254326 -145.046051
24.231321 -76.411194 -145.188690
115.348717 -75.422836 -144.639282
-70.194038 -75.877731 -144.776611
-51.698215 -76.528702 -143.908371
-43.427551 -75.324501 -144.485092
33.902386 -75.552597 -144.190475
35.845348 -75.821495 -143.242020
115.289124 -75.057884 -144.779251
-53.302830 -74.858635 -144.068985
-45.868481 -75.182434 -145.461731
26.301250 -76.742500 -144.253464
25.345524 -74.538368 -145.426483
-53.813362 -74.662056 -145.146439
-43.347168 -76.072609 -144.799973
-73.166908 -74.872673 -145.882904
-70.098175 -74.914093 -146.462418
24.034050 -75.646927 -145.168350
33.714314 -74.097984 -145.060394
-55.009361 -74.899620 -145.548508
-45.415272 -75.811676 -146.095184
35.995449 -75.143814 -145.335083
111.747437 -74.991043 -147.053802
-41.337830 -74.316078 -145.857529
-71.193481 -75.555786 -147.604126
-53.798584 -75.317474 -144.974045
-43.499836 -74.697639 -146.244629
26.129908 -76.036293 -145.295364
35.287498 -75.936508 -148.161545
-69.932938 -75.114983 -147.143112
33.094395 -75.421959 -146.465271
115.802376 -74.552124 -148.552841
-69.077194 -75.409134 -147.224915
-54.728287 -75.586319 -149.162338
-41.828995 -76.265404 -147.207306
23.768684 -75.405838 -147.503265
25.179153 -75.247879 -148.684525
-69.128441 -76.629875 -148.764740
114.668999 -77.152901 -148.004562
-70.616974 -76.578949 -148.723526
-68.947937 -75.712021 -149.910568
-69.129547 -76.203743 -147.964462
-51.065132 -76.111420 -147.835236
-43.197762 -74.976120 -148.402405
-39.031830 -76.740410 -148.817886
115.374672 -75.998535 -148.277161
-41.846546 -73.550362 -148.935135
-40.473789 -75.287636 -148.113678
23.099632 -75.340553 -148.403427
109.375137 -75.865227 -149.529175
-73.260834 -76.464600 -149.888885
-71.983780 -76.279343 -147.013763
-51.555450 -74.843864 -148.622620
-41.299004 -76.344078 -149.410599
33.111656 -76.250954 -148.110138
35.450661 -76.068420 -150.136185
-67.910988 -75.755417 -148.508759
-53.452782 -75.692230 -149.984665
-51.741360 -76.961456 -150.677002
24.956715 -76.777748 -149.234222
32.804794 -76.664696 -150.178665
-52.390518 -75.949982 -151.121613
-42.006149 -76.374512 -148.718384
-39.890209 -76.399170 -148.759079
22.582943 -75.891022 -149.433426
-67.732239 -76.500122 -149.805756
35.108601 -74.919121 -151.299973
109.819778 -75.237701 -151.808502
115.693153 -76.754753 -149.907059
-67.139748 -75.699150 -151.038940
-50.021282 -75.990440 -150.562164
-41.704716 -74.525169 -151.376022
-71.470772 -76.277016 -151.651077
-39.181168 -77.081940 -151.940521
24.381969 -75.378807 -151.537827
-70.440582 -76.510345 -152.301941
-66.535385 -76.957245 -150.162643
-41.686493 -76.695930 -151.997025
-40.336098 -75.308281 -152.739441
22.711452 -74.841606 -150.404358
109.958427 -76.275948 -152.687851
-66.434769 -76.508827 -152.237503
-52.096313 -75.188263 -151.716095
111.411552 -76.232712 -152.203461
-65.152344 -75.416130 -152.562851
-40.892044 -75.585075 -152.945328
-39.549091 -75.106506 -153.191162
22.391588 -76.493828 -153.400208
22.651278 -75.989777 -152.012939
115.958359 -75.439514 -152.583939
-70.786507 -76.150162 -154.130386
-36.823517 -76.098373 -154.134644
23.973454 -76.590660 -152.221329
31.474337 -75.908287 -152.140579
33.324173 -75.281906 -153.359116
115.242195 -75.286903 -152.445953
-71.403145 -75.525536 -154.817474
-66.466721 -74.294617 -154.578064
-65.061760 -76.930824 -155.061615
-50.726208 -76.530090 -153.633514
-49.261139 -76.311829 -153.686768
-51.955822 -75.306015 -153.671082
-40.170631 -74.677834 -153.684662
110.657433 -76.199860 -153.656036
-70.534111 -75.376762 -154.352753
-69.086075 -74.886818 -153.398758
-51.101410 -75.233154 -154.542603
-50.310905 -75.149620 -155.598526
21.916210 -76.145226 -154.591003
33.778091 -76.151779 -154.464966
-66.928413 -75.040031 -154.635651
-63.481613 -75.587547 -156.376495
-40.967899 -76.361977 -154.021362
-37.678547 -76.878914 -154.835968
23.909401 -75.491089 -155.458511
30.939865 -75.499115 -155.570511
110.049896 -74.517860 -153.930756
116.016914 -75.610947 -153.333237
-48.687065 -76.702148 -154.576675
-39.055843 -75.357224 -154.754242
116.233513 -76.071579 -156.836838
-70.983292 -75.525139 -156.955734
-63.974339 -76.275879 -156.059265
-63.956776 -74.546661 -155.368607
-37.870285 -75.824196 -155.801117
21.509104 -77.216278 -155.775620
24.289709 -76.217285 -155.012146
31.455042 -74.529282 -155.697220
-67.684685 -74.514633 -156.468323
32.945835 -77.249397 -155.308197
-72.010704 -75.022820 -156.211075
-67.883881 -74.787437 -155.187424
-64.024864 -76.358826 -155.877701
-47.686043 -74.971169 -156.615280
109.736916 -76.341721 -154.784988
114.675613 -74.706238 -157.279068
-68.196693 -74.988182 -156.623627
-66.061279 -74.753441 -156.335098
-49.538322 -75.412552 -154.879272
-47.349152 -76.093826 -157.180222
-38.681644 -75.620987 -155.789246
-36.283195 -77.057144 -156.537369
6.662937 -75.721725 -155.238037
-63.390278 -75.280693 -156.742752
-50.816093 -74.562065 -157.106888
-48.628323 -76.570908 -157.457245
7.878365 -75.459206 -158.222015
31.486149 -75.658539 -157.439270
108.097626 -75.332024 -156.466522
-66.648911 -75.932487 -157.836182
-46.549343 -73.717117 -158.207352
-35.024048 -76.049721 -157.948105
6.320836 -75.472023 -157.557220
7.982278 -75.345375 -157.511215
20.993471 -76.535538 -157.066437
23.278389 -74.856621 -156.988083
115.802795 -74.584908 -156.629776
-70.643250 -74.465454 -158.813065
-70.212517 -74.495079 -156.471497
-66.551178 -75.904091 -157.310608
4.905329 -74.558273 -158.611221
5.614746 -74.978928 -156.995026
22.884525 -75.210587 -157.384018
109.068527 -76.589928 -159.103439
-47.509254 -74.949852 -158.064697
-36.144867 -74.776863 -158.762589
3.490282 -75.380653 -158.312317
19.888811 -76.000771 -158.095993
-66.549713 -76.062592 -158.856674
-64.711151 -77.071167 -158.935440
-61.905777 -76.376228 -157.776428
-46.829624 -75.525757 -158.864578
-33.766739 -77.480911 -159.133789
7.003602 -76.244431 -158.753433
7.913895 -75.258263 -157.049072
21.446466 -75.792229 -161.243759
30.643246 -75.205894 -158.928284
113.728279 -74.627090 -157.779770
-66.006332 -75.300194 -158.920029
-62.715031 -75.647980 -158.834610
-48.460487 -75.162468 -159.434814
-69.900406 -76.270767 -158.303360
-67.291695 -74.493736 -160.938736
-46.418556 -74.196877 -160.066574
-36.455341 -75.433876 -159.943039
3.601859 -76.414879 -160.806412
7.248102 -75.133469 -159.768204
22.747093 -75.812210 -160.181366
108.831459 -75.719833 -161.070175
-47.945892 -75.577682 -159.973740
-37.499878 -75.836441 -160.934464
-69.517700 -75.519020 -159.592682
-70.343079 -73.635056 -160.622513
-65.499992 -76.486664 -160.013046
-60.557896 -75.198242 -160.543259
-33.594158 -75.147934 -158.826553
2.174709 -74.530434 -160.147461
7.805769 -75.068245 -159.839478
20.179306 -73.707741 -159.698196
22.041477 -76.172043 -160.202820
31.879423 -74.858345 -159.420013
113.854614 -75.731522 -160.507401
7.057905 -76.007126 -160.201340
-66.826019 -75.848206 -161.788239
-64.428688 -76.016075 -161.589462
-62.007584 -76.871986 -161.860779
-62.897984 -75.320267 -161.251801
-45.201099 -76.456032 -160.440765
32.446056 -75.424515 -161.202927
108.376740 -74.159592 -160.935623
-63.398689 -75.335670 -162.508667
-48.225533 -75.982468 -161.551926
-35.683308 -75.128136 -162.585678
5.661735 -77.273827 -160.820572
23.760685 -76.657753 -161.599609
-68.411049 -75.444977 -162.569717
-64.996246 -74.403664 -161.743500
-45.136757 -74.556496 -161.550888
-0.635642 -75.552513 -161.818146
28.501789 -76.466042 -159.910919
32.072006 -76.331741 -163.143417
108.202660 -75.435242 -161.299103
-44.569382 -75.969078 -161.860291
-32.893074 -76.029884 -161.283020
-3.606903 -75.751892 -162.242538
6.294302 -75.664696 -161.715439
3.907359 -76.294464 -163.422729
-65.262428 -75.748611 -160.882431
-64.475159 -76.616341 -162.532654
-63.163563 -74.526176 -163.255814
-59.619701 -76.250771 -162.393402
-2.759289 -74.717155 -162.639343
19.338472 -76.950531 -163.323044
21.752905 -74.753845 -162.121506
29.201283 -76.313339 -163.337784
-63.578350 -75.681252 -162.424591
-33.566502 -74.897247 -162.570770
-1.134535 -75.863266 -164.244568
-68.714569 -76.254692 -164.489838
-64.390785 -74.436569 -164.187302
-59.102154 -74.926010 -164.042526
-46.545765 -76.552170 -163.892197
-45.714291 -74.295372 -163.907028
-42.795471 -75.900124 -162.460709
-2.696068 -75.333740 -163.427979
4.915655 -74.861221 -164.249878
-67.869804 -75.036041 -164.503357
-61.286354 -74.760887 -164.110245
-42.887325 -75.635696 -163.626190
-33.770317 -76.188766 -162.425034
-2.893372 -75.115257 -163.993607
-3.278156 -73.930481 -163.559937
5.955394 -76.753899 -165.143188
21.056776 -75.256470 -165.479065
18.704344 -76.152100 -163.343307
28.769749 -75.419640 -163.029587
30.200916 -76.407120 -163.574066
107.880745 -76.050438 -164.136597
-61.277451 -74.693230 -164.399765
-59.286076 -75.103218 -164.504364
-46.306946 -76.089432 -164.315750
-42.567142 -76.084274 -165.337967
-33.724144 -76.827164 -164.698563
-5.603566 -75.839424 -164.707764
4.511727 -77.122383 -163.866516
-59.492195 -75.784302 -165.124619
-33.038528 -76.616745 -166.200989
-31.133240 -76.267342 -164.824905
31.389744 -75.818649 -166.420578
114.412079 -75.733604 -164.591110
-67.553848 -75.723007 -165.366455
-64.234108 -75.755180 -164.040329
-61.006741 -76.027664 -166.298035
-44.474777 -76.171715 -165.709061
-30.328220 -73.987320 -164.865555
-4.669411 -75.500183 -165.142075
2.225199 -74.833397 -166.046371
20.324877 -75.418190 -165.252151
22.305475 -75.333252 -164.438232
29.558565 -76.281372 -166.612213
108.016670 -76.169060 -165.785172
114.221649 -74.126511 -167.521027
-43.710133 -76.008270 -166.152435
-42.254341 -76.724327 -166.422302
-33.132393 -75.074936 -165.793732
31.158129 -75.447365 -166.900925
-66.440460 -76.145714 -165.903610
-61.025009 -76.940079 -167.701218
-58.044113 -75.485886 -166.682480
-33.365986 -75.950066 -167.126785
-6.802768 -76.034027 -167.064865
2.547938 -76.039803 -166.463440
2.930556 -76.965218 -166.059372
20.483141 -75.538086 -165.621231
114.204613 -76.048630 -164.499954
-61.266392 -75.449432 -166.660477
-61.963791 -75.222054 -166.987228
-43.916897 -75.768127 -167.309525
-41.288124 -74.934280 -166.365143
-30.491632 -76.001572 -165.864838
19.978724 -76.304642 -167.888824
30.251665 -76.651367 -166.800949
107.640572 -76.149605 -167.557465
115.115425 -74.590820 -167.778488
-67.235565 -75.774132 -168.141922
-64.440453 -75.371109 -165.720703
-62.774815 -75.394447 -167.433533
-62.427395 -75.523186 -167.648056
-41.553802 -75.432846 -167.446930
-6.324892 -75.798729 -166.827759
-5.915246 -76.324165 -166.866364
2.061629 -74.751503 -167.264511
18.203102 -76.560623 -167.691071
-67.790001 -74.724243 -167.811768
-62.090038 -76.135895 -168.136795
0.251956 -76.206223 -167.361740
112.702179 -76.007843 -168.057877
-62.236763 -73.457504 -168.800980
-61.709835 -75.296127 -168.225693
-60.723747 -74.837646 -168.065704
-57.454567 -74.329430 -168.634903
-31.265129 -76.007233 -169.217758
28.950878 -75.718750 -166.662201
29.575354 -77.157616 -167.894867
-60.946766 -76.009888 -169.476425
-60.222370 -75.141228 -168.819611
-42.365784 -75.109306 -168.448410
-8.012917 -75.970322 -168.380524
18.508989 -76.294617 -167.480270
107.602875 -75.299324 -167.177917
114.141342 -76.085457 -167.084488
-56.756901 -75.984055 -170.212479
-58.176537 -75.919868 -169.462158
-43.020084 -75.074043 -169.763885
-41.457542 -75.511314 -169.011047
-6.773182 -75.906563 -168.896606
-0.398616 -76.110519 -168.677567
18.317436 -75.965790 -168.989044
20.337067 -76.024872 -168.066605
27.476000 -74.365517 -169.314529
113.019768 -74.893860 -169.221115
-64.459846 -74.598267 -171.387939
-61.994545 -75.536140 -169.321716
-39.523045 -74.840782 -170.072739
-29.444151 -76.214958 -168.207153
-7.447496 -74.488609 -170.049789
-65.127968 -75.623177 -170.529800
-61.613808 -73.398338 -169.236938
-58.681175 -76.275261 -170.025650
-57.217308 -74.730301 -169.801346
-41.884743 -74.772957 -169.971146
-29.850098 -76.136604 -168.626419
-28.848507 -76.080360 -169.569260
-8.338011 -75.363518 -169.689835
-0.853481 -76.197235 -170.626221
28.760633 -75.843735 -169.588150
106.919945 -75.110573 -170.888351
-60.105408 -76.786575 -169.611145
-8.450115 -75.279503 -170.070465
-8.357820 -76.723518 -169.679581
-4.017696 -75.270981 -168.702972
27.825453 -75.088409 -170.918549
-59.125393 -75.195656 -171.162567
-41.486565 -75.651123 -170.675995
-38.670033 -76.465981 -171.686142
-10.131124 -75.232277 -170.560883
-9.134556 -73.918785 -169.178665
-6.359186 -74.398880 -169.378342
-2.091640 -76.079903 -169.792511
106.508644 -75.999260 -170.830322
-63.747379 -76.342667 -170.570251
-62.076847 -76.708939 -169.914322
-58.461548 -75.917259 -171.455704
-55.545017 -76.134087 -170.883774
-41.539963 -75.216408 -171.489288
-29.992174 -73.868301 -171.494232
-29.073334 -75.795235 -171.436584
-28.770445 -75.230110 -171.218933
-9.125125 -76.252167 -170.300766
-3.355458 -75.295738 -171.720001
-64.531639 -76.279068 -171.514374
-56.350540 -74.933678 -171.292343
-38.556072 -75.843254 -172.573151
-4.025181 -74.856262 -171.390244
113.434982 -75.831154 -172.728210
-59.886658 -75.719398 -171.352524
-60.756340 -74.707306 -170.886261
-56.302834 -76.091255 -171.657639
-7.120842 -75.253014 -171.252930
-4.574136 -75.100594 -170.505569
16.692268 -75.104286 -171.878174
20.024582 -76.741501 -172.078171
22.571293 -76.818634 -170.276688
113.035652 -75.294785 -172.324905
-53.939133 -74.710243 -173.038223
-10.522373 -76.115585 -172.350311
-6.187067 -75.115509 -171.569305
-6.037943 -73.365196 -170.807190
-63.037098 -75.636406 -172.018219
-60.975735 -76.718811 -172.888718
-59.263580 -74.908195 -171.393585
-59.405758 -76.049629 -173.392578
-40.524689 -76.283752 -172.542801
-28.173565 -75.805519 -172.665268
-7.926165 -74.114761 -171.837433
-4.550018 -75.512970 -173.342972
20.710318 -75.487679 -171.807343
29.525476 -75.619812 -173.076050
108.029587 -76.145515 -172.916412
-62.088913 -76.156471 -173.121338
-59.167229 -75.857368 -174.381546
-59.012379 -75.906578 -173.120651
-55.185734 -75.748451 -173.327667
-11.385604 -76.872910 -172.747742
-9.116784 -75.860229 -173.514420
-9.193535 -74.246590 -172.327408
-7.640270 -74.758713 -174.675232
-6.798866 -75.986549 -173.183823
26.765421 -75.319336 -171.634293
-59.875301 -75.371338 -173.662506
-37.521957 -75.584381 -174.178131
-38.714355 -74.872017 -172.865448
-26.014469 -74.288612 -173.000259
20.311857 -76.778908 -172.739166
27.088486 -75.271378 -172.835434
113.214981 -76.015327 -173.355057
-58.095882 -76.297539 -174.956100
-28.695646 -74.674858 -173.785477
108.809753 -75.577187 -173.344986
-61.983784 -76.808464 -174.281555
-58.962540 -75.680626 -174.056107
18.481071 -75.600433 -174.186737
27.810049 -75.701813 -173.020111
-63.407970 -75.912476 -176.046310
-61.669823 -76.248169 -175.736908
-39.668900 -76.294937 -174.744598
-36.491974 -75.694016 -174.258789
19.304010 -76.246368 -174.349182
105.732780 -76.776512 -174.618027
109.137833 -74.343292 -174.350464
17.388561 -75.955368 -174.216034
106.971748 -75.177338 -174.666809
-54.038090 -76.062553 -175.986420
-38.578949 -76.156219 -176.202667
-37.502014 -76.620613 -174.432312
-26.491283 -75.802849 -175.152512
-26.209455 -76.984695 -174.524658
20.068602 -75.811951 -175.642242
27.951418 -76.247093 -175.167175
-61.663071 -75.932785 -175.829269
-25.808550 -74.931389 -175.414185
-23.572248 -76.051422 -176.516052
111.555557 -76.086945 -174.211380
-52.913738 -75.373611 -176.834824
-39.797676 -74.650024 -176.707458
-36.527443 -76.056244 -176.373932
-26.369555 -76.321175 -175.642654
-27.369555 -75.369003 -176.137680
24.573784 -76.530685 -175.940063
27.597004 -76.735474 -176.614853
-60.526005 -75.202492 -176.509674
18.998802 -75.651878 -176.432480
105.763977 -75.278023 -175.374741
109.083847 -74.904495 -176.161270
-34.370331 -75.309837 -178.712555
19.019352 -76.199860 -177.218628
-61.028347 -75.332069 -176.426620
-52.323086 -76.459831 -176.866592
-53.518578 -74.971176 -176.657913
-52.523663 -76.320297 -177.930847
-37.789131 -76.045517 -177.278137
16.889742 -74.732765 -176.915771
-59.943829 -74.818420 -176.512054
15.600171 -75.214020 -177.827560
26.136114 -77.824341 -177.248306
105.185814 -75.809456 -178.005722
104.788300 -74.547211 -177.838531
-53.086773 -74.228455 -177.205215
-35.743866 -75.447906 -178.856125
-26.275290 -76.164413 -178.611618
17.413082 -73.855042 -177.699203
109.234413 -74.971817 -178.825195
110.365417 -75.712669 -177.889526
-23.275732 -74.786575 -178.179901
108.576027 -75.029724 -177.390106
-59.496796 -75.457436 -177.584274
-54.632336 -74.350464 -179.538879
27.352283 -75.840775 -179.112259
104.804474 -75.509186 -177.909515
-60.298161 -75.500885 -180.617798
-51.776379 -76.406944 -179.555069
-36.349045 -75.932198 -178.271194
-33.623497 -76.684990 -180.655640
-25.802187 -75.570236 -179.025726
-21.926853 -75.037170 -179.034134
27.332668 -75.997620 -179.841980
105.157166 -75.823204 -180.299942
107.873566 -76.057442 -179.190445
-24.702503 -75.092613 -179.507172
-25.029446 -76.291183 -180.149857
18.140413 -75.460106 -178.233353
107.159927 -74.579414 -179.441879
108.968697 -74.293045 -181.204773
-34.587719 -74.684120 -180.306778
14.958916 -74.986511 -179.759628
17.520325 -75.096298 -180.594376
-59.586838 -75.598488 -180.563766
-50.365036 -76.446732 -180.526215
-23.227772 -75.119812 -179.090698
24.508787 -76.171127 -179.335373
104.157394 -74.989662 -180.275589
111.321999 -75.482430 -180.239944
-36.096729 -75.335197 -181.404297
-24.706894 -75.775658 -181.706497
18.006863 -75.828651 -180.380600
23.987173 -74.540268 -180.305115
104.879433 -76.929634 -179.497955
106.746384 -76.265160 -180.359512
-57.102711 -75.394981 -181.935242
-33.932289 -75.952255 -181.333145
-21.017342 -76.799911 -181.634644
17.467018 -74.638802 -181.436905
106.992119 -76.005013 -181.524002
-59.254009 -75.281769 -181.448853
-49.439255 -74.445282 -181.892456
-23.265486 -74.899475 -181.847015
17.458910 -77.265465 -181.541061
103.685104 -75.129570 -181.934555
109.990730 -75.717430 -181.630692
-57.292343 -75.055969 -181.694077
-50.061996 -75.297318 -181.845276
-21.471966 -75.993500 -182.432739
17.851440 -75.977448 -182.402679
103.534492 -75.714851 -181.563309
105.475983 -76.171295 -181.720734
-34.336906 -74.938828 -183.221832
-32.618877 -74.877792 -184.099426
111.119400 -75.449898 -181.259293
-56.187511 -77.030602 -182.932449
-49.957092 -75.582581 -180.484695
-23.099285 -76.827271 -182.735016
-20.989168 -75.105606 -182.124359
27.341270 -76.515930 -182.374344
107.109695 -74.018639 -182.814804
-48.241135 -76.450272 -184.296478
-21.899498 -75.838547 -184.423935
14.986726 -74.865578 -183.712082
-56.582947 -76.024582 -184.046051
-49.635838 -74.596237 -183.387955
-32.001076 -75.504715 -184.860184
-20.354408 -76.427643 -183.507858
23.277534 -75.706299 -182.759628
110.097794 -75.709450 -182.463760
16.326193 -76.011627 -183.719482
24.083271 -75.198944 -186.026611
-56.676323 -75.653236 -185.441132
-48.673664 -74.887848 -184.079666
-34.146744 -76.473999 -183.982117
-31.158852 -75.510590 -184.600601
-21.253923 -74.800560 -185.090927
14.266550 -75.529259 -183.918640
17.325407 -76.589417 -184.406464
23.277008 -75.073692 -183.089905
26.066835 -77.159653 -185.409363
101.618973 -77.077156 -183.519455
102.792587 -75.804253 -184.507919
106.136475 -75.234299 -185.184067
-55.962910 -75.215492 -185.485123
15.395433 -75.800491 -185.475479
22.813316 -76.383728 -184.994034
-47.572662 -75.414574 -185.763474
-32.776749 -74.727844 -184.602325
-22.649935 -75.095650 -184.350906
17.465170 -75.660378 -185.130051
103.206017 -76.139450 -184.995117
107.368881 -75.042381 -185.669556
-53.694778 -75.670731 -187.219772
-30.092777 -75.627533 -186.590866
-18.797409 -76.253403 -185.837067
13.101481 -75.385338 -185.965469
108.675987 -74.969299 -185.356445
-145.732025 -74.993744 -186.723129
-54.027702 -75.250938 -186.508179
-46.357559 -75.602654 -186.859283
-32.955296 -75.847511 -186.480759
-22.739145 -75.291672 -184.997543
16.481266 -75.514824 -186.444000
104.593719 -75.521194 -186.044876
-148.752213 -75.457138 -186.442047
-147.235641 -73.951904 -185.711090
-53.127007 -75.812103 -186.728790
-22.032528 -74.589996 -189.054840
13.995945 -76.804031 -185.732651
-149.408707 -76.930145 -187.905334
-148.136322 -74.836082 -186.954498
-146.770020 -75.873672 -186.332840
-30.397760 -75.305824 -186.739639
-20.467793 -76.217415 -186.965805
-18.385895 -75.626732 -186.157425
22.803236 -75.124161 -186.859161
24.172953 -74.673096 -186.503540
102.734917 -75.831383 -186.909973
108.900993 -76.067429 -186.562210
-149.259216 -74.958084 -187.083069
-146.667267 -74.431274 -186.243439
-145.430847 -76.427284 -186.074417
-52.212666 -75.348953 -187.886917
-46.134865 -74.470245 -188.989777
103.037186 -74.587639 -187.882782
107.020683 -75.339401 -187.404755
108.141838 -74.671082 -189.250839
-148.755112 -76.685638 -187.178787
-148.445862 -74.299721 -187.482147
-147.509689 -74.536888 -187.631729
-53.229095 -75.113945 -186.897400
-46.396557 -75.339447 -188.374725
-32.552685 -76.049782 -186.669312
-19.685383 -74.583786 -186.808777
-19.662031 -78.183167 -186.582458
15.775475 -76.507118 -187.579529
22.340652 -76.139206 -189.663559
22.430750 -74.487427 -188.786118
108.463097 -75.274704 -187.061005
-53.720238 -74.791000 -188.283157
-30.343222 -76.126190 -187.491241
-148.921478 -74.661613 -187.152985
-147.100983 -73.833183 -188.905075
-146.756424 -75.593071 -189.112717
-144.338470 -75.699158 -189.598129
-53.262547 -75.602715 -189.529205
-52.737755 -74.241669 -187.309052
-45.695511 -76.589027 -187.719910
-21.309319 -76.123947 -188.031235
16.065498 -75.866325 -188.956894
108.257927 -75.873550 -187.918167
-149.021667 -76.252853 -187.187439
-28.452827 -76.393051 -190.495377
-17.658245 -74.141815 -188.493927
13.840491 -74.602203 -188.723740
99.875313 -76.461418 -189.345917
105.175133 -75.293274 -189.354553
-146.549515 -74.818932 -188.301102
-144.629059 -76.313095 -189.614502
-45.235958 -73.993805 -189.072418
12.510496 -76.274185 -188.563782
100.491333 -75.658691 -188.629227
103.030434 -74.034195 -187.852753
107.440521 -76.323669 -189.094727
-149.298370 -76.476517 -190.840042
-147.363266 -75.320778 -188.813965
-146.352264 -76.099716 -190.117737
-51.222954 -74.923141 -189.975861
-45.759716 -76.598755 -189.916153
-29.651266 -75.435364 -190.199722
23.490316 -75.665817 -188.989761
103.880684 -74.083839 -190.658524
106.412239 -76.714157 -189.378906
-148.039246 -75.354988 -189.675415
-144.108658 -75.030029 -188.485260
-26.494776 -76.018036 -190.104828
-17.514185 -77.366043 -189.458496
15.887512 -75.756630 -189.843246
-149.278809 -75.218811 -190.990051
-148.698624 -74.930542 -190.177536
-45.631023 -75.736763 -190.209763
-29.741539 -76.331406 -189.656570
-20.113724 -75.397552 -190.609497
13.111013 -75.667664 -190.056488
22.522898 -76.018951 -188.444183
103.515366 -75.502075 -189.080780
-144.340698 -75.909515 -190.209656
-51.302284 -76.190186 -191.226425
-45.040955 -75.604568 -191.510559
-29.720407 -75.952866 -190.499573
-27.092104 -75.361046 -189.903152
-18.836651 -76.020638 -190.918304
14.809847 -75.130852 -191.124680
100.413132 -75.585312 -190.001648
106.415466 -74.405502 -191.038925
-145.397064 -74.091377 -191.390991
-51.933155 -75.232399 -191.418747
12.528340 -76.907104 -191.231216
15.542436 -76.078468 -189.946777
23.746613 -74.800560 -190.539368
99.552979 -76.364563 -191.185043
103.337898 -75.304611 -191.477463
-43.877666 -74.795807 -192.276199
-28.819798 -75.224541 -190.531555
14.533672 -75.290245 -192.217422
21.205555 -76.353416 -191.253815
-148.413528 -74.749092 -193.083984
-147.742294 -74.042809 -192.237015
-144.930161 -75.310997 -192.714096
-49.220425 -76.089920 -192.703735
-28.600925 -76.114357 -193.659805
14.491896 -77.809174 -193.217209
22.640652 -75.874794 -192.860336
103.820457 -75.257301 -191.983002
-148.936584 -74.215630 -191.604858
-144.991623 -75.738327 -192.198242
-43.898994 -76.111755 -192.236847
-19.549522 -74.854057 -191.725952
99.908913 -75.111740 -190.954239
-145.238602 -75.768845 -192.573975
-48.623783 -75.452667 -192.334900
-49.437622 -75.334145 -192.925186
-42.077564 -75.767151 -191.889877
-25.592655 -75.560356 -193.550308
10.919443 -76.146690 -193.006775
101.781708 -75.182014 -194.056686
106.093353 -73.902466 -192.731415
-143.377930 -76.579460 -193.351929
-28.055765 -75.787941 -192.899780
-19.823952 -76.644539 -194.259232
-15.536120 -75.729034 -194.020828
-49.649021 -75.456047 -193.426666
-25.781273 -75.710281 -193.931671
12.064854 -75.593292 -194.419693
21.928944 -74.839371 -192.754547
98.749603 -75.040001 -192.493820
102.506935 -75.780983 -192.103699
-143.611160 -75.099503 -194.151321
-140.985794 -74.350494 -194.442520
-48.399277 -73.619164 -193.293991
-42.041229 -74.626297 -193.631912
13.435464 -75.178055 -194.422897
98.952690 -75.434204 -194.189972
106.779327 -75.886658 -193.512589
-46.732529 -75.915024 -195.200882
-26.725121 -74.954536 -194.677933
-16.379370 -76.192467 -195.006622
103.328384 -73.713593 -193.653732
-141.650284 -75.946213 -193.696259
-17.243677 -75.881912 -194.431900
101.558060 -75.775940 -195.607773
-152.145248 -77.854576 -195.200150
-141.327637 -76.518890 -195.771866
-38.371059 -76.215332 -195.093658
-26.275900 -75.678940 -195.215744
-14.466107 -75.109840 -195.886490
13.557270 -76.783821 -194.746887
22.826195 -76.085388 -196.020691
106.530350 -75.168617 -195.190506
-45.783035 -75.481232 -195.808136
11.218285 -75.746712 -195.829926
99.223320 -76.273926 -194.316208
-154.136993 -77.073524 -195.504288
-140.079147 -74.860970 -196.437424
-48.005390 -75.715157 -194.979767
-40.216232 -74.715691 -194.737961
-24.562080 -75.167679 -195.949677
102.003685 -76.414108 -194.984406
105.235451 -75.471214 -194.990326
-39.482437 -74.982239 -195.790573
-16.635288 -76.214104 -196.590973
11.427235 -75.095604 -195.745499
13.350559 -75.840912 -197.485199
22.876316 -75.825928 -196.268417
97.385933 -76.054794 -195.794785
101.458458 -75.395943 -196.730225
-153.455566 -75.104073 -196.661575
-140.433197 -75.298080 -196.475449
-141.052017 -76.399055 -197.575699
-38.857647 -74.445625 -196.883286
-17.259668 -76.617989 -196.869492
-13.905313 -75.587814 -197.103394
18.985003 -76.119568 -197.998856
97.631508 -74.534691 -197.879303
101.662262 -74.968712 -196.811905
104.452080 -76.382393 -196.558044
-138.680710 -75.479446 -196.590515
-135.740570 -75.464447 -198.932022
-47.783989 -74.602394 -197.366669
-39.980019 -75.997864 -197.632278
-25.502975 -74.953857 -196.909973
-15.395642 -75.708984 -196.089569
11.436820 -75.454506 -196.703613
21.900570 -75.962578 -197.849930
-149.929306 -76.878494 -198.883011
-146.032913 -75.729568 -198.530441
-138.116409 -75.078804 -196.485672
-138.081177 -74.890648 -197.074112
-133.947327 -73.848747 -197.886475
-134.989594 -75.091972 -199.201233
-46.145348 -75.769852 -197.684891
-25.007851 -75.287987 -197.600174
-23.134607 -76.200195 -196.983078
102.960808 -74.703445 -198.195496
-136.010880 -76.458488 -198.363663
-37.882851 -75.372910 -198.705383
-22.288950 -75.632378 -197.664749
10.564076 -75.917763 -197.181870
12.759880 -73.999794 -198.428360
19.806282 -75.805389 -197.924362
100.709961 -74.553017 -197.146469
-138.164581 -74.883141 -198.632187
-133.731232 -75.806984 -199.148285
-135.435562 -74.919838 -197.353638
-25.508287 -75.772156 -198.653290
22.690584 -75.462090 -199.652252
96.255325 -75.837219 -199.266922
99.567146 -74.409393 -199.712204
101.509689 -73.185638 -199.176315
-144.648315 -75.135551 -199.029007
-136.006866 -74.582397 -197.859726
-44.681831 -76.535103 -199.667419
-22.163132 -75.248184 -198.677155
99.414047 -75.323448 -199.903976
103.286278 -75.555153 -198.752411
-153.920670 -76.565323 -198.163132
-139.837311 -74.282265 -198.464096
-36.093262 -76.230125 -200.212219
-15.264572 -76.685844 -200.065964
-14.841556 -75.962296 -198.953842
12.477727 -76.020737 -199.242554
-148.835358 -73.693825 -199.491684
-146.265610 -76.381241 -200.250381
-23.681324 -74.784203 -199.615341
9.936720 -75.052155 -198.061691
103.864731 -75.809097 -199.621033
-154.773132 -76.364441 -200.571365
-144.531082 -76.703232 -200.872040
-138.566650 -74.674713 -198.892609
-135.945724 -76.203186 -201.537811
-133.319534 -76.197258 -198.791306
-37.538181 -75.700272 -199.284561
9.826931 -75.198135 -200.310593
11.669468 -75.639969 -201.064529
22.418737 -74.835648 -201.514557
-145.798325 -75.156952 -201.716644
-139.743896 -75.289459 -199.500992
-134.553207 -75.212029 -200.883850
-135.296295 -75.214859 -200.226212
-43.327229 -75.404343 -202.133423
-21.973831 -75.639015 -200.348724
-15.513823 -75.208305 -200.472168
94.583687 -75.239517 -201.534210
95.474304 -76.271896 -200.155136
99.773026 -75.561249 -199.959259
102.474564 -76.267654 -201.143326
-140.523590 -75.896530 -201.846344
-139.768753 -74.456818 -201.689484
-138.919449 -76.143723 -203.008820
-136.625412 -74.866501 -200.622711
-136.967957 -74.980919 -200.863174
-134.694870 -75.959160 -200.328125
-36.688141 -76.135384 -201.160721
-35.506500 -74.789879 -201.408203
-14.192133 -73.815285 -200.576782
19.419422 -76.182838 -200.337082
-34.850636 -76.303909 -201.891678
-25.504257 -75.749336 -201.203491
-11.379766 -76.900909 -201.860718
9.519721 -75.124550 -201.547791
11.771470 -75.339142 -201.354691
20.683407 -76.651978 -201.114761
99.671638 -75.458900 -200.858322
102.235764 -75.510040 -202.172592
-154.016434 -75.689255 -200.395615
-42.124104 -75.756592 -202.684662
-14.072784 -76.004013 -202.943787
-35.167458 -75.952751 -202.804474
-22.462034 -74.610321 -201.492813
20.303988 -75.079414 -202.804642
-141.989456 -75.573349 -203.909348
-42.180099 -74.869659 -203.499481
-35.722843 -76.671204 -202.627045
-24.932768 -74.919922 -202.647461
11.837287 -75.784416 -201.449280
93.828819 -75.363342 -202.340576
101.156319 -76.273956 -202.840668
-33.303768 -76.090881 -203.767578
-20.232960 -76.692604 -202.256699
-9.792481 -75.985718 -202.535812
97.922684 -74.497742 -202.767715
-22.576847 -75.952492 -202.887009
6.733387 -75.444679 -202.781006
10.043871 -75.614243 -204.195221
18.706070 -76.274940 -202.360046
20.646910 -75.438477 -202.904068
94.578514 -76.114433 -203.635696
-142.442657 -75.686256 -204.378662
-41.276192 -75.316208 -201.656235
-20.026218 -75.480751 -203.379486
-20.731939 -75.494133 -204.251266
-13.552074 -75.402290 -201.548248
97.421501 -74.512589 -203.850906
100.665863 -76.887619 -204.075821
-150.934586 -75.164719 -205.020020
-41.167690 -75.899918 -203.568222
-11.938168 -76.984772 -204.255569
92.663612 -75.532913 -203.283386
-33.088024 -74.553879 -204.134644
-30.284437 -74.832306 -205.846161
-20.677366 -75.946671 -206.139923
-9.175336 -74.286995 -204.972626
8.935251 -75.751251 -205.718582
91.497070 -76.655090 -204.532562
99.841339 -75.024147 -205.684860
-39.853081 -77.050850 -205.755646
-40.385963 -75.168465 -204.637192
7.876181 -74.047806 -205.981339
10.628407 -75.994057 -204.483582
16.959946 -75.245453 -203.520187
96.116898 -75.059425 -205.715942
-39.804653 -76.569427 -206.612350
-11.806170 -75.080803 -204.529007
10.247561 -75.509697 -206.257553
18.532944 -75.427498 -205.191086
93.773003 -76.257072 -206.056580
-146.019348 -75.620689 -205.465530
-31.801479 -75.415611 -206.057709
-20.781948 -76.372612 -205.928253
-19.254749 -75.849686 -206.135941
7.246874 -76.152977 -205.041763
19.582157 -76.068230 -207.038635
-147.867599 -75.246231 -204.774597
-31.130463 -76.769821 -205.941284
-11.090611 -76.548820 -205.219971
93.008118 -75.377174 -206.255783
95.230659 -75.800987 -207.519226
99.516388 -75.918762 -207.685760
-30.374926 -75.480293 -205.526855
-8.112324 -76.211555 -206.999329
-8.541139 -74.131790 -207.005920
10.616726 -75.736908 -206.943848
-145.852219 -75.902733 -207.236786
-37.612549 -75.383476 -208.386398
-21.396204 -74.409531 -207.170029
-16.660982 -75.916367 -207.241684
-18.548189 -74.767509 -207.567169
-10.270246 -76.254196 -206.705811
6.372315 -73.916954 -205.873718
90.911377 -76.098091 -207.497971
98.960182 -74.879677 -208.061707
98.470268 -74.678299 -206.976624
-30.045382 -75.138252 -207.983902
10.596838 -75.708275 -206.790405
18.606974 -76.323769 -207.129776
-148.762604 -75.072021 -207.584473
-145.175232 -74.997246 -207.075363
-27.865749 -75.263191 -209.119156
-17.889477 -75.333420 -208.405029
-8.844357 -75.640282 -208.110062
20.124739 -75.187881 -209.113739
-144.898788 -76.339561 -208.289261
-37.014496 -76.376343 -207.554153
-31.379147 -76.909470 -208.346390
9.577172 -74.837395 -209.109253
17.518082 -75.805534 -208.590240
90.375465 -76.163582 -208.548050
93.774010 -75.330498 -208.606140
97.109581 -74.869965 -208.122314
-20.102495 -76.332977 -208.207443
-15.897339 -75.347610 -209.286026
-7.763848 -76.439148 -207.906647
8.047124 -75.332703 -208.465607
-149.038635 -75.934364 -209.065308
-76.160057 -74.503166 -208.778290
-76.003693 -75.597023 -208.838989
-33.571842 -77.192665 -209.302078
-27.696569 -76.096870 -208.534378
-9.605994 -75.295403 -208.538681
6.938646 -75.246162 -209.455261
96.912117 -76.737732 -208.630234
-148.391663 -75.750290 -209.292496
-76.175903 -75.510178 -210.279968
-74.385040 -74.775139 -210.629364
-36.555763 -75.392250 -209.953751
-36.764561 -76.762321 -210.222824
-32.807449 -76.944923 -210.017334
-30.118364 -76.279015 -208.259247
-6.986883 -76.778656 -210.644012
9.546722 -76.210815 -209.019974
96.965347 -76.021614 -209.812714
96.259644 -74.677368 -209.609711
-145.370789 -74.748116 -210.456161
-78.047699 -75.293182 -209.989243
-74.224594 -74.721489 -209.626541
18.533653 -75.514381 -210.194153
90.066406 -77.130760 -209.388214
91.871254 -74.117676 -210.805679
95.908371 -75.100929 -210.628036
-149.013397 -75.347961 -210.423950
-78.083176 -76.081589 -211.204849
-79.441849 -74.614052 -210.437912
-77.415955 -75.138596 -211.071350
-76.769234 -75.642960 -210.300171
-74.650497 -74.704437 -209.994568
-31.546743 -76.162773 -209.186279
-25.918810 -76.293785 -210.337173
-17.660828 -76.417351 -210.927490
-8.721417 -75.850128 -209.897690
9.926199 -77.043022 -210.178482
16.458488 -76.238075 -210.656769
-82.373077 -75.111107 -210.343857
-76.601463 -74.404114 -211.758377
-73.736626 -75.369850 -211.758011
-34.677235 -75.613594 -211.662109
-32.057800 -74.600212 -212.358078
-29.478561 -76.403488 -209.747787
-25.010794 -76.886932 -209.975800
-18.062803 -73.873672 -211.384201
6.829833 -75.897232 -209.888123
-149.738052 -76.286934 -212.825424
-146.396469 -74.360451 -211.331421
-82.481308 -75.566750 -211.687897
-81.359779 -75.873817 -211.266052
-73.750381 -75.865532 -211.708069
-15.518013 -75.008400 -211.518478
-8.037109 -75.597298 -210.827377
6.571650 -75.142159 -211.992874
15.978950 -76.292694 -211.159073
89.066597 -74.062927 -211.596741
95.745689 -74.802086 -211.872116
-148.721680 -76.931404 -211.921707
-146.226868 -78.213341 -213.476532
-85.102341 -75.367653 -210.886902
-85.768646 -77.147606 -212.751633
-72.659592 -76.742233 -211.487625
-32.097130 -75.910080 -211.412827
-30.398510 -76.595177 -211.362701
-29.773054 -75.902512 -211.543182
-28.291206 -75.688538 -211.675781
-25.426924 -74.869392 -212.738480
-18.137659 -75.865784 -212.329865
-148.177139 -76.666145 -211.574966
-145.043655 -76.771118 -212.190384
-74.737801 -74.922195 -211.845062
-34.477764 -75.117706 -212.121323
-30.344227 -75.088478 -212.775558
-25.773087 -75.777328 -213.003098
-18.167650 -75.908737 -213.010941
-14.938213 -76.121323 -212.914688
-8.480937 -76.542076 -211.668137
89.357483 -76.298569 -211.195633
-86.353195 -76.110527 -213.735687
-74.905556 -76.305199 -211.806412
-33.993927 -78.103477 -212.699310
-29.476904 -74.696342 -213.375763
-14.882785 -74.952850 -211.499710
-4.848146 -76.167320 -212.947617
6.871232 -74.266754 -211.920044
9.837313 -76.200943 -211.134750
19.621399 -75.724426 -211.880966
-87.999702 -75.869827 -213.817917
-33.600685 -74.191299 -212.480453
-28.310236 -76.561058 -213.283188
-26.379601 -76.275848 -211.989548
-24.580301 -75.502983 -212.917526
87.896591 -77.493912 -212.755310
94.958031 -74.189323 -213.656815
-90.253944 -76.072472 -214.264038
-88.694588 -75.937279 -213.122528
-73.353203 -74.598953 -213.181213
-76.371574 -75.816063 -214.722992
-28.553644 -74.425186 -213.766495
-22.895296 -76.346764 -211.032104
-16.191496 -76.469292 -213.402390
-4.207394 -75.760345 -212.948273
17.994400 -77.101807 -213.331665
-145.866013 -75.629471 -213.650940
-76.042595 -74.581726 -214.509888
-33.983295 -76.603958 -213.656570
-26.008856 -76.169022 -214.434052
-16.925730 -75.547226 -214.921066
-15.459603 -75.597931 -212.884399
-7.664332 -75.553284 -214.542175
6.132322 -75.259460 -212.568100
9.747866 -76.060402 -215.271606
17.965078 -76.557625 -212.794861
-77.102760 -73.811005 -215.484924
-28.421576 -75.049904 -213.755539
-25.867153 -74.622620 -213.800949
-25.936100 -75.138985 -215.766251
-4.567811 -75.372986 -213.540863
6.027626 -75.648521 -214.423279
19.480371 -75.749130 -214.340775
85.864120 -76.407486 -214.007935
92.863235 -76.514297 -213.396622
-149.169434 -77.817734 -214.128113
-90.418526 -75.801636 -214.351105
-78.441032 -75.039139 -214.126709
-31.915089 -76.967247 -213.421509
-28.910540 -75.647148 -214.844376
-27.652903 -74.356056 -214.944107
-13.545968 -74.412704 -214.333450
-7.198658 -75.604874 -214.931107
-91.194275 -76.144714 -216.239960
-78.652939 -74.714905 -215.177994
-28.935966 -74.157585 -215.365555
-25.491007 -76.380859 -214.204788
-21.395538 -75.883476 -214.917953
92.230209 -75.516968 -214.308090
-146.215546 -75.063049 -214.107788
-92.367897 -76.388931 -215.163040
-33.571724 -76.213051 -215.253799
-31.192955 -76.379829 -214.389496
-27.437746 -75.538765 -215.699478
-24.880562 -74.984329 -214.968643
-3.778021 -74.266068 -215.535110
8.643027 -75.215790 -215.452042
86.021675 -75.433495 -215.462509
-79.614731 -75.644630 -214.346756
-27.971291 -76.133430 -215.298737
-23.723785 -75.401955 -215.739502
-6.964158 -76.187019 -215.607300
-2.730895 -74.803963 -215.081451
5.645589 -75.613297 -214.575806
16.462605 -75.796204 -215.049622
18.367332 -76.196289 -215.183624
-148.438034 -75.525749 -215.747818
-145.682617 -76.059570 -215.641327
-94.113976 -75.981316 -215.756058
-27.554256 -76.322662 -215.536224
-20.210209 -74.927116 -215.947067
-16.113714 -75.560677 -215.777481
-13.983249 -75.567978 -215.697113
84.251427 -75.075920 -215.991272
-149.055420 -75.486084 -215.604095
-145.993225 -75.321716 -215.966095
-95.154022 -74.946754 -217.041809
-91.741302 -74.398979 -216.871429
-80.363892 -77.455551 -215.309738
-83.466827 -75.076767 -216.435837
-29.784992 -75.595238 -217.203934
-12.400623 -76.057816 -216.301514
18.126076 -75.670395 -217.442047
-93.669281 -76.727921 -217.277740
-84.232124 -75.253769 -216.697830
-23.409794 -75.108444 -217.101944
-13.159799 -75.491417 -217.457321
-5.916327 -75.188560 -217.274734
8.055448 -76.431786 -216.335770
-149.748596 -76.685211 -217.490646
-146.393250 -75.973747 -217.311462
-85.409874 -74.945251 -218.080154
-30.531281 -76.028694 -217.228592
-29.106569 -75.453560 -217.993301
-26.024820 -74.437439 -218.390900
-14.346106 -77.593193 -218.055862
6.026323 -76.139656 -215.949341
84.213638 -75.462776 -218.530609
90.764870 -75.694359 -218.312439
-146.659973 -75.684494 -218.776123
-85.902756 -74.805107 -217.798920
-21.596560 -75.894348 -217.598038
-20.268085 -75.868240 -216.775543
-13.382745 -75.534088 -217.900925
-4.334413 -76.114052 -217.750565
16.016758 -76.668205 -216.236679
90.370720 -76.194748 -218.025909
-93.370064 -76.025742 -217.421875
-88.447701 -76.728569 -218.360733
-25.633574 -75.648163 -217.887665
-4.480464 -75.618393 -217.784393
8.328540 -76.411644 -217.448715
83.991295 -75.675850 -219.778015
-148.151550 -75.688385 -218.263092
-96.311035 -75.188873 -217.522293
-88.673523 -75.989815 -218.015320
-29.049656 -75.414474 -218.010941
-22.126726 -75.141953 -218.901184
-17.835989 -75.331329 -218.125046
-11.447273 -75.320869 -218.625412
-3.419040 -74.424866 -220.904007
90.532280 -75.285141 -218.962006
-148.794693 -75.289299 -218.106201
-147.357742 -76.329849 -218.520370
-94.966843 -75.247421 -216.936234
-91.617958 -75.999054 -218.969666
-89.893211 -76.404823 -219.616058
-90.634239 -74.359314 -218.006256
-23.333166 -77.102936 -218.523514
-18.418591 -76.434937 -218.966736
-13.269055 -76.202553 -218.100479
5.415421 -75.771576 -218.329834
18.628181 -74.893333 -217.938675
-95.995872 -75.165375 -219.631134
-93.595848 -75.802544 -219.343613
-92.335991 -76.683296 -218.511719
-92.583801 -74.197563 -219.452042
-28.563643 -75.925774 -218.737900
-23.963404 -75.948456 -218.897812
-16.328794 -75.363060 -219.256149
-13.603993 -74.950607 -220.294998
5.992479 -74.700439 -218.545258
16.851284 -76.321503 -220.318985
15.597482 -76.050385 -216.666306
-145.084961 -76.899918 -220.305008
-97.588875 -75.320229 -220.413513
-93.856041 -75.969269 -220.536026
-10.468809 -76.895195 -219.867935
-3.666744 -76.049759 -220.382217
7.675217 -74.815544 -219.094376
88.933617 -75.144180 -220.728973
-149.721344 -76.020729 -220.936615
-27.372232 -76.191353 -220.327347
-27.116888 -75.233307 -219.532654
-20.271690 -76.291435 -219.856659
-16.158169 -76.030090 -219.518997
-3.820779 -76.279274 -221.319702
-0.675283 -76.040596 -220.213257
18.681948 -75.873840 -220.654861
-15.156785 -75.817261 -219.667755
-11.959249 -74.862244 -220.926437
-10.392023 -75.104187 -219.982681
-0.432541 -76.216148 -219.499451
5.489671 -75.554207 -219.841721
82.091240 -75.576508 -220.748810
-25.370403 -76.318245 -221.151550
-19.927280 -77.112289 -220.758484
-2.466126 -74.635536 -220.899857
5.421265 -76.811440 -220.979095
7.900252 -75.723549 -221.411453
88.425117 -74.090759 -220.255402
-22.059742 -75.819756 -221.320251
-22.422451 -75.497284 -220.417404
-19.375919 -76.284988 -221.398666
-15.582152 -75.695183 -221.062195
0.596455 -76.886574 -220.960190
17.969862 -77.545151 -220.328873
