# This PCD file was generated using the MATLAB® pcwrite function
# from Computer Vision Toolbox®.
# .PCD v.7 - Point Cloud Data file format
VERSION .7
FIELDS x y z
SIZE 4 4 4
TYPE F F F
COUNT 1 1 1
WIDTH 1410
HEIGHT 1
VIEWPOINT 0 0 0 1 0 0 0
POINTS 1410
DATA ascii
-93.539917 -62.087334 -140.009262
-58.502159 -63.723248 -139.591705
-57.130878 -63.017471 -141.559570
-56.436909 -64.352005 -138.544968
19.894236 -65.244057 -141.048309
-55.603539 -64.373192 -139.428970
-55.707783 -62.746281 -139.604965
-55.078831 -64.643562 -141.562378
-53.311268 -63.902241 -140.368469
-54.240032 -64.326767 -139.841721
18.648556 -65.922478 -141.597626
-88.443031 -64.059525 -140.722214
-88.001839 -61.965614 -139.834579
20.443754 -63.737007 -141.889740
-94.014183 -63.631107 -142.451950
-89.269569 -64.267761 -142.615799
-90.435951 -65.142258 -142.903183
25.816525 -64.693878 -140.651321
18.150785 -66.164612 -141.106812
-95.656349 -64.753677 -143.075409
18.736677 -65.511154 -144.529053
-96.159683 -65.069611 -142.056168
25.269299 -65.436607 -143.010803
-97.304291 -66.059532 -141.494904
15.898113 -64.753075 -144.736710
23.029074 -64.951828 -143.682297
-95.625526 -64.167358 -145.461624
-96.385017 -62.621433 -142.774033
-91.146904 -64.701820 -141.373978
17.981119 -64.334740 -142.453140
23.698887 -63.222233 -143.431030
-91.265778 -65.005180 -144.812576
-91.337944 -63.300858 -146.438385
16.310194 -63.216686 -142.970673
25.815020 -64.045860 -145.269547
-96.227516 -64.088020 -145.444504
23.589197 -64.909981 -144.902344
-96.131477 -63.748615 -144.665070
-92.614517 -63.693562 -145.685745
16.329603 -63.727985 -146.765259
17.636385 -62.559719 -144.757217
22.560822 -63.995823 -146.665039
-97.523491 -64.924904 -146.095551
-92.594498 -64.906166 -145.763153
22.254536 -65.362175 -147.635590
14.546971 -64.853355 -146.399521
20.348671 -66.059784 -148.943253
19.724348 -64.610954 -145.578568
-91.227676 -64.293869 -147.478455
17.043617 -62.415333 -148.472977
18.396721 -64.097191 -147.405502
19.788345 -63.983276 -146.851318
-97.551704 -62.681732 -148.080231
16.391741 -64.226822 -150.031281
16.566956 -64.717659 -147.765503
17.568344 -64.667931 -147.782333
21.663071 -65.114555 -147.584473
-98.114700 -64.231155 -148.994186
-92.275795 -65.027000 -147.590988
17.715158 -60.441578 -149.084885
15.294245 -64.118362 -152.101364
17.971090 -64.224457 -148.136978
19.771336 -65.962372 -151.269684
-98.868950 -65.012100 -149.214508
-92.726181 -63.046364 -149.200638
20.024389 -66.284653 -151.539429
18.105639 -64.422386 -151.730759
16.454865 -63.488503 -151.454239
17.201035 -62.249393 -151.134247
19.406082 -65.534874 -151.829758
15.486314 -64.399902 -152.243073
15.659991 -64.737343 -151.136978
20.182730 -63.458141 -151.971573
-93.253448 -64.934692 -150.728348
17.186749 -63.701302 -151.023697
17.291540 -63.881252 -151.731018
-97.741707 -65.063744 -149.706573
-94.160439 -64.919205 -151.937729
18.102192 -64.436340 -151.564743
19.554415 -64.432083 -152.672287
-99.520859 -65.011559 -152.450806
-94.156120 -63.571632 -152.986984
17.100935 -60.671803 -154.622238
18.687275 -64.405174 -152.524277
-101.617638 -63.164139 -155.117294
-93.860947 -65.093346 -153.943649
-95.636360 -62.473198 -153.576050
-95.093643 -63.608685 -152.150558
-101.350624 -64.642532 -154.529724
-100.354485 -64.450821 -157.971268
-96.902237 -64.249031 -155.424011
-96.798622 -63.057755 -156.465668
-103.974243 -65.378265 -156.621582
-96.501091 -65.357658 -157.146957
-103.631790 -64.244522 -156.560791
-103.560959 -63.176552 -157.778336
-96.227112 -64.079277 -160.062119
-102.947899 -64.019684 -157.902237
-98.518364 -61.748013 -159.829071
-103.160965 -64.014488 -161.598999
-102.839447 -63.235619 -160.162460
-97.580444 -64.103218 -159.778961
-103.285057 -64.118324 -161.656647
-98.403862 -65.049858 -162.793716
-104.600327 -64.992020 -164.013824
-99.100891 -64.326698 -164.038376
-105.518860 -65.103142 -164.875549
-97.865425 -64.014198 -164.587448
-103.742355 -65.525192 -164.188019
-100.281319 -63.896351 -164.463242
-105.549782 -65.579445 -164.193542
-98.512047 -65.766342 -165.271530
-99.405884 -63.870998 -167.069489
-106.578026 -65.111610 -166.952911
-99.776482 -65.572739 -165.965729
-107.101784 -66.413628 -167.003952
-100.378418 -64.631683 -170.203369
-103.419983 -63.571266 -168.492798
-101.761688 -62.943687 -167.471298
-100.925102 -63.975491 -168.944855
-109.739250 -65.279488 -168.042648
-108.520767 -66.402847 -170.222198
-105.934082 -64.374641 -168.940933
-107.094170 -64.219971 -172.036163
-104.664055 -63.951225 -172.580963
-102.772377 -62.914894 -171.507660
-105.760841 -64.362740 -172.216919
-106.327141 -64.079079 -172.658951
-107.701874 -62.675201 -171.664093
-108.351608 -65.602631 -174.250977
-102.017380 -63.726910 -173.845413
-103.352829 -64.349289 -174.999359
-149.325897 -66.064789 -175.547119
-104.931702 -61.997517 -174.747787
-148.735275 -62.816250 -175.289948
-146.159698 -64.342529 -174.706955
-152.371338 -64.546638 -176.086639
-143.008972 -64.146278 -177.558929
-107.705139 -64.639847 -177.482208
-104.304916 -63.428989 -177.132050
-151.941010 -63.146645 -175.405136
-150.791245 -64.091011 -177.402817
-106.173706 -64.852539 -177.299973
-110.181023 -65.824341 -179.246552
-110.717468 -64.847542 -178.976059
-152.320709 -63.402069 -178.362900
-109.298386 -62.870628 -179.087875
-105.845207 -64.754440 -178.816071
-107.499527 -61.868942 -180.549591
-106.386368 -65.148270 -178.962845
-150.831299 -63.280704 -178.000595
-110.748329 -64.105179 -179.197235
-106.191719 -64.040077 -180.480560
-153.507721 -65.910660 -180.526291
-142.472473 -65.686356 -179.431656
-151.339447 -64.698120 -181.476303
-142.121872 -63.731045 -180.893845
-110.558693 -64.624115 -179.944016
-105.845161 -65.822479 -181.804443
-106.528717 -63.376575 -179.863770
-151.797440 -65.515030 -181.746246
-110.749802 -63.477356 -179.705399
-107.815430 -64.335480 -179.832809
-107.609703 -63.047691 -181.306046
-107.101685 -64.290451 -180.841888
-110.098816 -64.677231 -183.978622
-151.772186 -64.132088 -182.155930
-143.088333 -63.584301 -181.311218
-111.489670 -65.174332 -181.964951
-108.011765 -63.893509 -182.972412
-111.910934 -63.946350 -183.442520
-109.772491 -65.099709 -182.531540
-153.065353 -64.699120 -183.422058
-108.169235 -63.210541 -184.170074
-107.584312 -63.328037 -183.505081
-142.973129 -65.281548 -181.415619
-112.116684 -63.424007 -183.296799
-109.763687 -63.859882 -182.378922
-152.367905 -66.043312 -183.807846
-110.358116 -60.880203 -182.469025
-108.670174 -62.671555 -184.690887
-107.364006 -63.517262 -183.236649
-151.398056 -64.220886 -182.853470
-149.374069 -63.672897 -185.032578
-139.985596 -64.047722 -183.614670
-110.054855 -64.029518 -184.763092
-109.915192 -63.214966 -185.125824
-152.018204 -64.260986 -183.560074
-112.341522 -63.411240 -186.128372
-108.758385 -64.358574 -185.456024
-108.983963 -64.014091 -183.993042
-152.363190 -63.058285 -183.888626
-141.767929 -63.864231 -186.341858
-109.899124 -63.671326 -184.068604
-150.520966 -62.450653 -186.771027
-108.130638 -64.032814 -187.441315
-151.259659 -64.814148 -185.207901
-141.027298 -64.158073 -185.862854
-111.711113 -62.798645 -189.017914
-109.875580 -64.302467 -186.924667
-110.150261 -63.942871 -188.010803
-143.975800 -63.108986 -188.228409
-149.943893 -65.667961 -188.652176
-143.131851 -62.840656 -188.432983
-109.196831 -65.654938 -184.739777
-149.976242 -64.827560 -186.018402
-143.102982 -64.712822 -187.670670
-111.870018 -64.581718 -186.913284
-108.688782 -65.892220 -187.731750
-108.927528 -65.722878 -187.545029
-109.467804 -63.566017 -188.296814
-145.635391 -63.412956 -188.976273
-147.530228 -61.371872 -190.568253
-147.265488 -63.182636 -189.030014
-147.305710 -63.134274 -188.591064
-108.246132 -63.845108 -189.777786
-112.209030 -64.248932 -191.183563
-110.537682 -63.403530 -190.803436
-111.028618 -64.317070 -188.391708
-147.222046 -63.815578 -189.743332
-147.966599 -64.144600 -189.165604
-147.059204 -65.076492 -190.792984
-112.695129 -64.010056 -188.919983
-146.559769 -64.638191 -190.398972
-111.247017 -64.560150 -190.325836
-111.309723 -62.168297 -190.722427
-110.614372 -63.374020 -190.702393
-148.701340 -64.254707 -192.606552
-111.498970 -64.391823 -192.742661
-146.654800 -62.641548 -193.607315
-145.405457 -64.898003 -190.649170
-145.930130 -65.548767 -190.942749
-111.209023 -64.228683 -192.336029
-109.303780 -63.997475 -191.255936
-146.530838 -64.263649 -191.521469
-145.514862 -65.587555 -193.446671
-111.833687 -64.592560 -191.392136
-148.597458 -65.638023 -192.782227
-110.685188 -63.463100 -193.017715
-111.331917 -61.782505 -192.128326
-152.682297 -65.753273 -192.424469
-148.789230 -64.383568 -193.412720
-109.462898 -62.931629 -194.444397
-150.805481 -65.884232 -191.893784
-143.568161 -63.917934 -193.366165
-111.992378 -63.892490 -191.688049
-109.358376 -64.587189 -194.933441
-109.855728 -65.108269 -193.955902
-109.735771 -64.255669 -192.617874
-112.177193 -63.079197 -194.284882
-111.680176 -64.671883 -196.348495
-152.437500 -65.437424 -194.032074
-152.487381 -65.045685 -198.014511
-123.403557 -63.742542 -195.979019
-111.359253 -64.064751 -194.467545
-142.337677 -64.944237 -194.337830
-126.343224 -64.539070 -196.479202
-124.508171 -65.059372 -196.644165
-123.611366 -64.578682 -194.425629
-142.458908 -65.810654 -195.973099
-132.292847 -64.016075 -195.770889
-130.538422 -64.093033 -195.665237
-124.780945 -63.705254 -196.697189
-111.484917 -66.440681 -196.601059
-152.321259 -67.150490 -198.170914
-132.365921 -63.461750 -196.105286
-131.058655 -64.339684 -194.644653
-129.693497 -64.178192 -198.355911
-128.561813 -64.328407 -196.841354
-112.866730 -62.113438 -195.813980
-131.376953 -65.412773 -197.501160
-130.720856 -64.562622 -198.893661
-122.096169 -65.208252 -197.723618
-122.478706 -62.759014 -194.649414
-110.898598 -62.562840 -195.634094
-139.999283 -62.153580 -197.806686
-135.305786 -62.410038 -196.638779
-111.082397 -64.439430 -198.434097
-123.396416 -63.910103 -196.478577
-112.921494 -63.330902 -198.902710
-111.506287 -64.273438 -197.340897
-111.587135 -64.051651 -197.712402
-136.684219 -63.898308 -197.715515
-133.952286 -64.103439 -198.050018
-133.094345 -64.275230 -199.109055
-113.559837 -65.602554 -199.290161
-110.073074 -65.310684 -197.602936
-147.722061 -63.225464 -199.624756
-136.588333 -65.650482 -200.456726
-121.992943 -64.866432 -197.698441
-140.071442 -64.825714 -199.272598
-140.366440 -65.188866 -198.356155
-132.469879 -64.202988 -199.006805
-122.116119 -62.850182 -199.087173
-115.389297 -64.743469 -198.808701
-112.891441 -63.305424 -198.029175
-112.770866 -64.029030 -198.026566
-110.498367 -65.444916 -199.774094
-110.549629 -63.623188 -199.071869
-112.139320 -64.026894 -199.544815
-140.286011 -63.899490 -199.271530
-139.235474 -65.707901 -199.886307
-137.222870 -63.835911 -197.611984
-134.062866 -63.429893 -198.797073
-123.856781 -64.889748 -199.540787
-119.116142 -64.408546 -199.349365
-114.196068 -61.782852 -199.911911
-112.566475 -63.330498 -199.293991
-110.766785 -62.679203 -198.660568
-145.544220 -65.236679 -197.631226
-138.710678 -64.315880 -201.040131
-136.411209 -64.898598 -199.399750
-122.010475 -65.674446 -200.720993
-118.002220 -64.357506 -198.580643
-113.330971 -63.633892 -200.030914
-110.935165 -63.048370 -200.287064
-144.998276 -65.700363 -199.682175
-124.298721 -63.061085 -201.448868
-117.568680 -62.859730 -199.644608
-114.600441 -65.318115 -199.631638
-112.678131 -63.250248 -199.937744
-139.982056 -64.737381 -200.027283
-135.677032 -63.813717 -199.998627
-135.506516 -65.477951 -201.342270
-134.630234 -63.981155 -201.799194
-120.409943 -64.516029 -201.572998
-122.984985 -64.482452 -200.163483
-116.908638 -64.061920 -200.491287
-120.161499 -62.625275 -202.396790
-115.909027 -64.148499 -200.121323
-112.416496 -63.489872 -201.730423
-145.384033 -63.778111 -201.075638
-133.595230 -63.925121 -201.632660
-113.568977 -64.407761 -202.081589
-135.345520 -64.675468 -201.243881
-122.708839 -63.092152 -200.283524
-115.937744 -64.605133 -200.944183
-115.647064 -63.720604 -201.725647
-111.193535 -63.734428 -200.570724
-133.071228 -64.188004 -201.403061
-112.747101 -63.711117 -200.413284
-112.796516 -65.493423 -202.070160
-152.672531 -64.117828 -202.414078
-132.300049 -62.599209 -202.833832
-132.022827 -63.985516 -201.606445
-129.619446 -64.135696 -202.852158
-123.652992 -63.989086 -202.460892
-152.332596 -62.009113 -202.896133
-131.159576 -63.736004 -202.629013
-131.829941 -63.594696 -202.194641
-120.338943 -65.652046 -202.424698
-116.057541 -63.224091 -202.912064
-115.509262 -64.444092 -203.463837
-155.243225 -63.833836 -203.368790
-132.323471 -62.751865 -204.420837
-133.415298 -63.777187 -203.898605
-130.519928 -64.209854 -204.505814
-129.910278 -64.927544 -202.015808
-129.640198 -63.872997 -203.840393
-129.764008 -64.580139 -203.974747
-125.124847 -63.785629 -202.601791
-123.113739 -65.171051 -202.822220
-116.793488 -64.636574 -204.023117
-127.059227 -63.480526 -202.015656
-125.285751 -64.064880 -202.548691
-123.102356 -63.795364 -205.761703
-118.771286 -65.566833 -202.620880
-115.509109 -65.027115 -203.778442
-126.791382 -65.681862 -203.966324
-122.830078 -64.099594 -205.141388
-122.051750 -63.534550 -206.123611
-118.917236 -65.271698 -203.517776
-117.609833 -63.987400 -202.301819
-115.075905 -62.997303 -203.030304
-115.332375 -60.782833 -204.854858
-151.166565 -63.544807 -206.609421
-144.687302 -62.306290 -206.976700
-149.936935 -64.764420 -204.166916
-145.903580 -65.835693 -205.531708
-149.606125 -64.894684 -207.832153
-145.720901 -64.338745 -210.299042
-143.587967 -65.923035 -208.046387
-146.794296 -66.577332 -207.985016
-146.581314 -65.815155 -209.716843
-150.490463 -64.284904 -210.391205
-144.804779 -64.429596 -211.668716
-150.293472 -67.249077 -210.756775
-145.348114 -65.632301 -210.379028
-149.642548 -66.582474 -213.119644
-148.595291 -63.312065 -216.767426
-144.832367 -65.670860 -218.351471
-146.359161 -63.545597 -217.367538
-145.208298 -66.870110 -218.568024
-144.977386 -61.031261 -218.743362
-146.448929 -66.273834 -216.291443
-149.239029 -65.662056 -221.818512
-144.895569 -67.175110 -222.150986
-147.587982 -62.309994 -221.856476
-150.348114 -64.567375 -223.945267
-146.255920 -64.506668 -223.399414
-152.909897 -64.384552 -222.310059
-143.461151 -62.069424 -224.031326
-151.823471 -61.051468 -224.226852
-153.370621 -65.715721 -225.398071
-141.865189 -66.052208 -224.255325
-152.612793 -63.104042 -226.848022
-125.040764 -63.455444 -225.599457
-129.423248 -64.067558 -226.126938
-129.952484 -65.009125 -226.869049
-130.148880 -64.205574 -226.334213
-126.606270 -66.232552 -225.505417
-148.239563 -66.311623 -227.423233
-142.950699 -64.801407 -227.006729
-132.337173 -64.827965 -226.930054
-131.110245 -65.487160 -227.871475
-126.091202 -63.880081 -229.610809
-147.811035 -63.602459 -225.424850
-149.858231 -64.775734 -226.917542
-131.029068 -64.433266 -229.180710
-126.706818 -64.346664 -227.500610
-123.670952 -64.486404 -227.311935
-155.948822 -65.317368 -227.865341
-132.452591 -64.986015 -227.462448
-126.652458 -63.326176 -231.446716
-154.407562 -64.634888 -229.308640
-150.095810 -62.942730 -228.665237
-141.076050 -63.563999 -230.168884
-132.434128 -63.151974 -228.500854
-132.679901 -63.600124 -228.103821
-132.235596 -63.035461 -228.483490
-130.647034 -62.114201 -228.382416
-124.520493 -64.699455 -230.461365
-146.072144 -64.598862 -227.089371
-136.152908 -65.591728 -230.091080
-132.150497 -63.429554 -229.236176
-130.586609 -61.509796 -230.996948
-130.242447 -64.066597 -229.924286
-124.916206 -63.487473 -231.492950
-149.988312 -66.290970 -229.327621
-131.065506 -64.849312 -230.720123
-155.031418 -66.935577 -231.061203
-147.094559 -64.213913 -230.156830
-134.363693 -64.278015 -228.915070
-133.266434 -63.128250 -230.705276
-130.821915 -63.488930 -227.924500
-155.756790 -64.578590 -231.185120
-151.045807 -65.061462 -231.096573
-146.396957 -64.882591 -228.603653
-129.119110 -62.023357 -231.545624
-134.941986 -64.483360 -231.219284
-124.812538 -62.992443 -232.437805
-154.427841 -64.844429 -233.182220
-132.750961 -64.851967 -231.903915
-130.766144 -63.578323 -233.804749
-129.724152 -63.745117 -229.778305
-127.296791 -64.378960 -230.756104
-124.059235 -65.070190 -233.008957
-131.917084 -64.130363 -232.107849
-124.038048 -65.029289 -232.013962
-123.846375 -63.520424 -232.627457
-128.220428 -63.787621 -233.429214
-127.205788 -64.848236 -232.964630
-126.152039 -63.561947 -232.320374
-154.177414 -63.352634 -233.205978
-144.233688 -65.110298 -233.895569
-151.649063 -61.823318 -233.597412
-149.616302 -62.573265 -236.380783
-150.792908 -63.532349 -234.838226
-144.950378 -63.069920 -237.369980
-151.218140 -61.619411 -235.886078
-146.010605 -64.652092 -235.625092
-3.720046 -63.067196 -236.929153
-3.759900 -63.826843 -237.974350
-3.929315 -63.297806 -237.705750
-7.520574 -64.083267 -236.781494
-0.546323 -66.047035 -238.490936
5.270114 -63.629883 -237.996460
-8.829830 -64.997513 -238.820892
0.630520 -63.720188 -238.677032
2.615998 -64.062042 -239.331070
1.092907 -66.686981 -238.942825
4.333114 -64.160782 -239.872742
7.037918 -65.232216 -238.997543
-148.288681 -64.369545 -239.543808
-5.482811 -65.518578 -237.989609
4.868783 -63.342136 -239.567612
9.063247 -64.016808 -238.194382
-7.701233 -67.002037 -239.423874
5.738622 -62.750973 -239.962204
-147.077545 -65.599739 -240.048203
-7.680897 -63.835918 -240.984604
8.513033 -63.416645 -241.629288
7.956662 -62.136059 -239.675034
14.454031 -63.682972 -240.002762
16.160572 -65.177765 -241.521255
-7.486339 -63.602264 -242.439987
9.049747 -64.400604 -240.400696
17.110655 -64.981544 -242.798660
-146.946152 -64.710556 -240.405975
8.961698 -63.415707 -242.045944
13.689537 -65.388924 -240.622406
17.105789 -64.239105 -240.422653
-145.521683 -64.188118 -242.295227
-6.761100 -65.242264 -240.669312
-4.199987 -65.441902 -241.525391
8.359708 -62.603905 -241.498917
19.630545 -64.833649 -241.495804
13.220748 -64.080505 -244.530655
-3.553037 -63.593342 -243.749390
-146.696945 -63.011787 -241.542618
11.336732 -64.969238 -242.864395
-146.354584 -64.535782 -243.728577
-149.111343 -64.750549 -243.962021
9.671078 -64.259613 -244.552444
-3.723899 -63.893040 -241.902466
7.931316 -63.928051 -242.752502
8.136380 -63.315723 -245.463608
10.351036 -63.913330 -244.635986
-150.152557 -63.597687 -245.995728
21.025328 -63.431042 -245.130798
-150.015656 -65.868279 -246.646698
-5.807753 -65.067459 -247.254135
-5.912655 -63.879494 -246.427292
-9.527013 -64.234734 -244.358643
-150.410950 -64.722267 -247.230484
21.611214 -64.333786 -246.025024
-9.924605 -64.518456 -245.190918
20.882643 -64.316956 -246.525223
-151.592773 -63.621807 -248.797562
-8.086312 -64.488396 -248.777985
-6.476584 -63.042133 -247.483109
-147.895569 -63.165958 -247.959488
-9.241906 -65.068230 -248.164917
-7.787081 -64.357368 -248.600830
-9.214742 -63.045601 -246.420929
20.089529 -64.545700 -249.183502
-152.538300 -65.559799 -248.910202
-148.512939 -65.488976 -248.535141
-150.125122 -66.614952 -247.102463
-6.929986 -63.349640 -248.615417
19.363478 -65.851967 -248.820892
-9.300556 -63.990627 -248.036865
-150.665512 -62.223282 -249.935669
-5.634315 -64.106682 -250.357742
21.945780 -63.143356 -250.090790
-150.100266 -63.003189 -250.587067
-145.175232 -64.104027 -249.930695
-6.531484 -63.560741 -249.818878
44.591938 -65.013031 -250.109100
-3.280535 -63.058762 -251.664886
43.881512 -64.547256 -251.378021
-150.669601 -66.062630 -251.763763
-147.421951 -64.092300 -251.670181
-5.136788 -64.581085 -251.124222
-6.385167 -63.550396 -250.667999
41.292091 -64.529243 -252.012970
42.951729 -63.247299 -252.772156
44.829014 -64.682648 -249.588074
22.361626 -64.667847 -251.290192
42.270912 -62.014687 -252.193649
45.875980 -62.264664 -251.729370
-4.305415 -65.005013 -252.177917
21.815311 -64.945541 -250.009460
40.988323 -65.913925 -252.382874
40.900234 -64.576118 -253.876205
44.040375 -63.064724 -253.032700
46.160530 -63.620178 -253.155487
-151.071442 -63.908447 -252.139343
39.237488 -63.092381 -252.799408
-147.455826 -64.790329 -252.984985
41.838833 -63.630714 -253.353592
45.629066 -64.404953 -252.633133
-154.641312 -64.735687 -252.269333
-145.698502 -65.629471 -252.140320
-6.411075 -65.227516 -252.899551
39.019554 -63.005554 -252.948044
38.947662 -62.988506 -252.989151
44.781075 -63.440475 -253.530518
-2.994926 -66.662018 -252.889465
37.349903 -63.635834 -251.124542
43.379318 -64.332809 -254.686798
43.182705 -63.694344 -253.230408
-152.723694 -65.173111 -254.438339
-143.288208 -63.106674 -254.443375
-3.786812 -63.771523 -253.789917
24.457703 -64.023201 -253.863068
36.042271 -64.216400 -254.928665
39.248760 -64.770706 -256.024963
39.446648 -65.631874 -254.804459
42.307648 -64.185478 -254.496155
-153.614319 -64.342865 -254.990540
-142.857086 -64.192223 -255.473099
34.299286 -63.604050 -255.045654
36.735992 -63.228344 -253.886124
41.948174 -63.711788 -253.761551
-148.424194 -62.573551 -253.808060
-147.783859 -65.010567 -255.083908
-143.297089 -64.498253 -257.486572
-3.617874 -65.909065 -254.430878
21.045580 -66.039505 -254.846680
32.751503 -65.223305 -253.304947
35.354031 -63.486473 -255.406281
41.661461 -62.631050 -255.684143
-0.622798 -64.465881 -254.712784
30.282059 -63.694263 -256.850311
39.177498 -63.389858 -256.482788
41.811951 -63.752361 -254.874680
1.368035 -64.982285 -256.677948
32.551334 -63.520126 -255.166046
-155.268661 -65.653343 -255.849670
-3.077702 -63.299965 -255.521378
32.342529 -62.919395 -256.457764
31.805677 -63.978939 -256.020447
33.653214 -62.355389 -256.258453
37.878036 -63.792679 -254.578415
40.215889 -64.113495 -255.124512
-142.358047 -64.603004 -255.820862
29.666109 -65.494102 -256.261047
38.248184 -64.368393 -256.916229
38.697041 -64.573563 -256.825409
39.151478 -62.114883 -256.957733
-156.149933 -65.089836 -256.582977
26.248718 -66.012291 -259.288635
29.310316 -63.610306 -257.347382
28.653263 -64.213615 -255.937088
39.230198 -64.264336 -257.637207
-155.684021 -64.461205 -257.981354
-149.753418 -63.623329 -256.412476
-147.312210 -65.323273 -256.729034
-0.160203 -63.514946 -256.745361
37.676781 -63.016766 -257.193634
39.771339 -64.264351 -256.334717
-155.880707 -64.820358 -256.953278
-143.251709 -64.493240 -257.011353
-2.909242 -64.150955 -257.063843
26.075781 -64.989601 -257.347931
27.712542 -63.598846 -258.080109
27.228598 -62.146103 -257.840027
29.164192 -62.636269 -256.672241
39.444942 -66.799255 -255.738434
-149.603394 -63.743076 -259.433807
-0.329646 -61.536579 -258.516571
25.946741 -64.811790 -258.533691
37.292912 -64.144218 -257.867920
-150.287292 -64.839432 -258.570709
25.045876 -65.155800 -260.238281
37.399685 -65.131073 -258.962311
-143.370834 -63.251671 -257.239136
1.133163 -63.834610 -257.382324
36.745838 -63.041714 -258.056061
35.254223 -64.042946 -259.388794
-155.987457 -63.966198 -257.409241
-147.969635 -63.570946 -259.407715
0.692501 -65.620903 -258.091095
36.660664 -66.871277 -259.891022
35.747997 -64.021400 -258.536041
-150.056259 -64.744072 -258.895538
-147.371155 -65.418724 -259.420959
-142.048050 -64.605515 -258.648163
-0.427734 -65.137566 -260.373047
2.062145 -63.610512 -258.831512
32.781818 -62.460476 -261.261047
-155.030930 -63.282909 -258.869263
-152.917694 -64.087494 -261.036621
-150.152954 -62.930889 -257.503448
-142.150269 -64.665100 -261.426208
-147.163452 -64.399521 -260.121765
-0.008414 -64.727402 -260.657440
33.404522 -64.483696 -259.351501
-155.931595 -63.901478 -260.814911
-154.174225 -63.849270 -260.597229
-147.377823 -64.285637 -261.768738
-146.633987 -63.228767 -260.800232
-148.127487 -64.467392 -261.345215
1.303999 -63.245953 -261.594696
2.972709 -64.780563 -260.980225
33.493359 -63.011677 -261.293030
-150.239395 -63.434238 -263.054565
-143.276657 -63.840046 -262.078827
0.599904 -62.636158 -260.509430
31.977156 -62.950485 -260.500580
-153.064346 -63.347012 -260.175018
3.378488 -62.796093 -264.033386
-144.342697 -65.415390 -262.333618
1.527119 -64.936958 -261.845398
31.026617 -63.588402 -262.204956
-152.530975 -62.640720 -261.038849
-151.219696 -62.838947 -263.759247
1.389832 -63.180733 -261.088684
29.749645 -64.722198 -262.437622
-154.264862 -63.921101 -261.657166
2.673996 -63.292522 -263.433105
25.527721 -65.159515 -263.842926
27.923576 -63.971554 -263.753876
-151.970398 -63.656235 -262.316803
-145.094940 -64.400475 -262.592590
1.346233 -64.863953 -264.066528
3.242436 -64.686592 -263.088715
26.630356 -64.431297 -265.258087
28.737915 -63.539688 -263.018463
29.366863 -64.619392 -263.147400
-153.002441 -63.391979 -262.846954
-150.697922 -62.726360 -265.601654
-144.948273 -64.650818 -266.061829
-147.735489 -65.263618 -266.212799
2.790339 -65.096062 -265.928894
0.790889 -63.698910 -264.757904
-149.503830 -63.877319 -266.553497
-146.904739 -66.159081 -265.970551
-151.031708 -63.998493 -266.161682
-146.335403 -64.553841 -266.520081
-153.609940 -63.565876 -265.463593
2.754944 -63.815937 -266.494965
27.366388 -61.722080 -266.191162
-149.614548 -62.822189 -266.879333
1.191814 -63.979710 -265.481598
27.007593 -63.924217 -268.491577
-144.850693 -64.736870 -267.150665
24.895203 -64.798141 -268.576813
1.088441 -64.445503 -267.629120
-147.135742 -64.082039 -270.616302
2.468631 -64.176254 -268.983704
2.990085 -66.051109 -267.348938
-148.185562 -63.988853 -269.074371
25.626274 -67.867317 -268.664246
-152.600769 -65.921638 -268.745209
-146.934570 -65.132034 -269.112091
2.545132 -65.654457 -269.963440
-0.446390 -65.859360 -270.351105
-148.645279 -64.886230 -271.051605
3.666062 -64.016098 -268.830078
24.701963 -66.636009 -270.677063
-149.055817 -64.573692 -271.693665
24.601967 -66.485863 -271.082123
-148.012146 -64.497948 -272.495209
1.418136 -64.365326 -271.569977
2.094703 -62.946293 -272.467896
-152.518906 -64.547211 -273.713715
1.580400 -63.666889 -274.406250
-148.373001 -64.402908 -275.393188
-152.365616 -63.952473 -274.350494
23.905926 -63.894764 -273.873352
1.001562 -63.795033 -272.620636
-147.237686 -62.989265 -276.242798
2.873855 -63.669914 -274.267242
-151.411377 -64.701286 -276.855652
-147.512146 -63.637470 -274.917358
21.183962 -64.988205 -275.167175
1.274425 -63.166290 -276.960754
1.668355 -63.725304 -276.047943
23.581097 -62.359058 -277.661957
-147.871994 -63.976799 -278.419403
-152.443817 -65.529022 -275.446960
-0.274980 -64.295441 -277.444794
0.565278 -65.721573 -278.877258
-150.840271 -64.082184 -278.342224
-148.333740 -65.078186 -277.747803
22.027847 -64.331108 -279.507233
0.163733 -63.713104 -281.668182
-151.213684 -65.309158 -281.998657
-148.149994 -63.718121 -281.081848
3.476591 -62.962761 -280.129456
21.117172 -65.071228 -279.766357
20.016518 -64.501755 -282.561432
-151.381821 -65.959305 -282.162292
-147.498657 -63.789394 -282.198944
19.346764 -64.061653 -282.436615
-152.127899 -63.385494 -282.665894
-147.860794 -64.056839 -282.715363
-0.276938 -65.129990 -283.397705
18.804707 -62.861855 -282.372894
-146.961670 -65.067841 -282.864288
-1.311244 -63.549397 -284.535339
-153.050781 -65.483406 -282.665131
-147.822861 -63.670956 -283.886017
-147.410339 -64.261566 -283.836273
-145.705231 -65.343239 -283.635223
-2.746273 -64.320419 -284.545898
-154.041458 -64.986008 -283.690094
-153.193954 -64.537659 -285.551483
-151.328979 -63.658413 -283.631989
-148.297989 -63.531364 -283.026672
-142.994034 -64.132339 -284.762573
-144.756882 -64.026009 -284.915161
-154.221970 -63.613491 -284.750488
-152.378479 -65.208405 -285.518890
-149.519516 -64.476891 -284.080170
-151.979584 -64.658920 -284.026337
-147.495880 -62.473923 -287.033112
-145.111893 -66.264038 -284.147705
0.515496 -63.419930 -284.140106
16.087196 -64.606148 -285.055450
-155.538147 -65.838943 -284.488586
-153.793076 -66.843216 -285.965576
-152.685730 -65.464783 -285.084106
-153.245300 -63.374676 -284.649780
-148.298676 -64.600258 -286.276489
-147.058868 -62.644611 -286.166901
-147.089050 -62.916588 -284.031799
-145.539841 -65.403931 -285.345459
-153.150635 -63.848812 -285.617676
-148.510361 -65.346100 -283.623993
-149.850677 -63.466827 -286.107971
-148.315643 -64.914230 -285.178314
-146.610489 -65.054733 -285.601044
-145.795380 -63.690773 -284.323303
-144.559036 -63.805321 -285.664764
-0.570526 -64.027824 -285.441895
0.918936 -63.676270 -285.441315
16.545952 -64.860031 -284.632904
-156.005692 -63.220387 -286.326080
-154.267578 -63.810726 -286.763702
-154.623520 -62.872822 -285.453918
-151.876785 -62.261642 -286.233551
-147.939117 -64.962738 -286.930817
-143.981461 -64.438950 -285.006622
-144.606186 -63.517197 -284.559143
15.327196 -65.090096 -286.197937
-156.052856 -62.046791 -287.611176
-153.075226 -63.298077 -285.842651
-146.675659 -63.085190 -286.892029
-146.083710 -65.143181 -285.719116
-144.722336 -63.404297 -288.094971
-145.313919 -63.466339 -288.436340
-152.596542 -65.117783 -285.283295
-154.299423 -65.138222 -285.869904
-149.769135 -62.977654 -286.878601
-150.018814 -63.933762 -286.534851
-152.149460 -63.272839 -286.902802
-151.249283 -63.092873 -286.000549
-145.782593 -65.081573 -286.266815
-144.932541 -63.357811 -286.519958
-144.933701 -66.038254 -287.751892
-2.396208 -63.836433 -286.293701
-155.405029 -63.735107 -287.936707
-155.202728 -63.511284 -287.254425
-150.868042 -64.206329 -287.139740
-150.219360 -65.858383 -287.470337
-153.084030 -63.989418 -285.919891
-149.318893 -64.188728 -287.479034
-146.786301 -64.768478 -286.783539
-144.566208 -63.165798 -287.843475
-143.581650 -62.292778 -287.187347
-155.997711 -63.409775 -287.816650
-152.050018 -64.358704 -285.804474
-151.725601 -64.323776 -285.803253
-149.934723 -63.746231 -286.743530
-148.698364 -62.992111 -286.517792
-146.653763 -64.877487 -286.964813
14.132382 -65.874329 -289.375580
-156.465561 -62.953712 -288.734009
-155.463455 -63.102818 -286.208008
-152.764847 -64.754158 -288.564331
-151.914917 -63.474693 -286.546326
-151.297318 -64.469833 -286.667664
-148.059494 -64.978676 -286.479584
-147.603622 -61.386982 -288.484314
-143.902588 -64.984047 -287.274780
-144.385437 -62.889942 -286.834503
-154.501419 -64.512230 -290.118408
-149.319000 -63.921642 -287.908295
-146.372360 -63.097767 -286.560638
-153.908508 -62.766830 -288.326996
-1.711664 -65.406715 -288.366760
-151.032562 -63.763317 -287.899048
-153.070892 -63.964077 -288.161743
-147.688705 -65.937157 -289.567474
-145.974579 -63.946701 -287.666595
-145.026276 -64.255020 -289.941803
-141.544250 -65.948639 -287.443298
-144.226730 -62.846817 -287.480103
-155.553787 -64.899277 -289.359314
-154.216278 -64.508095 -288.658569
-153.148148 -63.140903 -288.813049
-145.277405 -64.423363 -288.963165
12.964070 -62.793865 -289.680908
-154.383942 -64.592468 -288.659485
-152.600784 -62.859062 -291.451172
-153.637787 -65.085243 -289.822876
-1.459161 -64.093582 -290.688141
-156.937790 -64.744293 -290.176025
-153.389069 -63.664532 -291.739960
-151.589981 -64.345192 -289.607635
-151.564987 -63.816494 -291.589447
-146.079529 -64.855553 -288.865387
-142.977066 -65.175674 -290.392059
-143.793335 -60.714920 -289.752930
-156.606689 -64.578522 -289.005676
-155.815094 -63.850975 -291.238800
-148.132050 -64.583015 -289.259705
-145.748947 -64.082939 -289.877075
-146.933517 -64.674080 -290.761200
-143.957565 -63.534306 -291.068542
-2.562857 -64.004875 -291.283203
13.278914 -64.539558 -289.412750
-155.891647 -63.850014 -291.075562
-156.168228 -63.961090 -291.238983
-152.623596 -62.897362 -290.343933
-151.290207 -63.364105 -292.680939
-150.950714 -63.633526 -291.777191
-147.197662 -61.961712 -290.142822
-145.731125 -64.838654 -292.545685
-144.382523 -64.775253 -289.228638
-143.420685 -63.617889 -289.280609
-0.372770 -64.938232 -290.418274
-153.868515 -64.477226 -291.394287
-154.682983 -66.141014 -293.247101
-150.533096 -63.411171 -292.129303
-149.490982 -63.294678 -292.335480
-148.513748 -63.311531 -291.268463
-146.980789 -62.601242 -290.982666
-145.026428 -62.625160 -291.054718
-144.544067 -64.166084 -291.356262
-143.645981 -65.141045 -289.733704
-0.668939 -63.960400 -293.405884
-155.168304 -63.874805 -289.914398
-154.508667 -64.329231 -292.469025
-151.901443 -64.814369 -292.493317
-151.575684 -63.571823 -292.890228
-148.261200 -61.251316 -291.664093
-147.376007 -63.061901 -290.806061
-147.137955 -64.199722 -291.472168
-146.634232 -64.282249 -292.001007
-145.490311 -64.386681 -290.258911
-146.296402 -62.251614 -291.243713
10.677972 -63.817883 -290.142853
-154.815567 -64.925987 -292.900574
-149.424744 -63.761845 -291.770233
-148.398193 -64.437416 -293.698792
-148.392853 -63.599655 -292.186859
-143.625778 -63.070587 -293.718964
8.181173 -65.537964 -292.213989
-155.764130 -63.376633 -293.133667
-151.496902 -63.374355 -293.066437
-150.299225 -61.114044 -293.559418
-146.778473 -63.648129 -292.651855
-148.838394 -63.645885 -292.724518
-147.270386 -64.087944 -291.994324
-145.145050 -63.194096 -293.550812
-143.566666 -64.572662 -293.718170
-145.861954 -64.197800 -292.766754
0.256122 -64.561546 -292.755829
2.063712 -64.096771 -293.538361
2.019031 -65.919685 -293.541077
4.089819 -64.705757 -292.892914
6.065483 -62.759243 -293.914429
-147.993561 -63.646084 -293.019257
-147.117020 -64.126442 -293.437836
-146.196442 -62.726223 -292.459381
-146.535065 -63.124863 -294.368500
-154.803009 -61.822540 -293.424255
-155.313217 -61.794952 -294.558380
-154.439148 -64.269226 -293.441620
-146.824448 -64.300224 -292.028625
-149.352463 -62.996284 -291.725403
-143.233124 -63.147388 -294.113953
-146.198151 -65.541336 -294.855042
-153.825424 -63.757023 -292.194916
-155.140381 -64.151268 -293.905487
-152.788956 -64.062950 -292.168854
-153.106903 -63.682495 -292.370026
-149.663803 -64.099396 -294.761383
-149.590866 -64.857788 -294.809875
-148.946350 -63.732231 -293.034363
-146.286697 -64.291779 -293.789825
-145.525314 -64.768288 -294.135406
-148.388199 -63.320530 -293.061493
-153.351166 -63.828865 -292.977692
-152.166183 -61.772530 -294.974915
-152.688141 -64.923798 -295.734283
-151.286636 -63.005760 -296.059082
-149.759705 -64.022453 -292.941254
-147.686340 -62.844425 -293.040436
-147.990753 -62.207611 -293.691162
-152.197556 -63.978996 -295.502350
-150.693344 -62.307980 -295.074738
-147.249390 -64.562599 -296.040741
-146.160019 -63.232536 -293.640839
-146.517883 -65.167084 -294.306061
-152.528946 -64.289200 -294.617340
-150.146439 -62.466537 -294.897461
-150.186127 -63.862080 -294.579468
35.195953 -65.925743 -12.698324
30.181475 -62.419758 -13.446650
43.834743 -62.717258 -14.285993
44.893234 -67.048424 -13.755471
45.790539 -63.815426 -16.445316
34.344585 -63.606747 -18.565207
35.123451 -62.037258 -17.126913
38.793339 -63.053616 -18.634747
47.672764 -62.953194 -18.667011
29.592636 -63.432247 -18.585142
40.874916 -63.085388 -19.438755
47.159103 -62.367260 -17.411983
30.625330 -64.130730 -19.585657
41.125111 -64.230186 -20.517809
21.789047 -62.708378 -17.693890
29.645557 -65.127884 -19.904449
47.941593 -62.409164 -19.100222
22.367559 -63.828587 -20.055454
40.599125 -64.658073 -20.301569
42.416943 -64.627655 -21.925579
47.404072 -62.938198 -20.338324
22.334217 -63.278606 -19.457041
42.751152 -62.578384 -22.882444
42.741673 -63.845734 -21.945042
50.712574 -62.374672 -21.000740
48.442364 -61.696499 -21.510187
48.455738 -66.905296 -23.061319
27.328363 -65.908348 -22.447971
42.779041 -64.191154 -24.077938
43.009052 -63.279709 -25.099016
28.410378 -62.369453 -25.682039
26.758444 -65.156113 -23.369905
49.242756 -62.045963 -24.875824
44.137455 -63.057690 -24.008499
49.962135 -65.032005 -25.185709
20.813145 -64.613228 -26.306822
44.699368 -62.484333 -26.642868
51.195190 -63.050282 -25.652803
50.678326 -64.923271 -29.282753
45.730114 -63.448906 -28.683685
49.094788 -63.634827 -26.335415
26.421669 -62.564785 -29.397480
44.917648 -65.433418 -30.844786
21.962624 -64.063652 -30.016830
44.403698 -64.226563 -29.042652
28.234207 -63.187130 -29.429655
49.154610 -63.303238 -31.015228
21.411753 -65.865150 -33.033867
50.034969 -65.015228 -33.858509
23.030140 -65.517365 -33.225170
27.199827 -64.649811 -32.215973
42.056400 -63.303024 -33.547974
28.671560 -62.958080 -31.447762
41.341156 -61.547394 -33.399864
49.135254 -65.169106 -33.379852
28.820150 -64.337860 -35.300434
29.666101 -61.199883 -35.161865
21.859707 -64.089195 -35.023014
23.194559 -65.496063 -35.544312
38.243553 -65.500046 -36.917187
37.466850 -64.414795 -37.481880
24.095692 -64.697830 -37.742069
32.445679 -65.054062 -37.478954
46.692825 -63.832455 -36.822514
45.770977 -62.295033 -36.069885
23.457438 -67.863274 -37.681854
33.092110 -64.257919 -37.683811
37.358967 -64.845459 -38.467472
24.537516 -61.643345 -36.983562
33.185989 -63.359577 -37.379417
36.697426 -63.067993 -37.563858
27.278065 -64.138710 -38.643005
32.261047 -63.234608 -39.429562
40.858459 -66.082069 -40.474289
29.507977 -62.389427 -41.010319
34.023617 -67.338936 -38.898903
38.974754 -63.875114 -40.034256
32.847332 -65.577484 -40.654430
35.472221 -64.700897 -41.503185
-56.645164 -63.609184 -40.985233
-61.049507 -62.835129 -43.834278
-53.059696 -63.523499 -43.165298
-52.271000 -63.752136 -43.764137
-70.754341 -64.415169 -44.095993
-68.965569 -62.016903 -45.319389
-67.508888 -63.787998 -41.752506
-48.535908 -61.597836 -45.523026
-73.717957 -64.072479 -45.672375
-47.828632 -61.701607 -44.473888
-74.507133 -62.523014 -46.327179
-77.737961 -62.734989 -44.730030
-44.424156 -64.879501 -46.715744
-42.432716 -62.489231 -46.727871
-38.088291 -62.848064 -46.106495
-36.647476 -61.591862 -47.020374
-35.184654 -63.252106 -47.474846
-80.786903 -64.304070 -48.977615
-32.756985 -61.223362 -47.848408
-83.038521 -63.477619 -49.833969
-28.533258 -62.591843 -47.774349
-82.725403 -62.683163 -50.144707
-84.361046 -63.447285 -52.803596
-24.966825 -63.342575 -49.975643
-88.513535 -63.129120 -50.996048
-87.639954 -62.322918 -52.612053
-19.099590 -63.142986 -51.561031
-86.104195 -62.767948 -51.907352
-88.193947 -61.913067 -49.746124
-16.178144 -63.873722 -55.098713
-88.813721 -63.141998 -55.212162
-13.681058 -61.516777 -54.599861
-14.147009 -66.362793 -56.712727
-12.878618 -63.391903 -55.559303
-11.229046 -61.633327 -56.736256
-12.370897 -62.070061 -58.225487
-90.925766 -61.808361 -59.497757
-11.070763 -64.040291 -59.423782
-93.009964 -61.161751 -59.508644
76.871719 -65.126404 -62.567303
-92.443939 -61.798962 -60.126316
-9.924997 -64.440666 -59.594334
76.557007 -65.087151 -61.927711
82.446785 -63.117817 -61.400131
-10.456991 -65.616425 -60.415184
83.687187 -62.562218 -60.802521
74.580544 -61.707527 -61.615887
88.378555 -65.364571 -61.455814
88.809181 -65.416603 -60.138458
91.464264 -62.676826 -59.316727
-10.381294 -63.732571 -60.733997
83.814507 -62.819931 -61.301861
85.682304 -61.988777 -61.576077
89.904419 -62.879593 -62.022999
72.699089 -62.347713 -60.564747
73.153412 -65.530685 -60.748219
75.090050 -64.429634 -61.451382
93.946754 -63.327133 -63.030502
94.735138 -65.264389 -63.170219
-9.854391 -63.272610 -62.621880
71.198189 -63.546906 -63.727871
-9.823784 -65.217003 -62.968800
-96.266953 -62.882172 -61.530457
71.737679 -62.994926 -64.370865
-96.245590 -65.290031 -66.446129
-9.641773 -64.931061 -66.106087
96.648941 -63.325447 -64.548813
97.372910 -62.027164 -65.383163
-11.875412 -63.313213 -65.018456
70.946556 -62.234951 -64.517273
-94.894966 -64.825958 -63.532848
69.417976 -63.431549 -64.165413
98.088371 -64.464310 -65.169724
-94.930191 -61.704811 -64.074150
-14.153115 -63.377968 -65.482399
69.347862 -62.965546 -65.594048
69.003922 -63.944923 -65.982536
-14.120038 -62.338486 -65.687820
-97.234764 -60.293682 -66.315224
-20.675045 -63.594730 -67.017693
-18.728527 -60.944462 -66.798645
100.249374 -64.111259 -66.399818
-22.401003 -62.039181 -67.398781
-23.591156 -62.039074 -68.350929
-23.872980 -62.728409 -65.871773
67.230553 -65.613350 -65.704887
-96.693810 -64.154320 -67.119011
-22.835978 -63.308681 -68.082466
-97.364883 -64.255806 -67.357483
67.932594 -62.540325 -66.795494
100.937294 -62.636051 -67.174713
-26.002132 -62.206806 -69.056030
-24.694338 -63.095783 -67.034851
100.532631 -63.718174 -68.080048
-25.681940 -62.131710 -69.547325
65.490089 -62.412045 -67.031433
100.809639 -63.106365 -67.734818
-96.637398 -64.124275 -67.522545
-28.007690 -60.165199 -69.288086
66.742805 -63.528446 -66.782906
67.179314 -63.654243 -69.893654
66.863075 -64.669144 -71.302483
-27.298916 -64.338402 -69.420212
101.810547 -63.414856 -70.990662
-97.465759 -63.592587 -70.282684
-28.636108 -61.592598 -69.477661
101.388443 -64.941841 -72.030373
65.698120 -64.148994 -70.852592
-29.741365 -63.651474 -71.906830
-98.617104 -63.433777 -73.519867
102.876801 -62.355259 -72.900909
64.271851 -63.430435 -74.250679
103.435440 -63.591320 -71.936836
-97.474167 -64.357323 -74.409866
-98.003670 -63.567390 -73.148026
-97.909195 -62.610931 -74.422585
65.130455 -62.988697 -74.353165
103.965057 -62.944298 -74.618912
-98.070030 -65.422424 -76.668030
-32.481083 -61.612907 -72.988480
65.731766 -65.423065 -74.244637
-31.297331 -64.223274 -74.878708
66.090744 -63.872723 -75.527573
104.440208 -62.104412 -74.242043
-97.879868 -62.079407 -76.012436
64.488350 -63.104355 -77.940460
-96.270973 -63.268551 -78.108627
-97.332176 -62.895737 -76.917290
64.899055 -63.994698 -76.966400
103.248268 -65.674774 -79.166214
-97.280663 -64.506119 -78.943428
-32.143677 -63.735817 -77.561035
-96.936401 -64.519646 -78.474449
-40.793293 -63.439022 -77.878716
-38.179184 -64.623688 -80.671066
-36.628078 -62.098961 -78.203026
-34.702271 -62.977154 -80.161491
-37.113274 -63.780216 -81.403114
-99.437012 -61.725075 -78.708183
-42.899719 -62.605038 -78.985825
-40.567543 -64.579201 -78.430580
103.992249 -64.797890 -80.385704
-43.798359 -63.500820 -80.034851
64.367393 -64.511909 -79.171585
-52.493759 -63.166851 -79.321625
-44.277359 -62.961807 -81.032532
63.495346 -63.341278 -80.624931
65.143494 -63.188194 -82.219086
-56.367432 -63.448738 -80.818321
-53.539181 -64.256577 -80.870461
-45.392246 -64.103493 -80.258644
-59.487259 -63.087204 -81.118507
-54.527840 -62.206726 -80.235367
-55.594803 -64.008598 -81.187508
-53.915630 -64.181023 -81.840553
-49.830318 -63.518017 -83.132118
61.182793 -63.184101 -81.777214
104.250824 -61.994598 -81.560440
61.633823 -63.168625 -82.397804
-98.208557 -62.525970 -82.411850
-58.845596 -62.093658 -81.664200
-59.271469 -63.897182 -81.825020
-56.710312 -63.494442 -83.695396
64.056465 -64.661102 -83.044426
63.703876 -63.206112 -82.897804
-97.842331 -64.723892 -84.712524
-59.734619 -62.869984 -83.196388
-56.009338 -63.247887 -82.794250
-52.691021 -62.486916 -83.094536
105.464020 -62.584568 -81.761551
-55.332329 -65.043137 -81.490181
104.577133 -62.518581 -83.674698
-56.684582 -62.652351 -83.746429
59.789700 -63.382072 -83.530983
-57.894196 -62.586926 -82.677528
58.215454 -60.975979 -83.630066
103.366898 -63.236721 -85.072426
-100.612984 -62.916069 -84.118362
-61.975800 -62.467472 -84.337944
-59.319065 -63.450729 -84.635941
61.805141 -62.101212 -83.374619
64.462700 -63.183956 -86.518280
-100.029266 -62.531334 -85.030640
59.369671 -63.922722 -83.926674
60.340313 -62.242294 -85.125839
62.557777 -64.511284 -84.221581
-61.773361 -61.264435 -85.585655
-57.986877 -64.309128 -86.365059
57.115993 -64.857338 -85.251236
59.166836 -64.811340 -85.555664
103.650177 -62.199802 -84.417351
-98.866066 -62.150764 -87.868095
53.859383 -63.800816 -87.544449
56.696045 -63.000893 -87.666130
-98.927643 -64.388016 -85.258995
-61.513729 -63.656780 -86.236748
64.878235 -62.991940 -88.319740
64.455482 -63.655079 -88.414238
-61.052116 -62.456982 -87.534325
-62.024651 -63.352264 -86.370041
53.497509 -63.669460 -88.406815
51.873425 -64.174057 -88.782242
56.862854 -62.710472 -88.512299
-98.483170 -64.647575 -90.649918
-64.007683 -63.583218 -87.455269
57.322777 -62.255619 -88.190331
57.254276 -63.409706 -89.556831
66.800705 -62.544033 -88.335693
-62.003269 -65.987938 -89.716454
51.547134 -64.669136 -88.953003
53.325970 -61.216862 -89.751419
-63.733616 -62.320915 -89.701668
55.504009 -64.127235 -88.414101
-99.136971 -64.045891 -88.043526
-64.778687 -62.721718 -91.033142
52.086979 -63.852829 -90.560806
56.796200 -63.604755 -90.684952
-64.276016 -62.682644 -89.394386
51.421490 -63.678402 -90.403786
63.429268 -62.788551 -90.594139
-64.279953 -63.144337 -90.927490
54.659630 -62.912544 -92.888847
-66.258850 -63.199532 -92.042511
52.599041 -64.263100 -92.174370
66.025513 -62.847328 -91.631409
67.153336 -64.338814 -92.160149
52.566704 -63.669323 -93.747330
61.086433 -64.628502 -91.657166
62.650780 -62.450970 -93.646927
-65.408676 -63.622028 -91.360413
-65.686691 -62.692425 -91.157219
54.237591 -63.983650 -93.005157
65.666916 -62.654446 -91.640999
53.986153 -63.413330 -93.902687
55.250793 -63.065136 -95.448196
55.408726 -64.045227 -92.991035
60.746708 -61.796612 -93.667175
56.823181 -63.985462 -92.435600
-69.039948 -62.632809 -93.302521
50.579865 -63.835922 -94.381279
54.761223 -63.938793 -93.837059
55.484081 -64.190422 -92.414894
-65.984688 -63.078281 -93.982178
-65.005745 -65.272034 -93.651009
65.906258 -65.485664 -93.707161
-65.342598 -64.876213 -94.192421
-67.389297 -63.747765 -95.626900
-65.571075 -63.088528 -92.967583
50.989174 -62.849148 -93.931801
-98.647133 -64.412933 -95.718552
-65.682823 -60.939026 -94.565651
51.956440 -63.349365 -94.939484
105.179733 -64.622154 -93.529358
-65.059120 -63.718792 -95.331100
59.171906 -62.220776 -94.427071
58.059689 -63.986961 -97.860519
66.847702 -62.851501 -97.123398
-65.276283 -62.421059 -96.203285
54.035908 -62.468655 -95.362244
56.469261 -63.217045 -96.117455
102.592888 -61.799156 -96.871552
52.455410 -61.614006 -94.456192
54.220387 -63.828976 -95.211235
-98.120827 -64.591293 -96.386772
49.548943 -62.804596 -96.822662
54.534847 -63.521652 -96.736160
54.016903 -62.400936 -97.199387
65.843475 -62.609985 -96.931404
-67.726143 -62.164749 -97.344223
51.009056 -64.757088 -96.168892
52.000027 -65.273422 -98.282730
57.557335 -62.154877 -97.493172
100.206718 -63.247292 -97.387329
52.104893 -63.541885 -97.948380
67.347984 -63.973698 -97.253304
66.885445 -62.175251 -96.453285
-100.026535 -63.699211 -98.842209
103.983009 -63.265930 -97.660347
-68.226700 -62.373680 -97.283562
102.129379 -63.938236 -99.483368
-65.758446 -63.582649 -97.016678
67.718292 -62.533707 -99.741776
-66.920326 -64.167046 -100.540962
-66.748726 -63.500668 -100.663918
102.212738 -62.756535 -101.158073
69.001480 -63.467968 -100.302528
-65.970779 -63.195591 -101.134003
-66.950050 -63.247688 -101.495743
69.181549 -62.939960 -102.919273
100.797340 -61.570862 -103.301483
-100.194565 -62.749310 -103.206345
69.492294 -63.562336 -103.390961
99.655258 -64.593964 -104.127258
-99.911453 -64.268997 -103.102089
-75.978828 -64.567444 -104.656563
-69.126778 -63.421562 -103.017593
-70.473434 -64.527634 -105.255219
-76.994537 -63.059666 -102.766838
70.233200 -64.378319 -102.911987
-97.929741 -65.103233 -104.707123
-78.216682 -63.916058 -104.436691
-75.315933 -62.011948 -103.070221
101.454239 -64.436981 -102.673485
-100.068665 -64.267487 -105.061188
-78.252937 -63.837242 -102.896881
-75.328865 -62.634102 -102.814560
-69.157310 -63.071442 -103.101776
-100.235161 -61.959820 -103.591728
-71.034630 -63.114735 -105.828140
71.119843 -63.682541 -104.084984
98.788307 -64.820374 -105.028091
-82.151947 -63.456783 -105.515358
72.292336 -61.688091 -105.105850
-98.116180 -64.106262 -106.836708
-79.153236 -64.056290 -105.910934
-76.210159 -63.175560 -105.989151
-71.157013 -61.712677 -106.447105
97.585739 -65.340935 -104.479874
-74.983894 -61.354507 -105.353264
-76.405418 -64.403595 -105.198059
-72.568619 -63.390930 -105.386230
-79.804230 -62.850143 -108.276527
-77.482010 -63.221680 -106.424934
-72.074364 -64.185219 -106.169891
85.215698 -65.225563 -105.482117
-79.808823 -63.188992 -108.336548
-74.148155 -62.432922 -107.713982
-72.486145 -64.789505 -106.207916
74.278931 -63.644730 -108.150337
83.021416 -61.583900 -106.433266
83.783089 -64.080368 -107.310783
94.321091 -62.271740 -106.759972
96.183716 -62.585094 -108.074883
-84.019691 -63.886845 -107.943474
-82.716232 -63.781418 -107.556236
-73.974792 -63.629482 -105.772148
-71.564690 -63.741638 -107.585312
82.591522 -65.620369 -107.816826
85.003799 -64.955147 -107.929611
93.813812 -61.531456 -108.030441
95.874382 -61.562141 -107.862961
-74.255020 -62.842422 -107.130791
-74.628387 -61.966351 -108.238533
82.047836 -61.679859 -107.192741
-77.552628 -61.783089 -109.479813
-75.002380 -63.248753 -107.718590
-74.427406 -63.064999 -108.142342
-73.084641 -63.138954 -109.066292
73.370384 -63.624699 -107.880409
