# This PCD file was generated using the MATLAB® pcwrite function
# from Computer Vision Toolbox®.
# .PCD v.7 - Point Cloud Data file format
VERSION .7
FIELDS x y z
SIZE 4 4 4
TYPE F F F
COUNT 1 1 1
WIDTH 1443
HEIGHT 1
VIEWPOINT 0 0 0 1 0 0 0
POINTS 1443
DATA ascii
105.199989 -59.656193 -94.260246
-69.392502 -59.928841 -95.607742
64.966858 -61.253445 -97.126541
-99.372963 -59.378887 -95.854584
-67.922485 -59.636780 -95.926277
-68.940331 -59.905258 -96.718369
-69.424873 -59.275181 -96.975037
-67.439430 -59.629158 -97.595573
105.048157 -59.524601 -95.784859
-70.122185 -59.809643 -96.466255
-68.404724 -59.980881 -97.298744
-67.707397 -60.521206 -96.993759
65.244690 -58.979935 -97.481750
66.322250 -58.283772 -97.040604
-69.989761 -59.112747 -98.790207
-99.905586 -59.520695 -99.792732
66.665367 -59.131775 -98.689064
65.617271 -59.913078 -98.974159
-72.698402 -59.993080 -101.000305
104.065475 -59.554893 -99.408920
-99.461601 -59.802654 -100.843681
-72.492249 -59.750774 -100.410965
103.134758 -59.772778 -99.610115
-72.648071 -60.293594 -102.226112
67.933395 -59.350513 -101.757347
102.627525 -59.431465 -102.251968
-99.813187 -60.451874 -102.651321
68.073776 -59.625755 -100.777390
101.577843 -60.920757 -102.107239
101.112213 -61.596497 -102.853798
-99.602730 -59.777821 -102.428734
70.780579 -61.296249 -103.993988
100.997002 -61.965939 -104.477112
60.022228 -57.410892 -103.533127
57.201733 -58.646030 -103.691254
-98.284775 -59.999977 -103.617805
57.943832 -60.430946 -104.283722
58.477158 -57.879025 -104.479347
99.829453 -59.438992 -104.760025
-74.012863 -58.856812 -105.829971
-65.210342 -60.082897 -105.069946
-64.491791 -60.313511 -104.930923
-63.447964 -60.184719 -104.811157
56.203545 -59.066742 -105.197304
55.763866 -59.250813 -104.480614
58.044933 -59.167927 -107.119934
73.222893 -61.014198 -104.614761
72.850250 -59.852852 -105.475037
78.274933 -58.551739 -105.777451
99.917114 -59.729130 -106.486031
-66.129608 -59.573212 -105.240753
-63.184757 -59.950390 -104.710434
-62.932995 -59.615509 -106.137848
58.211361 -58.394062 -105.460884
-75.658714 -59.935341 -105.486496
-67.660248 -60.924606 -105.262619
53.369343 -59.639698 -105.499542
-75.194344 -59.622940 -106.743538
-67.913612 -59.778622 -105.382782
53.667233 -59.263718 -106.140297
55.979996 -58.836723 -106.716698
74.991669 -59.351223 -105.949104
79.125008 -59.194721 -105.775291
80.690979 -59.261852 -106.943443
80.310219 -58.801991 -105.564346
-64.004173 -59.415802 -107.761948
55.606823 -59.924862 -106.165138
74.002548 -60.575237 -107.528763
77.348915 -60.073338 -106.018959
76.316734 -58.610832 -107.069778
79.169029 -60.183613 -106.707207
78.952827 -59.535950 -106.207481
78.959885 -58.881088 -106.425499
96.063011 -61.114681 -106.823654
-76.866562 -58.751152 -106.843117
-67.459213 -59.859867 -105.941635
-68.013718 -58.386189 -105.578796
52.039940 -58.956486 -106.570786
80.844849 -59.475685 -106.854851
82.435837 -58.329571 -107.584709
-69.050156 -59.774170 -107.393852
-65.565445 -58.187126 -108.371773
-65.691994 -58.168835 -106.970116
-61.864574 -59.218746 -107.170944
50.631702 -58.993351 -106.376945
53.525486 -58.721172 -106.599480
53.776829 -59.358509 -106.565842
54.129063 -57.896629 -106.048264
81.790604 -60.084934 -107.226097
96.488937 -60.689796 -107.313751
-98.556740 -59.759747 -107.960266
-71.140633 -59.600159 -107.381493
-70.725296 -58.802467 -108.464973
-68.311554 -57.723900 -107.584656
-61.418854 -60.576656 -108.101074
52.087803 -59.033443 -107.398903
52.889252 -58.369564 -108.175583
54.908974 -60.292118 -107.270149
84.412468 -60.263977 -107.472069
95.745575 -59.943054 -107.757507
95.624474 -59.687351 -109.564819
-76.400246 -59.644176 -107.791107
-70.669777 -58.893227 -108.109161
-68.107430 -58.008522 -108.531563
-66.184753 -59.367661 -109.514206
-65.197411 -58.364178 -108.452019
-64.154938 -58.156166 -108.152756
51.209267 -59.102222 -107.655701
-71.766899 -59.602924 -107.772087
-69.959251 -59.427551 -108.172798
49.975334 -59.551975 -106.753899
51.027271 -59.426735 -107.193092
52.145077 -58.111626 -109.119453
84.716415 -59.469528 -109.508392
-98.576431 -58.831806 -108.597221
-64.610237 -58.973785 -108.259758
-60.934818 -60.212521 -110.010216
50.827408 -58.339046 -108.347305
88.219345 -59.055389 -110.081650
90.355934 -59.462421 -108.471214
92.954872 -59.465267 -109.256737
94.467308 -58.958553 -107.525398
93.889297 -60.133419 -108.256638
-76.862801 -58.332783 -108.366653
-71.722511 -59.435452 -108.648300
-67.682755 -58.938496 -110.214691
-67.972015 -59.443508 -109.888802
-64.617470 -60.289101 -110.272453
49.615562 -59.639786 -108.736801
50.778240 -59.247177 -109.769928
-98.854828 -59.433899 -108.469589
-78.567383 -60.229088 -109.248352
-70.399429 -58.831474 -108.303932
-61.768188 -59.437611 -108.245567
47.942249 -58.463360 -109.067375
47.904602 -58.432182 -110.090912
-66.967842 -60.148029 -109.678429
-64.066933 -59.424110 -109.340546
48.605640 -59.761887 -110.314049
49.874786 -60.178921 -111.345512
51.709930 -59.653206 -109.540512
-77.812599 -58.852539 -110.530891
-72.471375 -59.490929 -109.490051
-62.666752 -59.910069 -110.283295
48.387840 -59.795296 -110.777573
-80.812164 -60.307297 -110.042763
-59.199749 -60.143848 -111.496941
47.431992 -59.601910 -110.604637
50.030849 -59.189049 -110.592567
51.710617 -59.237816 -110.371796
-78.666267 -58.068993 -111.496559
-67.825546 -60.167889 -111.337372
50.522797 -59.813545 -111.013741
-79.662392 -59.959480 -111.660065
-72.327599 -59.680977 -111.812210
-69.067917 -59.849556 -111.623863
-59.902134 -59.142460 -111.466232
45.938911 -58.172077 -112.241608
48.026058 -59.892570 -109.866943
46.149193 -59.523514 -112.524712
-79.055038 -58.795261 -111.974510
-59.519096 -59.533497 -112.951614
45.599476 -58.615189 -111.507767
49.299236 -60.230652 -111.343773
-79.931206 -58.739048 -111.600845
-69.455925 -59.135918 -112.405502
45.954857 -60.323959 -113.373566
-81.334450 -59.379787 -112.271591
-69.428589 -59.667500 -111.974564
-60.616035 -59.829205 -112.738487
-58.758114 -59.631935 -112.956360
44.525612 -59.152122 -112.996544
50.220154 -59.201969 -112.011414
-83.629303 -60.331978 -112.526657
-80.112206 -60.076004 -113.330322
-81.882172 -58.581215 -113.319519
-71.203300 -60.195240 -113.961227
-61.274506 -58.795715 -113.141014
49.355816 -58.727764 -113.150993
-81.205566 -60.820816 -112.893204
-58.418747 -60.411545 -113.713318
-57.939648 -59.354183 -113.982643
-76.826691 -58.617748 -113.890709
-68.591347 -60.496117 -114.733414
-60.968464 -58.509365 -114.229851
42.932716 -59.251465 -114.234306
-70.967972 -58.137672 -115.719658
-71.316422 -58.734547 -115.098824
-57.828209 -59.511135 -114.582825
43.043053 -59.726608 -114.036774
47.124519 -58.483639 -115.277748
48.718639 -58.042637 -114.408813
-97.965279 -60.175190 -115.037865
41.489056 -58.385124 -114.547035
-76.740967 -60.519119 -114.945496
-60.048294 -58.870415 -115.235733
-57.271179 -59.942764 -114.486267
-78.879112 -58.765053 -115.837067
40.813030 -59.546452 -115.703926
46.448658 -60.258488 -115.350761
-85.398628 -59.703148 -115.831512
-85.020264 -59.630520 -115.119133
-71.559654 -60.715031 -116.454414
-58.326378 -59.421543 -116.524925
47.408360 -58.579468 -116.185608
-86.168205 -61.068352 -116.627563
-83.830917 -58.853176 -118.494781
-77.640213 -59.929996 -117.588684
-66.545738 -60.289227 -115.788681
-69.437935 -60.380833 -115.785248
41.284882 -60.609653 -116.930504
46.552219 -60.321419 -116.376320
44.714352 -59.546841 -116.480057
-68.573456 -59.667702 -117.201767
-79.637398 -59.834816 -117.715408
-78.143913 -60.828846 -116.984680
40.987984 -59.548798 -114.751167
-83.078613 -58.356277 -118.786743
-58.146633 -59.451439 -117.283173
45.700401 -59.026108 -117.872070
-83.421944 -59.472942 -117.954689
-78.152664 -61.165558 -116.914063
-56.109268 -58.802380 -117.942291
40.141766 -59.291008 -118.653580
-82.156700 -58.598816 -119.264008
-78.845116 -59.608269 -119.318466
-69.973366 -59.233505 -117.146591
-69.964020 -60.239799 -119.355301
44.916492 -60.297802 -117.430992
-88.023659 -59.529633 -118.861183
-81.986938 -58.315380 -118.512527
-83.582680 -59.148247 -119.572403
-87.919144 -59.730572 -119.064575
-84.159081 -60.720177 -119.933754
-83.019897 -59.198303 -119.816765
-78.884468 -59.492859 -119.170715
-66.648567 -60.363602 -119.033035
-58.588730 -58.453018 -119.681839
39.593849 -58.362556 -118.484627
-88.354561 -59.630840 -119.372948
-81.200378 -58.168003 -120.471527
-79.027855 -60.695927 -119.771011
-81.358490 -58.608829 -119.226051
43.625580 -60.997192 -120.084419
-80.016632 -59.265980 -120.112007
-79.667686 -60.408108 -120.677185
37.588413 -59.513195 -118.713524
43.099586 -60.404636 -120.866066
-89.087234 -59.241276 -121.846771
-80.625557 -59.418427 -120.431213
-69.848228 -59.668724 -118.419403
-55.315201 -60.098095 -119.297501
-96.278259 -60.666283 -121.618149
-67.547569 -60.966156 -120.055588
36.347912 -59.670940 -121.934143
-89.731125 -59.247982 -120.397163
-68.375229 -60.065605 -121.306602
-66.327934 -59.084511 -122.660866
-58.086414 -59.603466 -123.416695
-56.308750 -59.126938 -120.945679
-95.199585 -60.085815 -121.996307
-89.584923 -59.997459 -121.931015
42.979633 -59.971939 -120.655067
-90.859406 -58.721767 -122.807610
-65.255981 -57.943527 -122.274178
35.360241 -60.338272 -123.620567
-95.977524 -60.798988 -121.537407
-91.490921 -58.922062 -122.057716
-56.805923 -60.687622 -122.348618
34.363735 -58.761921 -121.226425
42.904892 -59.531708 -122.181290
-93.573624 -59.405113 -122.847809
-92.690720 -58.618561 -123.468109
-68.842422 -59.696575 -122.073135
-67.683830 -58.488029 -122.877068
34.731476 -60.326725 -123.447624
-65.870537 -59.163349 -124.159752
-57.390221 -60.304882 -122.824394
-53.738213 -59.782028 -123.036583
41.874439 -60.683731 -122.308540
33.816628 -59.671547 -123.402016
41.544884 -60.312260 -124.794189
-62.909115 -59.451500 -124.026863
-67.609100 -59.864738 -125.121475
-56.029976 -58.906921 -122.987457
33.448444 -59.894455 -124.317764
39.846775 -60.053337 -124.886818
-66.141449 -58.852486 -125.220062
-62.754059 -60.902287 -124.104881
-56.583736 -58.309719 -124.028061
31.345882 -59.569874 -125.678398
-56.970596 -58.587860 -126.612694
31.305447 -60.809647 -126.637787
39.018215 -60.015121 -126.811455
-65.387474 -58.831097 -125.336372
-65.400887 -58.330971 -126.902977
-54.060158 -60.229435 -125.930016
32.504841 -59.331371 -127.119499
-64.014137 -59.635983 -126.868011
30.946426 -59.892071 -127.718880
38.688507 -59.851563 -127.242081
36.937187 -59.746201 -126.699219
-52.536144 -59.991726 -128.461594
29.868172 -59.545189 -127.450790
-61.573120 -58.275192 -127.699005
-57.417698 -58.992405 -128.758331
-58.042473 -58.642906 -127.441795
30.579697 -59.550053 -128.012100
37.841133 -60.191051 -127.034752
37.086098 -60.428005 -128.628769
-56.103493 -57.911667 -128.208740
-53.362900 -59.254421 -128.922943
29.311186 -59.038589 -129.346176
-64.110985 -59.937717 -128.808395
-60.679646 -59.441589 -129.203918
-60.561275 -58.892567 -128.741730
-57.992199 -58.979481 -130.084702
-57.186874 -59.602093 -129.919632
37.014820 -59.181786 -130.105270
35.476032 -59.189690 -128.563583
-59.983021 -58.964302 -128.753204
28.466331 -59.354351 -128.919098
-63.328987 -58.450775 -128.949142
-58.885632 -59.284687 -130.091003
-54.948097 -58.358238 -129.669266
-54.227016 -59.642620 -130.995987
28.727581 -59.782116 -130.232651
-63.908619 -60.556416 -129.587082
-60.290157 -59.652325 -130.042023
-59.130764 -59.766243 -130.401077
-58.133495 -59.798622 -130.932098
28.268621 -60.069241 -130.070587
35.862999 -58.877514 -130.152832
34.672184 -59.176907 -130.846161
-54.204575 -61.452198 -130.609741
-55.142288 -57.909344 -130.511124
-62.622673 -59.118664 -131.496475
27.305830 -59.157108 -132.209167
-62.706276 -59.891750 -131.956024
-53.536213 -61.137268 -132.331512
34.937534 -59.667908 -131.619476
33.520115 -59.698696 -131.786545
-61.231331 -59.308018 -133.331833
27.408897 -57.675503 -132.600266
-54.465870 -60.274872 -131.887527
-59.561993 -57.660004 -132.518539
-57.021610 -59.737598 -132.105957
-55.151501 -59.723228 -133.194992
27.775633 -59.797016 -133.872620
32.716621 -60.494514 -131.563797
34.696705 -60.167778 -134.373566
-60.019993 -58.651901 -134.110550
-59.331413 -59.505322 -133.326248
-54.726891 -60.095276 -132.545837
-56.450832 -57.934120 -133.534317
26.927519 -60.192402 -133.096786
33.381329 -58.953228 -133.321045
-58.339279 -59.570293 -133.927582
-56.769863 -60.412262 -132.453110
32.657085 -60.542435 -135.102432
32.189007 -59.361336 -135.139526
-57.702759 -58.665398 -135.404449
25.565283 -60.055233 -134.761124
31.657045 -59.141567 -134.116425
25.985325 -59.202671 -135.146500
28.103666 -56.832703 -134.222473
25.678627 -59.100456 -135.346390
29.870934 -58.463840 -135.331100
32.249596 -58.005299 -135.077133
31.744358 -58.853584 -136.267380
26.260344 -59.023582 -135.419617
28.476114 -59.186928 -136.816315
28.656282 -59.061394 -135.573181
26.978117 -58.559685 -135.932114
31.124393 -59.807770 -136.652283
27.565115 -59.995720 -137.173233
28.605873 -59.744869 -137.137024
25.721359 -59.012390 -137.247467
29.028032 -60.010300 -137.102020
25.046106 -59.905460 -138.028549
27.279125 -58.937695 -137.585754
26.754038 -61.054134 -138.530258
-1.352406 -61.115498 -236.130356
1.137194 -60.269119 -235.907166
-0.811673 -58.826645 -238.555420
-2.038214 -59.545189 -238.262009
6.215274 -57.067944 -238.257294
1.801406 -58.973793 -239.459808
5.555159 -58.446037 -239.963135
-1.811334 -60.998302 -240.372101
4.150452 -59.431423 -240.078384
4.748330 -59.391766 -240.449661
15.311004 -57.981232 -242.227539
-0.093179 -58.142471 -242.590561
18.448751 -60.588947 -241.587692
-2.493116 -59.760971 -241.212067
5.170246 -59.179493 -242.702164
14.181181 -59.070557 -242.022491
21.326193 -61.294937 -242.691925
22.176493 -58.702583 -242.050049
1.919698 -59.455231 -242.605560
10.853490 -58.811298 -243.747971
11.005236 -59.352623 -243.646103
4.133739 -59.678524 -242.512253
0.962373 -59.276363 -242.246429
8.343712 -58.620014 -243.644867
9.738564 -57.316429 -244.153809
12.421914 -57.324265 -242.760574
13.219213 -59.982033 -244.218124
21.267626 -60.538349 -243.750046
1.761668 -58.085674 -244.364395
1.260559 -57.594540 -243.378311
8.800935 -60.094944 -244.690292
2.910148 -59.276215 -242.870041
-0.910293 -59.944824 -244.687927
1.836542 -58.630562 -244.529984
3.119549 -60.036999 -245.306686
7.682210 -61.076881 -244.862274
7.227603 -58.435928 -243.722092
12.622051 -57.598373 -245.044708
2.190153 -58.343483 -245.032516
5.103221 -60.098457 -244.168228
6.453018 -60.022266 -244.331619
1.367571 -59.396515 -245.556335
22.169966 -59.303211 -244.086319
-0.665265 -59.780701 -245.165588
-2.017901 -59.092937 -247.364700
21.710918 -60.302097 -247.429001
0.682968 -58.380302 -248.441528
-0.063746 -58.660946 -249.092422
0.185908 -59.351624 -248.722626
-0.023891 -59.216099 -248.866257
19.841763 -60.006859 -249.788803
2.192325 -58.522648 -250.001419
3.860666 -57.665379 -250.595673
21.351963 -59.004955 -250.372864
3.987196 -58.890568 -250.856506
21.544674 -60.114494 -252.170593
3.896578 -60.265701 -252.787582
22.237307 -60.733593 -252.974243
5.223804 -59.337326 -252.547882
3.659571 -59.127064 -253.995026
23.207132 -59.395889 -253.594147
22.675032 -58.735649 -253.483154
23.696856 -60.672707 -254.030655
6.601943 -58.470032 -253.971054
5.749825 -59.912331 -255.092422
5.856370 -59.596390 -255.097733
6.242306 -59.470245 -256.526001
24.276108 -59.794815 -256.066284
7.291257 -59.348213 -257.581635
24.913958 -59.778923 -257.058594
7.230599 -58.619762 -256.718658
25.718914 -59.358833 -256.372192
8.653470 -58.862122 -258.521393
7.399404 -59.081562 -259.224426
27.140009 -59.426121 -258.782166
9.009983 -59.780910 -259.416626
27.144653 -60.243855 -260.453613
10.158320 -58.062073 -261.238831
9.187831 -59.484062 -261.800690
26.230362 -59.497925 -260.267883
26.699759 -60.045742 -261.399078
9.238088 -60.228977 -261.447266
10.446789 -56.444729 -264.164856
7.869617 -60.021137 -263.070709
25.724390 -60.608944 -263.203735
-17.066912 -58.815762 -263.959198
-15.115858 -59.679569 -265.243286
-15.566230 -59.756680 -265.711914
-15.397382 -58.663391 -266.779846
-15.459662 -58.703522 -267.365021
-15.105749 -59.126606 -267.956116
9.471790 -60.079727 -266.169342
-14.729664 -59.538849 -268.677490
25.528639 -58.865501 -267.878082
-16.693998 -59.874794 -268.366974
-14.730173 -58.846931 -268.530151
-16.316051 -58.996075 -270.228851
-14.998519 -58.683445 -268.001556
-13.115697 -59.139614 -269.573547
25.650398 -59.492355 -268.610901
9.320967 -59.506855 -268.164368
24.889849 -59.273914 -269.943268
8.346341 -59.527447 -269.937408
9.898014 -59.528782 -270.889648
-14.505098 -59.076347 -270.813202
-12.666190 -59.688606 -271.952362
23.215916 -58.348343 -271.655029
-15.092881 -58.226460 -271.935394
-12.782954 -59.957298 -273.123199
-12.630397 -59.778320 -272.325317
8.077244 -59.783363 -272.565094
-13.071496 -59.868408 -272.607330
9.490196 -59.187347 -272.169617
-12.353062 -58.243614 -273.833923
7.075084 -59.012932 -276.532745
22.569887 -59.561718 -276.053162
20.674824 -60.418945 -276.868225
8.324654 -59.766190 -278.833649
8.566564 -58.044773 -278.675690
19.231380 -59.263199 -280.968842
19.591784 -59.831936 -281.040436
7.729485 -60.107647 -280.732361
17.769955 -59.008450 -281.827271
7.230550 -57.537071 -283.507233
7.181133 -60.644478 -283.425934
6.320362 -60.247204 -283.513702
16.875744 -58.432384 -283.263245
5.232883 -58.646908 -284.908508
15.408211 -59.309246 -285.387878
15.032844 -59.694382 -285.222198
6.781580 -59.147152 -285.390778
15.961419 -59.153034 -285.734131
6.168517 -59.797646 -287.741394
14.374943 -59.526215 -288.009399
7.914569 -59.593460 -287.367859
5.949299 -59.585804 -287.474884
5.603865 -59.805771 -288.262695
14.057887 -60.354012 -289.591125
12.767871 -60.217648 -291.414307
8.018924 -58.340225 -289.603699
7.848445 -58.630196 -290.564941
12.829674 -60.087036 -290.358917
7.740191 -58.671772 -289.889191
11.948892 -58.765949 -291.583130
10.558453 -59.466934 -290.840302
9.453764 -59.203758 -291.229462
37.031914 -59.056160 -12.023700
30.605227 -55.375473 -12.256874
31.870049 -60.073601 -12.527670
29.934057 -57.124199 -12.601342
42.360939 -59.375927 -14.534008
25.970905 -62.408978 -15.101836
43.174522 -60.279217 -14.118832
43.245495 -60.033913 -16.309614
24.793362 -61.638882 -15.305470
25.231440 -59.106079 -15.575190
23.947834 -61.097675 -16.634909
44.638027 -60.089352 -16.614471
34.523167 -58.451515 -16.657700
38.626335 -59.264858 -18.488476
32.520443 -60.806694 -18.963745
39.041759 -58.022366 -18.366087
38.779305 -59.109497 -18.219904
28.854836 -57.845047 -19.242405
23.139441 -59.167088 -18.749109
21.754946 -56.556026 -20.251022
28.503849 -58.980968 -18.883028
39.777283 -57.697952 -19.769672
29.144808 -56.562000 -20.283209
48.729450 -61.070564 -21.335203
26.713097 -58.843956 -20.643141
20.438726 -57.912788 -21.240444
21.249023 -58.596386 -21.630062
47.533840 -60.257294 -21.987688
26.955809 -58.480701 -22.328217
43.908150 -59.301048 -24.165897
50.412716 -59.969788 -21.672867
43.639275 -60.341572 -24.363123
20.850098 -59.260532 -25.589045
43.763172 -58.909092 -26.060492
25.561502 -58.689159 -27.099186
49.699684 -57.312859 -27.810591
49.918430 -56.758987 -26.204016
20.538296 -62.090458 -28.204988
25.504576 -57.942722 -30.592960
49.854641 -60.643784 -30.297192
26.459873 -59.931934 -31.985025
20.649445 -59.923946 -31.918558
27.806902 -59.985649 -31.742876
49.672283 -57.007153 -32.561646
49.678432 -59.016254 -31.975058
27.142237 -59.445408 -33.542244
43.051060 -59.853340 -32.082600
42.103210 -59.687199 -32.749416
27.677729 -57.569500 -34.329369
39.575691 -60.557407 -34.794441
23.132462 -58.984043 -36.041691
30.405424 -60.795055 -34.861053
40.174770 -58.987350 -35.164600
30.469933 -59.822639 -36.522232
23.557724 -57.535316 -35.728561
36.731178 -58.062664 -35.859921
33.396744 -56.494862 -36.826813
37.213810 -58.974365 -36.679955
46.576626 -58.484135 -37.023529
34.673378 -58.811161 -37.076462
32.353867 -59.721680 -37.706768
33.689503 -58.597805 -39.782917
33.027424 -58.901993 -40.059025
27.069017 -58.367283 -39.505569
34.714161 -59.886898 -40.340389
34.504036 -59.862514 -40.755589
41.815674 -60.702873 -39.770039
34.909866 -59.127846 -39.846535
29.239853 -59.360977 -40.356647
39.984264 -59.321350 -39.866390
30.260828 -59.679237 -41.249115
39.992020 -59.549175 -41.784161
35.556301 -56.411617 -41.002014
-66.513168 -59.767582 -42.481365
-62.488022 -57.392330 -42.835854
-59.430222 -58.673904 -42.709984
-58.651802 -58.775799 -42.229347
-66.798897 -58.921333 -42.909958
-53.224426 -57.538120 -42.124596
-70.723732 -58.755295 -43.593948
-75.915970 -60.049152 -43.327366
-74.420319 -59.937584 -43.968212
-49.090687 -60.295578 -42.952103
-78.590477 -58.667183 -44.283581
-49.190041 -59.390285 -44.692142
-45.765232 -59.324543 -44.456779
-78.090416 -59.343063 -45.045979
-80.207634 -59.558983 -46.994568
-45.165962 -57.718121 -46.323784
-44.014851 -58.824291 -46.105862
-42.227097 -58.669514 -46.272003
-83.741951 -59.245701 -47.283707
-39.253048 -59.435844 -47.348198
-36.929024 -56.984356 -47.341736
-85.428352 -58.217617 -48.599281
-85.267296 -58.826511 -47.436775
-31.498085 -58.630116 -47.493271
-29.219019 -59.445187 -48.038830
-85.260139 -58.915737 -47.206551
-25.395803 -58.464966 -49.009007
-24.104082 -58.850243 -49.529102
-86.770615 -59.085190 -50.957172
-20.163830 -58.597832 -50.868813
-19.724817 -58.716579 -50.130955
-88.509827 -59.908661 -50.940186
-89.683884 -59.474834 -51.611191
-89.811813 -58.168362 -52.305267
-13.634539 -58.994808 -50.513565
-90.724434 -60.086948 -52.686600
-12.920956 -58.952801 -52.301037
-11.538647 -58.890339 -52.749123
-90.812569 -58.466507 -52.521797
-10.408629 -60.509853 -53.829403
-92.281448 -58.178913 -54.721146
-93.720779 -58.511551 -54.658924
-92.759880 -59.340405 -56.587101
-93.780380 -58.141975 -56.671074
-9.040515 -59.120407 -56.630829
-7.308999 -57.710033 -57.289948
-8.958254 -57.563759 -56.620968
-95.808487 -58.995697 -59.804695
-8.991055 -60.047047 -56.639553
81.164032 -58.930523 -58.205605
-95.901505 -58.886017 -58.915806
-8.764525 -58.724255 -58.577858
79.198898 -58.325726 -57.266579
74.896095 -59.375462 -57.486752
75.398758 -58.638779 -57.674255
-94.898705 -58.523067 -59.343742
88.153008 -58.497116 -58.473854
-8.389483 -58.957325 -59.302631
91.871918 -59.523945 -59.068707
-8.944951 -59.919876 -60.078472
92.628891 -59.108353 -60.368839
-8.175166 -57.329830 -60.759605
73.231667 -58.170307 -60.121403
-96.449821 -56.997772 -60.378040
71.654449 -57.623615 -60.722622
95.099434 -58.345211 -60.528927
-8.977623 -58.755276 -60.812233
73.135933 -58.456276 -62.057049
-96.621216 -59.589409 -61.701702
-8.793612 -58.388851 -61.667049
-9.810574 -58.414341 -61.402042
70.636200 -58.492149 -61.620296
-10.253972 -57.072773 -62.747429
70.792168 -57.819767 -61.696308
-97.001610 -58.411671 -63.004498
-20.250826 -58.579731 -63.147881
-16.725945 -59.818615 -62.367096
-16.451296 -58.342800 -62.559948
-15.087958 -57.995209 -63.649590
-13.855891 -58.156315 -62.978558
-11.665987 -58.746395 -63.188988
-97.279343 -61.374733 -62.735622
-23.207201 -58.606522 -63.797039
-22.992109 -58.715752 -63.313213
68.808311 -57.030865 -63.347980
98.375748 -58.830086 -63.192776
-97.207123 -58.229588 -64.635620
98.135880 -59.172146 -62.909515
-25.481361 -58.567871 -64.044884
-23.748844 -57.859612 -63.588951
98.117668 -58.887390 -62.714630
100.007805 -60.284985 -65.484749
-24.845762 -56.182087 -65.027618
67.996147 -59.543724 -64.630211
-28.593407 -58.112083 -65.037956
-26.624582 -57.557598 -65.280731
67.327538 -59.073357 -64.566589
100.296844 -59.121071 -65.106674
-26.478346 -59.130531 -64.404060
-28.684744 -57.751942 -66.066551
67.253029 -59.166916 -66.263931
100.439590 -60.519184 -67.070045
-96.837753 -56.938164 -65.050110
-99.091324 -58.736008 -66.510040
-31.889423 -58.489803 -67.231209
-28.789812 -58.057034 -65.784767
101.378082 -58.265732 -67.175903
-30.327929 -57.624725 -66.731026
-99.497154 -57.406410 -68.302338
-32.380386 -58.752586 -66.550987
66.275169 -58.102871 -67.502304
-99.178856 -58.370785 -70.095474
-33.374306 -58.615318 -69.967987
66.347855 -59.347706 -69.556717
101.919487 -60.448444 -70.398438
102.855423 -58.661049 -71.693962
103.878571 -58.571342 -72.788452
-35.693905 -58.858006 -72.587379
64.505432 -57.683327 -72.974876
-35.221001 -58.979198 -74.958969
63.593464 -59.123726 -73.377151
-98.749138 -58.145161 -73.811394
-34.504860 -60.079159 -75.384758
64.123894 -59.403797 -74.397911
103.724518 -58.026947 -74.414871
63.457161 -59.223331 -76.826744
-37.541962 -57.269417 -77.273766
104.563423 -58.016800 -77.551743
-50.432976 -57.122498 -77.593643
-50.372196 -59.034149 -78.892258
-99.128807 -57.987251 -78.703911
-48.535099 -59.712193 -78.230042
-48.313133 -58.624561 -77.271629
-36.900455 -59.310024 -77.150154
-98.825546 -59.404392 -78.172447
-36.615196 -57.737526 -77.937332
105.134819 -59.322964 -78.435043
-54.285480 -58.620644 -78.636696
-37.069359 -57.985310 -78.941971
104.574142 -58.112839 -78.558632
-37.234570 -58.982697 -78.847115
64.186188 -58.579052 -78.764999
-54.476940 -59.379517 -80.819916
-48.075832 -59.092533 -79.247459
-40.589195 -57.861423 -79.294670
-38.778362 -58.019409 -79.576172
106.880508 -58.056984 -80.286339
63.354958 -58.246258 -79.658318
-99.792915 -58.051220 -79.638046
-57.138004 -58.568573 -79.152534
-46.371250 -58.492329 -80.911140
-45.916561 -58.635715 -80.106102
-44.367832 -58.125751 -80.427185
-57.421577 -58.340401 -81.010277
-55.559589 -57.619907 -81.384537
-56.446674 -57.998791 -81.687881
62.266399 -58.924465 -80.953438
-58.325306 -59.589550 -81.602921
63.074757 -59.026146 -81.592026
104.720070 -58.835030 -81.788422
-58.620674 -59.238422 -82.303986
62.222195 -57.396378 -81.608200
105.473679 -58.704315 -81.643166
-60.228985 -58.415604 -82.597084
60.107185 -60.236378 -84.010727
105.151550 -59.507439 -83.948586
-59.438698 -58.656815 -82.857025
-99.955132 -59.824730 -84.490158
57.933758 -58.407021 -83.799187
63.512463 -59.076004 -83.551521
104.962471 -60.323753 -85.111977
-61.654018 -59.176628 -84.783936
62.531372 -58.699829 -84.678566
104.493469 -60.381077 -84.772926
-60.633713 -57.185616 -86.298111
58.543713 -59.007504 -85.546677
62.327579 -58.828335 -85.210266
104.931076 -59.435383 -85.597511
-99.817780 -58.455162 -86.174072
62.829472 -57.472820 -85.244148
58.256733 -57.759277 -86.295547
63.968811 -59.111149 -86.158104
63.088840 -58.829609 -85.689262
104.705444 -57.441582 -86.167496
61.608833 -58.417366 -86.411377
63.815319 -57.924503 -86.818886
103.897186 -58.402370 -88.052017
-99.250404 -59.824692 -88.290466
57.849873 -58.069881 -86.491066
61.187172 -59.517521 -87.622032
64.014854 -57.495136 -87.006172
62.116310 -59.120613 -87.178047
58.532204 -58.200706 -87.667900
57.452538 -58.712170 -89.249077
62.892666 -58.177925 -87.725250
-64.590874 -58.193230 -88.357803
-64.312325 -58.842724 -88.772522
104.381821 -57.972973 -89.323074
60.977219 -57.294403 -91.361069
-66.058823 -57.274979 -90.028488
58.574829 -57.399723 -90.633049
59.585487 -59.548954 -91.445618
60.704700 -57.857235 -91.581139
63.809742 -58.188320 -90.834877
60.457676 -57.255020 -91.519180
59.170975 -58.748684 -91.055382
63.709301 -59.963959 -91.807999
65.270088 -58.879318 -90.356140
-99.551064 -59.418400 -90.219269
-66.915375 -57.984257 -92.292793
105.226746 -59.271954 -91.616257
-100.664955 -57.339989 -92.177811
65.486748 -59.714275 -93.228302
105.021095 -59.286224 -92.747208
-100.179565 -59.804760 -92.616753
-69.525063 -59.866661 -93.798485
-98.457062 -60.490082 -95.570236
-100.649910 -60.036472 -94.797859
65.981293 -58.564083 -94.661819
104.124741 -57.525845 -95.960960
-70.285492 -57.806671 -94.494827
-70.444054 -58.949207 -96.598137
65.271515 -58.504757 -96.663239
-99.159912 -60.360603 -97.496353
-98.757210 -59.794525 -97.925156
66.154259 -58.071415 -96.181389
104.739120 -57.767368 -97.381233
-100.139709 -58.943119 -97.478600
104.139168 -59.070652 -97.518150
-99.861816 -58.641441 -98.076637
-71.528854 -60.707405 -97.499557
66.075920 -58.977238 -99.033241
77.501297 -58.215370 -99.266357
77.597260 -57.607574 -98.666023
79.241859 -57.507339 -99.003494
81.258751 -58.092896 -99.213562
103.582726 -59.274803 -99.010719
-71.390892 -59.791798 -98.757660
79.057854 -57.707947 -99.134789
80.854736 -57.531471 -98.844101
-99.291626 -57.153099 -99.484787
66.104401 -57.902496 -97.732582
77.876068 -57.069832 -99.706207
83.291077 -57.459591 -98.484825
-99.663231 -57.086983 -99.872101
64.312004 -57.961155 -99.397285
64.542953 -57.832497 -100.033615
76.794769 -57.830643 -99.212852
78.193733 -58.118591 -100.259163
103.200127 -57.709797 -99.579376
62.498676 -57.147480 -98.568497
67.513023 -60.271877 -98.729095
76.617584 -57.943680 -100.604469
81.907867 -57.744358 -101.762505
61.923965 -57.190220 -100.518341
62.846882 -58.203461 -99.004204
63.263161 -57.936882 -100.411415
66.412689 -57.787735 -102.330322
67.416695 -58.840405 -102.363472
76.320961 -58.421146 -99.849098
80.074944 -58.892345 -101.595222
63.907349 -59.049149 -99.427544
65.006454 -57.978638 -100.659790
67.905937 -59.616810 -101.014038
82.954391 -57.037643 -100.688591
102.912521 -56.776081 -100.850739
63.465649 -58.658752 -101.034645
65.049522 -58.926487 -101.444489
69.750450 -58.362495 -101.698555
69.018555 -58.793793 -101.414757
69.730026 -58.021194 -100.792030
101.852402 -59.105530 -101.271393
59.670364 -58.735962 -100.568718
59.732197 -58.387913 -102.059151
61.946835 -58.393509 -100.886780
64.971268 -57.494671 -100.968094
75.433762 -58.730061 -101.079948
79.982903 -57.820946 -103.425064
63.014042 -57.791218 -100.006943
71.240295 -58.287128 -102.568970
79.111961 -57.828205 -101.269554
-100.418533 -57.231487 -103.106010
55.763840 -58.592690 -102.026611
58.794056 -58.688793 -102.606018
60.921852 -58.577122 -102.770111
64.762085 -59.198429 -102.323975
70.416443 -59.703217 -102.466469
77.322906 -58.662724 -103.740883
81.668495 -57.831608 -101.143211
84.958138 -57.367790 -103.536781
84.179504 -57.163681 -102.963676
59.564255 -57.927349 -102.211975
77.535988 -58.310890 -104.022911
78.393974 -58.481464 -103.210091
101.041595 -57.130566 -102.831543
101.928543 -58.722095 -103.101616
55.241226 -57.768806 -102.599823
60.729679 -58.183727 -102.456047
71.425163 -59.259258 -103.138618
81.670525 -57.459976 -102.544525
84.282898 -57.328320 -103.056320
55.241173 -58.673759 -104.309242
56.186710 -58.363537 -103.016434
60.118378 -57.230736 -104.168900
71.675575 -57.677975 -102.734741
78.218773 -57.923450 -102.977325
79.119423 -57.891724 -104.444672
81.684975 -57.968651 -102.933495
83.981506 -57.824520 -104.070435
101.354088 -58.572556 -102.971581
-98.484863 -58.070396 -103.481392
-73.788818 -59.163437 -104.167557
78.249542 -57.935085 -105.301529
82.423485 -58.258038 -102.705238
-99.546822 -57.147018 -104.579819
-65.225311 -57.079372 -104.109406
59.000938 -58.094513 -104.787140
62.057495 -57.447338 -103.795776
72.093887 -57.705696 -103.306152
80.105927 -59.390675 -103.972366
83.247452 -57.248707 -104.632866
-73.796814 -57.359463 -106.396111
-65.842377 -58.475136 -104.906799
53.294514 -57.800476 -104.192719
58.888145 -57.926674 -104.338211
58.612106 -59.050816 -104.946976
72.441956 -58.489033 -106.442902
99.707489 -59.737881 -104.827095
-66.583107 -57.755173 -103.930504
51.073814 -57.926483 -105.115417
53.589745 -59.138073 -105.028473
57.452236 -58.322067 -106.656494
72.662041 -58.943756 -104.760262
75.325905 -57.481426 -104.664314
76.822929 -57.629395 -105.394768
76.628769 -58.365864 -106.333466
81.777679 -57.483070 -104.442383
-66.909294 -58.175560 -104.971832
-66.208603 -58.426598 -105.577927
52.767582 -57.939697 -105.549294
59.217236 -57.861465 -105.510666
73.690536 -58.365658 -104.875282
75.793434 -58.777805 -106.679176
77.071777 -58.277996 -105.287849
81.298836 -57.936218 -105.779961
98.505180 -56.411873 -105.387955
-73.829903 -57.899700 -105.776566
-66.992226 -58.710667 -107.042137
-63.040897 -58.761032 -105.698425
57.283859 -59.218422 -105.976921
57.030304 -58.085648 -105.040909
75.065887 -59.570473 -106.186844
-100.111168 -59.824661 -106.034477
-68.148582 -57.861172 -106.429283
-61.852577 -58.329426 -105.997231
50.830563 -57.549629 -106.979019
51.601246 -58.380711 -105.811768
81.506111 -58.878033 -106.038780
-75.528259 -58.434528 -106.003532
-68.178284 -58.198215 -106.714478
-66.491020 -58.857117 -107.620888
-65.009460 -58.155144 -106.512238
50.728973 -58.563011 -107.275589
56.149094 -57.985104 -107.312439
58.342670 -57.543888 -107.184029
84.317535 -57.925648 -107.590744
-98.143066 -57.559704 -106.927010
82.153564 -58.470879 -108.384872
96.915459 -58.258476 -107.474442
-76.030228 -58.227909 -107.728111
50.259254 -59.848984 -107.342926
50.434139 -58.122528 -106.742462
84.624107 -60.309654 -107.971764
-75.143410 -58.981712 -109.339119
-63.717804 -57.661781 -108.764946
55.853790 -57.216530 -109.571205
84.216904 -59.180489 -109.303383
48.674763 -59.147076 -108.183525
55.632000 -57.746708 -107.326294
85.583595 -59.631565 -107.986664
-72.041664 -58.460545 -109.265892
-69.733604 -59.257740 -109.709625
-59.283752 -58.364700 -108.428085
54.138428 -57.578175 -108.058334
89.932419 -58.737503 -109.898262
89.467453 -58.767342 -108.666542
-72.574356 -58.923897 -110.259293
-70.695740 -58.882355 -108.619766
-62.656956 -59.135490 -110.014572
47.797993 -57.767956 -109.581207
-73.109756 -58.502232 -109.807724
-71.481583 -58.544746 -109.929749
-60.139343 -56.678329 -110.260582
45.908512 -57.541348 -110.003777
53.783627 -58.047810 -109.261536
-73.178871 -59.147610 -110.357697
-71.313522 -59.576710 -110.196541
-61.850140 -59.508049 -110.426460
53.246872 -58.424236 -110.388710
-98.118111 -58.282532 -109.753593
-70.236519 -58.378143 -111.588234
-60.580933 -58.566788 -109.247971
-59.681129 -57.868202 -111.123100
46.650394 -58.464188 -111.059425
-73.515358 -59.081444 -111.103676
46.866165 -57.296219 -111.906136
52.116364 -59.772942 -111.027733
-78.364487 -58.098454 -110.925316
-70.680840 -58.124165 -111.194466
-58.972668 -58.502731 -110.899063
-97.029526 -58.297619 -113.089203
-60.868050 -58.667179 -111.474480
50.357246 -58.977646 -112.087753
-71.841980 -58.541237 -111.992157
-69.708366 -57.815376 -112.232140
-79.508545 -58.621716 -112.709030
-77.411247 -58.184547 -113.136711
-70.182526 -58.823719 -113.466568
-61.350655 -58.496815 -112.530716
44.523312 -58.047203 -112.818268
50.701260 -59.001816 -112.443054
-79.696068 -57.752609 -113.652473
-70.276405 -58.815670 -112.731293
42.888153 -58.447865 -112.801689
51.252949 -58.796585 -114.371536
50.054066 -58.894810 -114.286697
49.656624 -57.838417 -113.994118
-73.033371 -58.017277 -113.510345
-57.416718 -58.303326 -113.332146
42.566277 -58.210320 -114.695282
-77.850266 -58.979786 -114.550018
-98.248871 -57.321335 -114.724991
-77.543617 -57.684486 -115.159515
-95.792534 -58.301128 -114.276314
-70.776024 -59.988281 -115.443268
-68.815956 -56.954849 -116.926407
-60.022312 -58.841145 -114.338097
-56.501602 -59.512989 -115.557014
49.568821 -57.691414 -114.887192
48.381626 -57.762787 -115.576736
-58.717602 -60.125378 -116.177902
40.574543 -58.771072 -115.451538
47.179302 -57.110806 -115.303734
-97.247658 -57.844734 -114.749168
-83.441978 -59.195572 -115.496513
-77.251617 -58.395096 -116.717300
-79.132561 -57.752094 -115.375748
39.777843 -58.118565 -116.470589
-80.248711 -58.388035 -116.808365
-58.732620 -59.896393 -116.325600
-58.086910 -58.431568 -115.583626
40.299587 -58.653122 -116.663010
47.243862 -58.400425 -116.495148
-83.882126 -59.204849 -116.709328
-83.457298 -58.465702 -115.750969
-82.177872 -58.745811 -115.019783
-81.459106 -58.145432 -116.367355
-79.248001 -57.480278 -116.483780
-72.026108 -57.609581 -117.271019
-98.150192 -60.044369 -117.403114
-68.037376 -58.616451 -118.047256
38.125885 -58.157356 -118.202995
46.898785 -59.393005 -117.612114
-96.933868 -58.925636 -117.528572
-83.955536 -58.289448 -117.469269
-80.480141 -58.302464 -117.265251
-81.635269 -58.575184 -117.805931
-70.568459 -59.429024 -117.178474
-60.057655 -58.758549 -116.696663
46.695656 -59.495018 -117.372520
-87.798866 -60.295609 -118.413879
-79.878799 -58.906662 -117.719788
-80.030678 -58.097847 -117.990517
39.101009 -58.279774 -118.000710
46.406151 -58.313847 -118.109253
-96.919205 -59.543201 -118.994553
-85.827774 -58.897720 -119.742470
-81.769730 -57.903385 -118.731094
-70.639610 -58.726803 -118.363426
38.154224 -58.132191 -117.785973
45.969563 -59.110828 -119.720528
45.218243 -57.233383 -117.521027
-96.004318 -57.889938 -119.950729
-87.027946 -58.566071 -118.917877
-67.587158 -58.895199 -119.709114
-57.021175 -58.161034 -119.233337
-56.321667 -57.902386 -118.777168
37.605141 -58.986973 -118.685616
45.725792 -57.153900 -118.505524
-97.087730 -58.278019 -120.430618
-85.920578 -58.835762 -120.880569
37.026596 -58.909008 -120.493851
45.435104 -58.989315 -120.265488
-69.644913 -58.394840 -119.920059
-58.091682 -59.735832 -120.834740
36.770302 -57.204556 -120.048965
-87.831558 -57.643387 -120.248535
-88.356689 -57.640850 -120.784821
-67.293312 -59.099339 -119.655380
43.429581 -59.254128 -120.808891
-96.843201 -58.568069 -121.909653
-65.762764 -58.505165 -121.171806
-56.122921 -57.683174 -121.152229
36.645374 -59.221722 -121.844864
43.180820 -59.573772 -120.939285
-95.256363 -58.876648 -121.968925
-67.906471 -57.924648 -121.418228
-58.073544 -58.420681 -121.173004
36.117001 -58.983242 -121.425835
-66.763351 -58.720058 -120.990425
35.673302 -57.714745 -122.690010
43.794056 -59.705605 -121.332924
-56.833206 -58.511341 -121.846863
-95.368767 -59.353649 -122.113113
-95.551735 -60.469742 -123.517342
-92.792618 -58.325607 -124.266251
-68.974113 -58.310963 -121.596085
34.289951 -57.333668 -121.161514
42.830086 -57.913471 -123.643005
-94.093971 -58.632050 -122.312538
-68.364357 -57.674538 -122.419312
-57.629871 -58.852612 -122.802361
34.311893 -58.678673 -122.199402
42.359631 -58.122402 -123.320229
-65.532074 -58.548725 -123.355865
-55.466141 -59.082104 -122.345047
-57.538361 -58.443638 -124.016579
32.940193 -58.347500 -123.092590
41.827045 -58.156464 -122.785576
40.884216 -58.240490 -123.420120
-57.122089 -58.543552 -124.578186
-55.303539 -58.823132 -123.349930
33.718948 -57.901310 -124.744423
-67.057022 -59.080975 -124.326180
-65.422897 -58.265244 -124.411865
41.680660 -57.752491 -124.770271
-54.214962 -59.539925 -124.437988
31.527431 -57.613106 -124.238701
-57.620785 -58.014187 -126.036934
-55.550678 -58.264366 -126.112427
31.963396 -59.758762 -125.514053
39.081696 -57.960106 -124.466621
-57.922997 -58.435875 -126.044815
-54.409725 -58.687241 -126.184174
-63.046375 -59.282993 -126.369766
-61.614643 -59.480850 -126.904419
31.788116 -57.641632 -125.591965
-58.976421 -57.598019 -126.108879
-56.618641 -59.902298 -126.528648
-58.635036 -59.239262 -127.740273
39.151279 -59.222073 -126.401985
-65.582458 -59.153496 -126.219467
-60.742966 -58.796631 -127.136589
-55.081879 -59.663925 -128.516098
32.109406 -58.776138 -127.109795
-62.446110 -59.739922 -127.560921
-60.873959 -58.726948 -126.159569
-60.242882 -59.368660 -128.416046
30.483883 -57.676430 -126.968834
39.309444 -58.836777 -126.306648
-65.389626 -59.006157 -128.401642
-58.888592 -57.966263 -127.616241
30.545176 -58.767578 -128.631729
-61.358559 -59.039577 -127.577126
-55.501862 -58.374557 -128.986206
39.046295 -57.722992 -127.648636
36.014702 -58.544724 -127.483337
-65.181091 -58.478512 -128.322800
-59.972706 -59.424755 -128.305496
-59.805351 -58.703598 -128.620163
-58.558407 -57.074890 -127.692230
-63.035755 -57.750347 -128.779907
-55.757854 -56.935856 -128.677109
29.387602 -58.986797 -128.294830
37.072250 -58.344128 -129.717377
35.502300 -57.006279 -129.326279
28.605473 -59.292908 -129.415009
-62.162685 -57.423168 -129.733185
-61.698883 -57.606171 -130.632446
36.593369 -59.228176 -128.189957
29.234982 -58.518032 -130.650330
36.323292 -58.833931 -129.575012
-60.685059 -58.747040 -130.628433
29.918636 -58.300014 -132.115479
36.467953 -57.869305 -130.004578
-61.016800 -58.898312 -130.887192
-55.314877 -57.496658 -131.516617
29.232141 -57.956097 -131.780273
33.827431 -58.033119 -131.763229
-57.247437 -59.603138 -131.133896
-60.174248 -59.822212 -132.971909
-59.436375 -57.909424 -132.064545
-58.164295 -57.905903 -130.415878
-56.833961 -58.272964 -132.250671
28.805681 -58.653275 -132.492249
34.702110 -57.918732 -132.731186
27.845108 -57.387100 -131.814575
28.409370 -58.278576 -132.773117
33.569706 -58.299534 -131.812180
28.869135 -56.696815 -132.538193
31.685196 -57.907604 -134.332474
31.455286 -58.297184 -134.448776
28.095428 -59.056461 -133.420685
30.675751 -58.266029 -133.483887
28.292349 -57.291737 -134.105103
29.527617 -57.622913 -133.600189
28.124718 -57.821609 -134.688141
28.685698 -58.325073 -135.446472
30.787443 -58.044174 -135.603561
29.575899 -57.512039 -135.157928
27.382921 -58.007877 -135.551605
3.083737 -59.538860 -237.768799
4.140929 -59.213860 -237.995346
4.761835 -59.544174 -237.624817
7.306906 -59.541290 -239.252258
-3.653276 -58.474533 -238.263763
-2.790433 -59.227436 -239.894974
5.809083 -58.938820 -240.717957
-1.499774 -57.913494 -240.368011
6.013098 -59.303680 -241.765518
19.046650 -58.385029 -241.542252
-1.239253 -58.685066 -240.614609
18.120043 -57.824154 -240.811707
18.377750 -58.285484 -240.345108
5.089357 -59.268070 -241.960938
18.713070 -58.250637 -241.740799
-0.526390 -57.780109 -241.793716
4.709454 -57.942963 -241.431381
15.326718 -60.754089 -241.311554
0.942515 -59.624710 -244.433228
4.007624 -58.886616 -241.928085
13.045071 -59.545574 -242.668732
20.711107 -56.888710 -242.921387
8.019900 -59.479248 -243.893555
10.614884 -57.980579 -244.772430
21.454798 -58.641441 -243.789139
11.881578 -58.227615 -243.733231
8.013928 -58.933125 -244.507111
9.627563 -57.152618 -244.325668
0.032290 -58.953972 -244.848679
2.823905 -58.805977 -244.825424
4.051649 -57.569511 -246.087494
5.785304 -57.674675 -246.288742
1.054565 -58.307961 -245.994919
1.996632 -59.212616 -246.626831
6.479899 -58.582256 -245.267685
6.526498 -59.340710 -244.153290
10.554582 -58.053898 -244.485565
22.081667 -58.466297 -245.310486
22.794786 -56.682613 -245.422195
0.352618 -59.152866 -246.503174
21.860626 -59.208454 -247.755814
1.076402 -58.430717 -246.927368
0.935340 -58.171909 -247.226822
1.339132 -57.766693 -247.660248
21.144882 -56.665977 -247.514618
3.998714 -56.756405 -247.547729
2.907700 -58.914013 -248.073288
20.895985 -58.832600 -247.924454
3.789135 -58.043461 -249.834045
19.439379 -57.659672 -250.609650
3.637897 -57.427120 -250.399841
4.598824 -58.168060 -250.848679
21.191313 -59.091618 -250.111710
4.560866 -58.773674 -251.509262
3.324269 -58.773849 -252.157501
20.625807 -57.759712 -250.867233
5.768460 -59.049442 -251.452774
21.875328 -59.047691 -253.314423
4.155947 -58.496082 -253.203827
6.540940 -56.910461 -252.734528
23.179598 -59.131649 -254.875732
6.480664 -58.092915 -254.579041
23.603695 -58.621792 -254.854370
8.552229 -57.789604 -256.479279
9.583996 -58.249943 -256.611725
25.387722 -57.490761 -257.140198
7.845211 -57.665268 -256.649567
24.879366 -57.306557 -258.262146
-16.227297 -57.831547 -259.326172
9.006471 -58.272171 -257.814575
25.221743 -58.772331 -259.053650
9.987866 -58.180180 -259.806396
25.152224 -57.924442 -259.018341
8.929882 -58.114887 -258.274689
25.884151 -57.821598 -260.738708
-16.869871 -58.816040 -262.484100
25.492815 -58.630463 -261.062988
-18.012388 -58.103310 -262.126831
-15.090246 -57.785824 -261.753479
-17.643261 -59.082741 -262.906097
-16.127232 -59.653149 -263.348297
11.782564 -58.414722 -262.440308
27.226439 -58.795219 -263.485748
-16.406740 -57.927906 -264.046448
-17.366171 -57.731358 -263.352173
-16.082270 -58.632469 -265.062531
-15.034442 -59.009933 -262.948120
9.535216 -58.744560 -265.261230
10.233434 -56.234020 -264.442871
-14.852311 -60.131451 -264.930969
-18.457861 -57.495033 -265.227936
-16.432049 -58.367142 -265.393738
-17.217426 -57.799072 -264.897095
-16.727980 -57.520279 -263.613129
26.227486 -58.990887 -264.674469
-18.264864 -58.081566 -266.578400
-16.802988 -58.540535 -267.002655
-14.788285 -59.186550 -266.782074
-18.416147 -59.392082 -268.482391
-16.605379 -57.452255 -268.207489
-13.174442 -58.699432 -267.824280
10.805462 -57.382263 -266.631714
-14.670385 -58.694603 -267.733643
-14.120458 -57.746891 -268.822449
25.748964 -57.917160 -267.635559
-17.049654 -57.932625 -268.746368
10.452222 -58.748901 -268.120209
24.686752 -59.301960 -269.621552
-12.910826 -58.723011 -268.835175
24.581751 -60.561359 -270.393158
-15.251436 -59.509590 -270.518097
-15.799327 -58.125217 -272.067719
-13.402457 -58.968117 -270.543213
-17.003832 -57.992966 -271.093506
-12.186576 -58.028851 -270.828613
-14.687095 -58.547245 -271.182343
10.492073 -58.252247 -271.576477
-11.136333 -58.738628 -272.394623
-14.549383 -57.500946 -272.649109
-13.158032 -58.834103 -273.979523
-13.145093 -58.716400 -273.151154
-12.471580 -59.353436 -272.735413
-11.919275 -58.875183 -273.915039
23.518684 -58.183193 -274.422638
-15.103050 -58.586376 -274.295197
9.278622 -58.751682 -275.128754
-12.468733 -59.427837 -275.102509
-10.833677 -58.592976 -275.050354
-10.492292 -57.734268 -274.864349
-12.476336 -58.227295 -274.801483
-13.010011 -60.475918 -275.896729
-9.134804 -58.371170 -276.516052
22.249559 -57.509567 -276.619781
-10.844574 -59.570786 -276.086670
21.434925 -59.855480 -276.302124
-8.571271 -58.681370 -277.793335
10.395927 -57.238861 -277.131866
-12.487620 -58.053333 -276.561188
-9.678418 -58.313549 -276.734406
9.809188 -59.435463 -277.650391
19.894857 -59.182419 -277.028809
-10.339921 -58.646881 -278.577698
20.531252 -61.084030 -279.024200
-9.397364 -56.664764 -278.352325
-9.276410 -57.362991 -278.601013
-8.722126 -58.718018 -278.326111
20.251854 -57.656410 -280.233093
-10.074116 -58.196636 -278.715790
9.330545 -58.158813 -278.603333
20.199268 -58.265152 -280.802917
7.996915 -59.154442 -280.917755
9.345796 -57.785641 -279.206421
-8.203173 -58.931412 -279.107544
-7.687784 -57.858322 -281.062592
-8.821454 -58.195869 -280.985687
8.635557 -58.982765 -280.928528
7.584018 -59.106739 -283.291840
-7.370935 -57.701027 -281.340332
-7.274216 -58.489582 -283.006897
8.205070 -57.850914 -282.172485
-5.832587 -58.036610 -283.937897
17.941952 -59.084965 -282.506226
-5.568264 -58.867298 -283.814026
14.698063 -59.745224 -286.822937
7.491447 -57.871643 -288.129547
15.056883 -58.451450 -287.737305
13.534877 -59.546200 -287.994812
9.389174 -58.827629 -288.189911
13.264420 -59.964935 -288.502258
7.725371 -59.463619 -288.364166
8.656882 -57.541782 -290.105804
9.825092 -57.088428 -288.564972
10.243223 -57.095329 -289.665253
11.330616 -58.657726 -289.494537
9.347477 -58.769619 -290.791718
10.180009 -57.815418 -290.557892
34.305717 -58.169437 -12.287589
39.043259 -59.641472 -13.011059
28.652575 -57.495613 -13.451965
26.681244 -57.366959 -15.763282
25.990685 -58.369419 -15.614855
43.784538 -58.017326 -16.105074
44.073978 -59.540611 -16.365574
45.520119 -60.356323 -16.268627
24.657480 -56.967140 -15.968400
45.529747 -54.826611 -16.646179
34.890472 -58.279385 -18.134359
36.701519 -58.830631 -17.034609
46.281845 -58.253712 -17.436655
33.155907 -58.906948 -18.503132
46.869427 -58.842648 -17.445723
47.020771 -58.932930 -17.546917
39.652287 -57.607628 -18.814100
46.144806 -60.366913 -18.960300
26.576643 -57.226070 -19.691612
41.210972 -58.373844 -20.471727
47.238808 -56.479210 -19.814018
41.258224 -57.514065 -20.936296
47.633892 -57.335110 -20.227648
27.522606 -59.159378 -21.844784
43.470947 -56.069061 -23.138279
49.333088 -58.835804 -22.780937
19.820547 -58.593040 -21.863699
21.018288 -57.098316 -24.990686
44.422306 -60.332249 -25.471987
48.710796 -58.752964 -26.810566
49.888538 -59.756187 -25.997759
19.926466 -58.049011 -28.297827
20.165911 -58.741142 -26.978563
42.882023 -58.976604 -27.656565
18.830402 -58.289158 -28.020063
26.347778 -59.175457 -27.420773
50.396870 -59.173607 -27.864550
43.879261 -56.830460 -28.750626
24.488707 -58.285301 -28.872852
43.017166 -58.467842 -30.345404
42.857643 -55.790878 -30.781803
20.962770 -58.165897 -34.167503
27.212511 -58.550240 -33.044144
22.788570 -59.611507 -35.200180
30.450747 -56.988960 -35.502716
22.928558 -58.522881 -35.786182
39.196117 -58.191742 -34.884678
37.499928 -57.389496 -36.228104
46.930054 -57.048012 -36.208298
23.857067 -56.567768 -36.551147
23.014853 -59.154736 -36.772430
35.224335 -56.369198 -38.168171
25.645960 -57.916946 -38.218197
45.480465 -54.961739 -37.389160
43.098957 -60.052570 -38.121445
