# This PCD file was generated using the MATLAB® pcwrite function
# from Computer Vision Toolbox®.
# .PCD v.7 - Point Cloud Data file format
VERSION .7
FIELDS x y z
SIZE 4 4 4
TYPE F F F
COUNT 1 1 1
WIDTH 1427
HEIGHT 1
VIEWPOINT 0 0 0 1 0 0 0
POINTS 1427
DATA ascii
-46.520489 -70.064110 -48.427608
-71.325111 -69.822540 -48.723732
-69.795975 -69.086555 -48.660824
-67.910126 -70.409416 -48.660221
-46.628857 -69.955978 -48.359066
-44.464607 -68.899696 -48.778599
-69.774300 -70.134575 -48.753468
-44.624130 -70.474777 -48.650738
-72.197632 -70.191185 -50.303547
-71.440460 -69.956398 -49.697914
-42.895565 -70.068199 -49.157543
-40.286400 -69.055977 -49.329506
-38.914276 -68.361519 -49.125065
-40.016201 -70.445770 -49.807365
-37.468983 -69.513733 -49.867584
-76.078621 -69.246323 -48.734772
-74.770332 -70.079506 -49.958771
-74.679741 -69.283447 -50.655205
-76.322044 -69.397446 -50.684994
-36.946476 -69.537971 -50.611729
-35.693378 -70.300468 -50.379986
-33.495262 -69.774673 -51.610584
-31.312307 -69.205765 -51.665646
-78.361626 -70.155968 -51.441116
-79.307693 -69.850861 -52.012295
-78.296181 -70.278923 -53.162613
-31.836269 -70.214432 -52.446850
-30.360361 -69.356857 -52.931633
-79.512344 -70.168800 -53.608498
-28.406412 -69.337067 -53.284130
-29.772505 -70.024719 -52.581627
-28.627604 -69.883522 -53.632175
-81.927017 -69.749901 -53.632801
-26.946499 -70.751671 -53.837311
-26.108217 -69.730057 -53.904827
-81.366768 -69.969345 -53.993568
-24.096298 -69.175934 -55.397778
-83.138298 -69.770348 -55.586555
-25.837339 -69.767441 -55.118538
-84.165115 -69.259178 -55.920982
-23.832935 -69.866913 -56.189774
-22.500196 -69.664383 -56.296749
-84.863029 -68.926445 -56.279518
-84.373596 -70.260368 -56.851471
-24.047159 -69.860489 -56.389088
-23.001997 -69.528290 -57.007694
-84.512222 -69.541641 -57.274914
-20.147402 -69.480331 -58.127563
-85.481964 -69.831360 -57.145607
-21.436058 -70.145241 -57.561302
-85.975456 -69.861465 -59.383942
-19.070702 -70.047966 -58.726757
-17.827026 -69.796371 -59.520325
-19.452078 -69.906464 -59.271820
-18.067610 -70.140594 -59.419350
-17.284023 -69.758926 -59.672253
-16.968399 -69.756912 -60.562862
-16.024389 -69.827225 -61.099144
-87.535675 -70.587631 -61.996113
-17.605656 -70.918243 -60.704388
-16.229691 -69.472870 -61.457859
-15.302424 -69.581779 -62.817684
-14.358596 -69.510406 -62.806255
-14.081534 -70.041267 -63.422333
-90.600716 -69.835548 -63.709198
-13.546556 -70.392776 -65.602715
-89.927223 -70.237251 -63.979259
82.199051 -68.669060 -64.001389
82.804749 -69.900543 -65.799973
-13.463930 -69.860619 -65.117119
82.139557 -70.341820 -65.968719
77.559799 -69.918900 -65.320053
80.143417 -69.735916 -65.740662
83.697037 -70.336441 -65.193298
89.270294 -69.788918 -65.988091
-90.236649 -71.528969 -66.810707
-92.653572 -68.743843 -65.251450
-13.864737 -69.917313 -66.274551
77.637772 -69.914238 -66.153694
84.734673 -70.499062 -66.468094
86.316322 -69.119095 -66.494995
88.856003 -70.142273 -66.158478
90.701500 -70.225197 -66.557755
-92.429581 -68.833237 -66.605766
-14.242694 -69.729195 -67.117592
79.149185 -70.269424 -66.764801
84.667633 -70.493286 -66.500900
87.778732 -70.286491 -66.491318
90.985542 -69.548927 -66.924202
76.606682 -70.169403 -67.064186
-91.410667 -70.496918 -66.821510
76.504433 -70.761200 -67.743614
75.508598 -69.454369 -67.465363
92.170204 -69.834435 -67.595207
93.425240 -69.199120 -67.668121
-13.754105 -69.661621 -67.509132
-14.266329 -70.580391 -68.349464
93.862053 -68.976006 -67.727760
-92.285843 -70.518173 -68.647736
73.346802 -69.108795 -68.090096
92.582184 -70.045647 -67.504066
93.250793 -70.764191 -68.664413
-14.240210 -70.064644 -68.547836
72.654167 -69.118675 -68.744667
71.932320 -69.539459 -69.958672
93.979446 -70.120010 -69.074844
-93.368797 -70.022293 -68.418396
-15.970059 -70.048637 -69.642021
-16.060968 -70.407990 -70.834259
95.416000 -69.744476 -69.945526
-92.428001 -71.435143 -70.811684
94.655807 -70.507454 -70.076942
-17.081577 -69.659035 -71.412025
95.273178 -70.447571 -70.884483
-93.484497 -69.896172 -71.574417
-18.135809 -69.297737 -72.060242
69.438240 -69.208183 -71.891121
71.929184 -70.588394 -72.080864
-18.593107 -68.547348 -72.080887
96.076645 -69.947182 -72.054520
-92.890976 -71.069557 -72.759781
-20.915979 -70.121483 -73.699455
70.864204 -69.572739 -72.577911
98.075554 -70.236168 -73.246452
-22.039270 -69.740746 -73.476433
70.172119 -69.654190 -73.065231
68.575752 -68.891022 -72.637016
97.929527 -70.097870 -73.031219
98.974625 -69.607437 -72.915756
-94.654259 -68.649773 -72.825089
-22.926647 -69.004578 -73.638138
-21.982233 -69.875389 -74.027428
68.541985 -69.020882 -74.180870
-92.955070 -71.294434 -74.168282
-23.719051 -70.133354 -75.047981
-25.853964 -69.264526 -75.289383
98.903137 -69.869659 -74.637550
-25.843838 -69.918930 -76.099388
-39.551498 -70.402924 -76.940178
-38.017273 -70.079117 -77.109428
-36.965500 -70.009811 -76.581596
-27.266747 -69.307228 -76.083092
-39.678688 -70.034790 -77.601929
-34.897491 -70.088951 -77.301056
68.255974 -69.675766 -76.614685
99.167343 -70.138428 -76.495888
-94.807930 -69.658524 -77.426399
-31.589497 -69.784332 -77.491020
-27.785475 -70.115807 -77.135521
99.820030 -69.605835 -77.023338
-41.648525 -68.909904 -77.623207
-28.732635 -69.742111 -77.242188
-29.472813 -69.527130 -78.449821
68.267593 -69.752281 -77.785637
99.364098 -70.611519 -78.699814
66.939285 -69.649551 -78.526482
-41.879040 -69.352470 -77.527893
66.969086 -70.204422 -79.584198
-95.264320 -69.245186 -77.939880
-42.062222 -70.553780 -78.329254
99.833466 -70.364197 -79.731972
-95.251793 -69.578331 -81.150726
67.533951 -70.154938 -81.200699
-43.964577 -70.184280 -82.017029
-45.441021 -69.104439 -81.946541
68.253304 -69.207886 -81.681175
-95.156647 -70.013008 -82.394279
-44.714237 -68.656448 -82.518425
67.592003 -69.232048 -82.831833
101.044472 -69.955803 -82.526108
-95.262970 -69.501839 -83.431282
100.467903 -70.688370 -83.624481
101.746094 -69.244904 -82.963425
67.455727 -69.977821 -83.500237
-95.159882 -69.747345 -84.175499
-94.920593 -70.389458 -83.944847
-47.612484 -70.151978 -84.789276
62.423740 -69.471741 -84.771172
101.059135 -69.835152 -84.477737
-49.296890 -70.283913 -85.403046
62.307228 -69.548401 -85.391838
66.752533 -71.263458 -84.655685
-96.069801 -69.480309 -85.128075
59.891624 -70.178299 -86.569817
60.760338 -69.553589 -84.871239
63.008202 -70.034218 -86.047050
-95.849838 -69.950348 -85.427452
-50.267700 -69.733505 -85.813225
66.251030 -70.804916 -85.979645
-95.784279 -70.208832 -86.617188
-49.951481 -71.051430 -86.214989
64.461792 -69.547752 -86.827835
68.116096 -69.907349 -86.508240
67.615265 -70.029587 -87.020721
101.467369 -70.603142 -86.076965
-95.977005 -69.920105 -87.145187
55.039242 -70.511749 -87.079285
65.100487 -69.659584 -87.525146
59.742661 -68.810928 -87.223824
68.087036 -70.994667 -87.062614
58.851574 -69.390404 -86.796928
54.263790 -70.227211 -88.342316
59.918484 -70.360168 -88.160446
61.929008 -69.907860 -88.417511
64.793533 -69.467545 -88.791908
101.540291 -69.920326 -87.858887
57.774158 -70.636650 -89.399361
60.318859 -71.311501 -88.628517
60.542210 -69.506973 -88.945946
64.112854 -70.018105 -89.752533
101.624382 -69.586784 -88.625595
-95.830734 -70.020462 -88.614571
-54.998848 -70.632080 -89.605011
51.592537 -69.388123 -89.089813
56.004314 -70.395737 -89.427582
-55.886696 -69.669380 -89.669479
51.768333 -69.131203 -89.765152
61.525776 -69.837631 -89.233147
62.056862 -69.388786 -89.890495
101.902824 -70.111984 -88.656006
54.570793 -70.148300 -90.091736
-95.458679 -70.158295 -91.806587
-58.777573 -71.527321 -90.817482
53.533188 -69.744255 -91.099457
60.746323 -70.044159 -89.715149
67.053680 -70.152229 -90.457291
67.613426 -68.977852 -90.935349
101.880928 -70.045235 -90.331429
60.977169 -70.289063 -90.963303
-62.898514 -70.123695 -91.502083
52.218010 -70.793594 -91.738365
60.741096 -69.338600 -92.177788
100.237457 -69.716309 -92.208382
51.313713 -69.807030 -92.492004
-64.655380 -69.391647 -92.989334
48.298805 -69.221642 -92.411453
-65.629723 -69.332703 -93.163002
67.791000 -70.129311 -92.714653
-65.109184 -70.148743 -93.881340
68.402794 -70.402649 -93.350563
58.973373 -69.695915 -94.479675
62.518604 -70.040405 -93.990868
-96.100029 -68.947426 -94.072853
-65.640305 -71.491982 -94.029404
50.787796 -69.778786 -94.000244
46.775295 -70.912178 -94.629349
46.366993 -68.831665 -95.777306
49.508961 -69.996132 -94.160255
59.578022 -69.584068 -95.051628
68.062157 -69.862137 -94.901581
58.690350 -69.155731 -94.573853
61.013645 -70.269028 -95.056000
45.825302 -71.112442 -96.023376
58.245255 -69.751564 -96.108978
60.870560 -69.477707 -96.332939
67.984062 -68.784416 -96.156288
101.006538 -69.786011 -96.170334
100.959373 -68.636635 -96.363243
106.621468 -69.373985 -96.033058
-95.887665 -69.890572 -96.315697
47.994560 -70.183411 -96.495247
60.061825 -70.910774 -96.450829
99.361198 -70.649544 -96.002907
105.800415 -69.505447 -95.963692
99.355919 -70.488205 -96.444611
108.110245 -70.209427 -96.573380
45.336681 -70.395882 -96.741859
105.144661 -70.256004 -97.487518
-65.815338 -70.437561 -98.599167
44.558403 -69.355667 -98.066628
58.477268 -70.060150 -97.104836
60.190811 -70.659981 -97.147263
58.915001 -71.340515 -98.209473
70.234665 -69.251762 -97.262558
100.441643 -69.414803 -97.315498
102.134766 -69.983505 -97.281784
-96.563080 -69.399887 -98.166008
56.970486 -70.437027 -98.655724
99.906532 -69.830544 -98.338882
100.796272 -69.963409 -97.822327
105.161766 -69.746086 -97.484955
44.837124 -70.226448 -97.986511
46.300625 -70.840561 -98.316055
70.228172 -69.976517 -98.768188
98.581009 -70.795280 -99.284515
108.438179 -70.003700 -97.661263
-96.482994 -69.925667 -99.053001
-76.828484 -70.264542 -99.118515
46.350178 -70.114059 -98.889145
56.129372 -69.225800 -98.548317
103.267815 -70.293427 -98.740128
105.593407 -69.581535 -99.061630
-77.571121 -70.032959 -98.975067
-74.679482 -70.192413 -98.838066
44.637741 -70.027786 -99.384941
45.848476 -71.519798 -99.688972
57.967918 -70.345535 -99.200142
106.064178 -69.915710 -100.240242
109.026260 -69.986900 -99.851250
55.950222 -69.605644 -99.824898
70.237885 -69.589699 -100.363869
103.471382 -70.460335 -100.287033
-74.278496 -69.675400 -99.446289
-68.206734 -69.345795 -100.609039
42.947563 -69.474396 -100.469559
57.761669 -70.273804 -99.562508
57.524986 -70.194389 -101.002502
71.640617 -70.735123 -99.818336
72.227188 -69.311913 -100.116356
-75.302162 -70.351036 -101.027168
-73.678505 -68.578362 -100.928833
-69.674149 -69.961319 -101.059692
45.597374 -69.466858 -99.734550
101.134544 -69.544601 -100.038704
106.109779 -69.727333 -99.961105
106.254601 -70.120773 -100.662971
109.264397 -70.057251 -100.487900
-80.265236 -71.275795 -100.304138
-73.177589 -70.419136 -100.420471
-71.753189 -70.878540 -101.016891
54.562107 -70.605347 -101.547707
72.549881 -69.098709 -101.806259
72.697632 -69.257034 -100.505608
98.451500 -69.503052 -100.259514
101.356537 -70.327797 -101.172096
104.119553 -69.944984 -101.567001
106.263916 -69.793877 -101.913948
-80.954285 -70.650963 -101.758766
45.499241 -70.047668 -101.222771
56.594234 -70.255409 -101.400925
74.220932 -71.039459 -101.675789
97.550377 -69.555626 -101.211662
104.346977 -69.982155 -100.914017
105.358101 -69.540207 -101.228104
-81.206017 -69.997467 -102.344864
42.670841 -70.119331 -101.241707
54.345657 -69.667007 -100.770409
56.688179 -70.450325 -101.521393
75.467743 -70.353996 -102.346230
108.867424 -69.724762 -101.240150
52.648270 -70.299843 -102.350800
101.461868 -69.595329 -101.569481
107.142189 -70.061150 -101.952560
-81.387222 -70.373352 -102.397842
-82.356682 -70.603073 -102.909958
42.269764 -70.128265 -102.800446
44.439552 -69.822891 -101.584801
56.010441 -70.357277 -102.187675
73.729431 -69.655342 -102.236801
95.930962 -70.541115 -102.367249
105.779358 -69.194275 -102.521782
-96.145180 -69.446991 -102.205009
41.595062 -69.896713 -102.587082
52.858883 -70.284790 -103.645935
74.308289 -69.834381 -102.683495
75.014610 -70.287170 -102.492195
82.722748 -70.566406 -103.068436
102.751671 -70.211334 -102.351433
104.219337 -70.042809 -102.171806
104.900429 -69.731606 -103.083031
55.381760 -70.522331 -102.936707
84.710571 -69.900520 -103.653633
106.641411 -70.168053 -103.192368
106.428810 -69.964455 -102.300079
54.879780 -69.855057 -103.939163
77.877884 -69.925545 -103.074562
81.964500 -70.513496 -103.454277
84.956688 -69.600662 -104.071442
93.169807 -70.806473 -104.457733
105.724831 -68.947159 -104.295135
110.292213 -70.681122 -103.736694
41.176075 -70.148712 -104.110786
52.117096 -70.755714 -103.754166
53.790630 -70.680473 -104.374405
75.234520 -69.635986 -103.029648
80.397484 -70.322723 -104.234543
85.688614 -69.948944 -103.525787
86.675026 -69.906181 -104.299919
91.683418 -70.602203 -104.275246
101.937706 -69.621063 -104.135437
43.909035 -69.821083 -104.560349
51.617813 -69.883263 -104.213524
78.008919 -69.153603 -104.462502
79.286804 -69.383675 -104.692886
93.467461 -70.092171 -104.167770
102.804253 -69.646828 -104.535645
105.381226 -69.624382 -103.938423
106.602928 -69.191772 -103.749435
110.742035 -70.380363 -105.691116
-96.071037 -69.828033 -104.282669
40.622459 -69.913689 -105.637825
49.862061 -68.624908 -105.282585
53.668167 -70.302345 -104.590942
91.344757 -69.939529 -104.909668
102.872505 -70.254532 -105.674789
106.635918 -69.982483 -104.284241
-96.465126 -70.012581 -105.723595
-83.660164 -69.615242 -105.082672
53.388519 -70.293404 -105.307922
87.478683 -70.046623 -104.642075
91.727867 -70.098358 -105.297661
106.196960 -70.241211 -105.338402
107.284119 -69.157425 -104.881081
-83.512848 -70.097397 -105.698318
50.847534 -69.950562 -105.294762
105.851379 -69.709793 -105.228577
107.596611 -69.971024 -105.957588
-96.210106 -70.012459 -106.027885
43.405354 -69.856430 -105.576828
50.080112 -69.906860 -106.122147
106.582352 -68.892532 -105.644997
-83.966667 -70.418884 -106.443611
39.522209 -69.866852 -107.819115
45.046497 -68.885338 -105.376282
52.302780 -70.165260 -106.666603
107.702866 -70.012207 -106.860405
43.366379 -70.046028 -106.448250
44.868320 -69.332520 -107.042351
52.781082 -69.531929 -107.249496
106.562027 -70.015350 -106.576164
-84.421143 -70.014267 -107.048531
42.519642 -70.275093 -108.458939
103.534317 -69.995827 -106.602074
107.650543 -70.278717 -107.095032
110.622810 -70.036331 -106.039925
43.839706 -69.749786 -107.506958
49.061798 -69.699699 -107.587303
51.994030 -70.240768 -107.294319
106.358841 -70.745628 -107.790215
48.220615 -70.121391 -108.054054
50.932224 -69.101288 -107.750450
103.861694 -70.162064 -109.343452
106.560112 -69.339592 -107.953407
39.290283 -70.322205 -108.940834
42.274212 -69.773132 -109.182510
50.966541 -69.366066 -109.220352
106.960312 -69.511803 -108.199463
108.046799 -69.930199 -108.392586
-96.417175 -69.459373 -108.029907
-85.963013 -70.876205 -108.848572
39.019333 -70.185120 -108.848915
46.560013 -69.280838 -108.115410
107.728371 -70.172012 -110.096893
108.714211 -69.609337 -108.946571
107.338005 -69.821259 -109.329910
111.511688 -69.836372 -108.499359
43.773991 -69.531654 -108.191521
50.633720 -69.560547 -109.454445
112.128349 -69.869591 -108.591225
-76.474625 -69.851654 -109.860977
41.420902 -70.806023 -110.120178
42.641132 -69.444992 -109.802933
45.438171 -68.927773 -108.292946
107.477470 -69.615997 -109.747803
-76.430290 -70.234177 -109.792976
-74.465065 -69.415421 -110.154732
44.910984 -69.985306 -110.494431
45.906391 -70.177567 -109.704979
104.268982 -69.625275 -110.015289
111.832794 -70.180832 -110.352287
-96.515015 -68.872597 -110.603775
-78.047943 -69.287193 -110.013237
-77.733345 -70.284225 -111.297600
-76.274323 -70.356094 -111.245552
38.389938 -70.111519 -110.720001
41.787411 -70.760078 -111.422882
103.683052 -69.938667 -111.222878
108.651154 -69.875427 -110.415108
-78.649963 -69.163620 -111.509132
44.024502 -69.688156 -110.217766
45.150661 -70.277046 -111.001411
49.340733 -70.205284 -110.654938
108.548706 -69.859222 -111.238899
-95.901360 -69.923836 -110.421616
-78.400101 -69.679131 -111.009262
37.444172 -70.292351 -111.657982
41.487289 -70.043510 -111.604431
43.783836 -69.679535 -111.971222
48.625084 -70.376373 -110.965431
104.076767 -70.410187 -111.526199
107.632805 -69.896347 -111.478638
111.771881 -70.055412 -111.534317
-75.693657 -69.899956 -112.405937
-77.553581 -70.030472 -111.859238
-77.296013 -70.007324 -111.921654
41.979023 -69.720993 -112.551544
43.096210 -70.084854 -112.352203
48.415428 -69.911690 -111.890251
108.326210 -69.663719 -112.033218
112.647667 -71.013245 -111.658051
-87.707611 -69.491997 -112.610832
-78.740112 -69.740944 -112.500221
48.052528 -70.180534 -112.424736
-79.306847 -70.136276 -113.139862
-79.290298 -69.649986 -113.028305
36.937912 -70.193863 -112.643013
41.476067 -70.483742 -112.466324
42.421047 -69.746658 -112.775925
109.455101 -70.057465 -112.622849
112.622810 -70.517502 -113.096001
-96.228210 -70.403351 -113.551437
-80.923485 -68.761566 -113.210197
-76.261185 -69.719589 -113.545616
104.991127 -69.936371 -113.321327
108.882286 -70.242119 -112.858238
111.608948 -69.070030 -113.961220
-80.914764 -70.272110 -114.708214
47.039703 -70.209312 -113.830269
113.270164 -70.574005 -114.590462
-88.412460 -69.991989 -113.831085
-77.002052 -70.332413 -114.946022
104.899490 -69.827728 -114.137978
37.622295 -69.513885 -113.475281
46.630951 -70.296417 -115.363632
45.504906 -70.073547 -114.785347
113.176804 -69.436165 -115.206955
-88.930420 -71.267105 -115.578171
-81.949837 -69.660118 -114.423851
36.960442 -69.713440 -115.335258
45.674992 -69.341072 -115.010223
105.964790 -69.548454 -114.661819
-88.830208 -70.679848 -116.494675
-82.492386 -69.728912 -115.481636
45.213070 -70.082649 -115.784523
-95.824974 -69.940918 -116.075005
-82.118874 -70.726105 -115.621498
-76.913483 -69.665329 -115.652313
43.831299 -68.761444 -115.418098
45.426796 -70.103294 -116.758949
106.148155 -69.987778 -116.196571
-78.432053 -70.339111 -116.826591
35.926437 -69.609398 -115.996513
43.733021 -70.027382 -117.035828
35.925339 -69.151505 -116.980835
45.388199 -70.876724 -117.175850
-95.809509 -70.184380 -116.797249
-90.419617 -70.892418 -117.308990
-82.805435 -70.320694 -117.767250
45.055008 -70.463692 -118.082100
113.938416 -69.974129 -117.770729
113.481873 -69.235374 -115.785492
-78.677406 -70.143768 -117.640495
35.088051 -69.739151 -118.171410
-90.827629 -70.383484 -117.712837
-83.432961 -70.174194 -117.720100
-78.209305 -69.044136 -118.330757
106.764915 -69.763565 -118.612518
-83.551346 -70.293312 -119.122551
-95.003471 -69.549965 -118.473068
-95.297379 -70.011703 -117.567680
-91.028297 -68.927399 -119.195511
113.992882 -70.339043 -118.468918
-78.630859 -69.995232 -119.015770
35.198681 -69.903229 -118.327034
-94.690109 -70.096672 -119.094337
-92.387001 -70.566666 -119.767067
-84.643066 -69.874680 -119.388107
34.051464 -70.056770 -119.189117
40.364658 -69.010399 -120.091423
106.634529 -70.071754 -119.638573
34.803177 -69.885017 -120.269478
-94.620331 -69.610237 -120.383827
-92.373314 -69.164368 -120.293861
-79.570374 -70.147316 -119.957550
107.129524 -70.360176 -121.105400
114.323364 -70.161400 -119.771461
-84.347275 -70.163651 -120.353271
114.405457 -70.399330 -121.265366
-84.574570 -69.983986 -121.349854
33.814358 -69.851326 -120.815498
40.646645 -70.435417 -120.908325
-85.239090 -69.654152 -121.607224
-80.660233 -70.075523 -121.568054
39.509018 -68.560509 -122.107033
-80.355003 -69.074814 -122.365936
106.880791 -69.947624 -122.090622
114.448036 -69.857452 -121.947617
-79.898422 -69.563393 -121.913872
33.537682 -70.094337 -122.689125
34.170479 -68.819931 -124.175453
41.265244 -70.106758 -122.234833
-80.659592 -70.146553 -122.472191
33.744080 -70.089645 -123.043907
41.864235 -70.638626 -123.318329
115.482750 -70.131332 -122.779839
-80.727356 -68.686714 -124.272934
-85.520554 -70.116959 -123.350365
-81.914528 -69.986092 -124.685310
32.561806 -69.853249 -124.420662
39.789967 -69.179558 -123.319542
107.353134 -69.333351 -123.635956
114.931435 -69.995796 -123.642334
-82.403412 -69.614105 -124.992455
-87.215660 -69.984795 -125.674644
-80.343910 -69.686409 -125.214890
-78.301178 -69.572601 -124.884552
-77.851395 -69.993309 -124.591881
-77.554489 -69.739342 -124.905060
-59.149136 -69.287834 -124.751938
32.056862 -69.758278 -125.633400
33.113503 -69.933403 -124.876144
40.074200 -69.110596 -125.066460
108.416397 -70.476158 -125.251488
-77.215363 -70.131981 -125.913521
-55.996521 -68.974861 -125.496071
115.188995 -70.211395 -125.581268
-78.472580 -70.038208 -126.519073
-60.161060 -70.346474 -125.602112
-58.246899 -69.814636 -125.799713
-58.755337 -70.093735 -126.161125
-55.740383 -69.664391 -126.559425
39.474014 -69.440933 -125.632942
39.916431 -69.475456 -126.184517
108.795036 -70.348488 -127.455139
-87.064743 -70.009407 -126.084679
-78.445107 -69.745796 -125.691994
-75.983856 -69.735123 -126.402321
-60.581039 -69.237694 -126.156662
-55.395386 -69.564903 -127.294128
-87.208374 -69.737846 -126.246048
-83.420265 -70.114143 -126.309380
-79.262833 -71.047478 -127.761765
-77.519005 -69.959938 -126.848930
-75.683296 -70.147957 -127.145119
-55.330421 -70.584679 -127.316353
32.488331 -68.957474 -126.757301
108.586227 -69.531563 -127.097221
-60.176353 -69.877754 -126.705177
32.739494 -68.868477 -128.350571
114.383209 -70.122177 -127.738419
-86.790405 -70.354279 -127.520134
-84.341347 -70.319244 -127.613976
-81.919304 -68.983948 -127.737206
-75.245911 -69.170181 -127.510300
-60.902660 -69.635368 -127.123695
-53.785328 -70.378159 -127.982338
31.982370 -69.535828 -127.612991
-87.616753 -69.946991 -128.383789
31.840624 -70.065605 -128.203918
115.635742 -70.503502 -128.211441
-88.067490 -69.758949 -128.786346
-84.117073 -69.498848 -129.154739
-74.912552 -69.780724 -128.828247
-60.846542 -69.860451 -128.196213
-53.778351 -69.994507 -129.368942
31.463751 -69.764709 -128.504913
38.372406 -69.058289 -127.368874
108.679245 -69.376289 -128.513489
-86.276245 -70.494232 -128.837387
-57.181503 -69.409561 -128.578369
-56.253803 -69.766243 -128.804733
38.671558 -69.896606 -129.651306
115.114342 -70.673470 -128.934555
-84.964462 -69.592819 -129.173065
-79.491486 -69.917511 -127.487900
-56.534878 -69.525009 -129.065643
-53.270729 -70.974876 -129.091675
-86.889427 -69.379471 -129.526321
-60.898945 -70.218170 -129.669495
-57.719372 -69.298355 -129.248352
-57.320503 -70.162048 -130.245956
31.592049 -70.645073 -128.654709
115.980789 -70.073410 -129.541748
-84.828690 -69.924667 -129.520187
-80.225815 -69.368523 -130.057068
-74.540367 -70.027000 -129.872116
-55.679276 -70.455551 -129.910904
-52.179180 -70.380295 -129.625824
39.180912 -70.248436 -130.828598
115.803665 -70.308830 -130.411728
-86.793449 -69.858589 -130.970566
-86.527748 -70.194023 -130.948441
-73.574974 -69.767990 -131.644867
-58.045353 -70.025864 -130.615982
-55.134296 -69.754227 -130.370758
-54.629143 -69.878975 -130.663559
31.467709 -69.884834 -129.850693
38.318386 -69.473343 -130.342773
-87.630592 -70.023636 -130.233978
-85.764839 -69.694199 -130.737122
-84.452995 -70.066063 -130.385345
-80.301208 -70.246979 -131.760300
-58.409573 -70.501228 -130.793472
-51.063816 -70.100075 -130.993652
109.832794 -69.097069 -130.963654
115.353668 -69.694176 -130.999374
-88.668091 -70.261688 -131.046082
-61.393009 -69.468361 -130.488022
-49.414154 -70.323479 -131.362961
30.224302 -69.464890 -130.385223
109.285522 -70.151909 -131.275986
-87.819870 -70.358192 -132.131317
-86.174225 -69.745667 -132.086212
-57.125301 -70.598404 -132.170471
-53.247543 -70.059700 -131.642502
38.216469 -69.895096 -131.579376
-72.998100 -70.064690 -132.321884
-53.451557 -70.084152 -132.280319
-49.497345 -69.867859 -131.767410
109.081421 -69.865616 -131.939926
115.679665 -69.896072 -131.892395
-89.227371 -70.233643 -131.865051
-79.616173 -69.886559 -132.089294
-61.349255 -70.115959 -132.791183
29.595530 -69.500183 -132.348618
37.200806 -69.661858 -133.421600
109.419167 -70.943024 -132.415924
-89.956512 -69.188881 -132.258972
-86.635941 -69.860046 -132.229324
-79.956825 -70.400673 -133.426346
-72.579811 -70.216843 -133.214279
-58.268032 -70.082405 -133.553864
-52.715809 -69.908607 -132.957306
-48.955605 -69.589836 -133.018356
37.711819 -69.877281 -132.926590
115.357452 -70.143501 -132.639832
-89.443909 -69.899879 -133.592255
-88.898483 -70.230782 -132.771942
-86.996681 -69.618591 -133.131195
-75.552185 -69.990768 -133.076019
-60.457996 -70.225578 -133.460022
116.090012 -69.659714 -133.665237
-86.519806 -69.434471 -133.749329
-76.098274 -69.698105 -134.454865
-71.984703 -70.142769 -134.029083
-59.374184 -69.471611 -133.610916
29.455641 -70.427399 -133.408630
109.828659 -69.925270 -134.236008
-87.094734 -69.484085 -134.182159
-87.078133 -69.783150 -134.333359
-74.694092 -69.845192 -133.873810
-50.989990 -70.379593 -134.019623
-48.481625 -69.570869 -133.867813
36.549217 -69.952614 -134.338593
-88.302032 -69.961937 -134.282028
-87.372093 -69.632561 -133.669861
-75.712036 -69.470680 -135.198456
-60.379353 -70.001640 -134.294144
-58.743515 -69.993416 -134.241623
-50.645714 -70.380516 -135.170258
-48.339802 -70.223450 -133.978729
116.580353 -70.540672 -134.137192
-89.337891 -69.408600 -134.262604
-79.370964 -70.558739 -135.005661
-60.808262 -70.652016 -134.947861
110.032539 -68.967064 -135.418900
-71.874069 -69.689003 -134.871887
-50.974934 -70.060860 -134.592285
-90.207558 -69.693336 -135.098923
-89.817406 -69.979080 -135.260147
-74.356133 -69.657745 -135.606171
-49.415485 -69.800797 -135.673965
28.644449 -69.676750 -135.982986
29.416510 -69.394241 -135.488968
36.468960 -69.383217 -135.714874
110.127319 -70.048889 -136.016663
-89.512024 -69.540352 -136.516266
-88.745438 -69.672287 -135.859985
-71.564232 -69.402512 -136.259521
-60.231949 -71.072044 -136.475006
-59.474949 -69.852600 -135.582016
115.845787 -69.421875 -135.840164
-88.741684 -69.392799 -137.020599
-74.102173 -69.965141 -135.994202
-49.568306 -69.879837 -136.660339
37.424305 -70.927940 -136.496750
115.856018 -70.151184 -135.119995
-76.681854 -69.892418 -135.485626
-72.009903 -69.830231 -137.396530
-58.545048 -70.119995 -137.102325
110.500610 -69.317787 -136.598801
-80.256294 -69.764381 -136.177933
-74.317307 -69.798294 -136.672989
-60.130630 -71.537018 -137.419098
-90.512039 -69.137299 -137.046494
-89.511627 -69.338913 -136.955643
-74.985573 -69.819038 -137.580902
-71.116310 -69.029747 -137.715179
-49.044113 -69.501778 -136.876129
27.906168 -70.460167 -137.045105
36.513260 -70.272903 -137.654282
110.650635 -69.620201 -137.541428
-73.495255 -70.003990 -137.904449
-60.613174 -70.367371 -138.286636
-46.507095 -69.594902 -138.276138
27.052916 -69.599792 -137.424774
27.725555 -69.182312 -136.980774
36.264336 -70.206078 -138.692673
110.051788 -70.098251 -137.109787
-71.009621 -69.421684 -138.750458
-58.306366 -70.061394 -138.528809
35.939545 -69.462265 -138.073944
116.479881 -69.978226 -137.689651
116.040421 -70.054550 -137.913376
-90.200180 -69.300293 -139.466736
-75.505386 -70.113907 -139.092453
-73.139168 -69.712204 -138.610641
-78.527596 -69.976997 -138.860916
-72.888435 -69.741364 -139.881989
-70.742500 -69.507408 -140.067520
-58.201836 -69.462791 -139.057114
-46.167213 -70.031540 -138.399307
27.372890 -68.920410 -139.069229
110.492371 -69.380806 -139.289322
116.053337 -69.674583 -139.210831
-78.218437 -69.628868 -140.631546
-74.987160 -69.721603 -139.729248
-74.827179 -70.246635 -140.175873
34.769302 -69.215004 -138.926041
115.723938 -68.991989 -139.503113
-74.112740 -68.733444 -140.325424
-69.848389 -70.117653 -140.337509
-57.027885 -70.167236 -139.791931
-48.225513 -69.292419 -140.209015
112.212715 -69.010643 -139.957108
-74.235344 -69.582054 -140.687790
-60.151913 -70.591118 -139.560791
-47.047577 -70.757309 -140.042252
35.577744 -69.926743 -140.463699
-78.212395 -70.177200 -140.803726
-72.770126 -70.210281 -139.864975
-73.181313 -69.231888 -140.928299
-57.593140 -70.847046 -141.310837
27.136395 -69.525848 -140.488602
27.821270 -70.098251 -140.987396
35.635796 -69.545807 -140.834808
110.289169 -69.552475 -139.674423
116.208908 -70.258606 -140.252945
26.383642 -69.414330 -141.404861
112.082474 -69.211960 -142.042892
-74.104225 -69.708488 -141.642059
-73.477654 -69.713219 -141.856812
-70.146049 -69.531311 -141.842651
-47.646675 -70.127724 -141.480362
-45.105965 -69.819313 -141.137741
115.226112 -69.722061 -141.614166
-77.439117 -70.416397 -141.861984
-74.294823 -70.482841 -142.271973
-72.769440 -70.531944 -142.259506
-69.975792 -69.508492 -142.128189
-69.921341 -71.344948 -142.112717
34.829346 -69.793365 -141.642105
116.739197 -69.530960 -141.595245
-76.801300 -69.664070 -142.949310
-73.327324 -70.387840 -142.269272
-56.798542 -69.556282 -142.563126
35.322376 -70.697105 -142.133347
-72.367210 -70.604774 -142.369598
-58.166321 -70.166245 -142.270325
-47.946926 -69.905403 -142.303299
-44.529217 -70.496674 -142.320053
25.743309 -70.204269 -142.054489
34.461899 -69.782158 -142.425858
116.384010 -70.282913 -143.580261
-74.023979 -70.358261 -143.028931
-58.131073 -69.458199 -143.883194
115.631966 -69.850922 -142.684906
-77.192574 -69.316788 -143.246811
-72.097809 -70.456490 -142.909271
-74.037308 -70.200951 -143.910446
-69.240143 -69.816048 -142.812622
-56.286148 -69.547325 -142.805603
-47.796932 -69.990044 -143.031204
-43.504967 -70.131805 -144.009933
111.476295 -68.859314 -142.546448
-76.604820 -69.543221 -144.700348
-68.782188 -70.123871 -144.127197
-70.063812 -68.912964 -144.337265
26.139656 -69.740135 -143.418076
34.080791 -69.561646 -144.114243
110.164299 -70.314636 -143.094727
-57.876942 -69.773819 -144.544342
-55.314362 -70.022072 -144.590317
-48.331463 -68.855392 -145.699463
-46.933811 -69.461426 -144.173050
26.252115 -69.427498 -145.270325
33.960419 -69.954437 -144.782745
-75.597496 -69.868027 -145.033737
-54.655746 -69.493561 -145.548035
-46.481792 -69.594688 -145.147842
34.657116 -70.745171 -145.222183
33.359074 -69.251823 -145.770523
111.521210 -69.298424 -145.205231
115.477180 -69.471359 -143.709381
-68.838669 -70.027840 -144.973938
-48.864101 -68.983139 -145.580460
17.592346 -69.252708 -145.639252
110.740547 -69.488068 -146.318466
116.238701 -70.288597 -145.975662
-76.666656 -70.353424 -146.087280
-57.177940 -68.666985 -146.348328
-53.911377 -70.216881 -145.788528
-43.628647 -69.562485 -145.330292
24.899511 -69.983788 -145.492645
26.264622 -68.643646 -146.434952
114.466133 -69.080193 -144.493179
115.748306 -69.578217 -145.686813
-68.121597 -69.754280 -146.785690
-53.680500 -69.699203 -146.601654
15.992250 -70.019249 -146.497238
33.055462 -70.006577 -146.382309
-76.030258 -69.876595 -147.202942
-42.604271 -70.373787 -146.581299
17.512383 -69.919868 -146.703873
24.663858 -70.010941 -146.099319
33.048470 -70.032059 -146.812042
32.910549 -69.866661 -148.285080
111.890266 -69.176140 -146.695770
-75.748856 -69.852089 -146.500687
-53.281372 -70.293610 -146.999451
-52.033295 -69.443504 -147.236160
-46.693573 -69.624641 -147.343124
-46.366718 -70.119553 -147.619125
15.505782 -69.909142 -147.908539
16.381916 -69.645233 -147.111359
16.886026 -70.269043 -147.878632
18.226818 -69.621948 -146.748611
24.471077 -69.672455 -147.795776
114.872391 -69.448677 -147.468155
115.977966 -70.576241 -147.612976
-74.685333 -69.094818 -147.724945
14.076179 -70.287979 -147.741135
18.871031 -69.755280 -147.419067
24.284130 -69.343712 -147.844849
110.569199 -70.397392 -146.403931
-67.529594 -70.536972 -148.006210
-47.240047 -69.971741 -148.080887
-42.451515 -69.893250 -148.598007
17.667555 -69.867180 -147.135590
24.422031 -69.047806 -148.695847
32.379818 -68.938644 -148.625610
112.035881 -68.841156 -146.803680
-74.559784 -69.642334 -148.651215
-74.414909 -70.049858 -149.359543
-54.616505 -69.962471 -148.902039
-52.065327 -70.705910 -148.397507
111.481224 -69.149170 -148.848557
113.281715 -69.102493 -149.232529
115.101288 -70.210907 -148.898651
-68.491776 -69.048279 -146.650864
-51.840530 -70.132759 -148.692093
-50.011410 -69.940590 -148.929688
13.131041 -70.582825 -148.481613
23.611433 -70.128983 -149.539856
110.527870 -70.745987 -149.275070
-74.322693 -69.871620 -150.334793
-50.763630 -69.789444 -149.155029
-48.961922 -68.992317 -148.217758
-46.911625 -69.551346 -149.477798
-42.145199 -69.849449 -148.989944
17.747654 -69.955315 -148.993790
33.396091 -69.544281 -149.469894
-67.998207 -70.279991 -149.192703
-50.757889 -70.055214 -149.879547
11.912962 -69.591019 -149.628372
114.421371 -69.020157 -149.145004
-68.980118 -69.458809 -148.455826
-49.123169 -70.001755 -150.444229
-46.908657 -69.675438 -150.558609
-45.695915 -70.024071 -149.367966
-41.619247 -69.658699 -149.758545
18.562933 -69.950592 -150.010895
31.894152 -70.013260 -150.619385
32.320278 -70.006592 -149.421295
115.871941 -69.829910 -149.672028
-54.277184 -69.908539 -149.538712
-49.825230 -70.088364 -150.790466
10.555420 -69.795891 -150.164993
17.684608 -70.786690 -150.855881
23.756094 -70.351425 -149.708282
27.778503 -69.754860 -152.381195
111.894760 -69.358551 -148.903595
114.399437 -69.370819 -151.044632
115.647919 -70.801208 -150.710876
-53.790207 -70.059654 -151.208420
-52.934761 -69.608643 -150.909744
-46.644493 -69.978462 -151.976120
-44.648258 -70.603065 -151.387726
-41.456284 -70.016273 -151.481888
28.707602 -70.298531 -150.479797
113.412132 -69.412804 -151.066208
-73.882462 -70.112991 -150.455078
-72.225006 -69.229904 -151.465454
-48.112045 -69.640518 -150.106033
-45.611130 -69.959671 -151.100937
9.885795 -70.206490 -151.181320
17.439966 -69.832542 -151.623901
31.107910 -69.383194 -151.999924
112.139290 -69.362564 -152.213013
-69.087776 -69.934296 -151.415634
-67.674507 -69.531319 -152.024597
-52.636524 -70.741905 -151.378952
9.767962 -69.522224 -151.760590
22.974817 -69.865204 -151.674286
-72.364616 -69.459663 -151.943314
-70.951118 -69.610893 -152.075348
-68.442276 -69.522926 -152.168350
-48.783394 -69.747032 -151.608902
-45.533813 -69.626549 -151.995850
9.369607 -70.310654 -152.178284
16.366796 -70.521156 -152.365829
110.335587 -69.994164 -150.928528
-69.785690 -69.220299 -151.830124
-51.858490 -70.011192 -152.510712
-40.437710 -70.107147 -152.285995
8.402164 -70.501030 -152.720566
22.942341 -70.291954 -152.603882
110.454834 -70.371986 -152.260880
115.274818 -69.830482 -151.952682
-71.121529 -70.352211 -153.246796
-68.155037 -69.173813 -152.113541
-47.622856 -69.737381 -152.338776
-44.706478 -70.006485 -152.661499
-40.887669 -68.455063 -152.949356
16.460247 -69.821999 -152.225616
25.688047 -69.997589 -153.782364
26.429331 -69.629822 -152.115128
27.511511 -70.020622 -152.826843
31.258505 -69.614441 -152.836731
111.768135 -69.347404 -152.974472
114.518028 -69.130829 -152.560394
-70.912758 -69.445320 -152.950424
-69.048264 -69.241440 -153.458206
-45.649223 -69.633598 -153.859955
8.057110 -70.243523 -153.579666
-44.884464 -69.506958 -153.396362
-40.433933 -69.532036 -153.515640
15.942056 -70.063927 -153.989838
31.541821 -70.024399 -154.346619
-69.700439 -68.894852 -153.857178
-69.078156 -69.793983 -154.909821
7.578597 -69.887001 -154.319138
15.058212 -69.448204 -154.429886
-69.256393 -69.761398 -154.740356
-66.848335 -70.073654 -154.500031
-51.064800 -70.204567 -154.844437
-39.967396 -69.385338 -153.908051
22.176884 -70.109749 -153.790009
110.257782 -70.587746 -155.057587
114.461731 -69.377312 -154.854965
-69.907944 -69.478271 -155.037872
-68.292885 -69.486992 -155.476990
-44.998222 -70.225266 -154.918594
6.796874 -70.213310 -154.718979
15.147587 -70.342987 -154.600037
22.937292 -69.268753 -155.100067
26.915930 -70.506744 -153.468857
28.676764 -70.180946 -154.353333
114.385117 -69.601746 -155.405365
-49.185162 -69.707909 -155.469254
-43.368427 -70.427864 -156.443893
-38.976921 -70.099037 -155.018845
7.694827 -69.539574 -155.963013
-45.250622 -69.717659 -155.985153
6.264198 -70.156479 -155.528061
111.684212 -69.300041 -155.233643
-49.797424 -69.967934 -155.689056
6.538371 -69.202972 -156.721680
14.317593 -70.417847 -155.708694
13.791540 -70.153847 -156.371658
22.381392 -70.471535 -155.243546
26.708935 -69.454010 -155.556534
110.425560 -70.098221 -156.108688
112.217590 -69.662003 -155.363525
115.384438 -70.535149 -157.251404
-39.315029 -69.749397 -156.598572
5.858705 -70.104568 -157.478958
13.579791 -70.190918 -156.847641
112.215057 -68.978561 -156.528671
13.089877 -68.888924 -157.246231
13.696084 -69.947395 -156.830368
24.787863 -69.728043 -156.489700
26.125046 -69.922676 -156.200394
31.593719 -70.160828 -156.647034
-48.602772 -69.537460 -157.191360
6.026499 -69.047569 -157.348724
12.455614 -69.476425 -157.678513
13.918645 -69.843658 -157.564972
14.639087 -69.117050 -157.560196
30.923674 -69.193192 -157.343933
109.893913 -70.161751 -157.064972
-48.192356 -70.123901 -158.289398
-38.328876 -69.750900 -157.706146
5.419077 -69.833832 -157.546127
11.640658 -68.843910 -157.832687
12.442483 -69.754539 -157.994385
13.587252 -69.950806 -157.351776
14.478659 -69.977791 -158.002625
27.738384 -70.017052 -157.405258
112.332977 -69.278893 -157.942734
115.428520 -70.683701 -158.535660
6.558559 -68.958572 -157.415649
9.851746 -68.301559 -157.705490
10.380038 -69.625252 -158.522598
11.148537 -70.090752 -158.776245
13.333377 -69.982819 -158.079956
13.328327 -70.617500 -158.234070
15.251285 -70.470901 -157.587921
14.448384 -70.009392 -158.259354
20.920155 -70.041725 -156.973007
25.252317 -69.498909 -158.537842
110.484779 -70.383133 -157.958206
111.165253 -69.113197 -159.028107
113.697517 -69.617928 -158.951385
-46.686638 -69.198990 -158.525711
5.452156 -70.245064 -158.452148
9.565666 -69.485634 -158.723251
10.731234 -70.662308 -159.230515
13.952575 -70.044556 -158.473312
14.648528 -68.823563 -158.650833
-47.824100 -70.200645 -158.248413
-38.370693 -69.904228 -158.077393
6.103898 -69.862114 -158.376602
7.166971 -69.842224 -159.446808
7.918886 -69.458084 -158.470367
8.976668 -69.649765 -158.730667
7.207324 -69.993912 -159.503342
10.443290 -69.571724 -158.894745
15.279887 -70.441956 -159.124268
25.409100 -69.271385 -158.138214
26.684031 -69.685005 -158.633820
30.458645 -69.762703 -158.182526
114.326385 -70.131310 -158.656143
-46.429268 -69.631470 -159.289032
6.397193 -69.895142 -159.155457
13.502694 -70.058395 -159.685715
13.939610 -68.878418 -159.074554
110.128532 -69.794876 -159.499237
112.065819 -69.389282 -160.042343
-47.337563 -70.045944 -160.088989
-37.484886 -69.014778 -160.216476
-35.097134 -70.663536 -159.613342
20.900789 -70.577225 -159.570648
30.970812 -70.326477 -160.533020
114.586861 -69.816399 -159.129486
-36.302891 -70.069473 -160.505753
24.269081 -69.700073 -158.296631
23.110836 -69.584251 -160.722000
26.726233 -69.747215 -160.069519
111.507462 -68.619026 -159.721329
115.503761 -69.779221 -160.933594
25.939142 -70.114273 -160.277008
110.238075 -69.700905 -160.263458
24.636681 -69.568024 -160.457764
26.772188 -70.202744 -160.447388
30.561775 -70.774971 -162.124863
113.101204 -69.917023 -160.778000
-45.459885 -69.791313 -161.453217
-44.701839 -69.423370 -161.161377
20.477219 -70.271347 -161.633148
22.992104 -71.017273 -162.660751
25.484411 -69.888542 -162.007797
109.109406 -70.190948 -162.180603
-44.401642 -69.672783 -162.708252
23.975616 -69.775963 -164.002060
29.939499 -69.669792 -162.405350
25.964720 -69.925461 -162.822815
27.118301 -69.985428 -161.294250
110.754478 -69.388588 -163.027054
111.926430 -69.008621 -161.781830
113.408112 -69.279930 -161.453659
-44.823395 -70.303993 -163.334991
-35.625736 -69.601364 -162.075424
-43.565914 -69.487343 -162.468445
-35.201057 -70.032303 -163.238312
19.465008 -69.293808 -162.741730
113.691467 -69.475220 -162.224518
-33.772606 -69.829796 -164.317734
22.261925 -69.969765 -163.067993
25.418312 -69.666870 -163.061020
29.486195 -70.268135 -164.195267
111.455170 -68.688499 -164.944366
-44.457218 -69.891899 -164.227478
25.386267 -69.541344 -164.908646
26.644293 -69.621307 -164.002228
30.004021 -70.741333 -164.986053
109.514084 -70.734459 -163.993759
113.174675 -69.572456 -163.802582
-44.027264 -69.819122 -164.773682
-33.604500 -70.406769 -165.085342
110.018051 -69.819534 -165.337143
113.027351 -69.866982 -165.460907
-43.571457 -70.192513 -164.546387
23.042465 -69.729210 -166.677856
23.661129 -69.685593 -166.525757
29.218540 -69.914230 -165.911453
114.838577 -71.020340 -165.112244
-43.058189 -69.311760 -165.507019
19.043053 -69.766563 -165.057892
112.273048 -69.584419 -163.654510
24.996447 -68.764481 -164.847244
26.892622 -69.964302 -165.993149
-32.206116 -69.567230 -166.299408
-33.282585 -69.617928 -164.612747
21.794031 -70.298416 -167.762405
110.188148 -69.558426 -165.593582
-42.197636 -69.258186 -166.657059
25.066675 -69.786728 -166.552948
26.053497 -70.428436 -167.419052
113.874123 -69.840103 -166.511398
112.318878 -69.594406 -167.252762
-33.612141 -69.147285 -166.511093
25.979853 -69.242447 -166.319641
29.842142 -70.201576 -167.120316
109.571594 -69.589272 -167.014130
-41.775650 -69.566963 -167.131546
19.289783 -70.242401 -166.689865
110.643372 -69.689163 -166.832809
-42.112816 -70.697906 -168.189438
26.103638 -70.261292 -168.237961
109.940971 -69.083679 -167.567551
-41.226627 -69.969269 -168.368652
24.091545 -68.388687 -168.776840
29.020517 -70.054901 -168.009506
112.074234 -69.776077 -167.833496
-41.328522 -69.733894 -168.218399
-40.892738 -69.699883 -169.468857
-31.940615 -69.235207 -167.646210
-31.177570 -69.992325 -168.468048
23.073410 -69.374474 -168.575974
108.844101 -69.935707 -168.469406
112.695328 -70.623764 -169.288940
-39.072422 -68.199654 -169.471970
-30.815166 -69.680336 -169.141953
28.727579 -70.298584 -169.276855
110.167664 -70.488358 -169.276932
112.098152 -69.736588 -167.454620
18.532314 -69.958221 -168.331512
25.144531 -69.650368 -168.858170
108.865356 -70.361671 -169.044815
111.016785 -69.342751 -168.570374
-41.070400 -70.317535 -170.051193
-30.409712 -70.676094 -169.913574
23.972143 -68.636909 -168.748962
25.996195 -69.691284 -169.424515
20.532261 -70.011932 -169.456146
21.980860 -69.359138 -169.134689
27.645182 -70.251007 -169.725739
111.345993 -69.893303 -170.064484
111.697075 -69.220306 -169.635345
-30.814610 -69.323784 -170.127182
26.148458 -69.626129 -169.982559
109.681625 -70.078964 -170.305710
-40.355747 -69.305779 -171.312347
18.269638 -70.109001 -170.044159
21.612823 -68.883636 -171.109070
108.631088 -70.216591 -170.965546
109.247810 -69.507683 -171.751801
-39.414558 -69.374908 -170.945847
-30.753426 -69.660172 -171.563873
20.742014 -70.033607 -170.423126
24.906614 -69.129318 -170.776825
25.578630 -70.388031 -171.608475
28.193798 -69.209000 -171.134583
108.360840 -69.930122 -171.704803
110.397614 -69.373390 -171.282684
111.624542 -69.653778 -171.266632
-40.141407 -69.783768 -171.087021
28.279322 -70.070145 -172.082977
107.536102 -70.835861 -171.475540
-38.963078 -70.096542 -172.303162
17.334118 -70.420044 -171.345428
20.829025 -69.120522 -172.226837
24.364943 -69.124367 -172.120514
27.752253 -69.576454 -172.242065
108.890732 -69.825851 -172.922043
-29.491684 -69.963539 -172.497253
109.478188 -69.375977 -173.337967
112.120583 -69.567940 -173.744461
110.616302 -69.245766 -173.028946
-38.550583 -69.900986 -173.349731
-28.637756 -70.270401 -172.930130
17.193359 -70.264671 -173.354019
20.697008 -68.695358 -172.931229
27.968819 -69.773796 -173.239792
108.440544 -70.059982 -171.929932
-36.652489 -69.091362 -173.961227
-28.358597 -69.618706 -173.754120
24.686823 -70.041725 -173.888580
108.969505 -69.521141 -174.040833
-37.937584 -69.571808 -174.779831
-28.085491 -70.018745 -174.475540
19.779963 -69.575653 -174.267914
25.599834 -69.992226 -174.521423
27.539200 -70.529938 -174.447388
-150.605515 -68.626137 -174.480621
-146.944504 -69.798180 -174.529373
-36.864609 -68.964760 -174.553986
16.912607 -70.171288 -174.137421
23.708721 -69.050995 -175.519302
109.595871 -69.917313 -174.352890
-150.921173 -70.241241 -175.261703
-106.943054 -69.765297 -175.887558
19.111038 -69.309296 -174.721893
20.000099 -70.010048 -175.085526
25.056458 -70.246307 -174.869507
109.417419 -70.568245 -175.336060
-142.443405 -70.698891 -175.613037
-36.520290 -69.822800 -175.700684
-35.536247 -68.261238 -176.618195
-28.948336 -68.190407 -176.724716
26.663948 -70.605576 -176.297226
110.497276 -70.537445 -175.604248
-106.304497 -69.159927 -176.158203
-35.944973 -69.883972 -175.366318
-26.044901 -70.907150 -175.865479
16.049532 -69.931976 -176.570587
-151.879257 -70.212257 -176.264633
-141.713654 -70.654129 -176.548935
18.732389 -69.967819 -177.157410
20.495569 -69.406105 -176.052551
25.207275 -70.271484 -176.104767
109.920769 -69.966637 -176.999420
-107.134171 -68.734627 -177.242722
-36.511650 -69.422676 -177.230911
-26.949423 -69.569023 -177.003525
106.893204 -70.380821 -176.555374
108.898972 -69.562012 -175.845123
110.004128 -70.917152 -176.208435
-25.671429 -70.139267 -177.817642
18.956648 -69.791801 -177.762802
20.470112 -68.452637 -177.601379
27.253517 -70.122108 -176.462921
-152.098694 -69.526627 -177.128326
-141.753265 -69.960968 -176.604950
-36.312027 -70.386864 -177.443161
-35.814423 -69.376266 -177.072525
15.200583 -69.777702 -178.560074
26.929264 -70.092583 -177.495789
107.894249 -70.030762 -177.875793
108.862267 -69.662262 -176.842789
18.585863 -69.411247 -178.398056
109.107964 -70.088661 -177.821075
108.779831 -69.833015 -178.204453
-107.640892 -69.175385 -178.569336
-36.053360 -69.773674 -178.195740
18.241117 -71.075584 -178.969223
23.654482 -69.548065 -178.151443
-152.315063 -70.126694 -178.299744
-152.366318 -69.024651 -178.919617
-141.504059 -70.138702 -178.654572
-106.871826 -69.187569 -177.893707
-35.239040 -70.501656 -179.818924
-25.339113 -69.053299 -178.399063
24.038662 -69.906479 -178.839081
25.912146 -69.622070 -179.044418
-106.544014 -68.723427 -179.485367
-34.063320 -69.919350 -178.836990
15.508742 -70.894928 -179.431564
18.157543 -69.487289 -180.217590
107.034073 -70.094307 -180.588669
107.614304 -69.989410 -178.890213
-152.326355 -70.597069 -179.818008
-141.757202 -70.147774 -179.623489
-24.154930 -69.356125 -179.345901
108.682434 -70.190063 -180.546616
107.863274 -70.083748 -180.310837
-108.872437 -69.418144 -179.729401
21.927294 -69.828438 -180.259277
-151.722504 -70.952438 -180.510834
-107.408470 -69.520538 -179.487671
-34.120533 -70.184258 -180.671539
-32.733559 -69.753326 -180.913773
14.469756 -70.563530 -180.349106
17.377991 -69.821793 -180.583725
25.927948 -69.870911 -179.926010
-151.471420 -70.985611 -180.848083
-141.257416 -70.300339 -181.642670
-24.759466 -68.780197 -181.102219
26.503901 -69.837349 -181.618469
-141.177811 -69.291954 -181.354752
-109.164482 -69.223259 -181.100403
-107.921158 -69.421181 -181.044540
-23.935522 -70.146095 -180.723221
14.731566 -70.158440 -181.822144
106.520630 -70.887512 -181.437683
-153.137512 -69.215912 -181.970810
-141.047867 -70.733856 -182.218979
-108.575851 -69.624031 -181.500519
-109.635071 -70.077835 -181.334106
-107.605827 -69.701103 -181.432541
-33.692596 -69.231995 -181.114090
17.758486 -69.407928 -181.951996
23.609655 -69.817253 -181.612091
26.371027 -70.824257 -181.879639
-152.149826 -71.141479 -181.398148
-106.878906 -69.324966 -182.832581
-32.806015 -69.758995 -182.425385
14.597352 -70.009911 -182.095535
15.425144 -69.716743 -182.026581
17.027731 -70.246559 -182.306213
105.962967 -70.061325 -182.562775
-141.472260 -70.828491 -182.037384
-108.764473 -70.398247 -182.746597
-108.015060 -69.585800 -182.838501
-32.560570 -69.354088 -182.656937
17.267189 -70.044868 -182.803650
25.633211 -70.939575 -182.153732
-141.531479 -70.357597 -183.034393
-109.923889 -69.782936 -181.849060
-107.646355 -69.277328 -183.437469
14.670115 -70.265396 -183.894928
23.494541 -70.060280 -181.480347
107.046524 -69.284233 -182.437469
-32.209270 -70.061272 -183.533096
-30.634350 -68.864044 -184.199295
-23.048908 -69.201790 -182.526703
107.494194 -70.044678 -183.344070
107.665108 -70.158676 -182.380905
-141.045639 -69.269447 -182.612473
-109.496696 -69.946617 -184.277451
-22.853842 -70.090492 -183.442047
17.456089 -69.817253 -183.487198
26.377352 -70.666817 -183.885071
106.155174 -69.488373 -182.654617
107.606018 -69.989143 -184.007935
-152.438705 -69.246399 -182.905914
-108.524986 -70.346558 -184.055389
-107.590836 -69.179512 -184.800049
-21.727013 -69.420570 -184.674164
23.416485 -69.897484 -183.855728
105.554512 -69.579514 -183.659470
-141.409882 -68.954727 -183.235291
-110.555855 -69.463951 -184.408264
16.096621 -70.291687 -185.163422
25.887388 -70.139740 -185.473450
105.461517 -69.557137 -184.325623
