# This PCD file was generated using the MATLAB® pcwrite function
# from Computer Vision Toolbox®.
# .PCD v.7 - Point Cloud Data file format
VERSION .7
FIELDS x y z
SIZE 4 4 4
TYPE F F F
COUNT 1 1 1
WIDTH 1459
HEIGHT 1
VIEWPOINT 0 0 0 1 0 0 0
POINTS 1459
DATA ascii
-50.000927 155.342590 -70.631477
34.114689 161.191498 -70.719299
-90.834808 265.067902 -62.209808
43.524879 262.576599 -61.008766
-49.927570 158.634628 -70.843094
-42.925602 168.959503 -72.363464
-43.948975 160.378876 -71.276283
-49.341244 167.339005 -70.235977
-14.161330 207.563705 -71.010986
33.381584 162.133148 -71.686066
-167.168564 255.315735 -65.608307
32.912113 160.966370 -72.761482
-41.027092 162.830750 -70.447983
-17.443666 206.069687 -70.727531
-46.798061 54.691513 -57.218395
20.884121 256.355682 -57.302219
-47.119987 166.591324 -70.729614
-29.820557 219.893494 -70.566780
-51.384819 53.193726 -53.663956
3.793740 253.968048 -70.084854
3.744494 235.448746 -69.185623
-64.162956 167.030457 -71.475441
-12.015320 220.329437 -72.057320
21.563599 253.551605 -70.445724
-29.180426 201.560745 -70.463196
-52.196346 162.165527 -70.118492
-44.077957 172.610184 -69.996140
-17.751253 199.330917 -70.468941
-88.437515 266.512512 -64.918449
16.036699 232.166901 -69.627663
88.980194 92.848701 -71.338905
96.506256 98.795219 -68.841782
-1.013772 175.784943 -73.273994
-1.788442 179.138977 -73.125679
-42.838615 175.164749 -69.185593
-21.450001 196.662994 -70.453110
29.781555 136.027130 -68.593468
-51.185608 196.157257 -71.523331
-42.960114 206.916702 -71.162743
-29.490917 177.326340 -69.311096
-33.355339 180.825516 -72.509392
-25.358633 190.202927 -70.815979
23.890909 190.669464 -72.758217
20.212252 182.521790 -70.062195
-152.144928 309.789917 -70.445435
-150.347076 305.528259 -70.752831
-30.036398 183.864838 -72.046059
-44.102558 199.484756 -70.635414
-45.839596 203.795792 -71.400375
-65.653496 217.510910 -71.994385
39.260666 118.321152 -70.949394
-68.967239 221.688019 -71.915192
47.462433 107.659401 -69.766937
43.251823 113.121529 -70.895592
-34.473366 188.963135 -70.024643
-155.293228 313.267273 -64.252274
-155.623718 302.287140 -60.988499
-148.263733 312.677399 -60.824104
-155.946701 301.001007 -58.921635
-55.953022 185.389267 -71.357201
36.537560 267.225586 -57.733471
35.881367 138.996567 -62.676964
-11.407668 182.498474 -70.410164
-8.085146 184.105804 -70.350281
85.962631 80.367912 -66.938606
-158.673935 303.932251 -67.371811
-144.245712 294.115906 -70.137314
-148.843933 309.352844 -70.890465
-34.847443 185.271194 -71.875221
-30.571352 189.583420 -72.460953
-138.995483 299.960083 -69.998337
-154.104828 303.125641 -71.504555
-153.865402 310.807434 -62.244240
-126.594170 266.910980 -59.317360
-155.809265 296.415497 -59.047207
-42.472404 178.965302 -70.580070
2.831696 240.921982 -72.707909
-51.139927 189.899597 -69.945374
25.255280 188.931000 -72.404076
-55.660549 188.253799 -70.572876
-0.327327 245.106827 -70.027351
-34.552040 211.649490 -70.182953
33.781731 137.441376 -65.256996
-74.445656 151.947968 -68.316719
-31.774900 193.629700 -69.721947
-38.254822 185.505020 -70.925003
-25.698942 192.728012 -72.064651
-38.122116 180.765564 -71.317711
-89.283730 141.313919 -58.529026
-46.026684 61.485226 -66.830589
-36.666435 209.695404 -69.611313
-56.101925 194.405121 -71.366142
5.287649 244.585831 -59.422043
-89.216393 150.093857 -58.067307
-34.137970 193.162354 -70.315727
-36.329777 188.782562 -70.976753
-22.000637 205.748154 -72.228355
-30.403076 198.861588 -71.461395
-63.786274 165.651169 -69.002815
-7.291764 218.906357 -70.153008
-25.948940 201.696518 -71.385597
106.167938 117.631577 -60.984596
39.329865 50.877579 -62.213299
9.155855 210.560516 -65.958855
14.546293 201.349747 -72.259056
-90.174072 130.206116 -56.635151
-67.756577 296.528076 -65.530518
-123.639038 240.606094 -67.288902
-153.053436 205.862381 -68.942879
-155.562103 204.435730 -65.153618
-14.834314 237.247452 -68.410965
22.872114 203.929062 -69.425407
-30.203987 253.574387 -71.333900
-120.203842 213.786957 -61.637539
-75.979416 298.943176 -70.372856
-145.888718 231.401672 -68.597710
-46.968628 148.191849 -67.829704
14.153547 211.851456 -71.645638
21.026716 210.323349 -69.791840
-147.830444 210.687958 -71.334564
-158.130157 211.012909 -61.599152
12.309633 235.739029 -65.374123
-44.997963 175.478683 -67.088684
-21.684769 210.701721 -72.840569
-20.333849 201.880890 -64.636971
-26.097958 202.595322 -62.735947
-124.460785 244.101257 -66.166908
-127.445343 244.793777 -62.570690
-118.684212 236.514496 -61.649166
-76.745377 139.434631 -57.295837
-5.517505 223.589645 -71.862137
-69.981247 161.499634 -70.733124
-14.350440 215.203125 -72.121574
20.206194 247.849319 -70.163399
-128.000824 210.888535 -67.917183
-148.336746 237.939163 -61.720833
-142.759521 235.672363 -57.399433
18.216864 215.900528 -72.122269
-113.483971 201.570160 -60.812492
13.648294 217.356598 -72.073822
-22.186363 252.495392 -71.467560
-4.238481 236.419220 -71.934669
32.125278 171.201508 -68.807487
17.014795 217.754456 -72.871284
-33.647274 223.016159 -69.341049
-58.969429 180.017700 -70.642723
15.307768 223.634567 -71.524170
-157.817230 238.855484 -66.921761
-123.355911 206.739746 -66.105965
-5.068957 227.373306 -70.733604
-71.624168 159.408142 -69.967560
-153.620514 242.255249 -70.472206
-129.251282 204.590561 -62.109203
-128.566986 205.334488 -65.195396
-7.210637 226.794083 -72.079506
-149.368408 238.452087 -71.118820
-71.504044 162.717850 -70.018578
-158.336777 240.959976 -62.170849
-123.432220 205.122162 -60.452095
-23.708321 227.709839 -70.886162
-21.574318 230.619675 -72.663834
-70.721725 168.368927 -68.309669
-13.014812 225.829956 -70.161156
20.298264 193.811493 -71.120598
-19.497215 231.219223 -69.813911
-79.764702 297.104919 -69.476120
-141.310425 236.520081 -70.656075
-112.093735 210.465240 -65.121063
17.695107 198.867416 -71.054893
-16.171131 232.082916 -71.417206
-6.096739 232.481201 -72.306129
18.646622 252.174026 -69.477119
-30.241377 71.669060 -69.586227
-164.028061 213.810852 -60.740631
-2.010433 235.506729 -72.213898
-25.384743 252.819550 -69.302078
-8.780993 236.276886 -69.701050
37.046429 22.302973 -57.393448
-56.971886 131.885239 -60.480946
1.476021 252.916779 -69.590607
-16.750298 80.352791 -66.078239
-44.230831 296.789703 -71.190994
-153.981018 214.943848 -65.900040
-28.557217 88.358063 -69.769104
-150.360260 216.003433 -60.054661
-146.101746 216.837936 -55.693684
18.283075 235.563354 -69.798119
-142.369751 243.011108 -66.949219
-88.959793 298.246918 -63.354881
-145.762924 245.836700 -61.444775
-150.421173 243.200882 -56.600941
-157.660736 228.516052 -66.559944
-6.121679 240.121918 -70.061691
-67.052917 129.271591 -57.363174
-132.306458 234.520859 -61.635502
-0.320327 249.075302 -70.759026
-146.336212 252.982040 -70.245300
12.300218 214.747269 -71.444649
-20.111839 248.281693 -71.769455
6.292250 225.421768 -70.177673
-50.541492 252.498810 -72.239838
-44.484615 255.892166 -72.828484
-150.194321 255.524231 -69.859482
-155.966705 255.496155 -63.694809
-107.889175 205.260803 -62.371052
-150.559052 274.934387 -71.876328
-158.819458 273.342407 -63.582027
-82.018059 71.581367 -68.185036
84.481468 235.679138 -69.072487
-59.661407 99.348763 -61.300480
23.450899 163.812866 -67.583908
-126.226280 303.092224 -69.479927
-154.322617 280.041718 -68.413986
-146.915161 283.194641 -70.189636
-157.005203 277.660431 -64.578102
-108.578201 297.302704 -63.341007
27.167389 159.197296 -62.153606
-152.640854 266.364166 -57.269592
77.011620 242.756165 -63.462967
20.225199 33.854420 -58.877216
-9.477255 269.120605 -61.939156
-9.020752 281.242920 -73.050972
-5.686030 290.499268 -70.449898
8.535967 293.767700 -71.467239
-67.948586 121.230911 -56.143566
-161.847198 301.136536 -68.919609
-155.642883 297.502899 -73.657433
-144.354538 315.087433 -69.373764
-113.992943 267.412292 -66.380905
-110.321304 269.914429 -67.301689
96.822632 206.431717 -67.354462
-26.956745 296.656250 -70.438889
-22.710253 298.310242 -71.956306
6.588181 282.045776 -55.454136
-35.723740 299.727905 -71.976097
-28.918310 296.850861 -71.130722
115.676086 163.692261 -64.507248
-11.157967 297.083374 -70.678123
-18.680313 298.885162 -72.161385
12.718007 303.342743 -71.242683
-101.902702 231.579620 -67.774628
-50.004093 67.505547 -70.763000
16.121292 289.500214 -70.023376
-62.644356 67.843910 -71.068855
114.819504 171.147400 -64.745232
-3.265358 295.466583 -69.166702
-51.863434 68.957100 -71.543755
-8.717916 300.367645 -71.701302
25.232121 279.380188 -58.050037
-39.637493 70.320908 -71.041634
98.102905 206.858429 -70.572655
-73.784584 113.331551 -61.479050
-163.084747 301.333313 -65.408531
-144.096268 315.766907 -68.247299
74.828835 240.355225 -69.679359
-83.563339 78.174179 -70.365349
-8.913973 267.387573 -61.552048
68.003563 110.151299 -58.387093
-21.184362 61.886295 -58.473415
-21.822083 70.412781 -66.333015
-24.965664 79.737129 -71.086029
-25.182999 83.381561 -71.977180
17.471331 257.578156 -66.965157
106.653603 200.806778 -65.600746
33.860683 48.789921 -61.639896
106.277206 120.100380 -61.647038
-59.537083 147.813690 -66.095131
10.137007 214.953995 -66.748695
-34.977589 91.005608 -71.315338
-91.407578 225.160172 -70.133514
84.224510 90.026985 -70.818184
97.008682 112.317337 -62.507763
-4.882839 281.496368 -61.033283
-118.846413 300.584473 -69.482460
-143.740784 273.397095 -70.392120
-92.775391 68.310219 -56.560242
85.098679 94.139954 -71.136772
75.705200 91.956879 -70.632195
68.241127 109.199005 -60.280159
-42.537674 94.186493 -70.674843
80.442734 96.069923 -71.714439
-12.557031 275.576569 -70.965843
15.438771 302.990265 -70.404236
85.254578 99.201103 -71.356682
-60.585770 95.296249 -56.991070
80.498505 100.712395 -71.611267
72.358337 92.374039 -68.733406
-93.922943 71.763962 -58.071606
28.964115 50.164776 -57.568893
89.052444 97.470947 -71.541351
80.278030 105.552681 -70.249023
-8.739884 286.446838 -69.599098
-89.532677 73.549568 -64.321228
-64.545464 107.409561 -71.389374
45.482533 117.974609 -71.721161
81.440170 82.409134 -68.503181
-47.217934 151.087112 -70.649551
16.195011 218.919632 -71.083603
-45.377274 155.892029 -69.681442
-165.981094 248.933121 -62.602646
-133.721970 213.515259 -62.200455
-101.228371 266.475220 -61.407169
-161.529877 207.205414 -61.188953
-39.705265 160.979874 -70.400543
43.504768 130.259537 -53.466209
-59.733116 174.132172 -71.538559
-16.937841 215.310806 -71.553688
-121.007759 236.365479 -66.320236
-123.221649 243.718719 -62.423252
-67.621338 165.701263 -69.179085
24.350883 166.735641 -71.092491
-68.120209 172.354889 -70.835014
-17.202171 222.580475 -69.701019
-9.923920 216.281738 -71.668076
108.889877 176.626465 -70.779358
-55.860725 181.128876 -70.114738
-24.495390 209.507141 -70.521317
8.658245 235.206512 -63.915657
-78.930748 145.678650 -60.308468
111.469864 185.679520 -70.616608
-63.906868 181.629211 -70.646202
110.709869 180.624161 -68.818321
-15.642772 186.135269 -71.406265
-34.830063 168.835693 -70.026451
111.151001 189.788818 -69.649841
24.300806 197.462860 -70.610718
16.294430 206.225113 -71.311668
-48.147018 300.802612 -69.542572
-144.294815 201.307861 -70.590790
15.453013 250.017105 -56.700569
-24.727015 85.131630 -63.987869
-22.937618 81.758682 -61.623417
-76.807320 124.636642 -59.438560
106.433517 201.866150 -70.114571
-153.248871 224.291946 -66.220200
-140.534943 207.272842 -69.185562
-150.587448 222.439896 -60.763859
-126.145523 240.036057 -57.480556
-145.979309 224.961868 -57.269241
42.451805 125.208008 -62.374367
-102.829010 269.941437 -62.907093
-90.232773 128.376053 -59.642910
59.475826 256.317047 -65.887314
-47.081989 206.498093 -70.432968
11.675308 206.655777 -71.285538
-104.074501 181.266830 -57.048294
21.285370 206.591827 -71.029709
42.466484 30.720215 -61.378216
-103.762451 171.276886 -58.342163
-11.791968 210.872192 -68.863922
8.342512 234.702072 -67.711945
-21.974669 209.924728 -69.776451
-128.372803 213.246384 -66.667450
-123.005547 213.806015 -63.541714
17.279045 210.703201 -71.143402
97.092087 209.977478 -71.096931
97.498947 214.163559 -71.607361
-70.261284 218.394516 -71.319298
-62.488232 173.787552 -69.727333
-15.267022 218.110214 -71.718956
-153.530640 243.334518 -61.421917
-72.882698 299.579437 -70.101089
-145.190201 227.759033 -71.571800
45.042400 47.569435 -54.287205
-30.072071 226.691772 -71.212234
-73.214127 155.672043 -68.892166
-1.958078 228.811813 -71.738701
1.838302 248.757355 -58.718884
6.028740 232.142761 -70.204414
-34.884647 253.176849 -69.246712
-17.538635 236.551575 -70.983368
16.097853 213.169693 -61.447266
-60.247650 139.165176 -62.127003
-149.128616 238.097855 -70.550186
-156.598923 234.649490 -62.685226
-138.483093 240.962631 -71.052979
-129.077576 206.418701 -57.732212
-4.681223 245.419601 -65.587318
-7.978512 243.667664 -61.546013
-149.785797 245.279282 -71.121964
-105.760880 192.963669 -61.447037
-157.723450 244.085266 -62.584587
-71.267761 300.176514 -64.457718
-56.631554 253.360672 -70.144768
-76.362556 146.649368 -59.180492
1.637612 256.658722 -72.973885
110.054863 162.958939 -64.797333
20.802204 266.428436 -70.597794
112.287613 160.589783 -63.364868
-54.019157 66.712852 -70.620087
-92.908340 106.472046 -69.032768
20.850048 279.727905 -69.761566
20.124052 281.269043 -69.748070
-80.924736 263.161713 -69.546417
-45.794685 296.636444 -70.989067
-72.402840 261.029175 -70.125923
-115.673332 243.615204 -62.154949
-38.774864 296.641144 -70.791321
-39.083366 297.658905 -71.699928
-26.925684 74.551376 -69.888802
41.743080 266.069916 -58.970707
113.713615 161.525162 -66.814201
-11.939360 298.247314 -71.798973
114.266930 163.492447 -63.548477
-15.668793 297.264709 -71.294876
-28.342789 300.876648 -71.390717
-146.832535 285.272369 -69.160202
80.339554 239.916336 -68.573112
-83.471710 74.797447 -68.946762
-131.575058 298.937622 -71.478195
69.962959 112.803322 -58.627647
115.977737 169.517853 -66.536270
-9.805799 296.772400 -69.676369
-4.051716 298.721008 -71.646973
24.777031 280.736450 -56.165619
25.716331 278.929138 -54.432079
-66.060066 61.570843 -67.004929
94.318565 223.545166 -65.566635
-56.827415 298.684204 -71.221191
-145.709427 208.483109 -68.979218
-109.915199 236.091003 -60.270321
8.585142 298.434174 -70.864159
-86.361038 88.103241 -71.568550
-111.330727 302.215393 -65.317657
86.414680 227.746216 -66.553185
-124.742851 296.668182 -68.553650
-146.208893 284.549133 -68.371880
-128.064911 298.917664 -71.557419
-85.414764 222.263336 -70.765930
-142.206131 267.522217 -58.907219
-76.235390 70.545181 -70.040764
84.874458 231.665573 -70.790947
-57.667206 98.055458 -60.146114
15.503946 299.065033 -69.487915
-81.616257 76.832321 -70.802238
-89.021942 91.475739 -70.584892
29.107935 268.572968 -61.334370
46.048214 120.481140 -64.447807
61.972954 102.710655 -65.333618
86.441765 225.398331 -70.176239
24.935863 267.170349 -53.756702
-36.398598 57.001785 -53.655079
-74.846039 61.943069 -65.386414
16.249207 295.337097 -53.711563
75.148628 100.716637 -70.380447
18.254433 282.420929 -71.560036
-90.690979 100.751060 -70.904182
38.513016 122.472816 -66.290726
50.604271 100.639389 -64.645676
55.245773 103.596596 -67.151764
24.556585 160.039856 -66.892838
-140.553055 265.536835 -66.087166
-151.447449 283.177429 -68.815796
-150.400604 277.306427 -71.397751
77.498772 102.525475 -70.504791
-156.022797 282.499847 -64.698586
-143.214325 265.352875 -61.212368
-109.840790 297.045013 -64.076195
27.377096 164.267792 -61.865520
-110.974174 300.749329 -62.432243
-51.009457 91.183075 -56.800312
-148.917404 264.607666 -57.116886
76.082077 244.809311 -65.393364
-73.258553 63.312687 -66.858925
-77.395782 109.478249 -63.950394
-84.936531 117.890800 -64.988113
111.357727 142.546494 -70.058342
113.578484 145.625763 -70.425438
10.041944 206.993851 -68.711800
-51.043442 148.946899 -70.380066
-77.795341 219.380402 -68.194084
112.778015 141.363174 -70.189629
112.071037 148.249390 -70.405876
-50.592552 153.025757 -69.961678
116.972847 155.662506 -67.629768
113.715973 154.513733 -70.741051
-54.891846 151.669556 -70.040092
-62.539375 260.177521 -69.208214
-42.066490 157.211578 -70.199272
110.882217 154.170349 -69.825401
109.795197 163.308044 -69.335648
69.616051 74.701691 -56.682487
26.468204 271.407715 -55.563206
109.084839 172.205063 -70.138184
1.524535 177.361359 -70.258743
-42.988464 89.656960 -63.305359
-98.894913 233.562607 -66.216476
113.787880 176.591400 -70.065422
47.731941 104.135109 -61.632305
52.504864 108.468735 -60.347599
-84.041801 122.598457 -56.985390
-51.449451 89.437782 -55.908707
104.625290 189.949417 -70.254578
104.963394 192.680954 -71.214325
103.593475 195.241348 -70.833252
107.775757 196.855179 -70.764748
102.735840 198.097397 -71.122818
-153.522873 246.813705 -67.047775
15.508839 200.502396 -70.162712
-146.550507 247.408356 -57.869083
-142.316315 213.804443 -70.301826
-60.951019 296.317810 -69.745102
-33.028194 88.110039 -58.467854
104.989487 205.046555 -70.095535
-156.616974 213.567032 -65.919838
-29.185316 87.911423 -66.063026
-151.912689 213.498550 -69.666611
-32.481689 88.124748 -61.438339
-79.738831 139.122055 -64.028595
-79.561111 136.630463 -55.564758
-59.741695 299.219788 -70.848816
-144.699036 215.519211 -71.023857
111.975060 146.809113 -67.066948
116.136574 142.985519 -65.130753
-75.030220 219.372101 -70.352707
97.967323 218.505112 -69.360443
17.986372 158.989212 -57.853546
-51.640774 98.433746 -67.394249
-74.746567 222.845810 -69.866875
-128.457169 241.556473 -68.671021
-68.836044 300.423615 -69.793640
-145.891205 225.142319 -69.841240
-153.701340 205.941864 -60.293438
-140.930969 207.377090 -57.212280
-145.322617 204.554138 -53.883877
-8.792531 70.209778 -53.750618
16.229691 228.304459 -70.152931
-73.541954 67.331940 -69.234795
89.685432 226.478317 -70.972397
-18.256927 228.524948 -70.391624
-13.455766 238.362183 -70.591759
49.482300 41.480331 -63.386806
16.625433 239.758347 -71.379585
-137.374527 238.995758 -70.277092
-8.098890 240.828766 -65.059898
-150.957932 226.764038 -66.351578
-4.987033 242.059280 -62.706394
-154.571198 227.290878 -62.594711
-89.488174 298.018555 -69.557076
-144.854858 244.618057 -70.800995
-94.889549 298.659454 -69.472282
-146.163879 248.014191 -69.819359
-60.374420 254.391785 -70.351311
-42.404823 255.869553 -71.253113
-49.693417 95.707268 -65.533760
-79.794296 224.910355 -68.583138
-47.022430 256.711823 -70.641411
-5.308794 272.761383 -60.965919
-11.689179 263.536499 -70.409081
-12.556560 267.061432 -71.182404
113.396019 128.652176 -63.285732
26.772503 41.173889 -60.582417
-145.449539 276.053284 -67.239769
-140.755096 272.516296 -63.331646
-82.403305 61.587399 -60.845676
-11.385006 283.054810 -69.049576
25.749596 37.843662 -58.614555
-136.303696 298.205872 -69.907265
-146.267883 292.733795 -70.200645
29.969934 22.850338 -61.674599
23.820971 26.997425 -60.263565
4.904727 294.114960 -72.429962
-111.845718 237.752502 -65.990791
-79.545753 264.422760 -66.449364
-141.069534 211.928925 -70.433449
-54.217514 296.401855 -70.411049
-125.250168 238.658630 -68.856583
-153.901428 206.486221 -65.819595
-69.167778 297.223633 -70.064522
-9.920085 70.238846 -57.440727
-122.397781 265.189331 -66.784531
-143.937347 311.319183 -66.264709
-146.545288 306.847595 -69.580750
-150.076385 297.124512 -71.180016
-127.016479 265.572662 -60.106724
-155.425461 295.387268 -60.328945
95.618118 77.784744 -61.973022
-0.664805 302.461029 -69.041145
73.255867 112.653000 -63.490025
78.367432 116.247581 -61.737843
-145.297760 320.352417 -70.629234
67.460876 79.316933 -58.215496
-4.818283 178.993698 -68.446930
-153.414642 322.179596 -69.823082
-155.500961 321.387573 -65.682625
88.438873 221.690247 -69.686256
-69.512589 67.476929 -70.150146
-1.054959 247.758484 -65.268295
-35.807327 66.393898 -68.457741
-89.052727 83.618172 -68.734856
71.580948 103.522781 -66.988350
-132.838287 265.440643 -68.406166
-36.952637 89.601768 -69.483719
25.678904 27.774662 -66.442162
28.813858 25.733295 -66.300484
73.949684 94.860847 -69.732407
65.993675 82.883041 -59.217033
-1.656208 287.401978 -59.506538
90.111725 71.415680 -57.966034
-76.296913 111.124054 -71.397964
18.084255 153.035645 -60.888973
-92.958267 116.473953 -69.152260
-81.965691 115.896896 -69.787659
106.146866 181.712601 -66.867447
-92.721634 121.956024 -69.232468
-93.792755 126.182030 -67.227783
12.658207 197.640549 -65.556335
109.335136 122.585876 -68.908440
110.869171 129.209198 -69.499458
-15.131893 262.079773 -64.365646
-98.808372 82.341766 -53.945290
114.402283 138.337860 -69.197220
10.889270 211.824738 -66.672966
-54.152039 144.010666 -66.132690
-48.290619 147.645798 -68.788689
111.078934 150.886948 -69.907516
-54.800732 155.810013 -69.841675
0.097394 292.840851 -58.192566
-16.835197 298.095032 -66.189407
22.473120 261.928558 -65.777382
-98.177826 118.685707 -55.827202
-14.629044 297.113464 -67.265831
116.192909 165.030228 -68.800552
18.167656 177.756897 -65.318535
94.408264 211.571976 -66.286591
-119.849442 266.571991 -68.545662
-48.163883 194.645157 -69.671936
105.182320 198.377090 -67.172585
-43.760082 164.416885 -64.398827
-16.768240 206.501877 -66.298172
-42.939304 158.508499 -63.519955
4.580691 254.200394 -54.424946
100.636269 206.017853 -69.039169
-81.116196 132.436722 -54.099255
-67.188782 300.991333 -67.707367
-145.158951 224.040253 -66.501434
-148.350098 208.013809 -69.365456
-156.126175 206.502472 -60.539284
-148.440369 224.173264 -54.722130
-136.250000 211.173996 -70.224632
103.430077 209.205246 -68.888565
-12.512209 231.037979 -68.972275
-44.117157 171.803818 -65.982605
-49.598110 163.694168 -66.129608
-17.924999 199.243927 -66.104454
-83.786682 128.272568 -64.022255
-49.852303 158.875946 -61.350624
-76.158218 139.449585 -65.246094
-87.965225 264.412018 -68.732803
17.057579 231.169815 -65.993652
-9.714046 231.949890 -67.653610
-74.553246 157.649094 -63.419456
-3.994604 233.103745 -60.896427
-52.521820 139.621902 -64.269783
-59.200562 139.354584 -65.260071
17.062441 214.945419 -64.502701
-159.559921 236.679962 -67.155266
-153.514893 235.407883 -69.756966
-161.502441 258.508362 -68.412384
-84.533638 299.152863 -69.870293
-146.486511 239.189178 -71.021851
-123.566315 206.092682 -59.079315
-10.233130 244.329788 -67.115067
-4.582418 245.366898 -63.702724
4.739849 240.241165 -66.733643
-34.324902 57.247860 -58.240570
-60.410320 134.157501 -62.747116
-16.961792 247.243027 -66.387695
-38.412926 249.986908 -70.301163
-18.974354 252.357956 -69.292908
-13.147440 277.689972 -69.054451
-78.317657 296.515442 -68.402130
-118.329185 211.993805 -64.983521
-154.938095 245.144669 -67.014153
-150.645248 246.064285 -60.685646
-144.518555 244.754776 -58.348705
-72.041733 296.932587 -69.678627
-3.156645 241.333420 -67.772835
-154.431259 227.374939 -66.406548
-150.871490 227.929077 -61.193432
-145.968201 226.497360 -57.714439
-88.926926 297.313263 -68.984413
-61.112457 140.634216 -55.269138
-146.698730 237.728653 -68.447540
-81.306145 298.694244 -69.917496
-109.017197 208.794144 -61.541183
93.376266 213.284164 -66.354347
-60.303196 60.649181 -66.628471
22.852562 261.970795 -56.248661
22.762760 269.106140 -68.214088
-41.418869 60.264721 -65.092911
-43.895401 64.948471 -69.082169
84.849495 82.299316 -67.857643
56.037315 111.395859 -62.832001
-77.381973 112.244446 -58.896366
73.337791 88.179558 -68.277603
98.377968 96.947960 -67.078880
-80.595284 56.074696 -54.515152
98.601486 98.953705 -67.136169
71.120720 107.867004 -65.315285
75.665855 106.773048 -68.640854
66.186859 91.908051 -62.271034
8.947618 301.780457 -60.722485
65.574860 87.912277 -60.347214
10.136510 301.325714 -56.014694
69.441032 104.660431 -64.901024
27.387701 179.474487 -65.956337
-164.599686 282.449127 -68.841286
8.779633 163.840881 -67.287376
-67.502045 109.375999 -68.736107
24.631451 177.735764 -61.379688
-160.997726 286.725403 -68.844460
70.061035 245.987823 -69.071114
70.241570 90.500725 -66.412308
89.380554 110.869720 -68.044655
40.934036 49.989094 -65.368118
107.015381 112.190315 -67.802658
110.709846 125.357605 -69.055176
27.480362 31.659210 -63.386616
-57.005089 151.523376 -64.468086
114.002892 151.821320 -66.786743
-13.726952 252.139633 -65.516685
-99.117310 173.787445 -61.461460
-47.593685 150.817230 -67.873093
-97.055237 296.743256 -67.170403
-97.227089 299.389679 -62.677094
-147.974899 253.207397 -55.979450
-42.242458 156.639755 -65.617973
109.766388 158.659576 -65.894859
-55.461514 154.091507 -66.547607
107.349045 109.671806 -61.145798
45.088234 47.692989 -61.057640
109.510117 155.908630 -67.200279
32.886620 167.420944 -68.016068
3.979890 251.901840 -65.625565
-31.807526 219.438889 -67.317665
-48.709244 168.877792 -66.115662
108.144363 173.196152 -69.041649
-39.082901 167.363144 -66.073982
-58.788574 186.426773 -67.779823
-66.094376 174.602722 -66.572853
113.034340 183.206192 -69.438164
-29.125959 179.843048 -65.722015
-34.568733 177.044357 -65.259064
-25.543928 184.722137 -67.133156
-25.896755 188.827255 -63.569847
-36.138077 182.186859 -62.611969
104.142044 189.317978 -68.341469
-84.761131 125.274277 -56.052021
49.687050 260.809265 -59.214149
-37.445168 299.635925 -66.105988
-145.507782 192.937561 -68.130554
-141.183350 195.376465 -61.380749
-152.150940 194.330566 -59.336208
28.610296 267.024689 -58.351181
23.807362 268.520935 -65.844040
-52.194351 193.259567 -68.149239
-146.179794 259.311737 -68.319389
-115.466034 207.862579 -64.966690
25.622787 195.108902 -65.329697
-30.322039 198.679642 -65.013496
-12.381597 234.329376 -66.033379
21.805454 202.886719 -66.186340
63.667336 96.409538 -54.476879
-46.363171 58.316669 -63.874069
24.091850 274.412842 -65.713112
98.802788 202.538269 -68.154030
-54.843800 296.186523 -66.399139
-140.265839 208.985519 -67.827988
-148.875259 210.487076 -58.477955
-152.374619 209.824310 -54.644886
-95.096825 225.767990 -65.987831
-36.662991 212.960571 -68.149048
-63.375076 60.517212 -66.433319
93.934433 218.972046 -66.942497
-29.119350 222.893845 -66.807785
-60.000984 177.523605 -67.123299
-20.028709 214.804428 -67.298813
12.111795 250.033752 -67.764519
65.475479 252.574600 -66.512001
98.136383 218.517838 -66.481781
9.059914 220.061630 -67.573540
-58.437450 182.866409 -67.252190
-33.385555 222.042877 -68.182724
-21.239553 215.974075 -63.846317
11.119020 249.801208 -62.312733
54.862640 254.246399 -66.832611
-40.821594 89.337334 -56.615452
17.223909 290.170197 -67.917816
20.072813 288.368713 -65.492760
88.752319 220.211472 -66.249588
57.199478 257.369812 -66.160080
90.786285 222.621964 -66.693626
21.224112 194.442139 -62.958008
-15.569149 227.042465 -67.603996
-28.274286 227.345108 -67.322395
-151.119812 233.085220 -67.390564
-151.916565 233.619049 -62.269634
81.643044 233.035324 -67.448799
97.931854 116.267456 -53.564693
72.924042 241.625961 -65.112640
-72.904358 159.535873 -62.949669
-147.043564 239.813110 -67.719849
-10.531912 228.391632 -63.949226
-155.154953 239.368088 -60.051434
-4.356193 228.887192 -61.984165
-141.311371 238.723099 -58.682068
-13.284933 239.349121 -66.633286
50.236462 38.238205 -62.349586
-111.271622 206.075943 -64.996925
-140.713440 241.822510 -60.577015
-153.723923 241.113480 -56.127579
-9.486748 243.230713 -68.676758
-12.664590 214.707672 -65.482849
-16.576279 215.175705 -60.753296
19.296722 247.135651 -68.124435
-51.227432 143.401306 -57.622967
-32.066132 249.378845 -69.198532
65.979492 249.335831 -68.561470
3.038235 302.789001 -60.898773
3.481763 300.004852 -55.494209
-105.437424 190.001144 -58.968502
-57.794510 254.374008 -67.708824
-55.564926 57.067314 -63.130077
-80.089493 259.174561 -68.067123
-104.233727 237.079636 -64.910194
-12.015637 262.509888 -68.012703
-94.795013 266.982391 -67.841171
-14.172182 268.250244 -68.667206
-124.401306 272.410400 -67.389160
-127.274040 274.405243 -61.706264
-132.705276 274.476105 -65.538658
23.265892 275.169464 -67.103600
-13.996342 279.004669 -67.334969
-11.504219 282.846588 -63.415874
26.273115 40.331215 -54.198757
-165.457336 291.897736 -69.170792
66.318085 252.528305 -65.274948
-167.621399 291.977966 -64.882957
-153.681824 290.088623 -64.921562
-159.529785 291.572174 -68.928093
-147.085541 291.125641 -62.270031
0.058062 171.817535 -67.345596
-157.727524 222.515579 -66.230515
-139.555862 206.384064 -65.070839
-51.164841 295.759338 -68.077385
32.888802 145.441177 -62.647068
-52.804054 299.457214 -63.785557
-111.465408 240.626709 -60.972324
-147.761383 207.781952 -57.850948
-152.169189 206.320206 -54.203510
-85.841499 121.198227 -66.837326
-24.280491 297.876556 -66.290970
-21.541660 296.713898 -67.803177
-100.870674 297.461212 -68.384300
-114.420181 206.293823 -62.759308
84.177826 232.188995 -66.036797
16.423273 300.189514 -68.308121
17.177134 293.759796 -62.420879
-144.170059 215.000656 -67.417221
-58.226044 300.659363 -66.029106
-141.092392 214.305222 -63.099224
-152.273972 214.128036 -59.524109
-149.730438 215.401932 -55.191776
-144.942490 251.785583 -66.136757
-98.464874 301.034088 -68.330177
-97.859695 297.352692 -63.528667
-44.233448 154.614410 -63.545837
108.014832 188.606476 -67.053627
-19.892500 301.743164 -68.531502
4.537190 302.679688 -68.360519
67.576271 246.863922 -61.201031
28.871069 23.343447 -55.066978
24.129570 26.435894 -53.961952
-29.651073 65.726662 -66.185722
-132.365067 235.957199 -67.600075
-17.618347 75.012512 -66.917824
80.508675 79.387344 -66.858513
77.087601 76.141060 -64.066071
71.969589 244.768982 -66.679817
-90.531143 81.513840 -67.004921
64.373146 99.240692 -64.096451
80.121643 82.049438 -67.919579
75.935059 84.134743 -67.815262
72.052437 81.301857 -64.715210
39.926033 115.194771 -67.914810
98.524063 87.148399 -65.626030
26.861032 142.113281 -56.199600
29.377634 147.659103 -56.354179
-133.182190 265.227997 -68.051331
-40.141514 88.246979 -66.392128
-62.893082 100.949600 -61.913948
-64.562744 103.091957 -64.265213
54.954376 110.421837 -66.058662
87.827950 76.685814 -64.795700
97.352325 82.867020 -64.718681
25.909382 154.793732 -67.110405
69.685333 241.334747 -63.882282
9.950890 301.215637 -60.331493
64.254181 88.460701 -56.881115
8.476864 301.793854 -55.904747
92.209351 109.034744 -67.762169
-94.039703 113.434685 -67.716980
8.794569 273.785278 -53.849930
58.118866 109.308899 -65.514275
-61.764008 95.015350 -53.969833
87.965080 113.501083 -65.904007
43.137238 46.808098 -65.952835
109.326271 113.831367 -66.715660
50.030724 33.261097 -63.249893
-15.958126 240.346451 -67.505493
24.646372 199.497955 -65.658928
-95.313660 116.948044 -65.594444
39.920795 46.771935 -66.054482
110.874146 117.956345 -66.715363
-59.062275 147.341461 -62.850189
105.247322 121.158188 -67.039040
30.394165 49.521038 -66.510117
106.121429 126.020126 -66.265877
-56.216244 98.594658 -61.937103
107.363609 131.663452 -66.898087
107.677780 134.001740 -64.740982
108.454254 138.772064 -66.867729
115.623795 139.069931 -64.770958
-21.725018 84.482018 -66.348907
38.185558 143.075867 -64.625427
-26.584213 83.379990 -61.261383
-77.925964 124.170334 -53.672249
37.595161 145.705002 -64.927635
-164.998779 228.021393 -66.510521
9.988638 206.553787 -67.479485
-51.368408 146.869965 -67.362152
10.366362 232.108307 -65.181305
-78.356445 147.010132 -65.269592
-45.840969 156.639252 -64.390640
9.405454 241.662827 -64.698868
-26.329334 206.725784 -65.256767
33.915340 267.145386 -64.753784
-21.399832 206.675705 -61.112358
-75.956451 156.140991 -64.843018
1.238899 233.134979 -64.071442
29.851086 166.508255 -65.631020
22.890932 159.375778 -65.130768
29.103664 170.824005 -63.120003
-9.112556 219.568741 -67.461395
-64.965721 163.089600 -67.424446
-35.126347 168.748154 -66.391594
111.449333 168.234314 -67.046791
-47.857658 165.248825 -65.328178
-46.721306 159.211121 -61.771454
-82.504684 124.166458 -62.356110
19.468889 259.027863 -65.965454
102.697556 202.586258 -67.029495
-18.059444 221.510315 -63.814625
109.980026 194.539047 -67.142723
-68.470543 169.514969 -65.585098
-14.486657 223.339752 -64.248901
33.034512 163.634598 -66.309830
20.475941 177.484024 -66.097275
13.446506 167.571732 -65.106201
-60.745224 173.664932 -67.699753
-67.958382 171.233398 -66.109421
-15.815643 222.373047 -65.959175
19.448572 257.313110 -61.147518
-37.184887 172.687515 -65.328308
21.549858 185.994019 -60.819706
3.182616 173.863663 -66.281578
-25.325289 189.141479 -67.535538
-30.847929 177.122986 -65.419403
-33.298100 180.309753 -64.908012
-34.601891 177.849152 -62.631428
17.112070 158.931610 -64.594238
-0.266064 175.751724 -67.127304
16.578203 162.648376 -61.513363
113.700653 181.772003 -66.838158
111.802475 180.653915 -64.188118
111.814148 177.498199 -63.787144
46.966465 261.900238 -62.090210
14.551552 226.387070 -62.784763
-25.385540 192.258423 -65.267235
-38.236687 182.933823 -67.324928
-23.435123 192.011307 -63.808857
-37.463207 177.068359 -62.394356
20.092194 181.734406 -64.499641
20.718058 176.687286 -62.351929
110.138992 184.586044 -67.745682
-34.466553 193.416275 -66.936089
-37.820335 187.628479 -67.023369
-37.726421 183.650620 -63.614326
-71.168938 151.101791 -61.956860
-30.580429 193.184311 -62.916893
-33.733608 297.896332 -66.278419
-29.085459 295.593628 -67.928268
-144.546097 188.760971 -67.367996
-141.164551 189.326630 -61.162590
-146.241791 185.345032 -60.271992
-151.811554 191.059204 -58.107620
-82.351006 116.177879 -58.314972
-150.255905 185.537430 -58.979328
3.120230 269.446350 -56.975044
-20.076509 194.549576 -66.400558
-38.245178 175.983078 -64.768723
-24.419052 192.715271 -62.994095
45.265823 262.157593 -65.920456
13.957823 228.214417 -65.107231
-73.079185 144.197433 -65.551643
-74.203484 150.916565 -65.505653
-30.278643 195.682800 -66.506699
-37.093117 187.007980 -64.863144
-150.287247 192.402786 -67.049782
-152.836411 194.636108 -62.644962
-142.105316 192.897171 -58.899155
-19.661215 75.559593 -55.706276
52.936188 260.872375 -63.117371
-32.165302 197.261581 -67.009880
-29.253792 198.391312 -63.801128
101.050774 198.120758 -66.352669
-52.278076 144.104294 -65.714157
12.670946 204.854584 -66.873940
24.457623 200.503784 -67.547066
102.328506 206.393707 -64.340149
-130.665970 208.884079 -67.738525
-124.248085 209.807922 -67.944504
-153.633118 235.374924 -60.346287
-108.542938 201.467010 -58.970592
-20.388737 218.349930 -66.561966
-63.664787 177.751404 -66.638245
12.210979 253.168518 -65.878372
101.529945 212.813904 -66.508232
-64.739914 300.373993 -65.054321
-145.384033 220.038834 -67.284798
-147.297882 218.911926 -54.577465
17.360077 219.115738 -67.857918
90.978508 228.915146 -66.930031
16.203365 223.907761 -66.623352
105.189713 95.198875 -53.980629
-70.689941 167.275665 -66.154671
-12.892211 227.226929 -66.531967
-98.441940 227.174561 -65.594795
-137.325790 265.475769 -64.319748
-77.257378 151.123245 -65.768921
2.613480 233.362427 -67.983437
-23.864115 231.880508 -66.446625
-117.280205 302.261719 -67.256393
-152.903076 274.326233 -61.629105
84.913521 235.796600 -65.647102
-17.853815 232.127472 -65.133568
15.178653 196.454636 -65.919037
-120.481262 207.795578 -59.164230
-5.893090 237.100998 -66.582352
-7.365425 234.272980 -61.659763
80.776329 237.049744 -66.669159
-135.497162 241.281219 -67.213387
7.427349 248.225342 -67.188652
16.116001 240.534042 -65.205315
-73.518829 296.566467 -65.546577
-144.912552 226.798187 -61.104923
-150.040527 227.257584 -56.648884
-157.472122 244.290909 -67.041214
47.898365 28.856207 -60.946335
-145.138641 248.176804 -66.647102
-13.276866 246.989395 -64.930298
-165.119461 242.769989 -67.104805
8.736069 222.504532 -67.675652
-94.254768 301.890686 -66.566628
-150.633087 249.169495 -67.736412
-155.213501 250.120880 -63.509163
47.413059 28.488199 -58.486454
21.983309 149.517044 -55.044178
59.314972 254.268036 -67.391396
11.280891 213.890900 -62.218666
-60.068687 143.939926 -61.790871
-24.364283 249.313889 -67.510544
24.580837 26.281542 -58.358948
27.707911 23.913836 -57.564121
-93.367744 86.928009 -65.543083
69.246925 249.687607 -67.182068
-156.396408 254.172089 -67.516518
-6.225170 248.275848 -65.759979
-10.258729 249.708328 -60.376842
-21.970154 252.281418 -67.925682
-132.102036 214.085449 -64.716377
-166.569748 248.455399 -66.190460
-162.202866 253.648834 -67.779602
9.071415 252.486481 -67.351372
-167.307495 253.070587 -64.396645
-42.694046 297.173584 -66.185684
-143.113403 199.336761 -62.775269
-148.956299 196.942566 -56.476166
-0.020845 252.777252 -67.713905
17.641850 253.422394 -66.152725
-4.028241 253.588699 -67.644043
-97.061386 162.379578 -62.867458
-9.944895 252.276947 -62.625351
-137.072342 207.159210 -59.223003
-153.381699 254.908722 -67.421799
-150.601685 254.058960 -59.698498
-146.651718 250.889954 -58.227371
-157.190460 255.311844 -67.603302
-76.113647 258.111816 -68.602417
-58.560032 256.369171 -66.350014
-94.540764 225.354279 -66.704529
-98.546921 265.895142 -67.779785
-14.614166 268.453125 -67.379921
-60.450478 297.288513 -64.907631
-141.449982 213.893188 -64.266853
-143.027374 216.006516 -63.480118
-149.689331 216.442886 -58.576038
-92.866920 262.121063 -65.310585
-80.591400 296.432678 -67.778915
-148.769211 237.361664 -56.993355
-125.022972 211.207611 -56.476265
-93.548538 296.577667 -66.655228
-92.438965 300.575256 -63.622345
-144.896362 250.011749 -62.902767
-115.055969 212.886032 -58.555328
-150.508575 248.229996 -58.499184
46.332901 27.527134 -65.111763
12.499977 296.890411 -65.301872
-105.429977 181.821548 -63.158752
14.542909 297.593628 -61.512486
-81.357513 301.232635 -67.634064
-108.049896 203.626587 -63.293312
-141.175629 235.876602 -62.079315
-152.629837 234.906708 -56.220966
-126.078812 210.691849 -56.357483
-148.560028 233.925461 -54.934639
-145.111771 232.371048 -66.765442
-77.602173 300.995758 -65.510483
-148.774429 233.265045 -54.978195
-137.759842 302.555420 -67.084236
-151.449417 291.544708 -61.690853
1.097452 302.058716 -66.867058
-0.214484 296.525116 -57.764969
95.022026 117.783798 -55.835415
69.024323 100.367043 -66.003220
-8.705717 285.830566 -62.205223
14.504678 303.408264 -67.178864
-104.691605 177.858246 -56.916588
27.810516 28.202902 -66.456520
-60.250687 120.396187 -53.831356
26.272154 32.060177 -66.342789
-9.562593 262.766907 -60.724545
23.011183 34.026684 -66.640648
-70.609436 58.999084 -63.996078
110.293526 124.935570 -65.293884
31.377773 45.924168 -65.862099
114.334267 130.352997 -66.042801
24.072594 40.058971 -66.586838
111.437187 130.118027 -65.507210
26.405092 44.703548 -66.595047
113.069969 126.215172 -67.152100
-32.287251 63.463650 -65.316528
-0.846933 269.988922 -58.981533
3.560025 273.704590 -57.566589
72.735947 72.723755 -57.169514
94.275055 82.863922 -66.622177
-42.403000 90.770584 -66.276352
101.453644 99.642876 -64.370934
-61.989006 102.089500 -65.555138
-11.693121 286.547363 -65.467827
102.321167 107.628891 -66.377327
9.748126 302.429016 -67.109123
83.403885 109.951309 -67.084763
102.795578 113.507896 -65.982704
34.022453 47.140228 -64.865128
108.889854 120.752846 -65.945496
30.720234 134.804367 -66.525131
32.822861 135.165985 -67.259933
29.125111 139.837173 -66.274117
13.065650 232.697128 -65.237946
-78.289574 142.933975 -65.482849
12.795788 222.949432 -64.296295
-102.588341 180.974396 -62.092640
-59.418243 150.371429 -65.251083
-1.037447 229.425720 -66.300537
-72.930893 154.755402 -66.212173
37.895309 267.519379 -64.731789
-68.366989 154.639084 -65.439766
-43.887070 152.799591 -67.591278
27.439686 150.441101 -66.754272
42.050583 262.729645 -58.154488
-5.440346 221.984879 -66.255684
-69.660217 158.442642 -66.116783
-8.181164 221.792862 -62.364861
10.502155 161.380981 -65.536858
26.005793 177.502090 -64.021355
8.516419 163.568817 -63.074028
24.521347 181.004654 -61.343746
67.407593 103.532364 -62.731686
107.909714 172.986725 -66.963058
110.820404 178.137909 -66.887794
109.248840 182.261475 -63.808342
-42.634182 174.874832 -66.565155
-22.100399 198.196823 -65.059296
-24.649834 198.818314 -61.791481
-40.757278 182.570175 -66.862816
-21.045158 197.484756 -63.359322
-41.150490 175.796555 -62.837997
27.990719 185.868225 -65.984566
110.729912 191.183456 -65.977791
26.014856 184.333878 -65.403740
25.214712 190.156448 -62.893250
26.752539 191.377808 -66.110336
24.717930 185.962708 -61.742874
15.970203 193.625366 -67.126656
-151.634262 197.441803 -64.528145
-150.421387 199.334198 -59.779194
-144.207245 197.538666 -57.640881
-160.565323 210.005219 -65.944962
-151.641068 204.193359 -65.627525
-28.213078 84.466660 -60.904774
-150.655884 200.897171 -60.090797
-145.213837 202.837982 -58.945759
-114.504646 236.328049 -63.196976
43.226383 41.334660 -64.291443
20.224506 206.843216 -65.536026
-135.281067 209.760178 -66.773827
-150.447891 217.935349 -65.989639
-152.683624 218.255951 -62.332520
-137.183975 242.997818 -64.963501
-163.374222 218.790512 -66.470284
-164.050995 218.136292 -66.280983
-166.502121 239.644241 -65.682693
-25.147190 228.490112 -66.091850
17.795891 225.783554 -65.705414
-72.041763 146.766083 -65.704742
8.583767 227.745132 -66.759750
35.812054 131.497040 -53.593636
-25.038666 63.457649 -62.399700
-165.261520 231.248428 -66.480637
-98.943115 171.938095 -57.708572
-12.310123 231.692902 -65.650581
-153.880096 233.788483 -66.670952
-150.720032 231.616699 -60.878132
-146.053253 230.091965 -57.470551
-15.005190 235.692902 -66.741714
21.382719 201.784042 -61.965824
-80.239326 130.500137 -53.565014
-118.426270 239.530991 -66.795853
-132.187943 243.423706 -67.023445
-156.381500 204.187958 -64.872375
17.211561 247.480423 -65.744453
-6.577171 251.968933 -67.426895
-98.134018 159.235367 -61.400478
-63.941151 258.466003 -65.774063
-10.160801 258.338165 -66.521103
84.583359 231.520859 -63.085423
15.640428 293.881683 -65.729080
-135.405731 294.794922 -64.788887
-135.090744 299.435730 -60.967270
-149.264465 290.715942 -57.197254
-76.568779 296.276611 -66.582130
-77.902702 298.963135 -63.637867
-144.358215 232.351288 -62.104851
-150.218964 231.113770 -56.879341
-62.928772 296.373230 -65.723595
-144.017548 217.499756 -62.010391
-149.634445 219.551865 -55.908020
-29.133715 298.999939 -65.940514
-34.495438 297.433075 -66.406754
-141.300735 186.330917 -63.510647
-146.794952 189.542740 -61.624573
-150.303589 190.531769 -56.735428
36.355236 21.950249 -64.779091
35.635590 23.164301 -65.829292
-58.850590 128.089890 -53.546410
104.330101 102.714714 -55.673248
39.992889 24.812004 -65.769753
104.673248 99.894592 -55.650990
42.616638 24.988283 -65.599609
36.933125 26.636633 -65.414673
-57.063091 126.458183 -54.487267
42.494629 29.362968 -65.378433
46.981682 31.213602 -65.685020
43.071350 30.857525 -64.794807
102.545074 94.704170 -62.283607
-66.463921 134.570068 -56.158340
46.401203 40.268402 -65.815506
47.293266 36.765156 -65.749275
46.793858 44.919052 -65.554802
-14.949575 75.063065 -65.362030
68.038841 94.474121 -65.050949
-55.911568 100.406792 -66.719131
26.272032 48.686886 -61.581444
107.703575 107.766579 -65.324600
-56.807800 154.466125 -61.973873
10.105207 210.871613 -63.650246
107.166206 117.070343 -65.933075
29.025734 171.872910 -66.323128
21.405869 162.719940 -67.806572
20.223145 158.760025 -61.315536
7.046213 171.093430 -65.362923
107.765686 177.495026 -65.355652
114.257095 176.571503 -65.113716
17.349825 180.963470 -65.747574
102.609375 194.745209 -65.931625
-151.024857 196.661057 -66.499474
-152.895798 196.876617 -62.129887
-96.092102 155.786499 -57.209248
-131.936432 205.393753 -64.833122
-119.751007 206.143890 -65.770805
-135.441925 212.853729 -64.672340
-157.926727 218.860855 -66.108368
-154.220581 220.099182 -66.057213
-150.251465 217.432343 -60.029240
-145.903229 219.225555 -56.865154
16.340990 207.013916 -60.803585
-75.024117 158.030899 -64.702438
-3.310837 230.164841 -66.251610
-9.975763 232.279434 -62.584629
-51.816246 155.591797 -62.642143
-21.751059 232.160263 -65.461983
-135.546234 235.853516 -65.230820
33.131069 269.591797 -57.412407
-27.126213 59.153160 -57.621975
11.458054 238.363739 -65.731392
45.795078 125.745354 -54.186340
43.755653 35.175575 -54.234848
-12.774551 255.910782 -64.642708
-145.588608 291.878510 -64.979301
-136.635895 296.874023 -62.320339
-0.006481 301.177338 -65.590019
94.892548 116.097893 -60.735870
-98.262619 301.965149 -65.614494
-152.965012 252.412292 -63.506355
-40.887978 59.778503 -64.356575
-30.932640 63.570980 -64.925095
38.771439 125.135506 -64.879570
-22.681076 67.824295 -64.884827
-91.912468 79.254929 -65.018723
100.541298 89.267395 -64.339424
21.824659 287.832489 -57.614929
18.725485 292.947083 -59.191929
-41.073925 88.025314 -64.041771
-96.672501 231.811462 -63.408382
-98.850555 101.614510 -57.121368
103.339630 109.735374 -60.519981
109.045151 110.638130 -63.449585
48.219803 44.024040 -61.656830
71.463043 110.080864 -63.792915
-95.940590 111.876373 -64.508881
110.642670 121.028847 -61.700634
32.792747 46.244205 -63.112343
-144.580688 192.829422 -56.640610
-24.148876 76.530319 -55.609108
-19.607298 73.771339 -53.477058
-87.030342 123.843132 -67.458687
49.133064 262.597473 -64.402390
37.491268 128.114944 -64.982124
-82.824387 128.169220 -64.751724
-46.113544 159.549805 -63.966686
-79.412247 127.067970 -64.894165
-47.990685 165.567001 -62.792728
-83.554543 134.774048 -64.920776
-54.510017 53.100311 -56.431297
31.734367 154.085556 -64.866776
14.829004 164.575989 -64.238205
18.737301 161.403641 -61.096210
24.521984 166.878540 -64.224419
-41.481228 169.091492 -64.609154
23.597252 170.454880 -64.139412
107.297211 194.887451 -64.178383
-108.780167 203.980194 -64.014297
-165.487717 211.025558 -64.035759
11.299194 219.212982 -64.514618
-100.848663 228.749588 -64.579308
-70.955910 258.613434 -64.859756
111.651520 173.406891 -63.498623
98.971542 77.479179 -58.565536
-8.850324 237.899261 -64.412590
-3.888439 236.065933 -63.210457
3.371598 293.495270 -56.161732
3.824132 297.694580 -55.292732
73.370636 237.979462 -64.284180
-107.362976 185.848892 -57.159657
12.713585 232.249664 -62.963520
-76.193298 141.938095 -61.391243
-11.956209 243.476868 -63.766773
11.404199 253.959488 -62.180073
-60.269306 54.423000 -59.630329
40.061760 262.983337 -65.172386
20.666649 254.580948 -57.888794
-98.340698 269.125946 -65.231094
-14.605204 274.364807 -64.334877
-104.887863 185.029175 -62.971302
2.443028 301.382355 -65.135712
-5.124851 249.967911 -56.137104
-93.240021 158.131104 -57.355034
32.321312 27.576685 -60.137623
-59.179443 126.111839 -57.558182
42.901581 42.048054 -61.385071
-77.423721 60.370426 -62.797054
17.503223 294.694580 -56.434090
-85.558296 67.922966 -63.822514
-11.968969 71.225121 -60.687790
79.611786 68.929626 -54.887699
7.517900 271.069275 -54.418201
92.703094 76.265030 -62.792568
-13.970566 78.247444 -62.381691
-97.678772 91.967766 -59.738899
64.654633 253.266663 -62.583138
26.472034 273.770752 -54.293732
63.250538 96.850121 -64.452332
1.280185 302.635254 -60.909340
0.461640 299.375061 -56.952152
93.695526 118.887009 -53.474606
67.157570 99.779221 -63.581257
84.936264 115.409607 -61.154282
-97.479362 103.087692 -61.007500
51.347042 253.984619 -63.357697
-65.078850 105.378738 -60.466560
107.414719 112.080467 -60.749630
43.603661 48.851593 -60.467529
46.225571 113.080063 -60.110565
76.180405 73.393143 -61.014423
43.887428 110.724373 -62.333603
-97.215561 116.549683 -61.406281
46.680595 116.183083 -62.920570
63.394291 100.250320 -60.824913
103.813629 115.399185 -61.934647
39.266033 119.800217 -63.355656
50.098751 100.685417 -61.911690
57.103157 106.115326 -60.506775
-77.384560 121.791702 -64.218582
-89.566864 126.344238 -61.206989
40.471306 130.462357 -63.191341
47.486988 121.651642 -63.200253
62.421066 104.163307 -60.216248
24.830278 266.007019 -57.514584
-2.561897 294.859161 -59.141151
30.169893 269.315857 -64.386749
-77.301743 138.038177 -62.078407
-127.271172 243.013596 -58.640179
-85.225838 129.913727 -63.079109
-40.814800 172.162643 -62.328117
-118.322937 240.930740 -59.520695
-78.933205 129.919937 -63.225414
34.968578 135.829865 -62.725018
-97.384315 268.564606 -63.367340
39.231087 135.171448 -63.404839
113.981766 134.592224 -62.977757
20.475466 40.535187 -61.829437
-63.412891 139.966873 -60.177017
15.922565 220.975845 -62.628574
-55.823380 137.275970 -61.373493
18.281282 208.804047 -63.896206
113.298668 139.284256 -62.444115
112.243027 143.402328 -62.494179
-165.503326 223.089752 -61.651867
-19.979221 79.458862 -60.090488
-90.824280 146.329773 -63.281452
8.113140 244.300903 -61.126404
-40.036930 89.783562 -54.101337
30.612583 148.182495 -62.591415
-76.118591 146.545456 -63.675041
39.278931 131.035126 -55.294941
0.612925 241.204025 -60.607491
-19.900253 63.558590 -59.719528
