78.358055114746 -76.248298645020 -228.538757324219 1.180441141129
9.943797111511 -76.621986389160 -234.319824218750 1.207782983780
-142.011337280273 -78.474784851074 -234.723052978516 2.009769678116
-149.833450317383 -73.446708679199 -234.365417480469 2.331690311432
16.845878601074 -71.656127929688 -231.935180664063 1.557558774948
-2.319992065430 -75.242858886719 -236.722442626953 1.799232959747
-25.970245361328 -73.804054260254 -237.411132812500 1.948038339615
-1.207588791847 -70.861976623535 -238.400665283203 1.352465033531
-160.413894653320 -75.426376342773 -237.610992431641 2.786115884781
9.789856910706 -73.688659667969 -244.017425537109 0.641011774540
-164.143630981445 -74.298011779785 -237.454406738281 1.975304722786
-12.826807022095 -75.029350280762 -237.777099609375 1.723542809486
63.743545532227 -74.347038269043 -239.157348632813 1.206458330154
-12.281964302063 -73.518493652344 -239.046752929688 1.260219454765
-24.306238174438 -72.974281311035 -242.531738281250 0.624247014523
-24.894411087036 -73.478324890137 -241.760375976563 1.081530332565
-13.584356307983 -74.836479187012 -241.378082275391 2.278303384781
-145.765197753906 -74.205421447754 -232.724731445313 2.346659421921
8.743418693542 -73.606269836426 -242.833404541016 0.878683984280
64.839813232422 -73.191230773926 -242.945495605469 1.200646281242
14.621381759644 -72.489746093750 -245.045288085938 1.722258806229
-163.664825439453 -73.004623413086 -240.842254638672 2.934101104736
-49.305885314941 -73.070617675781 -242.010498046875 0.541911363602
3.786644220352 -80.014480590820 -247.574279785156 1.057073116302
17.320217132568 -73.637016296387 -244.815826416016 1.890551924706
-53.955657958984 -73.057563781738 -247.034820556641 1.593167304993
-2.864784955978 -71.205337524414 -247.118041992188 2.565382719040
21.635906219482 -76.802780151367 -247.353576660156 1.978078603745
-166.933273315430 -73.042724609375 -248.584869384766 1.374243378639
-68.428504943848 -76.258934020996 -247.543060302734 1.306078076363
-50.556266784668 -73.408157348633 -247.196014404297 1.161327719688
-79.618179321289 -73.666351318359 -250.365447998047 1.892481207848
-159.924407958984 -74.460464477539 -247.346954345703 2.380643367767
-150.308319091797 -70.705863952637 -250.618621826172 3.336522102356
-59.285804748535 -75.270401000977 -249.535644531250 1.271660685539
-68.318664550781 -73.937995910645 -250.619750976563 1.820896625519
-153.094863891602 -72.777534484863 -253.102600097656 0.843752920628
-151.464111328125 -74.315887451172 -252.447998046875 1.373915314674
-76.060119628906 -72.154586791992 -254.071166992188 2.149525642395
-92.875358581543 -72.327827453613 -254.412078857422 2.580730915070
-164.590896606445 -71.248825073242 -251.487365722656 1.751104712486
-155.971710205078 -74.041824340820 -258.840545654297 1.008298873901
-133.916290283203 -74.874031066895 -257.110961914063 1.030245542526
-82.516159057617 -74.210823059082 -252.330169677734 2.163414239883
-161.933013916016 -72.334091186523 -252.589996337891 2.058630228043
-141.465850830078 -73.023155212402 -256.729400634766 1.545395493507
-85.116905212402 -73.211288452148 -252.913848876953 1.956204414368
-95.724792480469 -71.724571228027 -259.517486572266 0.885505199432
-145.743591308594 -74.512344360352 -256.534027099609 2.641984701157
-93.617347717285 -73.519477844238 -256.396484375000 1.569044709206
-150.866806030273 -72.962638854980 -256.518402099609 1.114474892616
-100.896255493164 -73.435745239258 -256.242370605469 1.031653404236
-166.698501586914 -73.690597534180 -259.084777832031 2.190762519836
-160.553726196289 -74.768379211426 -261.754455566406 1.604571938515
-124.970848083496 -75.485832214355 -256.953826904297 1.687660932541
-150.671875000000 -73.815078735352 -259.439453125000 0.919719398022
-112.585624694824 -72.197875976563 -261.484680175781 0.872789025307
-14.081114768982 -73.271713256836 -261.850463867188 1.688277006149
-141.568557739258 -73.746002197266 -261.385009765625 0.951338112354
-124.682640075684 -73.537338256836 -260.230224609375 1.312703728676
-154.185379028320 -72.984390258789 -262.361328125000 2.454309701920
23.364658355713 -74.342903137207 -269.933624267578 2.068315029144
-147.537689208984 -75.726310729980 -278.287017822266 0.647056877613
-167.456390380859 -74.256294250488 -278.951995849609 1.741925835609
-7.205727577209 -74.781600952148 -279.297180175781 1.247107028961
-145.856994628906 -74.387969970703 -281.285583496094 1.062889218330
-8.275022506714 -72.881599426270 -282.963378906250 1.285535693169
13.350098609924 -73.690109252930 -285.716339111328 0.778926014900
-135.826293945313 -73.436363220215 -286.170898437500 0.656796932220
-69.078163146973 -74.966384887695 -286.703826904297 2.034654855728
-32.800453186035 -75.319808959961 -287.329071044922 1.459533333778
-112.675811767578 -73.621086120605 -285.606292724609 2.024007558823
-93.691558837891 -76.312370300293 -290.473785400391 2.256171464920
-89.737182617188 -73.964416503906 -291.402404785156 1.352122426033
-48.582641601563 -74.926902770996 -291.498626708984 2.998728752136
-115.387504577637 -76.427482604980 -289.562347412109 2.465208530426
-112.005905151367 -74.745223999023 -290.378234863281 1.876593828201
-32.138786315918 -72.323928833008 -290.091522216797 1.594172120094
-113.996711730957 -73.747215270996 -292.601715087891 1.284566760063
-125.716567993164 -71.107681274414 -291.156341552734 2.124713182449
-143.562210083008 -75.195693969727 -293.140075683594 2.008950233459
7.784249782562 -73.318191528320 -292.004272460938 1.756641149521
16.209674835205 -75.272186279297 -293.624908447266 1.074882149696
-158.303237915039 -74.194313049316 -293.373962402344 1.362204432487
-156.371200561523 -76.848747253418 -300.733673095703 2.122187614441
-145.480270385742 -75.120216369629 -310.970581054688 1.378496646881
-150.760879516602 -72.753837585449 -311.365539550781 1.693814992905
-151.902740478516 -76.217132568359 -313.119934082031 2.461363554001
30.017938613892 -74.273323059082 -15.598745346069 1.786045193672
29.185688018799 -71.465339660645 -17.547649383545 0.998183369637
22.287771224976 -72.777107238770 -23.563167572021 0.763330280781
29.439855575562 -71.371726989746 -39.328903198242 1.103259444237
-56.901649475098 -71.725799560547 -49.453746795654 1.346345067024
-64.738471984863 -72.119766235352 -49.910545349121 2.263626337051
-37.910720825195 -74.334159851074 -51.183242797852 2.864213228226
-82.346878051758 -71.003761291504 -61.218383789063 3.445100307465
82.491088867188 -75.260696411133 -73.400062561035 1.021949052811
-16.251585006714 -72.546516418457 -70.876312255859 1.878373980522
89.686866760254 -73.866035461426 -68.363327026367 1.828278779984
99.255325317383 -72.628295898438 -77.790817260742 1.204201698303
-92.219062805176 -71.809867858887 -77.332794189453 2.494883537292
69.419685363770 -72.814018249512 -80.349678039551 1.637531876564
-41.076717376709 -76.574218750000 -84.944099426270 1.068433284760
101.191177368164 -71.536758422852 -82.863807678223 1.810538649559
-53.815280914307 -72.865417480469 -88.918464660645 2.607214689255
52.461223602295 -73.232955932617 -90.459793090820 0.398831456900
72.214828491211 -76.466659545898 -91.200820922852 1.443025231361
57.135612487793 -72.730735778809 -96.701820373535 1.277170062065
53.607929229736 -74.807273864746 -98.374237060547 1.835309624672
74.498535156250 -75.482063293457 -95.349639892578 0.745176970959
46.753055572510 -73.330856323242 -103.275268554688 2.709601640701
102.622016906738 -73.651885986328 -99.962600708008 2.739643335342
107.040489196777 -75.801361083984 -105.618751525879 1.440708875656
82.126548767090 -70.327957153320 -103.169815063477 1.205891728401
91.278404235840 -74.158668518066 -102.517807006836 1.489872336388
102.028099060059 -73.142318725586 -96.158538818359 1.813448190689
109.904861450195 -73.064910888672 -103.323982238770 1.902987718582
40.151432037354 -73.755561828613 -105.861480712891 0.675505280495
112.600357055664 -70.860603332520 -119.147972106934 1.533971190453
114.052803039551 -74.127593994141 -118.430198669434 1.507047772408
32.811882019043 -72.499862670898 -122.890556335449 0.864997565746
45.583587646484 -74.151817321777 -119.291053771973 1.778686642647
115.946342468262 -73.268089294434 -128.869079589844 2.258708953857
38.330608367920 -73.126594543457 -126.552909851074 2.904845237732
114.750869750977 -75.189994812012 -128.109558105469 1.950187802315
110.058990478516 -73.641723632813 -122.247352600098 2.303238391876
26.736362457275 -73.240348815918 -136.599609375000 1.300192832947
-47.842834472656 -73.695541381836 -134.619750976563 1.895167112350
-51.405628204346 -72.184906005859 -135.449035644531 0.710458874702
111.992202758789 -72.396987915039 -134.597778320313 1.625035524368
-69.409149169922 -75.930587768555 -141.160095214844 2.988120079041
-72.900657653809 -74.250961303711 -140.353393554688 1.587310075760
-57.492122650146 -74.128463745117 -142.413574218750 1.859826683998
33.443641662598 -72.833175659180 -142.731414794922 0.870361924171
115.149620056152 -74.102142333984 -145.077056884766 2.467091798782
-68.121475219727 -71.274299621582 -146.736083984375 2.023347854614
-46.373077392578 -72.742462158203 -143.443023681641 1.952586293221
34.610893249512 -74.111526489258 -150.247100830078 1.278998732567
-67.177574157715 -74.439834594727 -147.938018798828 1.151068329811
114.642440795898 -72.491981506348 -142.222991943359 1.660009503365
113.030120849609 -71.929405212402 -157.277984619141 0.544903218746
117.117454528809 -74.178581237793 -151.989257812500 1.452825665474
-37.439792633057 -75.171257019043 -153.481994628906 1.279998302460
-64.405387878418 -73.917091369629 -163.651916503906 1.838663935661
-69.669647216797 -71.864555358887 -156.860931396484 2.193110704422
31.765396118164 -74.243865966797 -147.732208251953 1.754300475121
-1.249731302261 -75.090896606445 -162.191772460938 1.623268246651
109.480026245117 -73.481536865234 -160.857269287109 1.390552282333
112.425170898438 -72.041564941406 -153.354736328125 1.302404403687
112.871353149414 -74.205894470215 -157.565460205078 1.537051320076
-63.452800750732 -71.052017211914 -161.331451416016 2.045262813568
-44.759323120117 -75.069915771484 -163.762481689453 0.461430817842
-0.661156833172 -72.565551757813 -164.984466552734 0.568244397640
-27.257787704468 -73.280502319336 -174.795684814453 2.684034347534
107.062683105469 -72.790161132813 -166.688507080078 1.288530230522
-34.540588378906 -75.345405578613 -160.177124023438 0.481391936541
110.680999755859 -72.160659790039 -168.829895019531 1.112522363663
-40.876461029053 -74.165115356445 -173.177062988281 1.652231693268
109.938888549805 -71.741714477539 -167.707611083984 2.346203804016
-149.489196777344 -74.403259277344 -180.774749755859 0.668781101704
-26.818601608276 -70.753410339355 -176.312133789063 0.120378091931
-19.932518005371 -73.284011840820 -182.901489257813 0.899699270725
25.899934768677 -75.499801635742 -177.194885253906 2.084028482437
16.420282363892 -73.689483642578 -182.591186523438 1.561846256256
27.871824264526 -73.589363098145 -183.116088867188 0.879935920238
106.195289611816 -75.338287353516 -182.991790771484 0.920034348965
-150.645980834961 -71.799346923828 -185.751434326172 1.089892387390
-19.182136535645 -75.400917053223 -186.424987792969 1.236983537674
103.688194274902 -73.356513977051 -178.462249755859 2.848129034042
104.209182739258 -71.243568420410 -189.932617187500 1.400792956352
108.429130554199 -73.698883056641 -178.473632812500 1.458569049835
99.204467773438 -74.697738647461 -193.975463867188 1.217537403107
-150.745819091797 -75.223136901855 -195.566589355469 1.580454468727
101.135421752930 -74.076705932617 -204.756103515625 1.724716186523
-27.421134948730 -71.539970397949 -196.097259521484 1.198376417160
99.110290527344 -72.917045593262 -196.423004150391 2.237308025360
-121.870170593262 -75.451454162598 -199.160247802734 2.708951950073
-28.681621551514 -77.200874328613 -191.132293701172 2.316916227341
-140.694564819336 -70.886322021484 -198.326599121094 1.084520459175
95.764884948730 -73.422248840332 -199.050415039063 1.417746305466
9.672769546509 -74.440368652344 -198.594940185547 1.785329103470
24.264894485474 -72.806251525879 -193.123413085938 1.660912752151
-146.802505493164 -73.008247375488 -202.050109863281 1.273250460625
-138.962173461914 -72.710205078125 -201.737762451172 1.422017574310
-9.575199127197 -73.067886352539 -205.416198730469 0.950146496296
-123.615417480469 -73.566886901855 -202.674194335938 1.358108520508
-142.724914550781 -76.316879272461 -201.396240234375 2.105787038803
6.372397899628 -73.432777404785 -200.080963134766 2.687767028809
-22.385328292847 -75.311546325684 -201.597778320313 1.329176664352
21.230356216431 -75.215423583984 -202.824890136719 2.104894638062
8.142051696777 -74.203140258789 -210.943908691406 1.161483764648
87.937637329102 -72.170616149902 -208.098876953125 3.007955551147
-17.950809478760 -71.370025634766 -211.793853759766 2.087631464005
92.583160400391 -71.746932983398 -208.738922119141 1.230621337891
97.193313598633 -74.146102905273 -206.854339599609 2.807670116425
-148.673248291016 -73.953453063965 -215.075317382813 1.206256866455
96.539985656738 -74.141090393066 -211.401275634766 2.071316003799
6.331325054169 -73.220848083496 -208.000122070313 1.991004109383
5.098206043243 -75.283996582031 -214.286468505859 2.195224523544
-32.798458099365 -73.099014282227 -207.671905517578 1.766034603119
-88.628608703613 -72.924285888672 -213.283630371094 1.820991039276
-26.225475311279 -74.033470153809 -211.369018554688 1.169055581093
85.667022705078 -73.065032958984 -216.086151123047 1.886783719063
89.251441955566 -72.521652221680 -217.763580322266 1.074024796486
-31.348108291626 -72.962249755859 -212.593872070313 1.526436567307
-84.019355773926 -71.399055480957 -217.595764160156 2.796685218811
-0.869534790516 -75.230186462402 -218.127532958984 2.492099285126
84.978088378906 -71.010971069336 -213.932861328125 2.508001089096
-150.726638793945 -75.439002990723 -222.237182617188 2.201858520508
-164.671890258789 -72.228485107422 -214.381530761719 2.260804653168
-160.241119384766 -74.606407165527 -222.655090332031 2.276580572128
-20.451545715332 -73.582695007324 -226.713867187500 1.639338731766
-152.558441162109 -74.819915771484 -223.077575683594 1.997286081314
-5.752357482910 -74.861625671387 -224.752319335938 2.527946949005
7.804520130157 -73.697578430176 -218.208892822266 1.726726293564
-165.046005249023 -73.167976379395 -225.196502685547 1.132441401482
-159.132720947266 -73.785881042480 -226.913085937500 0.908331930637
80.399276733398 -75.468856811523 -230.769989013672 1.219544291496
2.120917558670 -71.928932189941 -227.031158447266 1.880890369415
-155.603469848633 -70.372962951660 -226.075439453125 1.081003665924
-141.505859375000 -74.072006225586 -225.240905761719 1.534819841385
-18.674404144287 -73.083465576172 -223.980682373047 1.456286549568
1.472557783127 -77.147216796875 -223.486419677734 1.152732133865
81.039436340332 -71.704338073730 -224.649322509766 1.878834486008
-160.622299194336 -72.276268005371 -228.002288818359 1.547448158264
-144.489746093750 -71.888023376465 -229.765472412109 2.842269420624
-123.849777221680 -72.291961669922 -230.465393066406 1.460596799850
80.111419677734 -73.693161010742 -226.835205078125 1.710806846619
-114.675575256348 -73.027252197266 -229.072875976563 1.444362640381
-147.082824707031 -73.326988220215 -229.271453857422 0.661024034023
-149.262420654297 -72.318450927734 -231.156219482422 1.869221806526
-147.635040283203 -73.884788513184 -231.022888183594 1.349820137024
-155.045425415039 -73.490432739258 -229.174896240234 2.195497751236
-164.382812500000 -73.542922973633 -229.501312255859 1.341067910194
-133.510421752930 -72.879920959473 -234.369506835938 0.813446819782
-132.478698730469 -74.386909484863 -232.951385498047 1.155936837196
-153.093139648438 -75.330497741699 -232.534973144531 2.987438201904
-144.459518432617 -70.596023559570 -236.250518798828 1.617355823517
-151.185684204102 -73.479850769043 -235.184051513672 1.445157527924
75.372108459473 -74.302947998047 -231.580444335938 0.876237750053
68.346359252930 -70.016563415527 -236.569793701172 1.283758997917
-157.223648071289 -72.434509277344 -235.519348144531 1.652509927750
71.931716918945 -70.144943237305 -233.197784423828 1.560719370842
-18.407346725464 -72.713333129883 -236.721313476563 1.002411961555
11.608186721802 -73.905960083008 -236.234924316406 1.591565847397
7.283326148987 -74.053825378418 -235.982055664063 2.966618537903
-152.825393676758 -73.420768737793 -243.635681152344 2.582793235779
14.687667846680 -72.844963073730 -240.835113525391 1.832551479340
62.950706481934 -72.556518554688 -237.424621582031 2.157261848450
14.446377754211 -71.554382324219 -237.617248535156 1.307202339172
6.710483551025 -73.983810424805 -241.615295410156 1.583287715912
-5.508411407471 -72.275985717773 -240.734771728516 1.684280276299
-19.807352066040 -72.360214233398 -242.722900390625 0.987919867039
-0.340254902840 -73.081489562988 -242.666168212891 1.259987115860
4.151372909546 -75.264411926270 -244.123748779297 2.412364959717
58.332233428955 -73.773796081543 -241.833953857422 0.902266800404
-54.989765167236 -75.155586242676 -244.701721191406 1.870250463486
20.011798858643 -72.366363525391 -246.762390136719 0.886095046997
-59.489887237549 -74.364112854004 -242.826171875000 1.986699223518
-8.500736236572 -73.306594848633 -247.654327392578 1.050575137138
-64.674324035645 -70.839294433594 -250.098114013672 0.959563732147
-85.354766845703 -72.881233215332 -252.547851562500 1.552478671074
-81.910964965820 -73.715850830078 -251.079833984375 1.812405228615
-10.012224197388 -72.755607604980 -253.662567138672 1.217273592949
-123.270927429199 -73.014427185059 -257.594268798828 1.395569920540
-13.294905662537 -74.218673706055 -253.839294433594 1.755028009415
-116.169448852539 -73.571662902832 -256.404937744141 1.189591169357
-114.846488952637 -72.554542541504 -258.553680419922 1.353063106537
-102.543998718262 -73.162078857422 -257.735900878906 1.218863964081
-143.451995849609 -72.924362182617 -262.920654296875 1.555382966995
-144.463226318359 -72.816368103027 -266.712402343750 1.472980022430
-167.534103393555 -73.460998535156 -264.039184570313 1.932390809059
19.043701171875 -75.872718811035 -279.963867187500 1.940461754799
-55.793716430664 -72.062629699707 -285.603973388672 2.318567514420
-65.788032531738 -72.512145996094 -284.643859863281 1.364239931107
-41.277988433838 -74.738151550293 -284.729705810547 2.272772789001
-27.987712860107 -74.396385192871 -285.916503906250 1.258563637733
-95.876197814941 -74.433250427246 -288.315032958984 1.786631107330
-29.462266921997 -71.770965576172 -286.372802734375 1.698238134384
-3.599220275879 -73.607299804688 -286.511779785156 0.672129750252
-166.637405395508 -73.321228027344 -289.196472167969 1.942751169205
-13.331097602844 -74.793960571289 -286.212036132813 1.544937729836
7.746153831482 -74.252853393555 -287.943847656250 1.437760114670
15.028738021851 -76.355300903320 -285.611480712891 2.904951572418
-56.109558105469 -74.589530944824 -288.937896728516 2.006930351257
-31.189437866211 -73.122581481934 -291.115509033203 1.906280517578
14.904042243958 -71.705802917480 -292.523925781250 1.574957013130
-69.654563903809 -72.554016113281 -292.257629394531 0.277891933918
-38.148311614990 -71.604858398438 -289.853881835938 2.003503561020
-16.927827835083 -71.637222290039 -290.346618652344 0.578104794025
16.320653915405 -74.914855957031 -290.583160400391 1.232108354568
-10.402452468872 -74.202178955078 -293.243957519531 2.663266420364
4.393232822418 -72.075302124023 -293.058715820313 1.063463091850
14.920419692993 -74.241065979004 -291.693481445313 1.720784664154
-134.105667114258 -72.460571289063 -294.505187988281 0.953415453434
-144.081237792969 -75.445800781250 -300.011077880859 2.277849197388
-148.718124389648 -74.440719604492 -313.166564941406 1.221494793892
43.013786315918 -71.734924316406 -13.403814315796 1.806519627571
31.422122955322 -72.058509826660 -11.905797958374 2.456963300705
39.809234619141 -72.242195129395 -15.669715881348 2.176631450653
22.462749481201 -70.216522216797 -19.157424926758 1.670732855797
45.583980560303 -70.960556030273 -21.808748245239 2.164017438889
26.169046401978 -71.428382873535 -23.298366546631 1.469887256622
24.915641784668 -72.650268554688 -28.085376739502 0.608514249325
24.710702896118 -73.049278259277 -36.650737762451 1.857583403587
41.943325042725 -73.298194885254 -30.687427520752 1.952521562576
27.537452697754 -74.557121276855 -35.575088500977 3.004320859909
43.606792449951 -71.448654174805 -36.408821105957 1.980329632759
32.704517364502 -72.746459960938 -38.352436065674 1.772429227829
38.703552246094 -73.152412414551 -36.251930236816 2.948156356812
32.122207641602 -71.987960815430 -39.852504730225 0.780265748501
43.661285400391 -72.193756103516 -40.579063415527 2.576859474182
35.494342803955 -72.052719116211 -39.875022888184 1.282010436058
-39.123065948486 -70.330520629883 -48.786605834961 1.780086278915
-29.524707794189 -68.236351013184 -51.007087707520 0.904588699341
-87.873718261719 -69.887145996094 -55.558151245117 3.231927394867
-87.452232360840 -73.432090759277 -65.184127807617 1.538104295731
79.392440795898 -74.128768920898 -67.863662719727 2.486003875732
85.195457458496 -72.661834716797 -72.105178833008 0.652709543705
-17.983552932739 -70.692039489746 -72.622016906738 1.511672139168
-87.453025817871 -73.646888732910 -71.456909179688 1.637026786804
-24.361749649048 -72.244941711426 -76.708419799805 0.402660131454
-48.883335113525 -73.166252136230 -85.084068298340 1.171497225761
66.762374877930 -68.672325134277 -85.883018493652 1.683055758476
54.018451690674 -71.760894775391 -92.577674865723 1.752066016197
100.415496826172 -70.901672363281 -91.016830444336 1.699122190475
70.653625488281 -72.996688842773 -96.061721801758 1.509386539459
-66.229530334473 -74.501274108887 -92.149444580078 1.600186109543
-62.814662933350 -71.924819946289 -97.241439819336 3.428865432739
45.857765197754 -73.277290344238 -97.072731018066 1.082999944687
78.312820434570 -71.370086669922 -100.659767150879 1.814472317696
54.957477569580 -77.578804016113 -104.470932006836 2.289801359177
101.855651855469 -71.778869628906 -96.937980651855 1.284009814262
-94.668655395508 -73.205268859863 -107.058013916016 2.079830408096
39.734287261963 -73.093406677246 -111.099967956543 1.478084921837
107.648254394531 -72.555541992188 -107.726432800293 1.064827084541
48.891860961914 -72.003471374512 -110.761108398438 1.398156523705
103.004478454590 -72.606056213379 -108.500274658203 0.554774403572
-85.047882080078 -73.109893798828 -114.038314819336 3.345575571060
36.891960144043 -74.890960693359 -110.956558227539 1.139137029648
107.038749694824 -71.661056518555 -116.353355407715 0.310535818338
105.573532104492 -70.081893920898 -115.040649414063 1.558027982712
107.387008666992 -72.344871520996 -114.588226318359 0.920083701611
110.996452331543 -71.578392028809 -114.462051391602 0.783366084099
40.018558502197 -72.901550292969 -111.103454589844 1.441837310791
32.693016052246 -71.483039855957 -118.020591735840 2.037518978119
42.868965148926 -72.027145385742 -114.842544555664 0.649815618992
108.707046508789 -72.819168090820 -121.801765441895 2.114705562592
40.331878662109 -71.211967468262 -123.992668151855 1.090833544731
109.483276367188 -71.677314758301 -131.345092773438 0.465227395296
112.403053283691 -71.135169982910 -130.490631103516 1.856051445007
34.399242401123 -70.904441833496 -121.598518371582 1.713154911995
-76.865676879883 -71.946067810059 -126.723106384277 1.777573943138
115.585479736328 -70.639175415039 -134.114440917969 2.154269456863
-54.518112182617 -72.649673461914 -136.832427978516 1.551505088806
36.732109069824 -73.002655029297 -134.799468994141 1.591279625893
-72.358154296875 -72.958457946777 -136.343292236328 2.487916231155
28.583318710327 -73.562866210938 -132.467163085938 1.579276680946
-78.070037841797 -72.844779968262 -141.991027832031 2.166581630707
-44.540401458740 -75.096557617188 -141.695648193359 0.597069442272
-72.348915100098 -72.264488220215 -137.718383789063 1.839910745621
111.590820312500 -71.420433044434 -137.151733398438 0.993660926819
116.258415222168 -70.870048522949 -141.336242675781 1.896088957787
118.212066650391 -74.552139282227 -145.088562011719 2.846492290497
-74.660392761230 -71.189254760742 -143.716735839844 1.038181304932
9.495031356812 -69.333702087402 -150.604522705078 1.794226527214
-52.196311950684 -73.228248596191 -150.134155273438 0.456759840250
-49.453697204590 -73.203567504883 -155.342010498047 1.179409503937
108.166854858398 -72.194602966309 -160.176879882813 2.056271553040
-41.187377929688 -73.662864685059 -149.648468017578 1.841378331184
14.324386596680 -71.159202575684 -157.002777099609 0.764624774456
22.907411575317 -73.440055847168 -157.534912109375 2.558066368103
115.573089599609 -72.258743286133 -163.838836669922 0.760007441044
30.139696121216 -72.318450927734 -164.501678466797 2.366362571716
-0.283795505762 -73.486076354980 -163.039978027344 0.459278613329
32.443660736084 -73.207305908203 -160.839233398438 0.759128630161
-67.219505310059 -71.011566162109 -158.446502685547 1.179308772087
-64.642158508301 -72.025329589844 -158.962921142578 0.973629236221
-67.694725036621 -72.046119689941 -165.043518066406 0.552880704403
115.551002502441 -69.663208007813 -160.781402587891 3.235521078110
-43.799636840820 -72.507278442383 -162.737854003906 0.709577977657
19.369047164917 -72.737701416016 -165.539550781250 1.317700982094
-63.334411621094 -72.132087707520 -169.258361816406 1.741076946259
-61.415267944336 -71.642463684082 -171.060882568359 3.042015075684
-39.528827667236 -72.817581176758 -159.672271728516 0.706153035164
-32.147918701172 -73.645523071289 -168.962585449219 2.682052850723
115.165519714355 -73.571891784668 -170.706420898438 2.867264509201
-36.175910949707 -69.704513549805 -178.263580322266 1.972924113274
15.288915634155 -73.369079589844 -173.364135742188 3.046987771988
111.519699096680 -74.253814697266 -182.734588623047 0.818183958530
-147.216201782227 -74.172798156738 -175.835510253906 1.414503931999
-144.955886840820 -72.887420654297 -174.352508544922 1.459702253342
-149.069442749023 -71.549560546875 -178.713073730469 2.968731403351
-141.963912963867 -73.266426086426 -181.636993408203 1.349231839180
-30.593017578125 -71.699623107910 -185.676300048828 1.989185810089
-22.269210815430 -72.305465698242 -185.669525146484 1.013266563416
23.735214233398 -70.276725769043 -189.992553710938 1.552680730820
-141.212524414063 -72.024200439453 -186.601226806641 1.375101089478
-146.190933227539 -72.894897460938 -188.159118652344 0.671399056911
-20.136018753052 -70.017898559570 -186.884033203125 1.377110958099
12.790724754333 -73.185554504395 -182.214691162109 2.187467336655
-148.103958129883 -72.803672790527 -193.249664306641 0.989560663700
-30.844495773315 -73.691802978516 -186.867736816406 1.541784048080
101.045005798340 -72.102012634277 -187.996734619141 3.405011177063
107.628555297852 -72.042335510254 -189.436614990234 1.368222475052
24.391771316528 -69.345771789551 -193.181701660156 1.220341920853
-14.718523025513 -72.962173461914 -188.263671875000 4.260653018951
-26.445075988770 -74.193946838379 -193.484832763672 1.637977600098
-154.002975463867 -72.982139587402 -197.593841552734 1.158677458763
-131.733718872070 -73.408058166504 -196.691680908203 1.175442337990
-124.138641357422 -70.778099060059 -195.079681396484 1.333874821663
-123.055915832520 -71.083099365234 -197.537689208984 0.696561098099
-22.128997802734 -69.186279296875 -196.621429443359 1.289913177490
12.456079483032 -73.723861694336 -192.408660888672 1.780624985695
94.112213134766 -74.147178649902 -200.783721923828 1.150587677956
-148.526229858398 -70.100814819336 -195.972442626953 1.714686751366
-144.842880249023 -70.946754455566 -198.441345214844 1.265224575996
-149.609909057617 -71.737823486328 -199.355682373047 2.237806558609
-154.274414062500 -70.915130615234 -197.956542968750 1.354665279388
-24.537420272827 -72.549812316895 -199.361419677734 1.878757119179
-11.456672668457 -72.603431701660 -195.504028320313 3.053708314896
-146.550277709961 -70.127548217773 -201.462707519531 1.927798271179
-16.660264968872 -71.885650634766 -200.196777343750 1.914896368980
-161.158020019531 -71.909484863281 -199.670196533203 2.494747161865
-133.449523925781 -72.508163452148 -199.361480712891 1.517517685890
16.926612854004 -73.085105895996 -206.895233154297 2.291182041168
-161.640792846680 -70.482246398926 -203.764495849609 1.201361894608
-145.216979980469 -73.342773437500 -206.144256591797 1.618076205254
9.876725196838 -71.162704467773 -201.639984130859 1.577492833138
-153.216613769531 -70.750640869141 -202.704162597656 1.720110177994
-23.304151535034 -72.368820190430 -201.024963378906 2.094439983368
100.206863403320 -72.485099792480 -199.305755615234 0.611041486263
-156.767761230469 -72.964454650879 -213.486053466797 1.577670812607
-163.858352661133 -74.331604003906 -208.352142333984 2.704975366592
-76.846977233887 -71.030113220215 -209.236236572266 1.879134416580
89.506072998047 -71.722869873047 -209.428009033203 1.640865683556
-3.055625677109 -71.154022216797 -217.332580566406 1.578152537346
-152.510971069336 -71.623878479004 -212.787902832031 2.453920364380
-87.143676757813 -72.095390319824 -213.824523925781 1.796015501022
-8.196398735046 -74.108871459961 -211.382720947266 1.263540983200
15.997107505798 -72.440238952637 -220.886169433594 2.413190126419
-144.716827392578 -73.146598815918 -219.327178955078 1.418483614922
-2.603998661041 -74.841491699219 -220.774871826172 0.205907359719
-19.840896606445 -72.443519592285 -219.239440917969 1.358194112778
-13.954542160034 -69.753845214844 -219.700988769531 2.408317327499
90.169700622559 -72.222457885742 -217.648681640625 1.759731531143
-20.522096633911 -71.427246093750 -217.190734863281 1.869729995728
-29.861852645874 -72.024177551270 -216.461822509766 1.706817626953
-106.744018554688 -69.833480834961 -224.090789794922 1.097557783127
-15.165732383728 -71.208511352539 -222.700561523438 1.281208992004
92.148002624512 -70.565116882324 -218.916839599609 1.050433516502
79.734519958496 -72.670936584473 -219.622711181641 2.930477142334
7.101132392883 -73.390014648438 -219.680084228516 2.508737564087
-10.255460739136 -71.470878601074 -225.209075927734 0.528126120567
79.052169799805 -73.119766235352 -222.177307128906 1.928201079369
-122.281341552734 -74.280326843262 -224.928497314453 1.852314591408
-20.698364257813 -70.986686706543 -222.824401855469 2.860513210297
-97.480010986328 -71.700660705566 -223.696746826172 1.984803915024
-102.930305480957 -72.469696044922 -224.908508300781 1.534038662910
-132.199645996094 -73.977554321289 -228.135681152344 0.820213258266
82.171249389648 -72.013519287109 -223.855804443359 2.219890594482
-122.812103271484 -72.662132263184 -227.081512451172 1.213971734047
5.775127887726 -72.172248840332 -228.355529785156 1.969575643539
81.493217468262 -71.198486328125 -224.213897705078 2.135635137558
-14.525936126709 -73.069236755371 -228.501373291016 0.975333034992
-12.287391662598 -72.944900512695 -228.685424804688 0.813745737076
-2.386564016342 -75.672210693359 -229.762634277344 2.552081823349
10.163008689880 -73.432136535645 -227.120849609375 2.452581167221
88.404228210449 -73.136367797852 -225.676910400391 2.871602773666
11.101210594177 -71.276000976563 -231.594177246094 1.371821522713
5.371737480164 -72.677688598633 -229.178375244141 1.495731353760
-8.290691375732 -72.848678588867 -230.726409912109 1.493238568306
-6.076052665710 -72.696403503418 -231.387390136719 1.725080370903
18.585924148560 -71.344795227051 -232.237670898438 1.958451509476
-11.699505805969 -70.896484375000 -233.428131103516 0.755423665047
71.849426269531 -72.791786193848 -239.025115966797 1.408419847488
-8.015547752380 -70.965553283691 -238.306823730469 1.667940258980
19.503341674805 -73.423835754395 -235.730224609375 0.807319819927
-163.624206542969 -71.971801757813 -240.791687011719 3.250427484512
-4.606904983521 -71.013946533203 -237.842437744141 1.251618504524
-7.933530807495 -72.294113159180 -240.833923339844 0.898749291897
-167.142181396484 -72.519424438477 -250.953216552734 1.529080390930
-10.007935523987 -71.583580017090 -244.681030273438 2.044904947281
16.750127792358 -70.597335815430 -245.864135742188 1.409619569778
-146.573638916016 -74.265571594238 -251.724121093750 0.839055895805
-70.882377624512 -71.422645568848 -249.313537597656 1.809581160545
-60.591091156006 -72.684806823730 -246.776977539063 1.533419489861
53.671417236328 -71.191574096680 -246.762145996094 2.040749788284
-75.073287963867 -72.199470520020 -247.219543457031 1.873834371567
18.122493743896 -73.183006286621 -249.302673339844 2.133318424225
-72.631790161133 -72.093498229980 -251.593933105469 1.223998427391
-14.353320121765 -71.640472412109 -247.895660400391 1.461551547050
-144.991958618164 -74.335311889648 -252.683227539063 0.694386959076
48.135738372803 -70.396728515625 -249.380126953125 1.664973139763
-78.802940368652 -73.248291015625 -254.856231689453 2.614356517792
-101.829978942871 -70.456344604492 -254.733947753906 0.190615624189
-98.049713134766 -73.871940612793 -254.648498535156 1.620949149132
-118.298469543457 -71.765823364258 -253.863220214844 2.427207469940
-105.020309448242 -71.395370483398 -256.921752929688 1.458156585693
-105.699447631836 -72.629867553711 -258.470367431641 0.595036625862
22.568033218384 -71.592453002930 -259.242645263672 3.139151811600
-128.027450561523 -70.835395812988 -264.873657226563 2.250493526459
-12.261206626892 -73.253059387207 -275.879699707031 2.324917793274
-146.396286010742 -71.075157165527 -282.562713623047 1.232630610466
-168.190185546875 -73.597953796387 -284.567382812500 1.215473890305
-124.409934997559 -73.230766296387 -284.760925292969 1.869357109070
-113.729446411133 -70.213905334473 -286.784332275391 1.096418499947
-75.036697387695 -69.088417053223 -285.495971679688 2.378268718719
-56.813430786133 -72.253852844238 -286.602691650391 1.783400058746
-41.920536041260 -71.668830871582 -286.240661621094 1.516098737717
-14.792877197266 -73.978942871094 -288.892486572266 1.230370879173
-13.476863861084 -70.519432067871 -290.615570068359 1.227444291115
-37.724960327148 -73.076049804688 -289.612640380859 1.657050728798
-33.909214019775 -71.922279357910 -288.743103027344 2.528749227524
-18.400714874268 -70.212715148926 -288.850250244141 2.764378070831
-70.466049194336 -71.522117614746 -292.088409423828 1.564014554024
-54.618595123291 -71.793579101563 -290.803985595703 1.709993839264
-16.438659667969 -69.859855651855 -291.221099853516 2.094497680664
-13.291428565979 -73.195449829102 -290.179443359375 1.178098797798
-3.460934400558 -71.376190185547 -291.628173828125 1.832538604736
2.714884757996 -70.120857238770 -291.726715087891 1.797322750092
-90.802078247070 -72.552139282227 -292.417053222656 1.084620594978
-140.480758666992 -73.031616210938 -293.966125488281 2.365607261658
-116.552116394043 -73.233657836914 -292.428527832031 0.784511685371
-153.370071411133 -72.476081848145 -295.614135742188 1.026257157326
-152.676406860352 -72.842300415039 -299.385131835938 1.911435246468
-146.049011230469 -71.999778747559 -299.722869873047 1.028175830841
46.088302612305 -70.077140808105 -20.041233062744 1.945395827293
20.654987335205 -72.969825744629 -23.263191223145 1.069923162460
50.075176239014 -69.772956848145 -25.526844024658 1.517064690590
47.931571960449 -71.949417114258 -34.413764953613 2.155353784561
87.954826354980 -71.212768554688 -68.916450500488 1.815147638321
96.067443847656 -72.447898864746 -73.253875732422 1.231155157089
101.808197021484 -70.381980895996 -78.867591857910 2.111501216888
99.062820434570 -72.219200134277 -82.708412170410 2.845897912979
58.110942840576 -72.161582946777 -88.674499511719 1.166992306709
47.496875762939 -75.094978332520 -91.979225158691 2.387803554535
63.969326019287 -70.309127807617 -90.495384216309 1.684671163559
-64.271408081055 -68.820022583008 -92.431205749512 1.167105793953
70.835456848145 -71.556854248047 -87.948944091797 1.605071544647
102.134521484375 -67.196098327637 -98.229209899902 0.851734876633
75.303947448730 -72.467895507813 -100.328880310059 0.945235610008
95.659362792969 -70.594779968262 -101.767829895020 1.103812575340
-82.378013610840 -72.440414428711 -102.231994628906 2.861986398697
45.366878509521 -70.963653564453 -99.369468688965 1.461791992188
-84.814163208008 -72.580085754395 -103.560134887695 3.746375322342
51.504837036133 -72.879425048828 -110.321731567383 2.567529678345
39.250656127930 -74.447914123535 -103.806182861328 1.942166447639
104.514152526855 -70.612693786621 -103.067291259766 0.803609728813
38.261188507080 -70.880287170410 -106.762435913086 1.343461871147
41.845630645752 -71.546249389648 -116.866386413574 1.783748865128
43.648834228516 -70.660339355469 -112.893386840820 1.231613636017
109.798843383789 -70.228675842285 -112.855323791504 0.770240962505
-81.161743164063 -73.685462951660 -121.123924255371 3.226728916168
112.409782409668 -72.829010009766 -124.744560241699 1.856272101402
39.565753936768 -69.099655151367 -124.239891052246 2.453336715698
41.564025878906 -70.263313293457 -120.317314147949 1.426803112030
36.065502166748 -71.377365112305 -121.422737121582 1.721529960632
-55.626358032227 -74.178367614746 -129.582977294922 2.234389543533
31.122211456299 -70.772117614746 -123.511955261230 1.094843387604
-76.447547912598 -71.247642517090 -137.274322509766 2.337100028992
-54.995006561279 -73.456733703613 -132.643707275391 1.960848927498
-78.935890197754 -70.062599182129 -134.773284912109 1.084358096123
35.333614349365 -69.944107055664 -129.810150146484 1.565946817398
-58.815258026123 -71.757461547852 -133.671752929688 1.410531759262
35.601779937744 -70.626251220703 -133.562835693359 2.397501707077
-71.933761596680 -70.147872924805 -139.535308837891 1.332007050514
-58.685722351074 -70.760147094727 -139.611419677734 0.902011156082
27.537078857422 -71.578529357910 -141.294586181641 1.825063347816
110.745063781738 -73.293388366699 -143.172027587891 1.579605579376
116.042022705078 -68.431686401367 -136.738983154297 1.754768133163
31.472620010376 -70.978530883789 -140.558074951172 1.579357743263
-46.569355010986 -71.759704589844 -140.509979248047 1.682953953743
108.449508666992 -69.749900817871 -151.832183837891 3.418901205063
-74.443084716797 -71.336921691895 -143.466857910156 0.762653350830
-58.191329956055 -71.603507995605 -142.403198242188 0.872846782207
31.998775482178 -69.222473144531 -148.313110351563 0.915588915348
-76.550460815430 -72.267768859863 -146.290649414063 1.768081545830
-70.375030517578 -71.751426696777 -150.546386718750 1.827393293381
116.069793701172 -73.359359741211 -149.680999755859 1.375777840614
-64.305854797363 -71.628074645996 -154.707672119141 1.998482465744
-38.748168945313 -69.907127380371 -152.622131347656 2.682783842087
26.981784820557 -69.890586853027 -146.890960693359 1.929291009903
-73.481254577637 -71.635368347168 -147.369598388672 0.943267345428
12.831444740295 -71.463432312012 -150.370880126953 2.851574420929
32.267093658447 -70.638061523438 -155.914245605469 1.346440792084
31.203216552734 -69.697158813477 -149.121582031250 1.166992068291
14.306861877441 -74.725486755371 -154.462097167969 3.038599491119
-48.906017303467 -71.992202758789 -153.424438476563 1.618398189545
26.351379394531 -71.435104370117 -153.143646240234 0.909849584103
-45.209209442139 -70.671577453613 -149.533660888672 1.444755554199
6.055625438690 -71.543678283691 -153.909881591797 1.511718750000
21.635391235352 -70.695877075195 -149.932617187500 2.312167644501
-69.624649047852 -71.238800048828 -156.679351806641 2.596585273743
-45.778942108154 -69.155998229980 -154.080749511719 2.125418424606
-67.505393981934 -70.642547607422 -154.974395751953 0.761008918285
17.144359588623 -70.390655517578 -158.337829589844 2.051842212677
25.048347473145 -70.565093994141 -150.071289062500 2.105582475662
2.937178134918 -71.227073669434 -163.168334960938 0.533630669117
21.352577209473 -71.737686157227 -154.569213867188 0.594794213772
31.187339782715 -71.445823669434 -166.066162109375 3.060225248337
-47.018665313721 -72.815292358398 -162.609436035156 0.717862904072
-35.275253295898 -75.137054443359 -162.384460449219 1.721655011177
-39.935630798340 -71.583656311035 -160.613098144531 1.562788009644
28.264667510986 -71.190956115723 -159.439971923828 2.040941238403
-43.715137481689 -70.638870239258 -167.128234863281 2.169352054596
-39.770030975342 -70.216651916504 -164.744659423828 2.737653970718
21.393405914307 -70.459426879883 -166.036071777344 1.540270924568
-39.681827545166 -71.744941711426 -174.355010986328 2.204583168030
28.626510620117 -69.144195556641 -170.097320556641 1.995522975922
112.893394470215 -69.019752502441 -165.908081054688 1.638400554657
-32.707389831543 -71.065917968750 -171.862426757813 1.728837013245
104.799499511719 -69.373329162598 -173.085876464844 2.744760036469
-34.273323059082 -70.938697814941 -177.046508789063 1.095300197601
-36.749683380127 -73.333839416504 -180.896087646484 1.015891790390
20.335546493530 -73.405387878418 -176.117279052734 1.989238619804
105.626319885254 -70.927131652832 -182.022521972656 1.478862166405
-30.146984100342 -70.212188720703 -183.578460693359 2.201886177063
-34.314308166504 -70.626792907715 -176.052825927734 0.717980504036
-23.232641220093 -73.075897216797 -186.348388671875 0.656725287437
-148.690353393555 -72.376441955566 -188.400939941406 1.436240911484
14.390686988831 -71.134986877441 -183.311920166016 1.770894408226
105.864700317383 -69.844871520996 -190.309661865234 1.276531100273
-157.416336059570 -71.286239624023 -193.487762451172 1.171762347221
-24.120700836182 -69.558647155762 -190.423339843750 1.662687778473
-115.361961364746 -72.541786193848 -196.875305175781 1.793572902679
-131.819519042969 -72.496475219727 -196.185485839844 1.259229063988
-108.504058837891 -71.503089904785 -199.482543945313 2.465698719025
-112.601135253906 -71.128875732422 -200.188171386719 1.570178508759
-12.863785743713 -71.638107299805 -196.342895507813 1.301702260971
20.553045272827 -70.882164001465 -196.219696044922 1.488012552261
-15.508627891541 -68.481330871582 -201.711822509766 2.160690307617
-125.382751464844 -71.640785217285 -205.053253173828 1.360865592957
-20.909156799316 -68.693977355957 -204.217315673828 2.476423501968
-130.041534423828 -71.381240844727 -202.871124267578 1.594812870026
-14.322957038879 -71.629158020020 -201.289001464844 1.888837575912
-145.106369018555 -70.771553039551 -203.663116455078 1.724058270454
92.100250244141 -68.515373229980 -206.784576416016 2.966484069824
-164.527145385742 -68.887580871582 -201.644775390625 1.216350793839
-3.046783447266 -73.183036804199 -216.128204345703 0.684896051884
11.207730293274 -71.718467712402 -209.565460205078 1.850788950920
10.668185234070 -72.092079162598 -216.819580078125 3.050817728043
83.148742675781 -70.765708923340 -217.164825439453 1.754461646080
8.124670028687 -71.854103088379 -212.816436767578 2.066243886948
13.740108489990 -70.505416870117 -214.530670166016 1.724095344543
-15.574954032898 -74.141250610352 -216.237976074219 1.747417092323
-90.258537292480 -71.257217407227 -215.556976318359 1.084290385246
-97.363143920898 -71.601173400879 -216.456634521484 1.242957115173
-1.305178880692 -70.105079650879 -219.818023681641 1.020636677742
-166.112274169922 -72.792778015137 -222.422790527344 2.427765369415
14.652593612671 -69.857528686523 -220.671997070313 1.319863319397
-144.271209716797 -71.030685424805 -221.993835449219 1.014999270439
12.769447326660 -71.217689514160 -224.967193603516 2.369645595551
-133.919067382813 -72.340911865234 -224.735961914063 0.584323287010
-116.011901855469 -72.292137145996 -226.331512451172 1.415049672127
16.669113159180 -70.356819152832 -221.344909667969 1.149049758911
77.911224365234 -70.869995117188 -222.649475097656 2.519317626953
7.389501094818 -70.615608215332 -223.320861816406 1.242047429085
-110.324043273926 -71.229324340820 -230.497436523438 2.225800275803
74.478355407715 -71.436775207520 -228.047607421875 1.433471798897
83.221809387207 -71.557151794434 -229.551788330078 1.972549796104
-124.159645080566 -71.458465576172 -233.839019775391 1.333546876907
-115.548248291016 -71.728141784668 -230.740203857422 0.828085005283
-10.273370742798 -69.227500915527 -229.020996093750 1.238743424416
72.239120483398 -71.680191040039 -230.349578857422 2.171543836594
64.981567382813 -71.559501647949 -233.867919921875 2.583655595779
74.339683532715 -70.522735595703 -230.236053466797 0.684291958809
-134.175949096680 -69.280021667480 -234.252075195313 0.904332637787
71.154373168945 -71.716400146484 -233.571441650391 1.021829009056
66.750587463379 -69.583816528320 -235.595489501953 1.090654611588
-165.999053955078 -70.978240966797 -229.830291748047 0.454326212406
1.283577561378 -75.935058593750 -240.093811035156 2.243252754211
18.729362487793 -71.946563720703 -239.821838378906 1.486497402191
-5.697160243988 -69.421401977539 -240.106658935547 1.923914194107
15.155657768250 -67.861305236816 -239.342834472656 2.958032846451
65.847488403320 -71.805725097656 -238.469818115234 0.818007469177
10.159675598145 -70.073280334473 -242.511627197266 1.257174968719
-10.242184638977 -66.268974304199 -241.233154296875 2.296288490295
0.564511537552 -68.751045227051 -238.835388183594 0.678808391094
65.285820007324 -71.712593078613 -242.727508544922 1.186949133873
4.412917137146 -72.074790954590 -242.706146240234 1.072916984558
-7.373001098633 -71.847694396973 -243.180999755859 1.321442604065
14.278209686279 -72.600196838379 -243.623443603516 2.077963113785
-167.167419433594 -72.358322143555 -241.093841552734 2.053419351578
57.473758697510 -70.657531738281 -247.408447265625 1.090710282326
51.039196014404 -67.292091369629 -249.533630371094 0.568240165710
57.444141387939 -71.729545593262 -242.668090820313 1.787519335747
-11.854585647583 -70.323738098145 -247.944091796875 0.825136125088
57.549919128418 -71.299110412598 -246.269653320313 1.048631191254
-73.201782226563 -70.820228576660 -249.148223876953 1.008396029472
51.400318145752 -71.397155761719 -249.105072021484 1.549608826637
-89.336509704590 -71.681625366211 -252.192565917969 0.991954088211
-123.917358398438 -72.660438537598 -255.659637451172 1.172173738480
-132.487869262695 -71.278282165527 -253.360290527344 1.061776995659
45.517520904541 -72.145156860352 -252.225830078125 1.146549224854
-133.618530273438 -73.366355895996 -254.138519287109 1.441005468369
-109.497520446777 -70.649200439453 -255.793884277344 2.012397289276
-114.890960693359 -69.539512634277 -257.135498046875 1.409540653229
-83.079772949219 -71.895317077637 -254.834991455078 0.834569275379
-111.093078613281 -70.978652954102 -259.788635253906 1.843110561371
-123.775642395020 -73.939353942871 -262.196777343750 0.483578741550
-145.774169921875 -69.458366394043 -266.902404785156 1.331577062607
-15.134611129761 -70.391464233398 -264.212524414063 1.010988950729
-169.707611083984 -72.671379089355 -264.110626220703 4.049018859863
-14.181525230408 -71.142875671387 -273.040130615234 1.077522873878
-159.075881958008 -69.182197570801 -267.283172607422 1.930516123772
-152.493438720703 -71.216453552246 -274.080383300781 1.350805521011
-169.084152221680 -71.563865661621 -277.335174560547 1.842276334763
-13.408942222595 -70.763435363770 -277.618835449219 1.756702065468
-131.436920166016 -73.211830139160 -283.359252929688 1.966674923897
-158.591918945313 -71.241676330566 -286.062713623047 2.442324161530
-144.381698608398 -70.799003601074 -281.213897705078 1.548361897469
-134.727401733398 -74.147933959961 -282.125427246094 3.697503089905
-8.054146766663 -67.064743041992 -284.727142333984 2.556015253067
-125.515907287598 -74.604125976563 -283.747314453125 1.131467342377
-141.102767944336 -70.549423217773 -285.364044189453 1.983754396439
-115.876815795898 -73.081726074219 -285.810058593750 1.833497285843
-77.521186828613 -70.282730102539 -287.338043212891 2.856584072113
-61.257675170898 -71.221015930176 -287.166290283203 2.145887374878
