# This PCD file was generated using the MATLAB® pcwrite function
# from Computer Vision Toolbox®.
# .PCD v.7 - Point Cloud Data file format
VERSION .7
FIELDS x y z
SIZE 8 8 8
TYPE F F F
COUNT 1 1 1
WIDTH 785
HEIGHT 1
VIEWPOINT 0 0 0 1 0 0 0
POINTS 785
DATA ascii
36.981356674918672 -72.987078301757776 -135.032006286092468
-71.861801247569673 -71.795368504332089 -135.986300444944277
28.373519487181813 -74.249141141245943 -131.971485858795006
-78.181953402496021 -71.995994552966735 -143.373142778641352
-43.921992627587720 -74.616866509727558 -142.376599662158611
-72.576683519077406 -72.175645399808388 -138.724011075562714
111.643289603793420 -71.857663150360040 -137.124119639661302
118.637508708889271 -70.990623011393652 -141.662819380199835
119.512031196910726 -75.841567017021788 -146.406556609733343
-75.922321658371615 -70.581266820947263 -144.207874623697165
9.421351552124435 -68.394538833746907 -151.185062475316187
-50.642388079490182 -72.344980002394919 -149.839333408219233
-49.423466280848444 -72.699127667658530 -155.742872176999839
108.316340635693336 -73.209112902643525 -161.733849550273646
-40.066263098536382 -73.572689647701665 -149.668605727058548
15.398099502700688 -70.203117539762701 -158.037170041478419
23.715411159649019 -73.922237022614610 -157.887072580625102
116.136869473133913 -72.302271628173273 -164.688772737861171
31.200779357784789 -71.910515843777588 -166.021719413427235
0.496233898875337 -73.526185509696404 -163.829398872224061
33.229511716443426 -73.199248405757302 -161.069644723545082
-66.392855564421069 -70.089820604990095 -158.185209334216097
-64.398103685539610 -71.376319912165812 -159.608923134389443
-67.480218257393858 -70.425476216208381 -166.139733246747397
116.147521005320868 -69.606986474432262 -161.514806906193400
-43.185107468145276 -72.061222317216505 -163.413563969951241
19.144499579351073 -72.526149839498416 -165.809603266312820
-62.554088165173006 -70.796682447868619 -170.105150614807258
-61.667493770892179 -70.110179385668971 -171.865841797685704
-39.927635928207891 -72.736618621542547 -160.661121585307598
-32.177664913977473 -74.105411637961367 -168.989027554632059
116.387093315043387 -75.060268610718680 -171.310875470940715
-35.606376616829863 -67.574759704621187 -180.219416488007340
15.131384360227083 -73.385287025840725 -173.424701884146828
112.123217772216478 -75.703563484945263 -184.317714911162454
-146.233249974856705 -72.930879502652687 -176.602093946406768
-144.517296892983182 -71.001906863875263 -174.117463881302655
-147.240357676761846 -69.511768375832389 -180.512444222203953
-141.032929310060211 -72.650762282039082 -183.290893781107002
-30.430557041816758 -70.858436272184406 -185.879987107409534
-21.683900521498948 -72.311935036928006 -186.069904597401148
24.721431659599432 -69.082298206939626 -191.371269354236574
-140.012782218495403 -70.523659679182742 -187.261974097986041
-145.858322118235549 -71.601543493764254 -189.093284766706347
-19.862667416847550 -69.720568934842902 -186.826764158678913
12.529435142009298 -72.739209403676028 -182.824295031959906
-147.917929677023636 -71.256351310965229 -194.799323171579886
-30.150094804865930 -72.841349819824870 -188.320071036675870
101.562453779998435 -73.124541353003835 -188.424402713258587
107.719465985744904 -72.178208812877983 -189.889362369096602
25.641502887158584 -68.322330501295880 -193.734832495031725
-12.068238943206291 -72.502708260924933 -188.818052342627112
-26.308457154625735 -74.108149239733748 -193.694995351342243
-153.895632699068301 -72.295983637218370 -199.683819174798060
-131.181536540441044 -72.327901210239048 -197.367101578459881
-123.720736447090815 -68.856263618999918 -195.575349487359063
-123.233883413460603 -69.865381956097963 -198.149683876466412
-21.004786405494364 -68.228184523006917 -196.542805353068417
14.111292023625248 -74.441468127592344 -192.711844278829716
94.093984990498981 -76.608444604904449 -201.275493389438964
-148.589008510576889 -67.680416251347651 -196.020958952703864
-143.597087699434695 -68.901451669527219 -199.308774688816527
-149.437166674534495 -70.677070394437564 -200.710144064649484
-153.466804076827799 -68.980200638986247 -198.049518837391133
-23.303246609350584 -71.777444781165229 -199.995447295415062
-9.255705236418706 -70.883992239561309 -195.751199320471017
-144.885789004470610 -67.499097965393105 -202.728797467185473
-16.990968738624098 -71.541819485116747 -201.550203681827554
-159.952705587135114 -70.431080229836084 -201.236308271503077
-132.892217006639584 -71.121795209951046 -199.940520642837356
17.184294597141132 -74.376186652819001 -207.331606150786257
-159.813071063702836 -67.999457297265195 -204.714470288298713
-144.659960426609331 -72.667039686149195 -207.033092353209554
9.718181491524126 -70.661083724305684 -203.188028121246958
-152.641998123245315 -68.688538091871152 -203.256524129526895
-23.114278885523422 -71.671070370151767 -202.234407052667024
98.841763292444639 -73.786665875325895 -199.510078811637158
-156.991286020526502 -72.106212459392637 -213.060057552734207
-163.046312123946308 -74.086667836704493 -208.246102760797129
-75.384264484144225 -69.857687998014839 -208.818433566778623
90.769208001334505 -72.499280972581019 -209.273426474668923
-2.332768938094377 -71.330968622847450 -218.810879732818051
-153.050602976406140 -70.073470253119524 -213.491679930025157
-86.133495055139321 -71.839323874076584 -213.980948555919952
-7.858559120855764 -74.947289967813390 -211.687771061288487
17.058304114022871 -72.457969881206537 -220.290295052832732
-143.452422937043025 -71.999088986061423 -220.647573047914648
-2.140154624469998 -76.328613962318769 -221.270943065864429
-17.913786283853817 -73.340952034929444 -218.663266639525034
-13.133789332016670 -69.364381934684246 -220.914773346127589
91.729889899635253 -73.259121608957599 -219.389799849952965
-19.264651681992241 -71.094658575722377 -217.278512558477473
-30.265874801137546 -71.704360210731082 -217.604295841503330
-106.080742132503886 -67.490506740434938 -225.378822352875261
-14.648747774593996 -70.851498637162862 -223.695528004533514
93.915466691230080 -71.314026647382008 -219.306954582934424
78.972969634217606 -73.944854160838659 -220.799243076237531
8.665032577792941 -73.771328413860019 -219.749422853758688
-9.691858124218138 -70.400212368238797 -225.888250976884876
80.108073393479998 -73.748404440014099 -222.373837826687264
-120.931201535769233 -74.657437845656830 -225.754479163959246
-18.547832698048392 -70.533438387651600 -223.704671207243877
-95.674228244800943 -71.080141084734606 -224.212804439451162
-101.042209912695085 -71.756177069529826 -224.762794269006491
-130.118308145525788 -73.390505514485866 -229.294541792846985
82.798499503494398 -73.313413695595159 -224.005881836841695
-121.726871302372999 -72.090585933676110 -227.905624916678079
6.211853319872423 -72.052459404016432 -229.252520673453205
82.722380782138671 -71.866341972089501 -224.832114811558597
-14.252662630020552 -73.502578050624450 -231.042533268102630
-12.073385848697043 -73.202741965337282 -227.928855934468544
-0.417940137285523 -77.483380682647905 -230.361364562099794
11.754062273758015 -74.487854984156911 -227.884807665011465
90.364320117726507 -74.529995835765675 -226.856242740525971
11.454926191074760 -71.268680907598096 -231.920594142961107
7.037101992948616 -72.369818070646332 -229.948363844795921
-7.534959145185923 -73.100166621324135 -231.765583065578397
-5.273136727813185 -73.394915239430929 -230.645749863353615
20.239531630785194 -71.608512963301393 -233.250902309792451
-10.956893887490697 -70.150989027544639 -233.790514443182019
72.524847518799533 -73.825889737450808 -240.204221033919055
-7.626242116795769 -71.162472710917143 -239.375946202559902
20.496455275313231 -73.834850994910212 -236.241696875629259
-161.384248801213147 -70.020685972702864 -241.104255140634393
-4.071351669621258 -70.566004326339694 -237.641334198064442
-6.609873453725458 -73.416363074594955 -240.739067011435196
-166.192762632449615 -71.905307355395962 -251.434357549712104
-9.343685493722283 -71.111965161210975 -244.979297533733074
17.075999109255307 -70.369147807164040 -246.056614109505404
-146.182944069003469 -73.405905060134714 -252.429353619004416
-71.803304500609741 -71.553321462183817 -251.006714023792711
-60.165811090354111 -73.059173392952673 -247.598760964289511
53.827473775836388 -71.081193913024521 -247.326471152356532
-73.209942897646542 -71.701994527571188 -247.414022949443108
18.346746281706718 -73.572311156615513 -250.044755766091328
-71.628918593394232 -72.525755447838677 -251.890974409660259
-13.882722479117763 -71.016419703089966 -246.513447665338845
-144.067805439445578 -74.190299512543447 -253.341079146244908
48.097927198115002 -69.978822519624174 -250.530441055366282
-78.610035599725123 -74.254329418175573 -256.289614762114240
-101.295618500685961 -69.100023308591531 -255.645493026801603
-97.920389982046586 -73.513021824534363 -255.168400884894766
-118.444442377467567 -69.899126017401400 -253.638490249424365
-104.390128287284185 -69.553835377975261 -257.760287079134173
-104.408910468536789 -71.632560156833051 -258.722750564251442
23.033500120527027 -70.621235578212122 -259.097327073505255
-127.935282931773514 -69.504768734589518 -265.709199175079675
-12.464065717424448 -73.728583290018804 -276.118881391251875
-146.312468908457561 -69.411002064941911 -283.952612779458150
-167.401261090429216 -73.231395321454514 -286.146565195982816
-123.652842945841869 -72.935983620371928 -284.719689088406199
-112.873916086373157 -69.120231504323982 -287.487003634580674
-74.268365533537150 -68.315246934735939 -285.141029783882686
-56.258666560785194 -73.149406865674948 -287.270774538530361
-40.649165320641849 -71.605940063718336 -286.659886809165755
-14.139013030732487 -75.831835316115274 -290.348852436199195
-12.582128691100154 -70.589389718825885 -292.331129576214892
-37.204501193875174 -74.514114527048690 -290.753270726355879
-33.193351809121808 -72.506959052817351 -289.364354424702185
-17.792156509346107 -69.874068405678358 -289.367357392493830
-70.644061595659963 -71.456960254784661 -293.617462265418169
-54.383022610196534 -71.873254734731034 -291.672380286451585
-16.467874536585789 -69.485977168902920 -292.111522582536509
-12.599438374497632 -74.390905771842085 -290.283153206315319
-2.567355067425576 -72.169466789067414 -292.969513568389800
3.631713348278061 -69.800505292799031 -292.813781979491978
-91.032379133894864 -72.357150837612664 -293.565744552629837
-138.672680715623841 -73.528710943749545 -295.611458089229473
-115.206094348938024 -73.006665992816338 -293.247422843192169
-152.456096503644375 -70.660619127147029 -295.563586118811884
-150.891571277242832 -72.528617517030597 -300.137072802293460
-145.642397005009343 -70.348104254405413 -300.678391348713888
45.906038723404059 -68.187105769336483 -21.589754549918332
21.292431497180687 -72.883678252986428 -23.810169818704050
50.943924776442749 -67.741706036776193 -25.412687732961732
48.492497683337255 -71.334257716716365 -35.397840250194307
88.984455860771291 -70.872608152721753 -70.469424528964325
96.935252048160805 -72.749195701478726 -74.178206157592896
102.590278801383349 -70.797190335756298 -78.398226639163198
99.667079804666614 -71.745578903693414 -83.745141865984181
58.054347207026701 -71.921202064891929 -89.725354949745764
46.883232853337880 -75.951338242132167 -91.481045942237742
64.681340068561042 -69.969374706418691 -91.113954987159289
-63.848050877972668 -67.690659645483478 -93.712500310652871
72.172789258172642 -70.518748992367634 -88.150797703550666
102.240365212318736 -65.320068045181600 -99.261634730849238
75.884353017369705 -71.931334233322062 -101.431968641730265
95.659800724286583 -70.322555806709389 -102.879081725258970
-83.225154241371513 -70.936186244721426 -104.041031492922144
46.498384849142589 -69.973998730812895 -98.517453379014171
-85.158352803555076 -71.333235499439851 -102.857720549329940
52.498746711722205 -72.457772808899904 -110.725010429630387
39.078827159770405 -75.952349580523347 -103.979361136004741
103.501952896249833 -70.500734346775630 -103.598200354693219
38.530216836792249 -70.720717884260722 -106.373662612784614
43.917584985154839 -72.126820662907107 -118.958045827255589
44.075653223731379 -70.834424472420082 -113.468863971679852
111.426114270545256 -70.268354711807518 -112.712862965432336
-80.031408071555262 -74.073999467089877 -122.107598300188315
113.525158036476327 -74.743849473315095 -124.295686545955945
41.353982080373498 -67.725369060820086 -125.215308039493024
41.853545125062077 -70.366987609790996 -120.672896079956971
36.297285740747725 -71.434941623540880 -121.321920228196959
-54.484406905645578 -74.480246837318575 -130.112341922243417
31.478849665980015 -70.157475965614992 -123.929441444864622
-76.125454269357490 -68.728978546061313 -138.450441918156173
-54.105625727289691 -73.663663333405836 -133.170116384073168
-78.239423484365446 -68.311830882279367 -135.524706711612112
36.849670361937065 -69.312808438070661 -131.222491408771788
-58.380188943976165 -71.517193631147904 -134.203716981526640
36.400980037889020 -70.430564239886593 -133.850330878386785
-70.733891288344168 -68.637691399352732 -140.266146188474323
-58.005651241031075 -68.207610715328173 -141.386770820135041
26.914089031610224 -71.860986055215889 -143.122397183736439
112.113182954790219 -74.290811954793782 -143.488462125393625
116.527441251510027 -67.939472905666904 -137.567615282407104
31.943137090704592 -71.190292196396442 -142.000842185600249
-46.990165073738019 -71.883778006861149 -140.809670114382612
108.025811195433420 -69.766733363645244 -152.657541081821677
-74.363312504016719 -70.259908788764633 -143.718675200316255
-57.429841396398920 -70.557130898180176 -142.934888803974331
32.821407276004400 -67.422772040390072 -147.979261685295342
-76.370034082260844 -71.676115158199551 -146.808768720805716
-69.458823584729899 -70.418512906478043 -150.905677559536741
116.075999574365838 -75.339688732921587 -149.960735054826245
-63.482302170801177 -69.942210106922460 -155.759994573490673
-38.162288660180948 -68.145508114815115 -152.871989392159207
26.888687331076692 -69.641654168658718 -146.518427755086805
-72.033650767666728 -70.841815450093435 -146.694722169864406
13.563290078877568 -70.635898745532174 -150.320693617101568
33.011465134116577 -70.696842283514115 -157.471135752946878
32.165938332037484 -68.992746626726529 -150.781821888785686
16.353434287090252 -75.296629824520124 -154.663394697848474
-48.769152835029523 -72.064034314697793 -153.870948841115137
25.906288749923895 -72.456128844931669 -153.695037668424931
-45.050871477136894 -69.787541935363151 -150.816521099719552
5.863723977281628 -71.237632574306787 -154.628352587577439
21.606362821874630 -70.336327702477021 -150.527290631983846
-67.773150921503188 -69.896875006435025 -158.077958752648925
-45.515552479820236 -67.914242774595905 -154.770264706200550
-67.066949220768322 -70.010832589795712 -154.430798815241161
19.255301945961424 -70.010699656366526 -159.051028845211761
25.347841113426142 -70.311625106260564 -150.659067834699869
3.622734184498215 -71.092159086144306 -165.105761760669225
22.440043503408852 -70.937781378424134 -154.142447820870757
31.837856061753563 -70.986225017135524 -167.725254717117963
-46.249926821669007 -71.988102508410293 -163.852099497449927
-35.768229756718952 -76.739215122784103 -163.805965418587363
-39.784588014775487 -71.477844630400412 -161.460809809268682
28.905837677428909 -71.488970826754652 -159.246418944359220
-43.217757659205496 -69.134410893071660 -167.441011069535080
-38.724236958571240 -69.348865255823426 -167.028989241771711
22.416200180180489 -69.907440004313585 -166.341240915465022
-38.834857886123935 -71.351784930801571 -175.827896154342596
28.980131669604244 -67.886826602576804 -170.691149530409234
112.749099992919852 -68.754926070087336 -165.422494475683351
-32.504214947959134 -70.755938228729207 -172.636890290529749
103.800218807953485 -69.504254554124785 -173.763961715944134
-33.564212591730637 -70.492346833025849 -178.036742127442238
-36.429279408547352 -73.713176031444476 -182.009735091988489
22.149129388384701 -73.947358142382740 -177.557348690033990
106.829776763943471 -72.174551563943183 -182.498992710061117
-30.487326580139182 -69.408539937325671 -183.529093986854207
-34.180673172104441 -70.324581763066035 -178.124424069686995
-22.230168405255093 -74.356725509298329 -187.404927138790612
-148.059111050139478 -70.810246038193227 -189.614514568029705
13.936538388498553 -70.956251345876794 -183.939332675753576
105.989338170758685 -70.513355379078064 -191.618753571936224
-157.978101395096417 -69.819901019284288 -193.782023014413483
-21.974932768156247 -68.089210832212970 -190.154363626826608
-114.663009791267868 -72.103274290522819 -198.015759212541354
-129.827546832698914 -71.770673589338344 -196.263884038355400
-106.904742549177342 -71.072378871680698 -200.472910259796521
-112.665813560122587 -69.748251365895555 -200.916837060087857
-11.343183092035835 -71.913738717233201 -196.951409391686582
21.104220945373473 -70.171937452316300 -196.692803246710525
-14.797658488608205 -67.567783080593500 -202.512665578789125
-125.736757563111553 -70.511296793724654 -206.255530492027503
-19.832585009838120 -67.542388477507743 -203.642592207199328
-128.366278387727021 -69.343497293080745 -203.635433448064617
-14.420236307382073 -71.239831621468340 -200.859787584688547
-145.085423722089047 -69.203642679854298 -203.540116031749591
92.848851313333626 -68.150708953126909 -207.008350421644423
-163.511581325540561 -65.554724992963955 -202.255355837694367
-1.746204472021716 -72.920208859272350 -218.434667667861220
12.477171053041024 -72.465431583082861 -210.459870250697435
11.339236662611311 -73.453392818246456 -217.583257546883800
83.687974282875331 -71.758504307430584 -217.225615861095690
9.540410549096972 -72.300337683101731 -213.640130039849680
13.661359188057569 -70.484135343335538 -215.349176920103844
-14.818586160139649 -74.379647184439506 -216.484792768506765
-89.437260942937428 -71.095159440316735 -215.131438872561489
-96.963236955083786 -70.795075073178154 -217.276029168923543
1.057361544476059 -70.276657288896999 -219.741947798688784
-165.436314717063681 -72.125647322378157 -222.706202832559825
16.202693890194183 -69.405109811081473 -220.224568105719953
-143.583218713354455 -69.785242443366229 -221.993462943218475
14.021913364858184 -71.730081062950759 -225.536882684669536
-133.600197615483580 -71.849734301289288 -225.578976303797646
-114.872166404906281 -71.598705324680495 -227.891069005324397
17.829730603186327 -70.655312528378815 -221.477002495767096
79.463578272364842 -71.808150141546619 -221.889786073594024
7.808098811398883 -71.354349824520966 -224.068800863167780
-108.810648410066364 -70.009717571270542 -231.619110941793366
73.432604529812636 -72.696633816067163 -228.328313600150210
85.084750115139300 -72.939599735967775 -229.998997771701539
-124.136442187385057 -70.429382192385503 -235.809379649056893
-115.970486819051374 -70.673641856532299 -231.164335345389645
-8.947750297647739 -68.174823454505528 -228.459814362801410
73.065701889029214 -72.523591911309708 -231.924886391900657
65.731657466513624 -72.382928920252681 -233.741474200941610
74.370232536145224 -71.325337368123513 -230.036744634895086
-134.173996925614574 -67.312835707964751 -234.853625529237917
71.251283676817067 -72.908045311064029 -232.892803757307320
67.271523967089195 -69.674686015025046 -235.896700348628627
-165.065128572858129 -68.966502333628895 -231.313081043043354
2.486247568125247 -77.763224843069764 -241.518412239700297
20.441910347771127 -72.794410062010485 -240.087689820467460
-4.924412933507249 -68.881653170772694 -241.337967209995327
16.873749309457050 -66.712302650590630 -239.946899345753963
67.311279541380003 -72.793678567245578 -238.692958783759309
10.015710405645944 -69.752589688995613 -244.026808915527425
-9.818433364825076 -65.514215852006515 -241.492233894952790
0.559861421153022 -68.324215618970541 -238.126913327432248
66.036033765987241 -72.507873773172278 -243.003004043305168
4.140065359386076 -72.002727094243255 -243.199046425784786
-5.913246401774186 -72.169654655097432 -243.781202842270915
15.349762632701248 -73.908655241691307 -243.504549260182728
-166.418841454799917 -72.002750220794482 -241.891384305473366
57.113023571968590 -72.168831807597712 -247.839617251826269
51.071463275283932 -66.369980345735101 -251.479492958261687
59.280133786297824 -72.547040097311822 -243.389257569145684
-11.072138373071278 -69.742078432647801 -248.581107204586999
58.276239273325508 -71.662608799369750 -246.274782339586437
-72.813847137124682 -70.557642162633968 -250.572447444234172
51.859860280547743 -72.219093311792250 -249.245956554606892
-87.674731114637638 -70.759027404047742 -253.207484449377262
-122.150025317835500 -71.831372296671120 -257.396976650224588
-131.335337990508037 -70.626482038949774 -253.678738512064513
47.192433247333362 -73.352169524537985 -252.450434877179646
-131.515690745375025 -73.150653138629195 -253.905952087529442
-108.123598041062962 -69.069038376799696 -255.827627965357124
-115.000502121611390 -68.572512364319991 -258.200439814750723
-82.687546789512339 -71.385086397930380 -255.378815212015581
-109.924785714577965 -69.140143098548634 -259.878057350441907
-123.035610715330364 -73.960176652028125 -263.131197212353584
-145.434837964044050 -68.169713499701629 -268.377872458132913
-14.232204718336545 -70.145514804226920 -266.288835875093980
-170.291788255292914 -72.428502475802816 -265.215522293803474
-13.524899264084745 -70.958335404180687 -274.441222458008383
-157.930324942694114 -67.368069939755188 -268.061356626298448
-151.650831892779166 -70.842868091595889 -274.179786308793439
-168.887103334840930 -70.469031015508577 -278.288538212403409
-13.185931894681978 -71.590047704626755 -279.996068701185891
-129.170235257303233 -73.096583584335576 -283.874735894650769
-157.008866890323873 -70.363841789785198 -286.975346929192312
-142.928447355192048 -69.751400763926100 -281.710909155428453
-133.871877746460683 -73.520609900400729 -281.217213375400718
-7.135534521350046 -65.947696652251679 -285.158356521036637
-124.865121835285734 -74.233618949540315 -284.125620997853389
-140.003394298299014 -68.725267680007732 -286.358273911575338
-114.731468439664638 -73.732916984548979 -286.425746362467066
-77.968429964361491 -69.261152614572879 -288.752294284775644
-59.696528740721739 -71.874321550924236 -287.737623055554081
-5.997790285968481 -72.531080406336514 -288.480035060010721
-52.907369564556049 -70.093480159306722 -286.400633052858893
-56.190889367406484 -68.975384111425043 -289.321451715312946
-69.390636920106431 -69.457225855239955 -291.019711828364791
-87.050092089080053 -70.162188912551244 -294.485950397997726
-94.026683614553107 -68.780456327821852 -289.704284060150485
-159.335762134182318 -69.723838972107814 -292.216861934845554
-160.105334296070794 -71.527102616691565 -294.451818289715391
-123.650941462627571 -73.582651172840514 -294.586720165969552
-143.671497096533216 -70.907716211768971 -295.716313915687920
-152.093396160113571 -72.958797427923244 -304.452516058734318
-149.520322564959287 -73.098147089644385 -312.860300548259261
48.990978773876357 -68.513881465696457 -15.247647964657460
17.793584736192592 -71.503990986576710 -30.383959626342797
43.019049146149719 -66.702895332953503 -35.285867211045257
-14.458361271965698 -72.966493881961071 -66.974179371411381
82.857345518269497 -68.599589749983579 -65.718763738417593
89.741964099548866 -66.512789625855163 -66.571037044064738
78.937557319287890 -73.386459013969485 -66.032095972961130
73.776043787904499 -71.539718921671735 -69.802497681300295
92.237626943037256 -72.779731095447474 -75.495889746227093
-95.075710382948145 -66.373632909625670 -70.944545694455343
68.861102886553596 -70.932945533829297 -75.979804809710672
-35.515997375689103 -70.826001323668365 -77.998235245994124
99.962680044878667 -70.405836945391727 -86.440886702611976
62.522527252384890 -67.735747680080209 -90.997573167564454
108.128957725091595 -74.894115735281474 -94.181922644566427
102.559024766231673 -73.934947682287699 -98.953922573147352
73.333823961231431 -70.207150277689351 -101.224916855240323
-79.172326350466960 -68.482662733913330 -102.178579745590895
55.361343942944039 -70.194928588972189 -104.822392108066737
108.130877901445700 -67.933463027416494 -106.610875649808406
48.059458905430503 -70.891152420194217 -112.983597519989019
80.908093710709338 -69.267120793267011 -105.997739594247562
42.625786739714165 -69.807589217830682 -108.041830473384962
105.246666838983913 -70.066007038369222 -103.800463400809832
48.543742967321819 -69.627807818233649 -108.379460232738481
108.212981183775781 -75.137654640323504 -110.437367812602133
111.111270162896474 -73.293473070755923 -111.870043051797808
-78.459947608005550 -67.683424963496549 -114.821998995331640
-82.001253029116839 -67.881832622321951 -120.015966137669849
44.874184065333964 -73.107516424465118 -120.614935274646101
114.758942040465286 -72.009170100388388 -121.845916818931997
114.645249425111061 -70.159837415581961 -124.145044649375208
-86.313702666156843 -68.706105079130538 -127.621576013652245
106.923639190604788 -72.204912511033129 -126.320049323497713
-58.439423924838351 -73.866598905214289 -132.396950578920269
-85.249173586912292 -69.896210248981589 -127.929100902492863
-71.620639599165401 -69.805676890445127 -127.776281679322338
-58.257702653138992 -65.974547301210663 -127.415103834465199
32.565736865071131 -69.759168023790565 -130.757508888509221
43.322697621286913 -68.612631769403293 -135.292874768505641
-72.212355206833095 -69.318903429676496 -137.238215550779302
29.679574516690636 -68.187491849357173 -131.537805106137512
112.632613996529116 -70.448817317882231 -143.458074803686827
-39.237298961235666 -69.877421796231118 -148.887469233572943
31.328537574172053 -70.945333289847696 -149.416102325431297
114.854921672610587 -68.879963590026478 -148.251349307331992
36.498479027938885 -70.672482550391635 -143.310422889193489
111.333677640679142 -69.229911691645341 -141.361592836688430
-51.392842033248961 -70.008986360853029 -149.998347653561808
-70.320824397270982 -67.198295027447315 -151.610344522141929
-54.172973571591534 -70.241846207677241 -153.157062494641451
-41.144088130740272 -73.227982921042482 -165.539873609729625
5.649908435716558 -71.295647246444958 -156.430529720685797
110.795187970401614 -70.654864635015628 -154.038804634626842
109.936855439987539 -70.342876695771722 -160.149347330551848
11.002510092288468 -69.443038808287866 -158.016837157111411
4.262212373355071 -70.071115495592210 -161.877983088641884
20.187256520851012 -69.339679099645508 -155.819058190225547
26.616718371171228 -68.795883318116424 -156.226419424831874
109.704221480946401 -70.053516890915546 -166.150895145236206
110.525486597761017 -73.514829731232368 -168.219469796287740
24.913334341483221 -67.567907740435615 -174.960131203540755
25.941864543194228 -72.133002412704741 -164.363506328790777
113.200878172468606 -68.572974415410258 -162.517650398604843
-28.138330576834591 -68.797571746855624 -177.769722596553379
111.181070543116732 -70.694636180342698 -168.274653468728758
18.496755571380731 -70.575784407587065 -168.153293215021165
22.594274364894055 -69.986986696886703 -168.279387939187785
109.514997255672526 -70.666419723704351 -173.369620864958677
27.717209274883313 -69.286886622625929 -170.933032912390615
113.280684773927845 -69.866799091694944 -184.222623223424108
-37.305638228197054 -69.232995476435519 -178.292976076269554
26.090236133828231 -69.727307209069124 -171.657049394939776
108.478639555774819 -70.367787221919372 -184.372624360921378
24.082209206179101 -71.108783827467192 -179.108106829055714
-150.875145041049194 -67.953062160453868 -187.126816421543424
-27.218850016760904 -67.015853459334451 -189.924031173037008
25.587678338102915 -68.114143170185145 -185.459401359527106
-112.780078398370804 -70.947144780661034 -192.480503750746351
-109.860915259759722 -67.178981057816586 -191.953861450911290
24.767629165861809 -70.685154457881865 -189.076276770204544
12.666835552002460 -68.230665504723063 -185.592581827507132
-25.892845327044082 -67.389947406989677 -190.808624313225323
-28.666443803701270 -73.657213148271723 -189.762964871138081
-27.021650850905818 -70.234443600234769 -187.759062303787687
15.799937619928269 -68.093752822524976 -180.546946977961966
-149.862808975505658 -69.317323172645700 -195.718918192895330
-144.363531985933349 -69.020564986544557 -193.489308622247620
-143.410512814453313 -72.240682236492674 -198.947433581068594
-21.923580818716978 -68.989533617911007 -191.966703815207836
14.653005653764678 -67.972282172048239 -200.136785931827944
99.857073820383363 -69.650811235881264 -193.878866352063085
-112.728207121093988 -68.405957836341074 -198.979294015098759
22.250595306027940 -73.349286103324872 -198.896327537871912
-14.320591889611618 -68.915250857079030 -196.134486609119222
-16.720561580635909 -69.324838380476621 -199.306433298737488
101.969631490793859 -69.353552182639916 -200.075905662850744
8.921932533432996 -71.915818903341432 -199.838402140156376
-20.966536334199539 -68.227878412150048 -197.080372641330314
-120.363556073236808 -72.383754826505196 -203.705553909090440
-133.186985491625080 -69.559045844846779 -203.935878408352750
-113.069266921257764 -65.173753059600514 -205.598261861348931
-141.190654308022005 -72.114973575099214 -204.016877917912609
18.510145401673274 -69.726314597003352 -198.325934700050027
94.810352676230309 -71.689479180175525 -202.395912714509080
-164.917513749687032 -64.842315552532270 -202.148304711551162
101.002628812095608 -70.142556088243026 -202.736928644955611
-20.652789250369267 -73.512053886597613 -206.634732931710772
95.615848613493597 -68.488191561253487 -211.124231440978008
89.067703995566092 -71.873365391737977 -212.088131816399226
13.128278232261561 -71.757930449941455 -206.560041842547605
20.774905089895611 -69.586906503572521 -212.598705234981168
13.848710084002834 -67.321857753139099 -208.472300047021037
-9.864131517333838 -70.397873251304560 -223.019847939585134
-93.433434752288846 -71.553467132812514 -219.239026138060638
-9.445102356050898 -72.037483381103797 -212.893419227961147
90.062532261347883 -70.729358548202427 -216.902674003435123
-92.555238892115440 -71.756984350668574 -218.315196938096562
-100.133611773637767 -67.405559828934699 -221.881325719205847
-93.451480594024659 -70.281270553527065 -220.148689710603520
89.232746810693612 -72.113517208753521 -222.564950973558155
-134.296891444371596 -69.900693057903553 -225.828825179825799
-131.464795291836253 -73.345427131118299 -227.368546636452834
-115.657590637977648 -69.468398561067900 -225.490525032993389
-112.104854689285986 -66.994998455799603 -223.872759062800156
-132.343417978466022 -68.105509184707657 -227.889405970021613
-110.732780028928616 -76.146880625378756 -228.135383376615266
-111.209508045754973 -69.480604082471757 -228.728600795824150
-5.876186348936033 -73.297226061601464 -225.261551603007774
-14.949283967191624 -72.292918376138488 -223.800173069117307
0.039921830734029 -68.267721690412699 -231.104707711966881
-9.145167167062313 -67.353962830564527 -227.666646570173924
16.396586337374568 -71.043583933168875 -234.159570249467038
-17.844234485259115 -68.463626622400994 -229.796569054994961
-165.842881904325054 -67.762798731838060 -222.979892708653182
-3.099066942765760 -70.195002966721020 -234.123063833696904
81.834337037883500 -67.864532211487770 -231.850652597548134
11.969995658654270 -72.045929635462713 -234.297119628632544
-4.882703719116636 -69.512288909335524 -235.441716730267018
-155.853782759869887 -67.271959360825605 -237.206648784403427
-141.279507271281261 -68.096136634497640 -231.102775925138587
63.612408041093559 -69.331318743820816 -236.550066702951995
-4.650365945748112 -71.143087813968549 -234.772316891531688
10.311696449807135 -72.289036106449345 -231.368412237491526
70.436478037648385 -72.733216804596609 -230.911475685485186
77.973936425051320 -71.046659576407777 -234.949564087267220
72.053358194523113 -71.778639855247178 -242.012898046139156
-0.571934809242567 -73.017091948747705 -236.337781587596595
59.067893930354153 -68.947289596044968 -238.619048349022023
-18.013481023873723 -72.709629262081194 -240.372676556759529
-14.251560897604154 -67.949795184702808 -241.060586799844572
9.242414134418112 -70.234265087269108 -240.012828061657473
65.788635933233280 -73.746047674673363 -238.528733374297332
66.465158556276322 -69.184172875118392 -241.319826225433133
50.635733749375895 -70.805468381603220 -246.776601830511567
62.141483331823395 -73.689749307556426 -243.366854239587099
-14.528980107145991 -74.653544461998450 -250.288503872684032
-82.577608332591041 -67.407135425480661 -254.849610314909171
-75.832068922076473 -68.001484417645401 -253.606415692968824
45.272547305466745 -73.324791122587712 -248.417068142386995
-148.124394500427741 -70.719117517605184 -251.316404636492564
37.030633988605082 -70.586300467160342 -256.881101899616112
-91.043742092708598 -73.337727634149545 -252.535504625820579
-155.229136892886686 -65.943327131504390 -255.373342490811126
-139.296750318684332 -63.632884402717622 -254.006105125391628
46.191340858459441 -70.454708457001303 -254.167696503261709
-123.962506908173580 -65.985155303285950 -258.545945543120126
-115.870700886726823 -70.035990580049472 -255.999347071828822
-91.341705156640444 -66.025128701251873 -257.755551586232059
-12.670702061148262 -67.154919517079961 -251.057317460092349
32.897821274954616 -70.264913915200836 -257.857019919658512
25.978267849355223 -68.025072683248865 -260.127968145342038
-157.940199754441323 -65.264111710741147 -260.986366553238781
-113.750024018459598 -72.424691449870934 -263.306057944458416
-12.907176369323864 -70.024139437337141 -262.598696670208426
-131.785691128792507 -69.517899179553709 -266.029876288590003
-13.121775559668860 -69.154001155059220 -270.961608838824418
-163.892993740731441 -68.823029627848541 -273.168243150747969
-6.317628311148265 -71.385621043074778 -280.119399961880845
-159.904912326615147 -69.979885092134197 -288.440655420811595
-162.891810439835268 -71.405334891421077 -278.520264887437008
-141.639446671038229 -69.960183334252875 -285.850069377541161
-169.218293630628921 -71.522880751734434 -285.287811096482756
14.995500288662035 -72.775792777687528 -288.615598490219099
-102.209285447501259 -70.958912719309083 -287.187978647976536
-86.215957745464507 -66.016980766509420 -286.674507603475774
-166.812555409066533 -66.873481816369974 -285.236757606769118
-91.089673029682928 -73.804461222473563 -284.629835244950755
-152.767753481030269 -70.153058557607821 -289.118417933397893
-74.536065693943925 -71.045963703902856 -294.267373533770808
-69.690519296052770 -69.472842235522137 -289.377856470890890
-81.601007749645916 -71.097483085523066 -291.965048699570389
-2.755414685166914 -67.948612839791380 -289.613783259581510
-87.091598645609864 -70.009220749382763 -289.295574626871314
-98.078031770825049 -71.385736330511705 -291.577658823280842
-115.743961582237958 -70.247138199609239 -293.317687862092839
-115.652655879662476 -67.292214459436380 -293.472854407621810
-133.256353180797333 -69.216779153873205 -292.860728183819447
-141.904034919692123 -70.066834866427016 -301.452413083020417
-143.340433727951449 -71.346659717941563 -312.390507657774151
25.012822957012311 -66.875951315290664 -15.760662185378511
33.448749778496932 -68.131250843327805 -17.006438603676738
30.470391561060087 -70.759566707419154 -18.843113050391199
45.292680011100487 -66.944798616255170 -21.179490235627142
26.034511183893898 -68.731229178035704 -32.250637398913156
-73.766832720332516 -66.536465075362386 -47.662215271322594
90.854415406227446 -65.079820966096634 -66.090597248177360
-16.473627481919756 -66.852661060308762 -68.138079800234266
103.788340048865550 -68.278806562283805 -73.441408998578609
96.225577475150317 -73.061676254640091 -76.127022723995722
69.660615993266063 -70.567097655397376 -79.030252342223491
71.397416601038074 -72.439431057237641 -83.140169133727440
-43.542920379002048 -71.792593088299668 -83.001473083261047
62.300756018793862 -72.451614168662132 -82.921533010098472
-93.284299516864621 -68.698221898752891 -88.909171228488148
-48.061317413431638 -66.348551993303687 -85.845755849171326
-54.781263087674546 -75.140363957681203 -88.104889743040914
102.123860846991221 -74.808906407382381 -98.056014808623559
60.348442722498866 -72.304785442870042 -92.780590950919219
67.034679220543765 -68.544852971837301 -91.551159409569578
-94.555812878438005 -63.078313070705676 -97.541587823292858
109.002860864470279 -70.898726666620860 -93.583391299083956
45.252445220174998 -67.892606664539173 -99.490970662401651
102.568558831536819 -69.214591072981960 -98.620694219113290
107.916855338282303 -67.501271189915826 -106.506034465106495
102.430984619481521 -69.838580402925217 -105.040549810199352
75.011864722623187 -71.538136483282784 -101.212112075429474
88.448976407382958 -71.486038017264065 -107.038956116706359
51.168210477285534 -69.058556960069765 -111.725101684483661
111.805809383593569 -67.425212166874161 -104.104100620593968
47.347295611150301 -71.761446092428358 -105.936717043103727
41.722375542203345 -67.326886495761869 -102.109693148563451
113.911904996815267 -69.991677411718456 -110.842794559356079
-77.375856136871761 -65.753022848093920 -110.232239881701275
47.261440136905428 -68.428739639372864 -113.396101896297310
35.905116389664755 -71.095081798464065 -115.569122233057499
106.636960647545735 -67.299755893037741 -110.600502628921120
40.579215114756764 -66.401690231040263 -112.043203537855874
-86.909988470608013 -67.886261241890793 -113.420424203132256
-94.398640404999938 -65.373816342696557 -115.371480065066322
105.202952927830623 -72.707130481299956 -119.598936865327616
-93.625637274987994 -69.556884965901133 -119.164208060399929
40.123597729273435 -71.210221137733782 -121.769875889170734
38.131970326694649 -68.879605382188345 -121.278623211292611
-82.254273845635510 -67.958420450866981 -124.743895775502935
33.580483442482446 -67.453063245920035 -135.208071042857284
112.031682409170244 -71.019043913332297 -131.693478281339623
-51.456296347906736 -68.287989972846603 -136.563569660835981
-87.065467700851485 -67.144608663163794 -132.168338089093993
39.101336959522101 -72.417462881288671 -132.132437428250313
-87.895525266565045 -64.120645213703270 -136.424673272094822
-87.733014735743424 -70.358110808928672 -140.113797672493121
-48.487874560657744 -69.742226395154347 -137.298225473422661
-69.657813147389305 -66.611502241041123 -140.039045910389490
-49.512621873487447 -67.590773301127783 -133.970946956130263
116.624921798271188 -67.152558837452943 -138.052659863994791
-72.051252511186462 -69.783133180085088 -137.296685332342918
37.702250749994697 -69.505824599568982 -131.791716000669453
-77.497511733778140 -67.275167331382150 -140.650756325926864
-72.142812749438988 -68.044238568838921 -136.262999843401985
-90.185112213903068 -66.245924706245546 -140.658542826217428
-52.663489981297921 -66.460177562631642 -147.558496599655911
32.658884452109291 -65.385887058944022 -146.315909867027983
28.735584463720450 -67.458480722230618 -150.038284301196057
20.369456625424508 -64.527269886692622 -144.878034696645130
114.027115529041041 -69.125735826304009 -146.790081680452573
-92.295904061052468 -66.753112423411665 -152.998287363512901
14.196100521454229 -70.519924704349421 -152.892162863740879
-70.722663334058524 -67.821993248960155 -153.824801749539233
24.680166880053388 -68.147999404394398 -150.282660365170244
-47.948196032574707 -67.519227800400117 -155.932859199235651
10.783034616820515 -67.642381131584372 -153.768065059535076
16.303176945173284 -71.348638850181885 -158.890102560134892
18.985053924024896 -73.216338729590348 -164.370986376697715
-47.708693487999803 -70.462420887837879 -163.045257378240535
-37.968899852480206 -67.628027805674947 -155.357859623256473
-45.165524188847442 -68.895102682370975 -161.540042764249819
-102.472210402344658 -68.680708981971520 -172.439266790344732
22.951958182161210 -70.137024298489095 -174.552297520784691
-33.548922823071756 -68.451749112279074 -176.475997016488776
16.639579978355663 -72.678209130065156 -178.794595428955091
-142.424782839463973 -67.918837758742470 -176.244579821298743
-31.009653009311304 -65.793227015692821 -173.352736004146436
-153.834448703565045 -72.266241340866216 -178.288885270566425
24.664089008570386 -65.026027640330284 -182.364805115760589
-31.721882007763877 -69.650344882866762 -171.986571155280956
-106.459867916156796 -66.546998530024084 -178.208751380973041
-105.936870026988871 -72.208401434406582 -184.009397176217760
-28.768734889352739 -64.495727604670122 -185.769692959144749
-22.433636388736758 -72.627426036947938 -182.261134039910075
15.189788865559896 -68.139917982871623 -189.814760082105153
18.191998970486054 -66.787313029061380 -197.767778824852996
15.068652725982819 -68.947390670838203 -187.490039079815233
-141.656995081123000 -66.971119859956701 -187.988174665012565
22.795625139082063 -65.789073844873911 -190.499784895728283
8.756494412397107 -68.902060558059986 -197.278646711328918
-135.888451575554257 -66.597884972146645 -194.956338426073842
-113.136600488453638 -67.864427822439268 -195.935233444552239
16.107400800727458 -67.539235875051020 -201.738640314295139
-115.153844053760622 -67.127699665431024 -197.317604216577024
-106.546539464394044 -63.630631827048624 -192.724942202212162
-164.136206021050583 -69.163203448929664 -200.608866500747894
-23.101652031453359 -67.824825918670200 -200.561903877702093
14.117010416895914 -67.622598762983571 -200.799804423465531
-141.787782310983744 -68.300525579242816 -204.480652772338232
-134.598831949571121 -69.934932333416299 -206.876308921879371
-18.896289988324067 -67.254653020873292 -207.849931473378774
-10.710380119575385 -69.977151467820747 -205.084414873634302
-13.580331960960654 -69.506042237743401 -206.488684404756640
-139.634080390624803 -71.243996468142896 -204.952180524223166
-15.332207821907089 -69.250400701058723 -213.455231602461453
-9.288403128692330 -72.550114888453166 -214.814895107586437
18.771909191919754 -66.689194532242610 -211.575794635700760
-13.672672618440329 -72.202944025144120 -212.024919615670711
11.696791580954679 -69.352489585170915 -210.607760413664181
-9.181626806823701 -69.871303743559125 -216.152092194447533
-19.774708890661927 -66.410926316478239 -212.555681248662864
13.866619119527781 -73.482528694746790 -221.533603915275137
-0.382787656818713 -73.814123870711427 -220.316494540166758
12.443601618253190 -65.864972230389640 -221.782505273446958
-4.827839327730400 -71.057474809784964 -227.446391028643205
-157.574761366022557 -68.723103966245588 -225.892753009810889
82.045544622349894 -71.837044302948144 -220.670965834831122
-134.022332954190347 -66.440286124641759 -224.971022013360880
-133.811094113006504 -69.883745459670308 -223.735738167616262
-7.183089949566179 -69.813772291416981 -225.812684057820746
9.790222613472723 -69.094163801939885 -234.419312736459915
-155.668933894301546 -67.833583227608756 -230.161440610632098
89.279004882611773 -68.380700862962200 -220.601138156191098
-0.915749280825841 -67.997222697689580 -226.342693531810539
1.857357285578258 -69.819014318976386 -223.565309978314701
75.241364959870950 -72.207458813146005 -229.932918735918747
1.875544030050285 -67.082696735427902 -235.473935172676761
-13.494395964387957 -70.927066740764772 -227.731960409979251
-125.257308325036846 -66.863827779614937 -234.947658612972390
-3.022211960368727 -68.943162760456019 -237.491912649598589
3.717580273594671 -67.098887921775869 -232.585476894397857
67.288539514213753 -67.836968361182542 -238.891293995785219
-157.005823430979859 -69.419198993879363 -238.885322021029481
-11.244597101653465 -68.674558197616335 -245.312363468412286
-167.859710792122087 -70.362617838117416 -239.460712817105843
11.119726847182093 -66.692175317675023 -242.701300678065138
-163.338083221903901 -68.903571910165496 -239.643419690957046
-159.528830593901148 -69.573873763035735 -246.756445149946131
58.276688035427689 -69.567767249996450 -245.859409182862237
63.508707343040911 -70.965749398103569 -243.273115507471971
57.395629774613703 -70.150704516797305 -245.104527349329231
52.986648755506785 -69.551669756429689 -249.561948309624256
-154.206203155455853 -69.000220944716929 -244.706790996813737
-155.261682462339650 -65.997432213965823 -249.157327160791510
-12.125152763572146 -71.995929430199610 -250.029418330062583
-150.149081800432867 -67.908613141319563 -247.425555291607850
20.879563252853142 -70.836369697672978 -251.831384431253070
-168.525044243128860 -72.713260973285927 -251.751849385963510
-166.376136457766052 -66.601881959065153 -249.052038501892525
-80.914467278997265 -70.166675978438136 -249.566194539374862
-168.222993018056485 -67.894598715657636 -260.539895017025287
-84.170034028824773 -68.406586816777988 -257.413512857474018
43.761783679780571 -68.772731886346321 -253.874885396689308
23.465126462971803 -72.739375483666805 -256.907561033446427
-157.470125673444755 -69.132632566638833 -262.588980746769494
-99.588245120720160 -63.369817626162067 -260.362659025390542
40.470569580942843 -69.816308941635327 -256.411605981623040
-103.665953416571313 -74.795639701590417 -259.731534116465696
-152.874494474136583 -64.259043582303192 -265.694121757800474
-103.987998463427203 -67.658167076401568 -259.222812744750115
-166.656059171678436 -70.179176503166673 -260.379024931682068
-111.915592438973661 -69.699020574073046 -264.055577714523281
-152.100120163125297 -70.484860916316805 -266.487366856805295
-157.364668389791802 -66.861614662764950 -264.320602801219366
-164.852598330175965 -67.725755057232746 -264.523238938652753
-162.867374250080616 -66.698807702720927 -263.078011169911861
-164.521200642101803 -68.383733300191992 -266.479903277572760
-164.523075558266299 -68.957931476855464 -263.457392861540711
26.982673665486139 -70.817914992520414 -265.935106585880362
-148.660502267130823 -71.668882583375108 -264.405632929383557
-148.599720768702156 -68.181671601388786 -284.967588729633178
25.921758828976699 -70.515394325187557 -277.103254692028088
-10.479885775405501 -71.063794388959707 -275.151970836786631
-124.619240208906191 -67.531254204893713 -285.164613448666444
-135.177048377423233 -69.677870561452707 -286.840064831320433
-133.279916375300701 -67.778133485143968 -289.284699406833568
-125.680340806857856 -69.357427014652799 -286.662736433856765
-113.180873913089172 -67.755843994530565 -290.663896031510149
-104.134173757678838 -65.613577703857700 -286.332930303421620
10.459611136344725 -72.456728779025042 -293.128647130957518
-83.835660734827641 -69.780053922048765 -290.686601750001444
-147.952272248302990 -69.307778092526618 -289.108058338657884
-100.551562865234672 -69.165760192539878 -291.484855222845113
-128.084045504297649 -66.407622221817775 -292.669753546380491
10.758163369597579 -72.131668066326640 -288.850811751148569
-110.849271967330424 -63.938630723793878 -289.884042620312982
4.067173758767137 -69.916558415297985 -293.868984510236430
-142.041077512973857 -68.273944158981521 -289.570498853957474
-151.820438806402962 -69.231485368673475 -296.722213835141531
-156.872770116170670 -68.398801817063060 -314.917942634219514
-154.079301115942059 -68.004318215617147 -312.607764010226106
49.100788948798311 -70.370377267337020 -25.206655427417655
24.560499284481320 -68.360660493368741 -36.059697592863714
32.061274394328713 -69.304510516092392 -37.178008972816883
-43.668343024888230 -69.735692371396695 -48.048186213203124
-11.472745902542222 -66.179850391427621 -62.812844206062934
95.513474849685466 -69.791284592473829 -68.965822348504503
69.891619697607709 -64.486478227992322 -70.195729533784103
-23.007175896086419 -67.869584468823263 -74.983274649102171
-96.868396923431789 -71.309976400164160 -86.933470448497872
-41.323401055843796 -67.895622528230831 -83.131681602107435
62.724436968463451 -67.754635250096470 -82.020798250618014
63.379056528491262 -70.833374824414264 -86.515366242753288
