# This PCD file was generated using the MATLAB® pcwrite function
# from Computer Vision Toolbox®.
# .PCD v.7 - Point Cloud Data file format
VERSION .7
FIELDS x y z
SIZE 8 8 8
TYPE F F F
COUNT 1 1 1
WIDTH 785
HEIGHT 1
VIEWPOINT 0 0 0 1 0 0 0
POINTS 785
DATA ascii
34.874317636897757 -67.803445475142524 -120.727480668065780
-55.057876691894393 -75.129891322144459 -123.165611027763575
-51.470793383114810 -78.499938243870929 -136.660982186454532
107.627886711662939 -59.370115836027644 -132.966794139175278
-72.542833245734272 -81.783356531047559 -136.341317230700838
-40.391419557754837 -75.159819198824039 -132.086428834864307
-68.905332744942314 -82.493235148229658 -143.632926216958850
30.924568212740489 -68.883407434757046 -146.325348514298156
109.728157379054224 -53.093157908684589 -156.169923630293795
-54.260912257300923 -79.112660319935230 -155.060408617173550
-56.727041711916577 -76.420385280251423 -153.024301284100346
-69.968377831638179 -74.118276828832535 -152.173128156865829
-56.641767133240329 -76.603513263470958 -158.920085171183729
111.810339924592867 -62.548127994373800 -157.858410399894893
113.890821503918573 -55.932192983368410 -157.960696023439795
19.234007690242013 -68.798844631813211 -158.736040147890009
108.988984658980669 -52.787027935826643 -162.070717185262964
-64.326794503378352 -69.691605028588882 -154.896048598675179
-61.674381042284182 -79.798560489501924 -156.964083818392595
-68.069100461184263 -74.594989540183761 -163.848354596459444
-67.376465472254381 -71.109262746335915 -164.995488890987389
-49.299242220177909 -73.808920010603899 -163.835308552644108
6.900913342321870 -70.722251387849141 -160.469081792033847
19.565487542892789 -71.336615313967044 -160.334441683069542
112.736866479962586 -65.727053163550025 -163.469613571053287
25.412766826987340 -71.476802215514894 -171.072126489574629
-58.144024514109255 -74.177295196481211 -163.450004333142857
9.341233930436726 -71.623554587691416 -174.972987457859489
-62.239930474513947 -77.821423861961335 -175.706291553975149
-53.574450209907198 -75.205872004979710 -175.816281529693640
18.073097967597523 -71.372949497045909 -178.389934341393257
12.821762785261962 -69.124595966115834 -186.651039645999845
-21.831218904631580 -66.335164210098966 -178.199635253262386
-36.659175683210066 -74.188812111230718 -174.538820889272955
24.693786122699535 -64.845718825066200 -176.938224091893829
29.059028392247939 -75.417079669613813 -188.050160132921889
-55.458695613221693 -79.932604493347412 -182.659720241268474
-145.410723907892333 -80.677541377711208 -178.857171419049308
-150.868938095368179 -80.843482791457717 -181.776281457635946
-35.160135370960305 -76.942129815315255 -178.206888130459532
-46.690862150136248 -70.312944931936102 -182.225032616517097
-139.878069079382158 -85.265784306332847 -180.072804685519401
23.598503373967663 -68.799569218061606 -194.512411734015757
20.174290533374187 -66.283461312998838 -194.329024065559906
-45.977820842036735 -73.894277288738778 -190.223987307166766
8.907326836622133 -73.376300573531637 -191.320165429035285
-147.899546932530455 -77.106584416507474 -184.741329641295181
92.126029601192982 -53.174081517945389 -201.414067846190108
-39.483923372144808 -71.177832964339458 -198.709094013949397
-144.613636561968207 -90.161148325324660 -191.565462648251668
-36.864516082033475 -69.102669489564320 -200.557876599521165
15.340561585842265 -66.049245161238161 -196.592461657919870
22.232554558692854 -68.823343193780033 -205.272622280309292
-10.840051809153639 -76.129353488501977 -207.335577088998662
-33.221705399405224 -75.789952598290569 -200.069070421610007
-18.484992902178973 -73.741364784268924 -207.062628424590542
-76.723397544936688 -77.529123988739400 -197.377080663069336
84.681634706318818 -64.598887696395948 -204.156249286345712
-91.928788486855566 -78.900861574538396 -209.605986732653804
10.141326254988629 -72.113812242400300 -209.530862785922523
82.074775837495352 -71.323396152665921 -211.698730653725846
87.674681127680230 -67.269127106139351 -212.074310809937771
-147.754854773366475 -88.072459347485548 -203.396163191306044
83.042861026536741 -56.905906712018634 -216.435725397979695
-12.543529724432117 -70.065733918556930 -209.508965060360509
-5.499618965290171 -68.649028888987132 -206.793865157397846
-101.436316378978646 -73.262309237195879 -210.957375235799418
-100.831632369407032 -75.028728947735445 -220.001009846927275
2.339848845970173 -68.646172061498660 -221.055708416704363
-27.021434280103314 -72.142011190361572 -211.221405385533785
-104.582089898103334 -80.681713210561895 -214.296429455918087
85.513811826055559 -60.453307181325783 -222.365358251303348
12.655940434510464 -68.865342470720492 -219.382426869118035
-21.679409845424537 -74.681919260488556 -213.318524084158327
83.478853501116816 -67.148917207816183 -221.388279859667676
-1.460381065158639 -65.139153941794177 -224.442129334467097
74.410432952111890 -59.909584399906485 -223.199453557587759
-19.670223416800496 -69.138803450782177 -224.419925940068623
-11.949880863370396 -70.823463036889180 -222.022513082862645
-141.635895170575793 -82.073691687428891 -222.441066926601820
-131.337433084220152 -77.191789632268154 -225.259245650349470
13.934111489517354 -66.257021153556934 -229.862004830663494
-142.406736334646155 -85.814057185518010 -221.968568155299153
-9.364949295185202 -68.360654424601947 -224.677019643633571
-136.915689569683821 -74.229660376608422 -216.098783261646730
-125.849997351933951 -78.570818194423083 -229.559318632303615
0.164367322164299 -69.609081687572726 -227.629867700414678
67.372105937600793 -65.695164316784030 -235.247052562078011
-26.129298928805632 -67.993976966459826 -230.823980713009831
74.191178672740918 -55.983526662414747 -238.810273555474737
-165.640089628644745 -85.059089776685866 -232.991451086982465
59.245975294348113 -60.464814892079524 -236.438386251061957
-3.882112764402983 -71.140604151541325 -237.856084325873411
57.856266969761542 -66.107128128538676 -232.894936483789905
-34.457056582460318 -70.225651657268997 -239.521436307722382
-30.162288601959222 -74.331491691460073 -237.827383725854247
-52.672970334404347 -73.031740903108840 -240.137755454523216
16.172396650247677 -66.634090649003710 -240.967285225793091
20.881541126608607 -76.134742836643326 -243.228583404770802
-156.362984046102497 -83.843816407734693 -246.168756903564429
-89.873602061371258 -73.339820451660245 -247.339099370422105
-97.177825169288866 -77.327024290542013 -243.087417685960872
-71.952091604066041 -74.042616835145594 -252.325226757892040
-98.036815104891076 -70.530044452318236 -253.332653854442754
-89.462390721811985 -74.479041752530620 -251.043729210478375
-142.803699872293464 -75.994222519939996 -249.465792455666531
-134.395574328885743 -76.955287948236332 -246.606365264826991
-164.376258786553336 -82.552188138797533 -244.341731132130178
-151.675817668016151 -85.623823419301317 -258.898177536658352
-132.221962714265175 -84.295145628141469 -257.529391114686518
-171.752678244059553 -77.395950950047649 -257.601708009813819
-154.628908829584503 -82.942122357719100 -249.387040940233760
-123.739206582421971 -80.290812152084030 -257.509554559657545
-153.115808241087819 -79.343536579241103 -259.574952724056686
-149.142970106363094 -80.975154615341168 -260.640377991495484
-163.209759389562691 -83.651346912923543 -257.164082509492459
-168.737220245615788 -76.754207760727439 -260.961657610486270
-153.189399349010586 -87.794116287137300 -260.466456852967497
-169.691291778625896 -84.795353723770816 -268.460320414133548
-157.350108760742927 -85.222177690389685 -267.118090426105653
-155.927300402245635 -79.513170200520378 -275.361516412477783
-156.878301603093973 -74.185256681588228 -274.948267350325011
-166.356565874269904 -75.518169761569808 -274.722265857450054
-135.974131290121363 -80.577453466803064 -271.348393712230177
-35.614788366288401 -72.733933658820817 -282.594156596297864
-52.294040546784281 -68.006890672721383 -280.722735669056590
-157.686071040171896 -87.389359511858075 -272.701872805665232
-16.472207261190519 -70.173989578159066 -282.994463934522116
-91.496235689752993 -76.086301850035468 -275.975976493408950
-95.990534601568015 -76.535212380717368 -276.174939663076145
-124.787474427124849 -84.082962814428299 -282.156654931009314
-115.527014983812279 -80.838165385496779 -283.194120784108009
-108.119443676942410 -73.928056938124939 -278.596529000656346
-146.835937893434135 -82.055249774302084 -284.418402345212712
11.261227038295582 -69.015806448137795 -284.057436031448049
-122.681841174426594 -81.500571592854627 -287.353027552986987
-109.266871253270068 -80.528993646416325 -280.819397649942857
-67.803495237971816 -72.812033394239705 -286.111150901968131
-107.458610968097844 -77.825798290902313 -279.940830711074966
-161.865154361677241 -81.591477618340733 -284.889250245272024
-19.190214011321860 -66.714583000170393 -288.076717170126869
-145.281668658907051 -71.956081379096545 -285.757268887799285
-141.322666303705716 -85.829485635383207 -289.815958748591754
-161.466106927826928 -85.401565790175383 -291.386368815294304
-161.050114847155385 -71.491214460010994 -288.223800476104486
-158.004045436901151 -72.356703516492772 -291.817207559722192
-155.871593323066463 -83.668224657617969 -291.568036525291745
-149.144535704900306 -78.793520822079927 -287.677837503248725
-141.795560867945142 -83.399094614181877 -291.375178983224998
-149.697367549937752 -75.372874949933546 -306.908354975408088
-145.672276082367631 -78.375378978721301 -305.092703408836599
-53.080347377689840 -74.529107003565869 -45.242725688142798
-54.039543212780742 -75.889153421352660 -51.061558823314002
-34.391416390531255 -73.108453461342123 -50.049564750220611
-28.556260707636262 -74.026302398609175 -55.561233929584773
88.642552583848172 -63.429386415794809 -67.740194589609743
77.022164084062794 -58.921452955032422 -72.565378115837390
68.909735750921996 -72.181026669255900 -75.379173199088001
-35.761901285153435 -78.571558142158096 -76.987185525993084
95.926471221093635 -57.438407912416977 -76.964491838034149
102.410052934767435 -63.067755995187277 -78.994569155286939
71.003747118488675 -64.902944117820724 -78.442611684229703
63.517840563519911 -69.365186557929832 -87.580660020082689
51.987650080008876 -57.138416150826608 -86.597704994534425
36.764911328508788 -63.967912683463204 -88.721541994379322
62.275203961136768 -65.785567899118959 -86.847179182415005
107.751769667103844 -61.279181362208071 -98.034340383095056
48.518554998761203 -74.570618498180764 -97.785206374601074
73.211710121156685 -61.631520154750532 -94.342749089563029
41.198652319144585 -66.517780288825264 -97.812321074289102
53.315745399912103 -68.887815138218514 -98.833758507731957
88.414071110050102 -61.530594801853439 -98.830682771063252
103.761146030985557 -59.138336043217969 -98.646083168861566
-94.468576963896197 -87.679495691125581 -99.910715722410060
43.059019087629125 -67.271070762180145 -107.672629070536729
-88.431268892467429 -77.884348014746962 -108.524202928872398
46.049917365126184 -63.573765033618720 -111.937223410239085
99.540411666897967 -61.715803784245885 -121.713401193382921
30.997809092706433 -71.842459023901426 -124.396510748547414
32.895377180484829 -69.741305362329300 -122.324958406850996
108.745986878930225 -59.938125860008135 -124.431360151436465
109.231864976810002 -62.618786137540141 -121.141121302791746
36.887790849665095 -65.779528921655924 -129.312908590815908
23.277462643069061 -64.912285399515000 -129.624483680926431
26.020309249445042 -61.334455226322575 -134.085954973590589
100.354393886558100 -57.713094029303278 -133.662446991036262
-71.447220798077467 -75.225584782894742 -134.681981980057060
-46.154431277119251 -79.680387727427885 -136.785290210801890
114.381447217746114 -52.795782009229782 -137.841983209577450
109.617899735291417 -58.511725665228994 -140.837424209018224
-49.338698142884212 -65.232936381697556 -136.818205872797762
-59.488609376496022 -64.009020889660675 -134.084252943655457
26.398643832002026 -72.667448594733003 -141.330534839932881
-77.778770884668916 -72.164856922803551 -139.214582948349374
35.725313906084040 -62.417231499654093 -138.862633302091382
-73.277616117482808 -79.184125079398470 -145.624289036122320
-77.653441416390564 -76.875373992117218 -147.517632768449488
-40.029186229723386 -71.459815991988492 -149.828512108787351
-34.746316401061591 -76.827189587857305 -148.795983471367407
13.751564239087172 -65.933398731501228 -149.288685830338778
107.759928101438959 -64.862370616450860 -152.481277086727289
123.083926842273740 -62.741994231255241 -151.218471400263326
23.627626241508715 -67.606803256294342 -153.584876424684097
13.108293017473263 -64.677525080388136 -157.155984779723184
31.081913155040013 -66.137437233958650 -155.808201921930390
-69.068680031010913 -81.215431106382937 -154.429347169853799
-38.847549058249982 -75.763767121921333 -159.078707319633850
10.951869620454833 -66.857030783322728 -158.313980501986180
19.170867616120425 -66.794412643298756 -165.046914647352708
29.208357501348956 -72.591125440325527 -160.978461150701008
-45.315164763686425 -68.454733308706224 -158.625661419643507
-8.901320487273354 -74.031787748293141 -156.419194124311247
107.091005458395671 -62.163643973565314 -168.411764510109720
-5.533647710560459 -70.119726828702611 -161.298117477401405
-69.868729638820426 -64.114850894529511 -160.929285618912104
110.758112308123998 -59.736287521206528 -169.618929118345648
-66.327137823750761 -73.827723550856433 -166.790866104839040
-27.482896124228912 -73.916091875796738 -169.261544806428560
-56.748451705358370 -71.510821053157343 -168.214783661764045
23.373152158525713 -69.366797421959703 -172.651403223313508
103.070416211172613 -57.593981017179281 -174.940444849185155
-27.090571454359964 -72.450783148665622 -175.808087105270403
-33.253319572999828 -75.850490442368709 -178.320399327199539
-36.365951649552720 -76.326169722876998 -173.754236235647596
-146.342576651754172 -77.748075883370092 -167.979314162610137
-59.470969510008423 -74.781291339958486 -178.101176169224459
105.462896063101240 -55.624854024160634 -175.528896112511376
-159.653399683584524 -76.300072003652446 -181.388728210752106
106.257292940718514 -59.701144109855129 -188.144064604475204
-16.725003681751183 -70.889321071233624 -178.285500373911447
105.663384973154564 -58.336037105112602 -177.351488267168463
-155.568513899369748 -82.874955882782359 -180.641396902075371
100.846615554280234 -62.513271384338907 -188.540828340229552
98.805103583509776 -58.903170539495846 -189.108263966259102
100.537683432290436 -68.941783182662689 -190.185610828030036
-17.753518548412433 -75.677205155119594 -190.451203498168383
3.228927353423510 -66.476809394473065 -188.196178500675416
-11.688883586272256 -68.843183118538761 -192.316427991810855
-134.713644258648344 -73.887008580867700 -192.580736635674555
-127.009101868130699 -77.983349725670706 -190.653115362475461
103.783418398814646 -59.535247247158651 -199.120027705592491
-137.746852079549825 -75.677114528478242 -188.806282256678116
95.946693944155925 -62.420368848307270 -194.548810941665749
-13.300482881946236 -68.937211480948022 -199.394187121938728
10.139893809246994 -65.861169215800217 -197.458833645683285
-36.386848127790095 -76.175876883232220 -195.364160276744371
90.199387519316389 -56.445760069296234 -199.644410311161295
92.220727648742766 -61.159977847980549 -203.900741626579787
0.010238951180536 -70.409717578071451 -207.036601222349930
101.396257852280868 -60.291059327847783 -205.150820899440589
88.658906805881074 -57.165096207558420 -204.894547434374431
-23.284656388906800 -67.640816856312000 -205.052772929733777
-79.359591163230533 -73.253042100318993 -206.108493326814823
-28.919569464362414 -70.444761541529914 -207.296571842422253
-32.503293400103466 -75.361741856549784 -208.532637719452651
98.858905637950713 -58.452811426463775 -214.877360720778967
-78.877600821333090 -78.682435015843950 -208.336447625367754
-156.932161368019194 -75.966029592769573 -210.820535487411803
-7.965986180107963 -68.948489099834887 -211.132976769519132
-94.260672584256156 -74.731925746913831 -207.849821420162613
-18.202874985572212 -67.493442769431581 -216.096336273535513
2.522249441053585 -70.549093615567202 -208.802022797167837
80.813660870716802 -59.000691176674451 -219.149454218457549
-23.042663814032732 -70.267778595584147 -220.832872083021726
-150.782467138449590 -85.087769012725616 -211.299342270238270
-13.445551788058223 -72.559750788256466 -217.599787110461904
8.941607191032185 -66.448792510456514 -228.169747375090793
74.507709818421148 -67.995476762275601 -224.443884815688364
-168.588861846891348 -82.946550685904100 -216.557294126829561
78.858334933004244 -61.791474247272475 -223.168924722209454
-138.307294974936156 -77.167949394641823 -215.006221127988425
-21.498521629793526 -70.957162306161052 -219.102887591855392
2.217011906484812 -67.914353695579379 -222.119844406634513
-138.110424267034517 -80.376850489101756 -226.676378947249077
-155.002718836414545 -78.032177833388090 -215.302957454072470
68.837569380641355 -56.602697964171298 -222.093869872331055
-144.034441585721169 -78.279246687930751 -222.061609901528669
-137.136977961540225 -76.286738933040482 -226.906284684818615
-148.834541686361888 -78.009057218702864 -233.448731369360985
64.140715201163161 -63.865412618549293 -226.589094613848260
-136.626740773523466 -77.775720484783292 -230.561216418950664
-129.760667328729824 -75.723931318441629 -229.790999443246704
1.842999250873637 -64.878030288287363 -238.454928478800156
-16.818065038523251 -64.934522859784039 -225.475006215813266
-163.269891334913609 -78.355458245120545 -222.511670969650964
-154.512377613084141 -77.480744569823457 -228.641488727328522
15.574691198321256 -68.401651247825555 -233.304329543712328
-162.590948186315813 -84.883327800368392 -225.811111851555495
-4.192671087199381 -65.809278724285122 -231.856278069499012
-11.409784819043246 -68.675493584733587 -236.951393709658845
-146.964161016054248 -78.564664961496121 -225.546626852491727
51.604474683563630 -58.868583662642152 -235.469385530819181
-32.865853827670499 -70.092018773018225 -235.012521941029974
-151.130554588470432 -78.819960679805661 -235.091121819455481
-162.184648119748715 -85.822587760106074 -233.229602053725444
-175.287225492619683 -78.960622796944151 -235.040852362438415
8.761612284093850 -69.872019130173967 -230.848209899330897
-9.043993788153484 -69.879897137351279 -237.020825231607773
17.032967473481293 -60.954043874172271 -236.927271377903452
-62.216505972140801 -71.971574114195846 -239.603737228265629
-48.348008643361709 -77.393918388252899 -242.254668818340974
6.262490212329718 -62.077460516256934 -232.753683729822541
59.314944789892763 -61.719529365234564 -237.608066289375387
-42.387997508383748 -72.128805068740533 -243.530440956819746
-2.075433090202262 -65.309553267887409 -247.542300541049087
-155.224802074998593 -81.245553685130403 -241.836191530886481
-72.577892767888258 -69.317342483672732 -247.399689435718642
11.780915262448728 -65.419864965534003 -244.188564987302584
-154.315991463216307 -78.197946065889838 -244.395745973764235
-160.934375991892665 -86.882608729515454 -235.121911098422373
16.909270753481199 -66.010210788942047 -245.362442697281097
-170.299892030562859 -86.195390887977766 -242.320770257728157
-150.703427622065561 -82.526353657888734 -238.676713282288262
-157.178580251241073 -81.790939127405039 -243.287805343300590
-159.116543044927113 -86.113447288460975 -246.526944174414041
-131.343573261228926 -80.728946803644376 -246.831288988560402
-16.931410232390157 -63.687974233978267 -247.514710396598616
-159.696861773302572 -78.477854327786886 -252.222606310961851
-124.153761647325496 -74.504827331360943 -256.055412917116541
-105.422813370753190 -74.681731896226424 -251.204576592525768
-124.684064291931989 -80.313908953562191 -248.930022088325529
-105.150350706549602 -74.602482507367256 -246.964388758686766
-97.632491460356619 -68.975186382125997 -244.938655573258416
-94.842607121322430 -82.472623490074994 -250.121938275788921
-151.297339897015547 -81.811798960403593 -244.414340785200864
-112.887883981995031 -81.030019860394930 -247.443793474645759
-153.020271640908220 -79.649492918143508 -255.585413136916657
-114.964458703199170 -78.541141763721953 -254.373381431675227
-17.273218502358482 -63.390864770785889 -261.775855533504171
-160.569728075986092 -83.307741656551073 -251.265347695729588
-148.990071521247444 -77.697059337879026 -254.699136448614638
-175.412627386621608 -82.811032233507305 -257.540243572605448
-14.505674544857747 -69.962139934555950 -270.845926660408793
-171.875250574820626 -79.913710177769971 -275.742994562560341
-142.622289472668768 -81.056845649224158 -278.596465251973768
-73.471905000033530 -70.234642179171942 -282.529242217011188
-37.422433118016606 -68.218631466861069 -285.273370264342645
-28.845781240741925 -68.574687745701922 -285.006199544445280
-121.009894467685328 -75.508159500823524 -280.507645926691794
-4.936558113465512 -61.866569244494464 -283.004205551104519
13.562636263734591 -67.991857954393780 -284.938949871945681
7.228751140749338 -71.277041106133652 -284.467770395903528
-50.600748258387696 -72.640119275615149 -295.833424092482403
-77.461911507962455 -76.684187565332252 -288.501363305914083
-115.600866266677272 -74.342911869973619 -290.142585208663263
-33.100307378934104 -60.906672509599204 -288.973274623708164
-20.432446957927318 -71.944492190159679 -283.318094277533191
-124.776182302040070 -76.139639831040029 -282.809811137055988
-2.723661129702485 -68.112612552635383 -285.857965528159014
7.134087079777565 -66.718133912879765 -288.728513641679626
4.472146507753591 -62.458408000744953 -291.653431638865698
-161.202815033189040 -76.657705929538636 -292.402266372561030
19.867781797676397 -65.937077854609768 -13.334147205483855
32.113682165299544 -70.891648335525559 -16.224672499324367
21.348036195171051 -66.526703510653491 -20.843134660369945
15.538393506135465 -75.267736073327583 -26.712899462374100
21.369426413255262 -74.875624775292536 -25.356670484708122
24.055600338402890 -65.692558102261472 -21.952870416593935
28.480760764798333 -68.094695857827944 -28.472502398158650
43.615143075317953 -64.936572762155890 -36.626835416571069
15.749601772790241 -69.452929568458899 -32.088775504135839
34.329755891669258 -71.405009758952161 -40.891073802940355
39.195480297778282 -71.071675141405052 -40.253540976411401
31.405560164108380 -71.111273865479035 -34.038467674329866
-77.492846824980148 -71.716348975216178 -61.760067234300166
-20.664223262433893 -68.465955107096832 -52.894262042090816
-80.390141383604586 -77.998001425266210 -65.870499558435498
-14.265137986200003 -67.138167764694742 -71.903153572175540
70.940077172696689 -67.226507847459416 -65.832398872572028
-23.923044663862814 -77.851994887728438 -72.676313052926531
-38.359175974165517 -77.725793221348667 -79.423120007750143
95.484401229856275 -60.067382885399155 -83.407142196212433
103.623192737253603 -63.258620608989723 -89.011038959132563
64.764027911467778 -64.799601397133557 -94.645603234228162
47.033952704391560 -65.106745981517278 -90.227947593989967
60.637505948243330 -65.057414112500254 -98.386565721188788
-77.499208552676947 -71.506006711572795 -98.943570345553965
93.834042015794566 -61.911271755459175 -100.653672329725936
-74.519370075224785 -71.351526827755521 -90.850926903155923
-76.332099064907482 -72.428320373413499 -97.011614956309529
71.783951371947410 -61.192578087553088 -108.290344117867875
51.544792273943486 -59.892506236719889 -97.344502109718391
46.755279818267567 -58.265190435026447 -108.484061068743088
51.989778097012483 -71.048069224630183 -104.218066742704693
106.563089886319560 -57.919753247003044 -111.454522950049892
37.957725902477158 -69.154530771316800 -116.116829382958159
-90.611898966193124 -83.306944804325880 -113.171662790971865
112.965201261129380 -52.804623676496036 -117.038151203190026
109.598342946679168 -59.566081786020568 -118.888637750988849
38.914923916244554 -64.761825534907942 -119.191512860329638
36.248673745238648 -59.713287685107069 -127.358696000335485
111.421779422619181 -57.399939915781268 -125.895081513005451
-53.426026708130216 -70.991376478664677 -128.234871428715735
113.615685607560096 -60.253873580172574 -132.204783494682346
-78.177458171264050 -71.281810378748219 -126.976480468303734
113.600297700235359 -59.380038860111640 -131.100530840681046
-47.162784269768359 -74.648672911945070 -127.210315992231912
107.932743410775089 -63.619354459711452 -135.112929175570684
31.893168779468468 -65.451039320953967 -138.674655425310021
-42.508976529943354 -68.030492861354645 -137.991243382794124
112.140770368000219 -64.104999925050677 -137.804433303688626
-70.845239848592172 -73.671586814582668 -135.428311524796158
28.411491385143627 -67.418157839454011 -136.871385910060724
-50.861819340317346 -78.074385502515710 -138.854524214045910
-75.831792417804891 -71.156143987853483 -142.723403234550119
30.808465229732924 -65.949060823934531 -143.997445723556098
103.924245584957688 -60.186153778514850 -141.583364056298706
-74.195132426696532 -73.504149761321855 -143.904652616806970
6.773033723873155 -68.465586708395620 -149.491669417591453
7.819826801626391 -72.605520185562980 -155.245597355419136
114.370885769265612 -62.505668794041497 -157.184530262676930
-64.025952411401988 -71.443332022622627 -144.192380068358204
-46.568019205203257 -73.077045410850275 -149.662552694295812
-64.264916872909509 -71.556164868370544 -150.070158358898283
114.449759730280519 -57.963943433227080 -159.786935656345065
113.800332881080479 -51.339012847746041 -161.332032637667709
18.191610839049709 -72.829654355046912 -155.106024684000943
-70.702326932716389 -73.997265348598972 -151.785043762471190
-43.260720212608767 -77.892586380324616 -154.089265529497169
105.815543657542960 -54.421922020053472 -159.360439716969864
-48.644053950651383 -71.686078165373473 -158.702467976487753
-62.778961723803334 -77.093445208618292 -159.758221410607774
109.508688494703463 -56.949885979566311 -156.963064637337396
-63.905472204906772 -73.488494429324589 -155.873367128275476
23.842231636566208 -71.537311341389028 -165.008030881044988
108.392459382263013 -56.921558439686606 -165.313387634922606
-45.451394446668232 -72.618465532475525 -159.518999923605094
-41.282896863113777 -77.434214496746151 -168.593774701973217
-32.662057516850652 -79.024323985119977 -166.478518304107297
-150.664441322520588 -84.240953709112674 -172.883284954535014
-148.415437225709212 -77.992037366060075 -167.140618505276564
97.805736851401122 -63.716620483275229 -177.571603795384277
98.845586816219907 -56.081476181569997 -177.493339390462040
14.070995115011703 -69.390260360547572 -176.989798121931500
100.233504185509517 -55.921854655706973 -185.570613087404837
25.658600873559006 -67.208742969601559 -183.988152982493574
-27.108639895293486 -64.975787707233621 -180.830429316971475
-146.070924232338598 -76.033824687021195 -181.228262253550440
12.205679235819641 -74.786358531768926 -187.916435732176154
106.136618918255849 -58.339588958107903 -185.298436939843867
100.288245119750854 -57.647735278905742 -186.535870668503946
-19.440047137712664 -73.304930604226513 -186.956052446786714
99.524505302287267 -59.529178697863507 -185.366057918096971
-150.984300553377750 -76.530310246127556 -181.088245392294482
-143.113383919243802 -82.241154712357329 -183.172104783365256
98.847120650809629 -52.990466822939105 -196.394460416636349
-27.731990006886740 -71.114702866980707 -195.099390145642701
-135.884942422708662 -76.137730729370574 -185.713561542907769
-119.819468553160050 -86.095341400549842 -187.659071936492637
15.540843830137037 -66.861157486356177 -189.684732473397901
-141.633142149578504 -78.763444303674106 -188.232801347331957
-134.940129076705233 -82.829124291173201 -193.801776500854828
-141.365054430801734 -80.345779757064037 -197.026524947977322
94.841918565952980 -55.283548549444198 -203.041783602960578
-134.621849272966301 -79.957717068383488 -197.489155279305919
-17.694523387984418 -69.731299336889649 -199.689311477677649
-27.784848404719884 -66.823147233053817 -199.352132339985189
-139.767435960067758 -82.302728883939295 -199.941644109513447
-127.158333940241874 -78.722951064556312 -190.261482115772338
96.021062161500822 -58.415349516577585 -209.290568317324414
-151.460924182764899 -78.933602950328421 -198.994270630827771
-150.729003635708409 -80.494789556891604 -202.786885859056838
-10.351933696893152 -67.602822180700798 -207.682170111273535
11.166250496295161 -68.469023294277719 -213.414958660350067
0.685472421022994 -68.535091263608251 -200.212888155282428
-19.285894106300585 -71.766405423549116 -199.718401512112479
-170.737023112153821 -75.894537943416111 -195.745753846088746
14.068129438138262 -63.524438313981456 -208.212731384489729
91.848546677574319 -60.341801594505995 -213.277313520277374
-14.188789264796691 -71.232410035064518 -212.622620691998577
87.662889281545802 -59.953111326094650 -206.186350018360343
-35.190949637745881 -62.125451192407787 -212.800312115549417
-18.508003607638138 -70.010658890713700 -213.144527856467107
82.776501943843115 -58.530916309172873 -211.931820651519132
-167.982978894283889 -83.142189756616787 -210.568810081040965
-170.157884135730399 -80.636842562627407 -209.356280917644170
-21.973468593911136 -70.348055560772480 -214.982269582441063
-86.511687372304152 -78.580089482107411 -214.420405147886527
-150.864548612624986 -80.009212551884858 -209.329113702370506
77.425477165446736 -61.049343178661211 -216.183466885321650
9.477221565986751 -64.755796751078790 -215.059115207669180
78.207678848791133 -55.248992952266420 -219.959339157617876
-109.304777297354221 -76.419078693935504 -209.653544268367511
-147.628540951960190 -85.500966868292409 -217.802907961866737
86.613875448676239 -66.847827039027578 -226.627290106036696
-163.044559650177945 -80.096406556821705 -219.178224156752606
-153.950202982345559 -78.882946796535364 -212.933471225073504
-19.311034472917406 -66.683921423729274 -220.582116183138254
73.401637878867476 -59.018543139192694 -223.719154359865058
-107.855933341764725 -80.129158026651623 -219.596618350518696
-131.178989842288843 -79.493254975553086 -217.868634840720375
82.277959488280914 -62.556662653017263 -220.321197335829311
-147.392995636796599 -80.687449929486931 -217.996944165552691
-170.490115316820805 -89.117741088111316 -221.280291541426919
-155.790905068360985 -75.912659498906123 -220.853820252470172
-23.073119499455995 -72.434087964319772 -220.603768702117407
12.646162440307302 -69.901223094492281 -229.783587526368592
-158.609826527731769 -85.828188328288135 -220.060382342212648
-3.285295755724150 -68.589744230906859 -219.506088316585476
-3.277241513195464 -68.687219438789640 -219.178673251989181
-130.482163130137081 -75.116689319773826 -219.549458015874649
67.921707742278642 -66.815508236704304 -224.454865057675249
-160.176788546546334 -76.638282024745436 -226.459976774050773
-16.613523105923640 -72.564795076371283 -226.968064959385970
-109.972511670346094 -76.036200113501735 -230.507810595382580
-8.208724443805606 -71.768966015006697 -231.594665127883985
-149.998688428369746 -83.629515076179715 -222.196374926687838
-123.637794303471523 -74.489596522745373 -223.529281552253906
-152.730962349572934 -86.458912576135802 -217.666622629604063
-126.426239315851788 -82.091059094856448 -230.141049645141777
-7.989900637167992 -59.666195305583933 -225.371379043484950
73.946376652521494 -60.780235804750973 -228.889897492706410
-139.236422443005949 -86.685792987590077 -226.139890461297909
-133.205333294446831 -73.786185491665847 -227.283571648410373
-172.944687339348434 -83.568539337467541 -224.522910587983716
-150.455323206753889 -82.464342554349997 -230.687250676464288
-150.842759929818698 -82.375465368182972 -229.843283315610762
69.785254471994847 -63.199137080542158 -238.909563772813868
-3.991338677874343 -63.101852582001975 -231.071498548201816
70.737142430172241 -57.941163041660886 -233.809070281835261
9.729882239163434 -66.868213688426877 -237.223532095160721
-21.883105428186077 -65.372574004224177 -232.873513222468688
20.327806708515205 -65.237601565260690 -233.878100538210873
61.607799351966335 -64.398652285621168 -235.713063234454467
-8.663534711821120 -63.266899298690454 -239.221430555224060
-23.920957825101024 -72.269425568387788 -235.858253577436329
13.177306498182970 -67.742716751195388 -239.130936991135798
-26.091182141290219 -69.370916989027108 -234.781437105774415
-5.826040190293080 -64.385594849887980 -241.789502988364575
-13.164638554599934 -72.061066978995996 -240.923384553876929
51.582988357723728 -69.554293668455585 -249.277616054983696
-62.715091075075371 -70.787649195086246 -244.653182192515487
-5.879597105850749 -68.047833432868373 -245.777854137314364
44.380635211708537 -59.670071254010374 -248.765505845168775
17.643254482728835 -61.114143110454116 -256.143551827846863
-19.046120651642600 -71.954326818413335 -253.745057619184138
-17.308597148495274 -68.971636794340071 -249.844768726193877
20.254005142883582 -61.517544090501580 -250.334233007365697
-98.049969581579347 -79.310461019768283 -250.074059514716680
-130.649185152420273 -82.327314350909134 -250.505738489864370
-100.209578626700889 -72.362185930981468 -247.841283715609052
-87.957731367626280 -69.604930739137842 -249.790050797516528
-150.084263278292582 -78.937960731302127 -247.707910317407482
-88.617664168244886 -72.054812379407352 -243.431778683191567
-109.915616291776246 -74.826815671501834 -257.338031141151475
-114.300592194471633 -75.071851578943793 -248.437530671174500
-112.383095607783815 -75.305789287560202 -251.890107589747515
-122.320928009474031 -85.368168420801041 -260.234722219193600
-137.150917601622581 -75.034677396810523 -259.337147131284212
10.676514064251510 -62.942615777483716 -257.511969101044883
-170.313114576639748 -77.572437561046257 -249.798982615186787
-20.818462063111951 -65.195622302338791 -261.700891787060471
-140.176794056252930 -77.225324462482462 -260.852615660520200
-146.424509221762975 -83.556581255939008 -273.502260989766853
-14.496707046362241 -75.086779848050455 -268.703679157787008
-136.507972357554110 -81.974240575262996 -280.384859249921476
-147.883409476873339 -75.155304544122544 -276.296736716339410
15.465493797583873 -63.302253923452177 -281.155871359456455
-57.625377646550206 -72.929002388020805 -279.594025258633394
-125.719558773802461 -74.061188189396447 -280.499853794003968
-102.484014232796227 -81.285574901385914 -280.921379393814163
-46.727503004594183 -70.317544181843971 -283.841358438455188
-37.251024303716207 -69.525682424772967 -289.451699463088175
-170.931071303887734 -82.062525595015629 -272.624966799213723
-113.964696461463674 -82.689519918285342 -283.302134804448656
-27.879419682325572 -68.079514310592330 -278.257436087614110
10.232846606677752 -64.412649938375054 -293.694455760707910
-55.079778302856653 -69.863590481186179 -286.109783198387277
-54.113943550594698 -70.874298446388408 -281.381623226415968
-38.960733812240761 -65.971001316520443 -283.227331445785296
-22.384403062557059 -66.939992411893357 -285.036668029541602
-18.040581220819703 -69.423575481578695 -281.956631684989702
-167.195913718564441 -80.494043036667634 -289.905116366254788
-99.354603149126504 -68.536951546170997 -280.030510224488353
1.187835693725737 -62.338020434144326 -287.656545025062201
12.016662167080609 -59.988329219243006 -282.801072385072871
-136.234367093894718 -71.939110385238195 -289.551149904357374
-145.251925514134342 -75.910271903998705 -287.288728044015784
-156.976173825638710 -74.368047341199954 -294.620220554684920
-162.497552854290518 -77.727415707542050 -289.212574627650213
-159.227597668259904 -87.428940740331655 -294.551765542492035
-161.483072108834847 -83.323529298333852 -301.747226193083179
39.276600377116416 -66.512652574933412 -6.303648663385733
43.025490907977947 -69.397956248166494 -13.615726418398033
28.267257970895084 -66.417174960758658 -19.294140474523555
42.709701643580331 -64.652899680981747 -18.102411191033287
38.501812216102472 -68.125819659258369 -21.942449327749483
47.232529777068109 -72.336351581423244 -20.230260924443282
45.405130520209767 -59.777064381826314 -21.187990387908012
52.311627024990862 -62.577502670153365 -22.507648967645100
54.156540352202768 -66.943314720728495 -26.582173180207288
44.853585027719880 -61.890090996476594 -34.212634493229970
47.215928726291487 -68.121634837000201 -33.001140938777539
31.687083223624725 -68.760761323240729 -39.155138365202120
-68.846015779038694 -82.939521399466230 -49.612953288570651
-71.389806040596625 -79.732913424417134 -46.168451643884111
-36.971165344293176 -77.167360722752662 -42.657396048809773
92.613059801191781 -64.115729303991515 -64.570608563078594
83.412590969919151 -66.375603139026708 -62.112017279370207
-40.766505532436909 -76.310683116094026 -74.136971942891918
-25.619683133081413 -78.347018903143066 -69.077110948280136
-40.521280218284048 -76.005030416453707 -68.830494442230957
-52.633318894029102 -77.263580945004819 -86.767862428937846
57.521065909131593 -72.560347947517172 -79.816737085531443
67.390634666166818 -61.307989480505483 -89.365677837523563
-60.726484071310146 -77.693173898130780 -86.782022398781479
55.419277270777847 -64.606765922503797 -89.750272406403937
-65.772308191190135 -74.439242898416552 -83.893876510988875
55.151074290210524 -70.078217324095959 -90.721385394785742
112.628893339461328 -61.150839537090746 -95.577883657389691
43.362575590187213 -64.998399723199100 -100.560531050097282
103.022679697385655 -56.293249872614069 -93.183676315611791
95.097380629559936 -65.468613894894560 -103.032050328590884
37.125234238240878 -64.644903720888806 -100.456915495457750
107.321896191563695 -59.115659920622569 -109.985189213370361
47.477043709045397 -61.022218173640198 -106.049747093337444
103.278508351591384 -58.828342043154350 -108.410528943574619
106.984598145698328 -59.503643189162375 -117.288950118953679
46.728320967022597 -62.694590073845667 -110.731019265796263
-89.841627966121905 -77.878397664302710 -117.656156392207876
43.522706941615056 -63.925817323087323 -114.691347245902008
108.835904691530899 -64.880608038666310 -116.142396181905085
36.344938599433995 -67.444189219821041 -124.344035044558822
110.616862400953408 -57.182928240868073 -119.991880543984891
112.666297866182532 -54.590357475154079 -125.734721898356284
-48.399167011253788 -71.586539657688434 -123.292332437038809
120.733832208936477 -59.539859893242593 -133.744414639721441
113.984718776814177 -58.424782353008695 -132.222633705626748
38.401165479418758 -64.160083965760649 -120.407762376933462
-65.048498565984673 -74.298255686402499 -130.454224327290319
32.219323110922254 -64.714868589996968 -131.815821532829318
34.047574524241007 -67.376814678095940 -133.767410514967025
-71.553568981036761 -75.736997527883247 -129.495745263327450
106.509413726785738 -60.907831405982179 -141.860657375020480
-44.917496352623530 -68.180334192446807 -133.713090443646678
-76.603166855983460 -71.846995177374495 -136.653345310676258
-57.856120376034262 -75.023779754944172 -126.432515975786757
30.672230572253412 -70.898577250805985 -132.962833903354749
-47.749619452838196 -69.845071265648087 -138.796201766980062
112.256974218013980 -60.704399695097443 -139.753062396637603
-47.503164643574507 -73.756245830615427 -137.044857477934727
-71.369911647635732 -72.045447610479314 -135.510677316001448
-70.684327811705444 -74.566352893186306 -137.871300060445861
-39.738556079529310 -71.843249789696912 -137.138321662575777
119.988202045243213 -56.292836501642121 -149.672531528404249
-76.511769489177851 -70.523896694101921 -141.682276301711283
-64.591790811151981 -70.741422626158780 -148.181192947549874
-71.145810784112768 -74.629332864464899 -148.096660260074913
-73.609641255456836 -68.462992360165785 -145.164853562059164
-55.576178394727897 -76.835625864471297 -147.012532912300173
17.129196359635110 -68.055150856203880 -146.957464291391915
16.201821317547264 -64.958619998378495 -142.181287802620801
24.084571093573516 -65.231836054019183 -143.995039805542831
26.698974003558909 -67.935771850982775 -148.212244649244440
1.044871585906735 -70.571685686522201 -151.679048373025239
14.327115204464539 -66.416578444655229 -152.658838116658785
32.909989302340485 -64.382683602646949 -158.533243884247554
-6.346819515692008 -74.442043233017031 -155.501411696208805
-56.946754301396496 -76.191161044089355 -157.156575624786996
-36.334925383780337 -67.220624762772587 -154.705320700533463
6.520991138798731 -70.769897613704316 -158.136456265727560
1.753692408773011 -64.304264657673158 -161.444616984346823
110.477251658954117 -56.333256623508255 -162.553142130780373
28.819773214397379 -62.924793476172127 -161.193050889371477
-35.551389120856342 -71.265385624357066 -160.841370947440339
14.657378631991866 -61.808008485239696 -166.361403815797360
102.748905911150629 -63.462050645679362 -170.581002115725710
-48.220650808538373 -72.223245666251032 -168.388374194203237
111.237832102654735 -56.819918843250683 -169.619566148732559
-40.734430562571831 -68.036952400490804 -176.342918706276294
-156.345727048891149 -79.360659547479898 -171.427325542843676
-26.262932957805717 -75.051881642104107 -178.399296197604713
26.155572356654055 -65.750256827148817 -176.744901092746687
-139.404655225148872 -81.388788090103404 -173.055859421980273
-38.231362167058840 -77.125413535688494 -177.683442632867724
-20.467297459425769 -72.522735721137025 -184.552092161028327
-34.405431838673877 -67.730072850141852 -174.047848151486960
-30.479500082964307 -72.806614975434101 -177.758725873154901
94.962675003625151 -58.953300449701601 -178.524372489275777
-135.933420075215565 -69.665419049729564 -181.399873260366860
31.575132932752595 -66.985642718828771 -191.152912450050508
-24.892103630422078 -75.703678865322956 -183.804465432287373
-25.495571580481002 -66.441634061003199 -192.521754482550477
2.706165151807624 -74.744102769460824 -189.084396287688747
-154.483721740965876 -78.499338182267380 -191.032238624102348
-115.223867209237241 -72.693056446612275 -189.377987339298954
-141.341245492425514 -83.081099318298783 -186.172199092703266
94.611518027565410 -63.255943422070381 -198.795229239230508
-164.536018565002877 -79.325067788762624 -184.299248857918542
-151.486674488330721 -80.723434180085732 -195.123944766202413
-126.229714829957189 -74.247265302685562 -192.135389829545375
102.212490556408497 -58.830507684858830 -190.635164005116735
28.439695367434130 -71.101545649021972 -192.865516925746192
-151.500029558756125 -85.296504373641341 -193.266893341698477
-157.483746568481251 -80.693702443913793 -191.266018552439590
9.515858266925287 -66.992133575544230 -192.133707936541356
-124.287664254891396 -80.392189579959378 -192.867043048866719
-150.888098583928610 -75.896938015980297 -190.836980843868957
-146.882571120521959 -74.026432540773271 -192.626716107775906
-118.940739492365381 -78.087270012518474 -195.054869828764737
-21.224806399066356 -73.198310914322491 -195.008645458500752
-139.335270818618568 -82.517554851040643 -199.575659590263029
-162.175226522656772 -81.559954075734908 -189.236550796489155
-157.319737481914018 -75.119131395347964 -195.772361136128097
98.250847044450595 -56.663410447837528 -201.847582705258674
-18.971201665428953 -64.429721774541420 -202.483821647959473
85.255759628153598 -64.474199916591914 -203.459923887428403
2.788423804340352 -66.112104983588964 -211.138323307389214
-151.030886814944637 -80.165547687428756 -205.358084670353207
93.972539747361921 -55.687782855834136 -207.925037514600575
-12.885071907615153 -65.155309900825017 -212.543784158856852
14.644987926887042 -61.284951598256249 -210.993420621769360
84.634276364189105 -61.164850056182516 -220.289135519529623
-99.908130116269888 -68.602932719298693 -213.972047870099999
1.616309556616638 -64.833624332527890 -216.652208717429659
1.823488075223009 -67.030976979269937 -217.967056715659425
81.800258079358969 -53.995875369267182 -217.673530166093940
-20.305960022184902 -69.941055772229134 -218.394810171063313
-2.831941451727354 -62.271139749179596 -216.879352517853505
-100.708119221929238 -78.775971392816672 -214.997797822589405
-25.111012629674011 -65.577729292861477 -222.478541543993458
-145.000211543367385 -77.375672349165129 -222.040048325222472
-11.776260231445264 -70.571716601703073 -223.011314688349700
-20.759311718727172 -74.556967775382262 -220.336820793566602
-112.313250800256242 -74.341364964941292 -226.747578572414682
-119.388665869798757 -70.893594386830515 -220.377370092037353
76.029727053176700 -56.408878937460621 -224.941341809766527
-109.825782517745509 -71.665607607982565 -224.886212664106779
80.972058317216920 -56.666586705547296 -229.705528767493007
-15.377810136862346 -65.122622304310582 -229.657297863312039
3.593657796796584 -65.109407608151244 -225.686844988018947
67.719706332361682 -64.894709667383580 -231.526704982809463
2.230922907975520 -65.486437036620671 -223.852259553404849
-21.472479274425815 -76.957822452354279 -231.077585006736427
-123.369939382294618 -76.903226699920225 -224.427765712713750
-124.218043391682329 -75.585428102401465 -220.093331899577009
-144.079012065006793 -70.427980098600784 -228.080310840219170
10.046210542235812 -70.911923470235720 -234.466744733119327
-130.742342135823179 -76.285206889225805 -230.880632631433883
-135.430501882096451 -81.585777814733689 -230.693622917111895
-150.544494900353328 -84.000295528306481 -227.085746881528308
68.266613884653921 -55.743911364861354 -226.654571206445127
-166.298241164824560 -78.194296905139495 -235.103304253206829
-6.621461368673248 -64.729481382010846 -233.961660027943850
67.663212840284146 -62.982645333224141 -239.819024941300881
15.800034966481642 -64.428082856912098 -235.939436267746828
67.570285153536176 -60.998126986363872 -233.492949952819259
-18.916601627258128 -63.687826202751431 -239.686529359831781
-14.956026310759999 -65.328746221665284 -237.709397318768566
4.556653331375225 -67.204285641431767 -236.102479938207580
-14.866437383097738 -65.962522013529238 -243.690675666579921
15.718941261207314 -65.972656898506003 -238.469044878799650
13.719669988118833 -63.719382902943366 -247.764013439908979
-73.243610405192882 -74.594063275890008 -239.385354932652120
-77.614450304313962 -69.925190741475831 -237.167500678046139
42.425829052652716 -63.532435604722188 -247.506196736998390
-78.304506513562316 -71.124316954522968 -253.360291218802502
44.118323496042500 -62.431704483515517 -248.408132028857551
-72.973406115102748 -77.013895915131513 -246.309097970440519
-173.007388522057624 -82.781938660034172 -243.086930064515741
-89.401423135032005 -64.341907894412515 -247.488723854243005
-77.249258982134606 -74.344133975888013 -247.096547690355067
34.079007335715978 -59.486343207415565 -248.121797623524515
-145.352801778820691 -83.537478147696874 -247.913068535443415
-123.031669509687120 -78.549291802589849 -247.910493321936030
-97.793483171869610 -75.729173115146295 -253.979358135902032
-130.319753757957756 -83.381915281164368 -254.732769285368818
-137.224293979996531 -80.367046075716601 -259.679230321427553
-171.698444326998953 -80.273729133722810 -265.350410190485263
-21.795762856904116 -71.383110959239090 -278.480564477603082
-163.968762962523726 -75.503625193596363 -282.615298984135279
-87.119647672018374 -73.000572900327612 -285.116058685501116
-73.683055136504009 -69.396459456829604 -290.285808284207576
-63.763948319712945 -71.667134693318630 -288.352077203111492
-174.914916292712462 -73.062004174622217 -279.603382034795175
-6.977974411736819 -61.251369359638481 -279.257170399697657
-35.773030036779573 -71.567702641691383 -283.537220952954556
-44.820775981035673 -72.016343796006367 -283.905757140543415
-16.282358362014797 -70.310707124453387 -284.722229763188125
-45.793462252676633 -63.835320901226098 -282.225755215550635
-31.309981904511641 -66.871962109093587 -283.024586844058490
-9.584179896061286 -68.166560879578242 -285.660303444004001
-73.934363403122674 -72.717452713792923 -284.896659390015259
-1.427877361683143 -63.493835914837071 -285.000607804437379
-101.091929089026465 -72.302555422022166 -288.640288606543038
